ply
format ascii 1.0
element vertex 2167
property float32 x
property float32 y
property float32 z
end_header
6.8241 7.4490 0.7563
6.8934 8.0882 0.7967
2.1669 2.7351 0.2619
6.9748 9.4829 0.8848
6.9015 10.1240 0.9222
6.7752 10.7466 0.9574
6.6379 11.4156 0.9963
6.5254 12.2087 1.0457
6.4646 13.2126 1.1124
6.4560 14.4879 1.2009
6.4041 15.8779 1.2976
6.3272 17.4663 1.4094
6.4033 19.8723 1.5855
5.7004 20.1350 1.5907
4.9711 20.3084 1.5907
4.2369 20.4563 1.5907
3.4986 20.5787 1.5907
2.7572 20.6756 1.5907
2.1281 21.9286 1.6813
1.3503 22.1399 1.6938
-3.4406 5.9154 0.6793
-3.4512 5.4725 0.6421
-3.4607 5.0751 0.6095
-3.4693 4.7154 0.5807
-3.5337 4.4590 0.5641
-3.6879 4.3256 0.5634
-3.8370 4.1869 0.5626
-3.9808 4.0431 0.5618
-4.1193 3.8943 0.5610
-4.2522 3.7407 0.5602
-4.3794 3.5826 0.5593
-4.5006 3.4202 0.5584
-4.6159 3.2537 0.5575
-4.7250 3.0833 0.5566
-4.8278 2.9093 0.5556
-4.9242 2.7319 0.5547
-5.0141 2.5513 0.5537
-5.0974 2.3678 0.5527
-5.1741 2.1816 0.5517
-5.4360 2.0660 0.5709
-14.3901 4.8866 1.4904
-14.5839 4.3764 1.4918
-14.7503 3.8562 1.4923
-14.9023 3.3305 1.4931
-15.0238 2.7968 1.4927
-15.1267 2.2587 1.4923
-15.2112 1.7169 1.4920
-15.2885 1.1729 1.4929
-15.3679 0.6265 1.4958
-15.4315 0.0759 1.4990
-5.2801 -0.1632 0.5126
-5.2768 -0.3526 0.5125
-5.2669 -0.5420 0.5125
-5.2501 -0.7312 0.5125
-5.2267 -0.9198 0.5125
-5.1965 -1.1077 0.5125
-5.1595 -1.2946 0.5124
-5.1159 -1.4804 0.5124
-5.0657 -1.6646 0.5124
-5.0088 -1.8472 0.5124
-4.9454 -2.0278 0.5124
-4.8754 -2.2063 0.5123
-4.7990 -2.3823 0.5123
-4.7163 -2.5557 0.5123
-4.6272 -2.7262 0.5123
-4.5320 -2.8936 0.5123
-4.4307 -3.0576 0.5122
-4.3234 -3.2181 0.5122
-4.2102 -3.3747 0.5122
-4.0913 -3.5274 0.5122
-3.9669 -3.6758 0.5122
-3.8370 -3.8197 0.5122
-3.8062 -4.0706 0.5266
-3.8146 -4.3843 0.5485
-5.5608 -6.8735 0.8336
-5.1719 -6.8830 0.8109
-4.8024 -6.8920 0.7903
-4.4501 -6.9006 0.7717
-4.1128 -6.9088 0.7549
-3.9190 -7.1543 0.7652
-3.9360 -7.8391 0.8221
-3.9558 -8.6365 0.8894
-3.9791 -9.5795 0.9704
-4.0009 -10.6981 1.0676
-5.7404 -17.2027 1.6938
-5.1247 -17.4106 1.6938
-4.5013 -17.5958 1.6938
-3.8711 -17.7580 1.6938
-3.2349 -17.8970 1.6938
-2.5937 -18.0125 1.6938
-1.9482 -18.1043 1.6938
-1.2995 -18.1721 1.6938
-0.6483 -18.2160 1.6938
0.0043 -18.2358 1.6938
0.6574 -18.2315 1.6938
1.2721 -17.6725 1.6444
1.8422 -17.0438 1.5905
2.4519 -16.9716 1.5905
3.0587 -16.8769 1.5905
3.6616 -16.7597 1.5905
4.2599 -16.6202 1.5905
4.8527 -16.4586 1.5905
5.4324 -16.2550 1.5885
5.6854 -15.1808 1.5025
5.9168 -14.2260 1.4281
6.1571 -13.4267 1.3693
6.3614 -12.6556 1.3132
6.4735 -11.8052 1.2484
6.5343 -10.9657 1.1839
6.6156 -10.2488 1.1317
6.6894 -9.5912 1.0852
6.7483 -8.9730 1.0423
6.7725 -8.3641 0.9995
6.8071 -7.8171 0.9631
6.8382 -7.3072 0.9303
6.8488 -6.8124 0.8984
6.8811 -6.3709 0.8727
6.9132 -5.9554 0.8496
6.9429 -5.5606 0.8288
6.9703 -5.1840 0.8099
6.9466 -4.7900 0.7873
6.9204 -4.4149 0.7665
6.8956 -4.0592 0.7478
6.8714 -3.7203 0.7308
6.8475 -3.3962 0.7155
6.8240 -3.0852 0.7017
6.7893 -2.7812 0.6881
6.7610 -2.4908 0.6764
6.7433 -2.2134 0.6669
6.7255 -1.9438 0.6585
6.7078 -1.6809 0.6511
6.6877 -1.4235 0.6445
6.6440 -1.1672 0.6365
6.6004 -0.9173 0.6295
6.5577 -0.6730 0.6234
6.5645 -0.4369 0.6229
6.5717 -0.2014 0.6232
6.5780 0.0341 0.6242
6.5832 0.2701 0.6260
6.5875 0.5070 0.6285
6.5908 0.7455 0.6317
6.5932 0.9860 0.6357
6.5945 1.2291 0.6404
6.5938 1.4751 0.6459
6.5741 1.7201 0.6504
6.5498 1.9669 0.6553
6.5242 2.2169 0.6611
6.4972 2.4706 0.6678
6.4689 2.7289 0.6753
6.4390 2.9922 0.6838
6.4074 3.2615 0.6932
6.3863 3.5443 0.7051
6.3778 3.8446 0.7198
6.4097 4.1840 0.7407
6.4422 4.5424 0.7637
6.4753 4.9222 0.7890
6.5092 5.3263 0.8168
6.5018 5.7211 0.8420
6.5011 6.1473 0.8709
6.5021 6.6051 0.9032
6.5014 7.0959 0.9388
6.5057 7.6323 0.9793
2.1667 2.7346 0.3411
6.6041 8.9777 1.0906
6.6190 9.7083 1.1510
6.4975 10.3047 1.1944
6.3554 10.9285 1.2407
6.2025 11.6030 1.2924
6.0511 12.3659 1.3535
5.9454 13.3402 1.4372
5.9278 14.6951 1.5605
5.4975 15.1738 1.5907
4.9467 15.3495 1.5907
4.3905 15.5057 1.5907
3.8296 15.6423 1.5907
3.2647 15.7593 1.5907
2.6964 15.8565 1.5907
2.1254 15.9338 1.5907
1.6530 17.0276 1.6938
1.0414 17.0674 1.6938
-3.4406 5.9152 0.8353
-3.4512 5.4724 0.7896
-3.4607 5.0749 0.7495
-3.4694 4.7152 0.7141
-3.4772 4.3875 0.6827
-3.4844 4.0868 0.6547
-3.4910 3.8092 0.6297
-3.4972 3.5516 0.6072
-3.5029 3.3113 0.5869
-3.5083 3.0861 0.5687
-3.5360 2.8924 0.5557
-3.6346 2.7618 0.5550
-3.7283 2.6278 0.5543
-3.8171 2.4907 0.5535
-3.9009 2.3505 0.5528
-3.9796 2.2075 0.5520
-4.0530 2.0620 0.5512
-4.3945 2.0410 0.5869
-4.8675 2.0520 0.6394
-5.4350 2.0652 0.7033
-12.2705 4.1660 1.5662
-12.4277 3.7285 1.5669
-12.5316 3.2753 1.5630
-12.6267 2.8211 1.5599
-12.7319 2.3693 1.5601
-12.8250 1.9141 1.5608
-12.8896 1.4540 1.5599
-12.9350 0.9915 1.5587
-12.9676 0.5278 1.5579
-12.9875 0.0630 1.5576
-4.6841 -0.1451 0.5615
-4.2724 -0.2858 0.5126
-4.2635 -0.4391 0.5125
-4.2490 -0.5921 0.5125
-4.2291 -0.7446 0.5125
-4.2037 -0.8964 0.5125
-4.1729 -1.0474 0.5125
-4.1367 -1.1973 0.5125
-4.0951 -1.3460 0.5124
-4.0482 -1.4933 0.5124
-3.9961 -1.6389 0.5124
-3.9387 -1.7827 0.5124
-3.8760 -1.9245 0.5124
-3.8083 -2.0641 0.5124
-3.7563 -2.2134 0.5152
-3.7613 -2.4019 0.5268
-3.7666 -2.5998 0.5397
-3.7723 -2.8083 0.5541
-3.7782 -3.0288 0.5700
-3.7845 -3.2632 0.5876
-3.7912 -3.5134 0.6072
-3.7984 -3.7818 0.6291
-3.8062 -4.0711 0.6535
-3.8146 -4.3849 0.6809
-5.5613 -6.8751 1.0351
-5.1723 -6.8845 1.0071
-4.8028 -6.8935 0.9818
-4.4504 -6.9021 0.9589
-4.1131 -6.9103 0.9382
-3.9190 -7.1553 0.9510
-3.8864 -7.7413 1.0090
-3.9558 -8.6378 1.1059
-3.9792 -9.5809 1.2067
-3.9631 -10.5985 1.3153
-3.6368 -10.9006 1.3349
-4.1190 -13.9962 1.6938
-3.6174 -14.1431 1.6938
-3.1105 -14.2715 1.6938
-2.5989 -14.3814 1.6938
-2.0834 -14.4724 1.6938
-1.5647 -14.5445 1.6938
-1.0434 -14.5975 1.6938
-0.5203 -14.6314 1.6938
0.0038 -14.6459 1.6938
0.5283 -14.6413 1.6938
1.0524 -14.6173 1.6938
1.4794 -13.6856 1.5905
1.9689 -13.6269 1.5905
2.4560 -13.5503 1.5905
2.9399 -13.4557 1.5905
3.4201 -13.3434 1.5905
3.8960 -13.2134 1.5905
4.3667 -13.0660 1.5905
4.8317 -12.9013 1.5905
5.2902 -12.7197 1.5905
5.6672 -12.3586 1.5698
5.8322 -11.6030 1.4996
5.9680 -10.8837 1.4336
6.1190 -10.2689 1.3808
6.2686 -9.7117 1.3355
6.4061 -9.1853 1.2942
6.5253 -8.6769 1.2550
6.5745 -8.1199 1.2082
6.6152 -7.5971 1.1653
6.6519 -7.1085 1.1266
6.6812 -6.6460 1.0910
6.7200 -6.2221 1.0608
6.7556 -5.8201 1.0333
6.7885 -5.4374 1.0084
6.8188 -5.0719 0.9859
6.8082 -4.6949 0.9600
6.7870 -4.3302 0.9351
6.7660 -3.9834 0.9125
6.7452 -3.6524 0.8921
6.7244 -3.3356 0.8736
6.7038 -3.0313 0.8569
6.6831 -2.7381 0.8418
6.6584 -2.4534 0.8277
6.6184 -2.1729 0.8132
6.5786 -1.9017 0.8000
6.5387 -1.6390 0.7882
6.4988 -1.3837 0.7776
6.4588 -1.1351 0.7681
6.4186 -0.8924 0.7597
6.3818 -0.6554 0.7528
6.3880 -0.4256 0.7519
6.3944 -0.1964 0.7521
6.4004 0.0327 0.7532
6.4052 0.2623 0.7551
6.4089 0.4928 0.7578
6.4114 0.7247 0.7615
6.4128 0.9586 0.7660
6.4131 1.1948 0.7714
6.4114 1.4338 0.7777
6.4071 1.6759 0.7847
6.3852 1.9170 0.7907
6.3591 2.1602 0.7974
6.3314 2.4071 0.8050
6.3022 2.6580 0.8137
6.2712 2.9137 0.8235
6.2384 3.1749 0.8344
6.2074 3.4444 0.8471
6.1931 3.7327 0.8637
6.1770 4.0314 0.8819
6.2016 4.3720 0.9080
6.2260 4.7320 0.9368
6.2504 5.1138 0.9683
6.2635 5.5107 1.0012
6.2356 5.8955 1.0308
6.2178 6.3155 1.0656
6.2067 6.7733 1.1056
6.1929 7.2644 1.1497
2.1665 2.7340 0.4205
6.2021 8.4301 1.2627
6.2364 9.1460 1.3366
6.2045 9.8387 1.4056
6.0951 10.4794 1.4661
5.9367 11.1044 1.5239
5.7696 11.7889 1.5896
5.3435 11.9879 1.5907
4.9073 12.1635 1.5907
4.4655 12.3236 1.5907
4.0187 12.4680 1.5907
3.5674 12.5966 1.5907
3.1121 12.7092 1.5907
2.6534 12.8058 1.5907
2.1918 12.8862 1.5907
1.8399 13.7897 1.6938
1.3441 13.8408 1.6938
0.8470 13.8744 1.6938
-3.4406 5.9150 0.9922
-3.4512 5.4722 0.9379
-3.4607 5.0747 0.8903
-3.4694 4.7150 0.8483
-3.4772 4.3873 0.8110
-3.4844 4.0865 0.7778
-3.4910 3.8090 0.7481
-3.4972 3.5514 0.7214
-3.5029 3.3111 0.6974
-3.5083 3.0859 0.6757
-3.5134 2.8737 0.6562
-3.5182 2.6731 0.6385
-3.5228 2.4827 0.6225
-3.5271 2.3012 0.6080
-3.5312 2.1275 0.5949
-3.6474 2.0230 0.6015
-3.9927 2.0310 0.6457
-4.3938 2.0404 0.6978
-4.8666 2.0513 0.7603
-5.4340 2.0645 0.8363
-10.6289 3.6080 1.6138
-10.7619 3.2280 1.6143
-10.8751 2.8416 1.6139
-10.9707 2.4504 1.6129
-11.0535 2.0562 1.6120
-11.1254 1.6597 1.6116
-11.1889 1.2614 1.6120
-11.2318 0.8602 1.6115
-11.2618 0.4575 1.6112
-11.2789 0.0539 1.6111
-4.6785 -0.1453 0.6681
-3.7035 -0.2480 0.5293
-3.7071 -0.3821 0.5310
-3.7107 -0.5173 0.5334
-3.7144 -0.6542 0.5365
-3.7182 -0.7932 0.5404
-3.7219 -0.9345 0.5450
-3.7258 -1.0787 0.5504
-3.7298 -1.2263 0.5567
-3.7338 -1.3776 0.5638
-3.7380 -1.5334 0.5719
-3.7423 -1.6942 0.5809
-3.7468 -1.8607 0.5911
-3.7515 -2.0336 0.6024
-3.7563 -2.2138 0.6151
-3.7614 -2.4023 0.6290
-3.7667 -2.6002 0.6446
-3.7723 -2.8087 0.6618
-3.7782 -3.0293 0.6809
-3.7845 -3.2637 0.7021
-3.7912 -3.5139 0.7256
-3.7984 -3.7823 0.7519
-3.8062 -4.0717 0.7812
-3.8146 -4.3855 0.8140
-5.5619 -6.8767 1.2378
-5.1728 -6.8861 1.2044
-4.8033 -6.8950 1.1743
-4.4508 -6.9035 1.1471
-4.1134 -6.9117 1.1225
-3.9191 -7.1563 1.1379
-3.8235 -7.6171 1.1879
-3.5942 -7.8494 1.2025
-3.9792 -9.5824 1.4444
-4.0000 -10.6986 1.5891
-3.8545 -11.5548 1.6938
-3.4402 -11.6915 1.6938
-3.0209 -11.8130 1.6938
-2.5973 -11.9192 1.6938
-2.1699 -12.0099 1.6938
-1.7393 -12.0849 1.6938
-1.3060 -12.1442 1.6938
-0.8708 -12.1876 1.6938
-0.4341 -12.2150 1.6938
0.0035 -12.2265 1.6938
0.4413 -12.2220 1.6938
0.8787 -12.2014 1.6938
1.3153 -12.1647 1.6938
1.6435 -11.3738 1.5905
2.0499 -11.3094 1.5905
2.4538 -11.2302 1.5905
2.8545 -11.1363 1.5905
3.2516 -11.0277 1.5905
3.6444 -10.9046 1.5905
4.0324 -10.7672 1.5905
4.4151 -10.6156 1.5905
4.7920 -10.4502 1.5905
5.1626 -10.2710 1.5905
5.5550 -10.1308 1.5988
5.7166 -9.5940 1.5456
5.8691 -9.0931 1.4981
6.0065 -8.6128 1.4538
6.1190 -8.1370 1.4099
6.2096 -7.6697 1.3670
6.2920 -7.2263 1.3277
6.3669 -6.8044 1.2916
6.4521 -6.4186 1.2619
6.5350 -6.0513 1.2354
6.6043 -5.6901 1.2097
6.6400 -5.3189 1.1811
6.6731 -4.9639 1.1552
6.6753 -4.6037 1.1268
6.6580 -4.2483 1.0981
6.6405 -3.9099 1.0720
6.5963 -3.5722 1.0441
6.5485 -3.2487 1.0181
6.5011 -2.9400 0.9943
6.4690 -2.6508 0.9749
6.4624 -2.3816 0.9610
6.4271 -2.1105 0.9445
6.3915 -1.8481 0.9296
6.3557 -1.5935 0.9162
6.3194 -1.3459 0.9041
6.2828 -1.1046 0.8932
6.2457 -0.8688 0.8836
6.2143 -0.6386 0.8761
6.2206 -0.4149 0.8750
6.2257 -0.1917 0.8749
6.2313 0.0314 0.8759
6.2357 0.2549 0.8780
6.2389 0.4793 0.8810
6.2407 0.7050 0.8850
6.2412 0.9325 0.8900
6.2405 1.1622 0.8960
6.2380 1.3946 0.9030
6.2324 1.6297 0.9108
6.2253 1.8685 0.9198
6.2013 2.1061 0.9276
6.1730 2.3463 0.9361
6.1430 2.5903 0.9458
6.1111 2.8388 0.9568
6.0772 3.0923 0.9690
6.0412 3.3516 0.9826
6.0203 3.6280 1.0006
6.0013 3.9162 1.0209
5.9802 4.2153 1.0432
5.9941 4.5550 1.0743
6.0102 4.9166 1.1089
6.0255 5.3005 1.1470
6.0079 5.6794 1.1825
5.9711 6.0641 1.2182
5.9363 6.4773 1.2586
5.9129 6.9351 1.3065
2.1663 2.7334 0.5004
5.8711 7.9792 1.4222
5.8573 8.5888 1.4935
5.8687 9.3050 1.5815
5.5601 9.5584 1.5907
5.2108 9.7453 1.5907
4.8554 9.9197 1.5907
4.4942 10.0813 1.5907
4.1279 10.2301 1.5907
3.7567 10.3658 1.5907
3.3811 10.4882 1.5907
3.0017 10.5974 1.5907
2.6188 10.6931 1.5907
2.2331 10.7752 1.5907
1.8840 11.0740 1.6245
1.5488 11.6049 1.6938
1.1316 11.6486 1.6938
0.7132 11.6777 1.6938
-3.4406 5.9148 1.1500
-3.4512 5.4720 1.0871
-3.4607 5.0745 1.0320
-3.4694 4.7148 0.9833
-3.4772 4.3870 0.9401
-3.4844 4.0863 0.9017
-3.4910 3.8088 0.8672
-3.4972 3.5512 0.8364
-3.5029 3.3109 0.8086
-3.5083 3.0856 0.7835
-3.5134 2.8735 0.7609
-3.5182 2.6729 0.7404
-3.5228 2.4825 0.7219
-3.5271 2.3009 0.7051
-3.5313 2.1273 0.6899
-3.6468 2.0225 0.6976
-3.9921 2.0305 0.7488
-4.3931 2.0397 0.8094
-4.8658 2.0507 0.8819
-5.4330 2.0638 0.9702
-9.0282 3.0640 1.5907
-9.1375 2.7402 1.5907
-9.2353 2.4125 1.5907
-9.3214 2.0814 1.5907
-9.3958 1.7472 1.5907
-9.4584 1.4104 1.5907
-9.5090 1.0714 1.5907
-9.5476 0.7305 1.5907
-9.5741 0.3883 1.5907
-9.5883 0.0451 1.5907
-4.6729 -0.1455 0.7751
-3.7035 -0.2483 0.6149
-3.7071 -0.3823 0.6170
-3.7108 -0.5176 0.6198
-3.7144 -0.6545 0.6235
-3.7182 -0.7935 0.6280
-3.7219 -0.9348 0.6335
-3.7258 -1.0790 0.6398
-3.7298 -1.2266 0.6472
-3.7338 -1.3780 0.6555
-3.7380 -1.5337 0.6650
-3.7423 -1.6945 0.6757
-3.7468 -1.8610 0.6876
-3.7515 -2.0340 0.7008
-3.7563 -2.2142 0.7156
-3.7614 -2.4027 0.7319
-3.7667 -2.6006 0.7501
-3.7723 -2.8091 0.7702
-3.7782 -3.0298 0.7925
-3.7845 -3.2642 0.8173
-3.7912 -3.5144 0.8448
-3.7984 -3.7828 0.8754
-3.8062 -4.0723 0.9097
-3.8146 -4.3861 0.9480
-5.5624 -6.8783 1.4418
-5.1733 -6.8876 1.4031
-4.8037 -6.8965 1.3681
-4.4511 -6.9050 1.3365
-4.1137 -6.9132 1.3080
-3.9191 -7.1573 1.3260
-3.8124 -7.5960 1.3803
-3.5845 -7.8293 1.3977
-4.0033 -9.6418 1.6938
-3.6574 -9.7837 1.6938
-3.3063 -9.9130 1.6938
-2.9507 -10.0295 1.6938
-2.5909 -10.1331 1.6938
-2.2274 -10.2235 1.6938
-1.8607 -10.3007 1.6938
-1.4913 -10.3644 1.6938
-1.1197 -10.4147 1.6938
-0.7464 -10.4514 1.6938
-0.3719 -10.4744 1.6938
0.0032 -10.4838 1.6938
0.3786 -10.4795 1.6938
0.7536 -10.4614 1.6938
1.1279 -10.4297 1.6938
1.4434 -9.9882 1.6292
1.7576 -9.6960 1.5905
2.1038 -9.6279 1.5905
2.4473 -9.5472 1.5905
2.7876 -9.4540 1.5905
3.1243 -9.3485 1.5905
3.4569 -9.2307 1.5905
3.7850 -9.1008 1.5905
4.1082 -8.9590 1.5905
4.4259 -8.8056 1.5905
4.7378 -8.6406 1.5905
5.0433 -8.4644 1.5905
5.3423 -8.2771 1.5905
5.6460 -8.0962 1.5939
5.7582 -7.6576 1.5474
5.8540 -7.2309 1.5030
5.9416 -6.8243 1.4621
6.0333 -6.4482 1.4274
6.1225 -6.0911 1.3964
6.2080 -5.7489 1.3685
6.2873 -5.4174 1.3428
6.3609 -5.0957 1.3192
6.4292 -4.7829 1.2975
6.4533 -4.4510 1.2699
6.4145 -4.0934 1.2332
6.3755 -3.7543 1.1996
6.3362 -3.4318 1.1689
6.2967 -3.1242 1.1409
6.2569 -2.8300 1.1151
6.2526 -2.5626 1.0979
6.2753 -2.3131 1.0872
6.2454 -2.0513 1.0693
6.2138 -1.7971 1.0528
6.1815 -1.5503 1.0379
6.1486 -1.3100 1.0245
6.1150 -1.0755 1.0124
6.0808 -0.8463 1.0018
6.0543 -0.6226 0.9937
6.0608 -0.4046 0.9925
6.0659 -0.1872 0.9922
6.0699 0.0302 0.9931
6.0740 0.2478 0.9953
6.0766 0.4664 0.9985
6.0778 0.6861 1.0028
6.0776 0.9075 1.0083
6.0759 1.1311 1.0148
6.0727 1.3571 1.0225
6.0660 1.5857 1.0310
6.0577 1.8176 1.0407
6.0477 2.0534 1.0518
6.0214 2.2882 1.0616
5.9907 2.5256 1.0722
5.9581 2.7671 1.0842
5.9233 3.0134 1.0976
5.8862 3.2651 1.1125
5.8560 3.5283 1.1308
5.8344 3.8066 1.1531
5.8104 4.0950 1.1774
5.7838 4.3946 1.2040
5.7864 4.7328 1.2399
5.7939 5.0960 1.2807
5.7949 5.4773 1.3244
5.7535 5.8423 1.3628
5.7075 6.2269 1.4048
5.6567 6.6337 1.4508
2.1662 2.7328 0.5807
5.5822 7.5856 1.5693
5.3754 7.8812 1.5905
5.0867 8.0640 1.5905
4.7923 8.2373 1.5907
4.4916 8.3991 1.5907
4.1856 8.5501 1.5907
3.8746 8.6901 1.5907
3.5590 8.8190 1.5907
3.2392 8.9367 1.5907
2.9156 9.0429 1.5907
2.5887 9.1376 1.5907
2.2587 9.2207 1.5907
1.9261 9.2921 1.5907
1.6945 9.9578 1.6938
1.3361 10.0087 1.6938
0.9763 10.0470 1.6938
0.6155 10.0725 1.6938
-3.4406 5.9146 1.3091
-3.4512 5.4718 1.2375
-3.4607 5.0743 1.1747
-3.4694 4.7146 1.1193
-3.4772 4.3868 1.0702
-3.4844 4.0861 1.0265
-3.4910 3.8086 0.9873
-3.4972 3.5510 0.9522
-3.5029 3.3107 0.9206
-3.5083 3.0854 0.8921
-3.5134 2.8733 0.8664
-3.5182 2.6727 0.8431
-3.5228 2.4822 0.8220
-3.5271 2.3007 0.8030
-3.5313 2.1271 0.7857
-3.6463 2.0220 0.7944
-3.9915 2.0299 0.8528
-4.3924 2.0391 0.9218
-4.8650 2.0500 1.0045
-5.4320 2.0630 1.1050
-7.9247 2.6890 1.5907
-8.0200 2.4045 1.5907
-8.1053 2.1168 1.5907
-8.1803 1.8260 1.5907
-8.2450 1.5326 1.5907
-8.2993 1.2370 1.5907
-8.3430 0.9394 1.5907
-8.3762 0.6403 1.5907
-8.3987 0.3400 1.5907
-8.4106 0.0390 1.5907
-4.6672 -0.1456 0.8826
-3.7035 -0.2486 0.7011
-3.7071 -0.3826 0.7035
-3.7108 -0.5179 0.7068
-3.7144 -0.6548 0.7111
-3.7182 -0.7938 0.7164
-3.7219 -0.9351 0.7226
-3.7258 -1.0793 0.7299
-3.7298 -1.2269 0.7384
-3.7338 -1.3783 0.7480
-3.7380 -1.5341 0.7589
-3.7423 -1.6949 0.7711
-3.7468 -1.8614 0.7847
-3.7515 -2.0343 0.7999
-3.7563 -2.2146 0.8168
-3.7614 -2.4031 0.8356
-3.7667 -2.6010 0.8564
-3.7723 -2.8096 0.8794
-3.7782 -3.0302 0.9050
-3.7845 -3.2647 0.9333
-3.7912 -3.5149 0.9648
-3.7754 -3.7604 0.9939
-3.7662 -4.0299 1.0282
-3.8146 -4.3867 1.0830
-5.7197 -7.0738 1.6938
-5.4658 -7.2780 1.6938
-5.2045 -7.4731 1.6938
-4.4515 -6.9065 1.5274
-4.1140 -6.9146 1.4949
-3.9191 -7.1584 1.5155
-3.8562 -7.6843 1.5958
-3.8000 -8.3011 1.6938
-3.5020 -8.4356 1.6938
-3.1992 -8.5593 1.6938
-2.8919 -8.6719 1.6938
-2.5807 -8.7734 1.6938
-2.2658 -8.8635 1.6938
-1.9478 -8.9421 1.6938
-1.6270 -9.0091 1.6938
-1.3039 -9.0645 1.6938
-0.9789 -9.1081 1.6938
-0.6524 -9.1398 1.6938
-0.3250 -9.1596 1.6938
0.0031 -9.1675 1.6938
0.3313 -9.1635 1.6938
0.6592 -9.1475 1.6938
0.9864 -9.1196 1.6938
1.3123 -9.0797 1.6938
1.5369 -8.4777 1.5905
1.8395 -8.4180 1.5905
2.1398 -8.3474 1.5905
2.4373 -8.2659 1.5905
2.7317 -8.1736 1.5905
3.0225 -8.0706 1.5905
3.3093 -7.9571 1.5905
3.5919 -7.8332 1.5905
3.8696 -7.6991 1.5905
4.1423 -7.5549 1.5905
4.4096 -7.4010 1.5905
4.6710 -7.2374 1.5905
4.9263 -7.0645 1.5905
5.1750 -6.8823 1.5905
5.4169 -6.6913 1.5905
5.6358 -6.4734 1.5860
5.7318 -6.1263 1.5507
5.8229 -5.7934 1.5186
5.9100 -5.4734 1.4897
5.9911 -5.1625 1.4630
6.0663 -4.8601 1.4385
6.1331 -4.5630 1.4152
6.1860 -4.2671 1.3917
6.1563 -3.9290 1.3530
6.1257 -3.6076 1.3176
6.0942 -3.3011 1.2851
6.0619 -3.0081 1.2553
6.0287 -2.7272 1.2280
6.0487 -2.4794 1.2138
6.0727 -2.2388 1.2024
6.0725 -1.9949 1.1880
6.0444 -1.7485 1.1701
6.0154 -1.5090 1.1539
5.9856 -1.2756 1.1393
5.9549 -1.0478 1.1263
5.9233 -0.8248 1.1146
5.9013 -0.6073 1.1063
5.9079 -0.3948 1.1049
5.9130 -0.1829 1.1045
5.9165 0.0290 1.1054
5.9193 0.2411 1.1075
5.9215 0.4540 1.1109
5.9221 0.6681 1.1155
5.9212 0.8837 1.1213
5.9186 1.1013 1.1283
5.9144 1.3213 1.1365
5.9071 1.5437 1.1457
5.8977 1.7691 1.1562
5.8864 1.9982 1.1680
5.8733 2.2313 1.1813
5.8448 2.4635 1.1934
5.8114 2.6985 1.2063
5.7758 2.9379 1.2208
5.7379 3.1822 1.2368
5.6993 3.4333 1.2550
5.6754 3.7023 1.2790
5.6489 3.9805 1.3051
5.6197 4.2692 1.3337
5.5874 4.5694 1.3649
5.5779 4.9054 1.4055
5.5765 5.2701 1.4527
5.5497 5.6346 1.4982
5.4995 5.9991 1.5426
5.4420 6.3810 1.5905
2.1660 2.7322 0.6616
4.9657 6.7469 1.5905
4.7183 6.9168 1.5905
4.4652 7.0778 1.5905
4.2066 7.2296 1.5905
3.9430 7.3721 1.5905
3.6746 7.5052 1.5905
3.4018 7.6285 1.5905
3.1249 7.7422 1.5905
2.8443 7.8459 1.5905
2.5603 7.9396 1.5905
0.8663 3.0573 0.6061
0.7562 3.0864 0.6063
0.6451 3.1115 0.6065
0.5332 3.1327 0.6067
0.4206 3.1500 0.6069
0.3075 3.1632 0.6071
0.1940 3.1724 0.6073
-3.4406 5.9144 1.4695
-3.4512 5.4716 1.3892
-3.4607 5.0741 1.3187
-3.4694 4.7144 1.2566
-3.4772 4.3866 1.2015
-3.4844 4.0859 1.1523
-3.4910 3.8083 1.1084
-3.4972 3.5508 1.0690
-3.5029 3.3104 1.0336
-3.5083 3.0852 1.0016
-3.5134 2.8731 0.9727
-3.5182 2.6725 0.9466
-3.5228 2.4820 0.9230
-3.5271 2.3005 0.9017
-3.5313 2.1268 0.8823
-3.6458 2.0214 0.8919
-3.9909 2.0293 0.9576
-4.3916 2.0385 1.0351
-4.8641 2.0493 1.1280
-5.4310 2.0623 1.2410
-7.0549 2.3934 1.5907
-7.1394 2.1400 1.5907
-7.2149 1.8838 1.5907
-7.2813 1.6249 1.5907
-7.3384 1.3636 1.5907
-7.3863 1.1004 1.5907
-7.4248 0.8355 1.5907
-7.4538 0.5693 1.5907
-7.4735 0.3021 1.5907
-7.4835 0.0341 1.5907
-4.6616 -0.1458 0.9908
-3.7035 -0.2489 0.7881
-3.7071 -0.3829 0.7908
-3.7108 -0.5182 0.7946
-3.7144 -0.6551 0.7995
-3.7182 -0.7941 0.8054
-3.7219 -0.9354 0.8125
-3.7258 -1.0796 0.8208
-3.7298 -1.2272 0.8303
-3.7338 -1.3786 0.8412
-3.7380 -1.5344 0.8535
-3.7424 -1.6952 0.8673
-3.7468 -1.8617 0.8827
-3.7515 -2.0347 0.8999
-3.7563 -2.2150 0.9190
-3.7614 -2.4035 0.9401
-3.7667 -2.6014 0.9636
-3.7723 -2.8100 0.9896
-3.7782 -3.0307 1.0184
-3.7845 -3.2652 1.0504
-3.7912 -3.5154 1.0859
-3.6899 -3.6757 1.0933
-3.6125 -3.8661 1.1101
-3.8147 -4.3873 1.2192
-5.0806 -6.2842 1.6938
-4.8548 -6.4653 1.6938
-4.6225 -6.6382 1.6938
-4.3840 -6.8026 1.6938
-4.1395 -6.9584 1.6938
-3.8895 -7.1053 1.6938
-3.6342 -7.2431 1.6938
-3.3741 -7.3716 1.6938
-3.1093 -7.4907 1.6938
-2.8402 -7.6002 1.6938
-2.5674 -7.6998 1.6938
-2.2909 -7.7896 1.6938
-2.0113 -7.8692 1.6938
-1.7289 -7.9387 1.6938
-1.4441 -7.9980 1.6938
-1.1572 -8.0468 1.6938
-0.8687 -8.0852 1.6938
-0.5789 -8.1132 1.6938
-0.2882 -8.1305 1.6938
0.0030 -8.1374 1.6938
0.2942 -8.1336 1.6938
0.5853 -8.1192 1.6938
0.8756 -8.0943 1.6938
1.1649 -8.0588 1.6938
1.4527 -8.0128 1.6938
1.6327 -7.4713 1.5905
1.8992 -7.4086 1.5905
2.1632 -7.3362 1.5905
2.4244 -7.2543 1.5905
2.6825 -7.1629 1.5905
2.9371 -7.0621 1.5905
3.1878 -6.9522 1.5905
3.4344 -6.8333 1.5905
3.6764 -6.7054 1.5905
3.9137 -6.5689 1.5905
4.1457 -6.4238 1.5905
4.3724 -6.2704 1.5905
4.5932 -6.1089 1.5905
4.8080 -5.9395 1.5905
5.0165 -5.7624 1.5905
5.2184 -5.5779 1.5905
5.4134 -5.3863 1.5905
5.6372 -5.2211 1.6007
5.7193 -4.9287 1.5733
5.7942 -4.6425 1.5477
5.8602 -4.3604 1.5231
5.9213 -4.0849 1.5005
5.9162 -3.7761 1.4645
5.8929 -3.4709 1.4276
5.8682 -3.1791 1.3936
5.8421 -2.8994 1.3625
5.8284 -2.6370 1.3369
5.8562 -2.4009 1.3233
5.8812 -2.1686 1.3111
5.9036 -1.9398 1.3004
5.8827 -1.7022 1.2822
5.8568 -1.4696 1.2648
5.8298 -1.2428 1.2492
5.8017 -1.0212 1.2352
5.7725 -0.8042 1.2227
5.7546 -0.5926 1.2142
5.7613 -0.3854 1.2126
5.7664 -0.1788 1.2122
5.7698 0.0278 1.2130
5.7716 0.2347 1.2151
5.7729 0.4422 1.2186
5.7730 0.6508 1.2234
5.7714 0.8609 1.2295
5.7681 1.0729 1.2369
5.7630 1.2870 1.2457
5.7551 1.5035 1.2555
5.7446 1.7227 1.2666
5.7322 1.9453 1.2792
5.7178 2.1718 1.2933
5.7013 2.4025 1.3089
5.6707 2.6326 1.3235
5.6344 2.8654 1.3389
5.5957 3.1028 1.3560
5.5543 3.3454 1.3749
5.5235 3.6026 1.3992
5.4948 3.8714 1.4270
5.4632 4.1497 1.4573
5.4285 4.4387 1.4903
5.3902 4.7396 1.5263
5.3681 5.0724 1.5713
5.2434 5.3229 1.5905
5.0468 5.5045 1.5905
4.8439 5.6789 1.5905
2.1658 2.7316 0.7432
4.4204 6.0053 1.5905
4.2005 6.1569 1.5905
3.9753 6.3005 1.5905
3.7454 6.4360 1.5905
3.5108 6.5633 1.5905
3.2720 6.6820 1.5905
3.0293 6.7922 1.5905
2.7829 6.8937 1.5905
2.5331 6.9864 1.5905
0.8681 2.6916 0.6055
0.7711 2.7210 0.6057
0.6731 2.7469 0.6059
0.5742 2.7693 0.6061
0.4747 2.7881 0.6063
0.3744 2.8034 0.6065
0.2738 2.8152 0.6067
0.1727 2.8233 0.6068
-3.5253 6.0597 1.6716
-3.7903 6.0088 1.6938
-3.4607 5.0739 1.4641
-3.4694 4.7142 1.3951
-3.4772 4.3864 1.3339
-3.4844 4.0857 1.2794
-3.4910 3.8081 1.2307
-3.4972 3.5505 1.1870
-3.5029 3.3102 1.1476
-3.5083 3.0849 1.1122
-3.5134 2.8728 1.0801
-3.5182 2.6722 1.0512
-3.5228 2.4818 1.0250
-3.5271 2.3002 1.0013
-3.5313 2.1266 0.9799
-3.6453 2.0209 0.9904
-3.9902 2.0287 1.0634
-4.3909 2.0379 1.1495
-4.8633 2.0486 1.2527
-5.4299 2.0615 1.3781
-6.3526 2.1547 1.5910
-6.4269 1.9260 1.5907
-6.4946 1.6953 1.5907
-6.5540 1.4621 1.5907
-6.6052 1.2269 1.5907
-6.6479 0.9899 1.5907
-6.6823 0.7515 1.5907
-6.7081 0.5118 1.5907
-6.7254 0.2713 1.5907
-6.7341 0.0302 1.5907
-4.6559 -0.1460 1.0998
-3.7035 -0.2491 0.8759
-3.7071 -0.3832 0.8790
-3.7108 -0.5185 0.8832
-3.7144 -0.6554 0.8887
-3.7182 -0.7944 0.8953
-3.7220 -0.9357 0.9033
-3.7259 -1.0800 0.9125
-3.7298 -1.2275 0.9232
-3.7339 -1.3789 0.9354
-3.7381 -1.5348 0.9491
-3.7424 -1.6956 0.9645
-3.7468 -1.8621 0.9817
-3.7515 -2.0351 1.0008
-3.7563 -2.2154 1.0221
-3.7614 -2.4039 1.0457
-3.7667 -2.6019 1.0719
-3.7723 -2.8104 1.1008
-3.7782 -3.0311 1.1330
-3.7846 -3.2656 1.1686
-3.7913 -3.5160 1.2082
-3.6472 -3.6337 1.2024
-3.5631 -3.8138 1.2184
-3.8147 -4.3879 1.3566
-4.5656 -5.6480 1.6938
-4.3624 -5.8104 1.6938
-4.1535 -5.9655 1.6938
-3.9390 -6.1129 1.6938
-3.7192 -6.2526 1.6938
-3.4944 -6.3843 1.6938
-3.2649 -6.5079 1.6938
-3.0310 -6.6231 1.6938
-2.7930 -6.7298 1.6938
-2.5513 -6.8279 1.6938
-2.3060 -6.9172 1.6938
-2.0576 -6.9975 1.6938
-1.8064 -7.0689 1.6938
-1.5527 -7.1310 1.6938
-1.2968 -7.1840 1.6938
-1.0392 -7.2277 1.6938
-0.7800 -7.2620 1.6938
-0.5197 -7.2869 1.6938
-0.2587 -7.3024 1.6938
0.0029 -7.3084 1.6938
0.2644 -7.3048 1.6938
0.5258 -7.2918 1.6938
0.7865 -7.2693 1.6938
1.0463 -7.2373 1.6938
1.3047 -7.1960 1.6938
1.5091 -6.9052 1.6369
1.7219 -6.7168 1.6057
1.9427 -6.5882 1.5905
2.1773 -6.5146 1.5905
2.4090 -6.4326 1.5905
2.6376 -6.3421 1.5905
2.8628 -6.2434 1.5905
3.0842 -6.1367 1.5905
3.3016 -6.0219 1.5905
3.5147 -5.8993 1.5905
3.7231 -5.7691 1.5905
3.9267 -5.6315 1.5905
4.1251 -5.4865 1.5905
4.3181 -5.3345 1.5905
4.5054 -5.1756 1.5905
4.6867 -5.0100 1.5905
4.8620 -4.8380 1.5905
5.0308 -4.6598 1.5905
5.1930 -4.4756 1.5905
5.3484 -4.2857 1.5905
5.4968 -4.0903 1.5905
5.6705 -3.9122 1.5997
5.6920 -3.6335 1.5685
5.6751 -3.3430 1.5304
5.6564 -3.0647 1.4953
5.6359 -2.7975 1.4630
5.6451 -2.5544 1.4413
5.6738 -2.3265 1.4270
5.6998 -2.1021 1.4142
5.7230 -1.8808 1.4030
5.7280 -1.6578 1.3893
5.7049 -1.4319 1.3710
5.6805 -1.2114 1.3544
5.6548 -0.9957 1.3396
5.6278 -0.7844 1.3263
5.6137 -0.5785 1.3179
5.6206 -0.3764 1.3161
5.6256 -0.1748 1.3156
5.6289 0.0267 1.3164
5.6305 0.2285 1.3185
5.6303 0.4309 1.3219
5.6298 0.6343 1.3270
5.6277 0.8391 1.3334
5.6237 1.0456 1.3412
5.6178 1.2541 1.3503
5.6094 1.4650 1.3608
5.5980 1.6783 1.3724
5.5846 1.8948 1.3856
5.5690 2.1148 1.4004
5.5513 2.3388 1.4169
5.5312 2.5674 1.4351
5.4985 2.7957 1.4524
5.4591 3.0265 1.4705
5.4169 3.2621 1.4904
5.3783 3.5073 1.5142
5.3476 3.7670 1.5434
5.3139 4.0357 1.5752
5.2136 4.2624 1.5905
5.0551 4.4443 1.5905
4.8902 4.6203 1.5905
4.7193 4.7902 1.5905
4.5425 4.9539 1.5905
4.3601 5.1111 1.5905
2.1656 2.7310 0.8256
3.9794 5.4054 1.5905
3.7815 5.5421 1.5905
3.5790 5.6716 1.5905
3.3721 5.7939 1.5905
3.1611 5.9087 1.5905
2.9462 6.0158 1.5905
2.7277 6.1153 1.5905
2.5060 6.2069 1.5905
0.8678 2.3930 0.6051
0.7815 2.4225 0.6052
0.6942 2.4490 0.6054
0.6059 2.4723 0.6056
0.5169 2.4924 0.6058
0.4273 2.5094 0.6059
0.3371 2.5231 0.6061
0.2465 2.5337 0.6063
0.1555 2.5410 0.6064
-3.2463 5.5800 1.6938
-3.4446 5.4606 1.6938
-3.6385 5.3342 1.6938
-3.8279 5.2010 1.6938
-3.4772 4.3862 1.4679
-3.4844 4.0854 1.4079
-3.4910 3.8079 1.3543
-3.4972 3.5503 1.3062
-3.4309 3.2419 1.2369
-3.4910 3.0695 1.2179
-3.5134 2.8726 1.1887
-3.5182 2.6720 1.1569
-3.5228 2.4815 1.1281
-3.5271 2.3000 1.1020
-3.5313 2.1264 1.0785
-3.6447 2.0203 1.0900
-3.9896 2.0282 1.1702
-4.3902 2.0372 1.2651
-4.8624 2.0479 1.3786
-6.0625 2.3012 1.6938
-6.1434 2.0833 1.6938
-6.2164 1.8625 1.6938
-6.2817 1.6392 1.6938
-6.3389 1.4137 1.6938
-6.3624 1.1814 1.6870
-6.3676 0.9477 1.6775
-6.3726 0.7162 1.6703
-6.3777 0.4862 1.6653
-6.3827 0.2570 1.6624
-6.3877 0.0282 1.6616
-4.6501 -0.1461 1.2096
-3.7035 -0.2494 0.9647
-3.7071 -0.3835 0.9681
-3.7108 -0.5188 0.9728
-3.7144 -0.6557 0.9788
-3.7182 -0.7947 0.9862
-3.6909 -0.9282 0.9867
-3.6499 -1.0582 0.9848
-3.7076 -1.2206 1.0110
-3.7339 -1.3793 1.0305
-3.7381 -1.5351 1.0457
-3.7424 -1.6959 1.0627
-3.7468 -1.8625 1.0817
-3.7515 -2.0355 1.1028
-3.7563 -2.2158 1.1263
-3.7614 -2.4043 1.1524
-3.7667 -2.6023 1.1813
-3.7723 -2.8109 1.2133
-3.7783 -3.0316 1.2487
-3.7846 -3.2661 1.2880
-3.7846 -3.5103 1.3294
-3.6322 -3.6193 1.3200
-3.5496 -3.7998 1.3380
-4.3202 -4.9701 1.6938
-4.1413 -5.1237 1.6938
-3.9568 -5.2709 1.6938
-3.7671 -5.4113 1.6938
-3.5724 -5.5449 1.6938
-3.3730 -5.6714 1.6938
-3.1690 -5.7906 1.6938
-2.9608 -5.9025 1.6938
-2.7485 -6.0068 1.6938
-2.5326 -6.1033 1.6938
-2.3133 -6.1921 1.6938
-2.0909 -6.2728 1.6938
-1.8656 -6.3455 1.6938
-1.6377 -6.4100 1.6938
-1.4077 -6.4663 1.6938
-1.1756 -6.5141 1.6938
-0.9420 -6.5536 1.6938
-0.7070 -6.5846 1.6938
-0.4710 -6.6070 1.6938
-0.2343 -6.6209 1.6938
0.0028 -6.6262 1.6938
0.2399 -6.6229 1.6938
0.4768 -6.6110 1.6938
0.7132 -6.5905 1.6938
0.9487 -6.5615 1.6938
1.1829 -6.5239 1.6938
1.4157 -6.4779 1.6938
1.5464 -6.0319 1.5905
1.7613 -5.9729 1.5905
1.9739 -5.9061 1.5905
2.1840 -5.8317 1.5905
2.3912 -5.7498 1.5905
2.5954 -5.6603 1.5905
2.7961 -5.5635 1.5905
2.9932 -5.4596 1.5905
3.1864 -5.3485 1.5905
3.3754 -5.2305 1.5905
3.5600 -5.1058 1.5905
3.7399 -4.9744 1.5905
3.9149 -4.8367 1.5905
4.0848 -4.6927 1.5905
4.2493 -4.5426 1.5905
4.4083 -4.3868 1.5905
4.5614 -4.2253 1.5905
4.7086 -4.0584 1.5905
4.8496 -3.8863 1.5905
4.9843 -3.7093 1.5905
5.1124 -3.5275 1.5905
5.2338 -3.3413 1.5905
5.3484 -3.1509 1.5905
5.4560 -2.9565 1.5905
5.4418 -2.7015 1.5577
5.4711 -2.4761 1.5402
5.5007 -2.2559 1.5254
5.5275 -2.0389 1.5121
5.5515 -1.8248 1.5004
5.5727 -1.6132 1.4902
5.5592 -1.3957 1.4728
5.5372 -1.1812 1.4555
5.5137 -0.9713 1.4398
5.4888 -0.7654 1.4259
5.4782 -0.5649 1.4176
5.4851 -0.3678 1.4157
5.4902 -0.1710 1.4151
5.4934 0.0257 1.4159
5.4948 0.2226 1.4181
5.4943 0.4200 1.4216
5.4922 0.6183 1.4265
5.4895 0.8180 1.4332
5.4849 1.0193 1.4413
5.4783 1.2225 1.4509
5.4694 1.4280 1.4618
5.4572 1.6356 1.4740
5.4429 1.8462 1.4878
5.4263 2.0601 1.5032
5.4075 2.2777 1.5203
5.3862 2.4996 1.5393
5.3625 2.7261 1.5602
5.3277 2.9531 1.5806
5.2487 3.1602 1.5905
5.1297 3.3446 1.5905
5.0042 3.5246 1.5905
4.8725 3.6999 1.5905
4.7346 3.8703 1.5905
4.5909 4.0356 1.5905
4.4414 4.1956 1.5905
4.2863 4.3501 1.5905
4.1259 4.4989 1.5905
2.2729 2.6640 0.9128
2.1654 2.7304 0.9088
2.1036 2.8570 0.9256
3.4353 5.0340 1.5905
3.2514 5.1518 1.5905
3.0636 5.2631 1.5905
2.8720 5.3675 1.5905
2.6769 5.4651 1.5905
2.4785 5.5556 1.5905
0.8657 2.1438 0.6047
0.7883 2.1734 0.6049
0.7098 2.2002 0.6050
0.6305 2.2242 0.6052
0.5504 2.2453 0.6053
0.4696 2.2636 0.6055
0.3882 2.2791 0.6057
0.3062 2.2915 0.6058
0.2239 2.3011 0.6060
0.1413 2.3078 0.6061
-2.9721 5.1084 1.6938
-3.1536 4.9991 1.6938
-3.3311 4.8833 1.6938
-3.5044 4.7613 1.6938
-3.6733 4.6333 1.6938
-3.8376 4.4993 1.6938
-3.4910 3.8077 1.4793
-3.4972 3.5501 1.4268
-3.3997 3.2122 1.3389
-3.4618 3.0436 1.3193
-3.5134 2.8724 1.2985
-3.5182 2.6718 1.2638
-3.5228 2.4813 1.2324
-3.5271 2.2998 1.2039
-3.5313 2.1261 1.1782
-3.6441 2.0198 1.1906
-3.9890 2.0276 1.2783
-4.3895 2.0366 1.3819
-5.4677 2.3025 1.6938
-5.5485 2.1057 1.6938
-5.6223 1.9062 1.6938
-5.6891 1.7041 1.6938
-5.7486 1.4997 1.6938
-5.8008 1.2933 1.6938
-5.8456 1.0850 1.6938
-5.8830 0.8752 1.6938
-5.9130 0.6641 1.6938
-5.9354 0.4520 1.6938
-5.9502 0.2392 1.6938
-5.9575 0.0259 1.6938
-4.6443 -0.1463 1.3205
-3.7036 -0.2497 1.0544
-3.7072 -0.3838 1.0582
-3.7108 -0.5191 1.0634
-3.7145 -0.6560 1.0701
-3.6933 -0.7896 1.0710
-3.5919 -0.9036 1.0498
-3.5534 -1.0306 1.0482
-3.5722 -1.1763 1.0650
-3.7339 -1.3796 1.1268
-3.7381 -1.5355 1.1434
-3.7424 -1.6963 1.1620
-3.7469 -1.8628 1.1828
-3.7515 -2.0359 1.2060
-3.7564 -2.2162 1.2318
-3.7614 -2.4048 1.2603
-3.7667 -2.6027 1.2920
-3.7723 -2.8113 1.3270
-3.7783 -3.0321 1.3658
-3.7846 -3.2666 1.4089
-3.7913 -3.5170 1.4568
-3.6470 -3.6346 1.4499
-3.5770 -3.8297 1.4750
-3.9490 -4.5437 1.6938
-3.7853 -4.6840 1.6938
-3.6166 -4.8183 1.6938
-3.4431 -4.9465 1.6938
-3.2650 -5.0685 1.6938
-3.0826 -5.1839 1.6938
-2.8961 -5.2928 1.6938
-2.7057 -5.3948 1.6938
-2.5117 -5.4900 1.6938
-2.3143 -5.5781 1.6938
-2.1138 -5.6590 1.6938
-1.9105 -5.7327 1.6938
-1.7046 -5.7990 1.6938
-1.4964 -5.8578 1.6938
-1.2861 -5.9090 1.6938
-1.0741 -5.9527 1.6938
-0.8606 -5.9886 1.6938
-0.6458 -6.0168 1.6938
-0.4302 -6.0372 1.6938
-0.2139 -6.0498 1.6938
0.0027 -6.0546 1.6938
0.2194 -6.0515 1.6938
0.4358 -6.0405 1.6938
0.6518 -6.0217 1.6938
0.8669 -5.9952 1.6938
1.0809 -5.9608 1.6938
1.2936 -5.9187 1.6938
1.5046 -5.8689 1.6938
1.6092 -5.4573 1.5905
1.8035 -5.3963 1.5905
1.9954 -5.3283 1.5905
2.1848 -5.2534 1.5905
2.3713 -5.1717 1.5905
2.5547 -5.0833 1.5905
2.7348 -4.9884 1.5905
2.9113 -4.8869 1.5905
3.0840 -4.7792 1.5905
3.2527 -4.6652 1.5905
3.4171 -4.5453 1.5905
3.5770 -4.4195 1.5905
3.7323 -4.2880 1.5905
3.8826 -4.1510 1.5905
4.0279 -4.0086 1.5905
4.1680 -3.8611 1.5905
4.3026 -3.7087 1.5905
4.4315 -3.5515 1.5905
4.5546 -3.3899 1.5905
4.6718 -3.2239 1.5905
4.7829 -3.0538 1.5905
4.8877 -2.8798 1.5905
4.9862 -2.7023 1.5905
5.0781 -2.5213 1.5905
5.1635 -2.3372 1.5905
5.2421 -2.1502 1.5905
5.3139 -1.9605 1.5905
5.3787 -1.7684 1.5905
5.4098 -1.5664 1.5827
5.4192 -1.3609 1.5707
5.3993 -1.1522 1.5526
5.3779 -0.9477 1.5363
5.3550 -0.7472 1.5217
5.3476 -0.5518 1.5136
5.3546 -0.3594 1.5116
5.3596 -0.1673 1.5110
5.3627 0.0247 1.5118
5.3639 0.2169 1.5140
5.3632 0.4096 1.5176
5.3606 0.6031 1.5227
5.3565 0.7978 1.5293
5.3513 0.9941 1.5377
5.3441 1.1921 1.5476
5.3348 1.3924 1.5591
5.3218 1.5946 1.5717
5.3067 1.7995 1.5860
5.2515 1.9932 1.5905
5.1744 2.1791 1.5905
5.0908 2.3619 1.5905
5.0007 2.5416 1.5905
4.9042 2.7179 1.5905
4.8016 2.8906 1.5905
4.6930 3.0594 1.5905
4.5783 3.2241 1.5905
4.4580 3.3846 1.5905
4.3320 3.5406 1.5905
4.2006 3.6920 1.5905
4.0640 3.8385 1.5905
3.9223 3.9801 1.5905
3.7757 4.1164 1.5905
2.2295 2.6128 0.9784
2.0974 2.6442 0.9618
2.0999 2.8516 1.0096
3.1441 4.6066 1.5905
2.9759 4.7146 1.5905
2.8041 4.8165 1.5905
2.6288 4.9123 1.5905
2.4503 5.0017 1.5905
0.8620 1.9321 0.6044
0.7923 1.9616 0.6045
0.7214 1.9887 0.6047
0.6496 2.0132 0.6048
0.5771 2.0352 0.6050
0.5037 2.0545 0.6051
0.4298 2.0713 0.6053
0.3552 2.0854 0.6054
0.2803 2.0968 0.6056
0.2050 2.1056 0.6057
0.1294 2.1116 0.6058
-2.7378 4.7056 1.6938
-2.9050 4.6048 1.6938
-3.0685 4.4981 1.6938
-3.2281 4.3857 1.6938
-3.3837 4.2677 1.6938
-3.5350 4.1443 1.6938
-3.6819 4.0155 1.6938
-3.8241 3.8816 1.6938
-3.4002 3.2125 1.4538
-3.4572 3.0393 1.4304
-3.5134 2.8721 1.4098
-3.5182 2.6715 1.3721
-3.5228 2.4811 1.3380
-3.5271 2.2995 1.3072
-3.5313 2.1259 1.2793
-3.6436 2.0192 1.2926
-3.9884 2.0270 1.3878
-4.9547 2.2985 1.6938
-5.0354 2.1201 1.6938
-5.1097 1.9389 1.6938
-5.1776 1.7551 1.6938
-5.2389 1.5689 1.6938
-5.2935 1.3806 1.6938
-5.3415 1.1905 1.6938
-5.3826 0.9987 1.6938
-5.4169 0.8055 1.6938
-5.4443 0.6111 1.6938
-5.4648 0.4158 1.6938
-5.4783 0.2198 1.6938
-5.4848 0.0234 1.6938
-4.6384 -0.1465 1.4325
-3.7036 -0.2500 1.1454
-3.7072 -0.3841 1.1496
-3.7108 -0.5194 1.1552
-3.7145 -0.6563 1.1625
-3.6189 -0.7740 1.1401
-3.5308 -0.8886 1.1212
-3.4936 -1.0135 1.1197
-3.5032 -1.1539 1.1348
-3.6248 -1.3396 1.1885
-3.7381 -1.5358 1.2424
-3.7424 -1.6967 1.2627
-3.7469 -1.8632 1.2853
-3.7515 -2.0362 1.3106
-3.7564 -2.2166 1.3386
-3.7614 -2.4052 1.3697
-3.7668 -2.6032 1.4041
-3.7723 -2.8118 1.4422
-4.3110 -3.4601 1.6938
-4.1860 -3.6137 1.6938
-4.0555 -3.7627 1.6938
-3.7243 -3.7122 1.6093
-3.7788 -4.0463 1.6938
-3.6329 -4.1805 1.6938
-3.4821 -4.3095 1.6938
-3.3268 -4.4329 1.6938
-3.1672 -4.5507 1.6938
-3.0033 -4.6628 1.6938
-2.8354 -4.7688 1.6938
-2.6637 -4.8688 1.6938
-2.4886 -4.9626 1.6938
-2.3101 -5.0500 1.6938
-2.1285 -5.1309 1.6938
-1.9440 -5.2052 1.6938
-1.7570 -5.2729 1.6938
-1.5676 -5.3337 1.6938
-1.3760 -5.3877 1.6938
-1.1827 -5.4347 1.6938
-0.9876 -5.4748 1.6938
-0.7913 -5.5077 1.6938
-0.5938 -5.5336 1.6938
-0.3955 -5.5523 1.6938
-0.1966 -5.5638 1.6938
0.0026 -5.5681 1.6938
0.2019 -5.5652 1.6938
0.4009 -5.5551 1.6938
0.5995 -5.5378 1.6938
0.7973 -5.5133 1.6938
0.9941 -5.4816 1.6938
1.1897 -5.4429 1.6938
1.3837 -5.3971 1.6938
1.5447 -5.2382 1.6602
1.6585 -4.9624 1.5905
1.8350 -4.8999 1.5905
2.0091 -4.8311 1.5905
2.1806 -4.7560 1.5905
2.3493 -4.6747 1.5905
2.5149 -4.5874 1.5905
2.6772 -4.4941 1.5905
2.8360 -4.3951 1.5905
2.9912 -4.2904 1.5905
3.1424 -4.1801 1.5905
3.2895 -4.0645 1.5905
3.4323 -3.9436 1.5905
3.5707 -3.8176 1.5905
3.7043 -3.6868 1.5905
3.8331 -3.5512 1.5905
3.9570 -3.4111 1.5905
4.0756 -3.2666 1.5905
4.1889 -3.1180 1.5905
4.2968 -2.9654 1.5905
4.3991 -2.8090 1.5905
4.4956 -2.6491 1.5905
4.5862 -2.4858 1.5905
4.6709 -2.3194 1.5905
4.7495 -2.1501 1.5905
4.8219 -1.9782 1.5905
4.8881 -1.8037 1.5905
4.9479 -1.6271 1.5905
5.0012 -1.4485 1.5905
5.0481 -1.2681 1.5905
5.0885 -1.0862 1.5905
5.1223 -0.9031 1.5905
5.1494 -0.7188 1.5905
5.1699 -0.5338 1.5905
5.1837 -0.3483 1.5905
5.1909 -0.1624 1.5905
5.1913 0.0235 1.5905
5.1851 0.2093 1.5905
5.1721 0.3946 1.5905
5.1526 0.5793 1.5905
5.1264 0.7631 1.5905
5.0937 0.9458 1.5905
5.0545 1.1271 1.5905
5.0088 1.3069 1.5905
4.9567 1.4848 1.5905
4.8983 1.6606 1.5905
4.8337 1.8342 1.5905
4.7629 2.0053 1.5905
4.6860 2.1737 1.5905
4.6032 2.3392 1.5905
4.5146 2.5015 1.5905
4.4203 2.6605 1.5905
4.3204 2.8160 1.5905
4.2150 2.9678 1.5905
4.1044 3.1156 1.5905
3.9885 3.2594 1.5905
3.8677 3.3989 1.5905
3.7420 3.5339 1.5905
3.6116 3.6643 1.5905
3.4767 3.7899 1.5905
2.2269 2.6094 1.0613
2.0938 2.6394 1.0427
2.0962 2.8461 1.0943
2.8955 4.2418 1.5905
2.7407 4.3413 1.5905
2.5825 4.4353 1.5905
2.4211 4.5236 1.5905
0.8571 1.7494 0.6041
0.7938 1.7789 0.6042
0.7296 1.8062 0.6044
0.6643 1.8311 0.6045
0.5982 1.8537 0.6047
0.5314 1.8739 0.6048
0.4639 1.8917 0.6049
0.3958 1.9071 0.6051
0.3272 1.9201 0.6052
0.2582 1.9306 0.6053
0.1888 1.9387 0.6055
0.1192 1.9442 0.6056
-2.5351 4.3571 1.6938
-2.6899 4.2638 1.6938
-2.8413 4.1650 1.6938
-2.9891 4.0609 1.6938
-3.1332 3.9516 1.6938
-3.2732 3.8372 1.6938
-3.4092 3.7179 1.6938
-3.5409 3.5939 1.6938
-3.4580 3.2668 1.5968
-3.4856 3.0640 1.5575
-3.6160 2.9558 1.5671
-3.5182 2.6713 1.4819
-3.5228 2.4808 1.4451
-3.5271 2.2993 1.4118
-3.5313 2.1256 1.3817
-3.6430 2.0187 1.3959
-4.5066 2.2900 1.6938
-4.5870 2.1276 1.6938
-4.6617 1.9624 1.6938
-4.7304 1.7946 1.6938
-4.7931 1.6244 1.6938
-4.8497 1.4520 1.6938
-4.9002 1.2777 1.6938
-4.9445 1.1016 1.6938
-4.9825 0.9241 1.6938
-5.0141 0.7452 1.6938
-5.0393 0.5652 1.6938
-5.0581 0.3845 1.6938
-5.0705 0.2031 1.6938
-5.0764 0.0213 1.6938
-5.0758 -0.1607 1.6938
-3.7036 -0.2503 1.2376
-3.7072 -0.3844 1.2421
-3.7108 -0.5197 1.2483
-3.7145 -0.6566 1.2562
-3.5761 -0.7652 1.2174
-3.4924 -0.8792 1.1984
-3.4557 -1.0028 1.1969
-3.4626 -1.1408 1.2122
-3.5584 -1.3155 1.2610
-3.7381 -1.5362 1.3427
-3.7424 -1.6970 1.3647
-3.7469 -1.8636 1.3893
-3.7515 -2.0366 1.4166
-3.7564 -2.2170 1.4469
-4.3032 -2.7521 1.6938
-4.2035 -2.9055 1.6938
-4.0983 -3.0553 1.6938
-3.9878 -3.2013 1.6938
-3.8721 -3.3432 1.6938
-3.7513 -3.4810 1.6938
-3.6256 -3.6143 1.6938
-3.4951 -3.7431 1.6938
-3.3601 -3.8672 1.6938
-3.2206 -3.9863 1.6938
-3.0769 -4.1004 1.6938
-2.9291 -4.2093 1.6938
-2.7775 -4.3128 1.6938
-2.6221 -4.4108 1.6938
-2.4633 -4.5032 1.6938
-2.3013 -4.5898 1.6938
-2.1362 -4.6705 1.6938
-1.9682 -4.7452 1.6938
-1.7976 -4.8139 1.6938
-1.6246 -4.8764 1.6938
-1.4494 -4.9325 1.6938
-1.2723 -4.9824 1.6938
-1.0934 -5.0258 1.6938
-0.9131 -5.0627 1.6938
-0.7315 -5.0931 1.6938
-0.5489 -5.1170 1.6938
-0.3655 -5.1342 1.6938
-0.1816 -5.1448 1.6938
0.0026 -5.1487 1.6938
0.1868 -5.1460 1.6938
0.3708 -5.1366 1.6938
0.5544 -5.1205 1.6938
0.7373 -5.0979 1.6938
0.9193 -5.0686 1.6938
1.1001 -5.0327 1.6938
1.2795 -4.9904 1.6938
1.4572 -4.9416 1.6938
1.5623 -4.6743 1.6203
1.6967 -4.5307 1.5905
1.8577 -4.4670 1.5905
2.0163 -4.3976 1.5905
2.1722 -4.3225 1.5905
2.3253 -4.2418 1.5905
2.4754 -4.1556 1.5905
2.6223 -4.0640 1.5905
2.7657 -3.9672 1.5905
2.9056 -3.8653 1.5905
3.0416 -3.7584 1.5905
3.1737 -3.6467 1.5905
3.3017 -3.5303 1.5905
3.4253 -3.4093 1.5905
3.5445 -3.2840 1.5905
3.6590 -3.1545 1.5905
3.7688 -3.0209 1.5905
3.8736 -2.8835 1.5905
3.9734 -2.7425 1.5905
4.0680 -2.5979 1.5905
4.1573 -2.4501 1.5905
4.2412 -2.2991 1.5905
4.3197 -2.1453 1.5905
4.3924 -1.9888 1.5905
4.4595 -1.8298 1.5905
4.5208 -1.6685 1.5905
4.5762 -1.5052 1.5905
4.6257 -1.3400 1.5905
4.6692 -1.1732 1.5905
4.7066 -1.0050 1.5905
4.7379 -0.8356 1.5905
4.7632 -0.6653 1.5905
4.7822 -0.4942 1.5905
4.7951 -0.3226 1.5905
4.8019 -0.1506 1.5905
4.8024 0.0214 1.5905
4.7968 0.1932 1.5905
4.7850 0.3647 1.5905
4.7670 0.5356 1.5905
4.7429 0.7056 1.5905
4.7128 0.8747 1.5905
4.6766 1.0425 1.5905
4.6345 1.2088 1.5905
4.5864 1.3734 1.5905
4.5325 1.5362 1.5905
4.4728 1.6969 1.5905
4.4075 1.8553 1.5905
4.3365 2.0111 1.5905
4.2600 2.1643 1.5905
4.1781 2.3146 1.5905
4.0910 2.4618 1.5905
3.9986 2.6058 1.5905
3.9012 2.7463 1.5905
3.7989 2.8832 1.5905
3.6918 3.0164 1.5905
3.5800 3.1456 1.5905
3.4638 3.2706 1.5905
3.3431 3.3914 1.5905
3.2184 3.5078 1.5905
2.2243 2.6058 1.1451
2.0902 2.6345 1.1244
2.0924 2.8406 1.1799
2.6806 3.9264 1.5905
2.5374 4.0187 1.5905
0.9075 1.5584 0.6037
0.8511 1.5899 0.6039
0.7935 1.6193 0.6040
0.7349 1.6466 0.6041
0.6754 1.6718 0.6043
0.6150 1.6949 0.6044
0.5538 1.7158 0.6045
0.4920 1.7345 0.6047
0.4295 1.7510 0.6048
0.3664 1.7652 0.6049
0.3029 1.7772 0.6050
0.2390 1.7870 0.6051
0.1748 1.7944 0.6053
0.1104 1.7996 0.6054
-0.8441 1.4508 0.6064
-0.8957 1.4198 0.6064
-2.6427 3.8737 1.6938
-2.7802 3.7768 1.6938
-2.9141 3.6751 1.6938
-3.0444 3.5687 1.6938
-3.1708 3.4577 1.6938
-3.2932 3.3423 1.6938
-3.4115 3.2226 1.6938
-3.5255 3.0988 1.6938
-3.6350 2.9709 1.6938
-3.7399 2.8393 1.6938
-3.8400 2.7040 1.6938
-3.9353 2.5651 1.6938
-3.5313 2.1254 1.4858
-4.1109 2.2776 1.6938
-4.1910 2.1293 1.6938
-4.2657 1.9783 1.6938
-4.3350 1.8246 1.6938
-4.3989 1.6685 1.6938
-4.4571 1.5102 1.6938
-4.5097 1.3499 1.6938
-4.5565 1.1878 1.6938
-4.5976 1.0240 1.6938
-4.6328 0.8589 1.6938
-4.6621 0.6925 1.6938
-4.6855 0.5252 1.6938
-4.7029 0.3571 1.6938
-4.7143 0.1884 1.6938
-4.7196 0.0194 1.6938
-4.7189 -0.1498 1.6938
-3.7036 -0.2506 1.3312
-3.7072 -0.3847 1.3361
-3.7108 -0.5200 1.3428
-3.7145 -0.6569 1.3513
-3.5571 -0.7614 1.3027
-3.4727 -0.8746 1.2820
-3.4362 -0.9975 1.2804
-3.4439 -1.1350 1.2971
-3.5478 -1.3118 1.3525
-3.7381 -1.5365 1.4446
-3.7424 -1.6974 1.4683
-4.2458 -2.1122 1.6938
-4.1689 -2.2637 1.6938
-4.0867 -2.4124 1.6938
-3.9992 -2.5581 1.6938
-3.9064 -2.7006 1.6938
-3.8086 -2.8398 1.6938
-3.7058 -2.9753 1.6938
-3.5982 -3.1072 1.6938
-3.4859 -3.2351 1.6938
-3.3689 -3.3590 1.6938
-3.2477 -3.4786 1.6938
-3.1221 -3.5938 1.6938
-2.9924 -3.7044 1.6938
-2.8588 -3.8103 1.6938
-2.7214 -3.9114 1.6938
-2.5805 -4.0075 1.6938
-2.4361 -4.0985 1.6938
-2.2886 -4.1842 1.6938
-2.1379 -4.2646 1.6938
-1.9845 -4.3396 1.6938
-1.8284 -4.4089 1.6938
-1.6699 -4.4726 1.6938
-1.5091 -4.5306 1.6938
-1.3464 -4.5827 1.6938
-1.1818 -4.6289 1.6938
-1.0156 -4.6692 1.6938
-0.8481 -4.7035 1.6938
-0.6794 -4.7316 1.6938
-0.5098 -4.7537 1.6938
-0.3394 -4.7697 1.6938
-0.1686 -4.7794 1.6938
0.0025 -4.7831 1.6938
0.1737 -4.7805 1.6938
0.3446 -4.7717 1.6938
0.5151 -4.7568 1.6938
0.6850 -4.7357 1.6938
0.8540 -4.7085 1.6938
1.0220 -4.6752 1.6938
1.1886 -4.6358 1.6938
1.3537 -4.5905 1.6938
1.5171 -4.5392 1.6938
1.5791 -4.2167 1.5935
1.7257 -4.1497 1.5905
1.8730 -4.0852 1.5905
2.0179 -4.0154 1.5905
2.1601 -3.9404 1.5905
2.2995 -3.8604 1.5905
2.4360 -3.7754 1.5905
2.5692 -3.6855 1.5905
2.6991 -3.5908 1.5905
2.8255 -3.4916 1.5905
2.9482 -3.3878 1.5905
3.0671 -3.2797 1.5905
3.1820 -3.1674 1.5905
3.2927 -3.0510 1.5905
3.3992 -2.9307 1.5905
3.5012 -2.8067 1.5905
3.5986 -2.6791 1.5905
3.6914 -2.5481 1.5905
3.7794 -2.4138 1.5905
3.8624 -2.2765 1.5905
3.9404 -2.1363 1.5905
4.0133 -1.9935 1.5905
4.0810 -1.8481 1.5905
4.1434 -1.7004 1.5905
4.2004 -1.5506 1.5905
4.2520 -1.3989 1.5905
4.2980 -1.2454 1.5905
4.3385 -1.0905 1.5905
4.3734 -0.9342 1.5905
4.4026 -0.7768 1.5905
4.4262 -0.6185 1.5905
4.4440 -0.4596 1.5905
4.4561 -0.3001 1.5905
4.4624 -0.1403 1.5905
4.4631 0.0195 1.5905
4.4579 0.1792 1.5905
4.4470 0.3386 1.5905
4.4305 0.4974 1.5905
4.4082 0.6555 1.5905
4.3803 0.8126 1.5905
4.3468 0.9686 1.5905
4.3078 1.1232 1.5905
4.2632 1.2763 1.5905
4.2132 1.4276 1.5905
4.1578 1.5770 1.5905
4.0971 1.7242 1.5905
4.0313 1.8692 1.5905
3.9603 2.0116 1.5905
3.8842 2.1514 1.5905
3.8033 2.2883 1.5905
3.7175 2.4222 1.5905
3.6271 2.5529 1.5905
3.5320 2.6803 1.5905
3.4325 2.8041 1.5905
3.3287 2.9243 1.5905
3.2207 3.0406 1.5905
3.1086 3.1530 1.5905
2.9926 3.2613 1.5905
2.2215 2.6023 1.2299
2.0866 2.6296 1.2070
2.0886 2.8351 1.2665
2.4928 3.6508 1.5905
0.8954 1.4179 0.6035
0.8439 1.4490 0.6036
0.7914 1.4782 0.6038
0.7379 1.5055 0.6039
0.6834 1.5309 0.6040
0.6280 1.5544 0.6042
0.5719 1.5758 0.6043
0.5151 1.5953 0.6044
0.4575 1.6127 0.6045
0.3994 1.6280 0.6046
0.3408 1.6413 0.6048
0.2817 1.6524 0.6049
0.2223 1.6615 0.6050
0.1626 1.6684 0.6051
0.1027 1.6732 0.6052
-0.7879 1.3540 0.6061
-0.8360 1.3250 0.6062
-0.8831 1.2944 0.6062
-2.5958 3.5261 1.6938
-2.7208 3.4311 1.6938
-2.8424 3.3318 1.6938
-2.9605 3.2281 1.6938
-3.0747 3.1203 1.6938
-3.1851 3.0085 1.6938
-3.2915 2.8929 1.6938
-3.3937 2.7735 1.6938
-3.4916 2.6505 1.6938
-3.5851 2.5242 1.6938
-3.6740 2.3945 1.6938
-3.7583 2.2617 1.6938
-3.8378 2.1260 1.6938
-3.9125 1.9876 1.6938
-3.9822 1.8465 1.6938
-4.0469 1.7030 1.6938
-4.1064 1.5573 1.6938
-4.1607 1.4095 1.6938
-4.2097 1.2598 1.6938
-4.2534 1.1084 1.6938
-4.2916 0.9555 1.6938
-4.3244 0.8014 1.6938
-4.3517 0.6461 1.6938
-4.3734 0.4899 1.6938
-4.3895 0.3330 1.6938
-4.4001 0.1755 1.6938
-4.4050 0.0178 1.6938
-4.4043 -0.1401 1.6938
-3.7036 -0.2509 1.4264
-3.7072 -0.3850 1.4317
-3.7108 -0.5203 1.4389
-3.7145 -0.6573 1.4480
-3.5649 -0.7634 1.3989
-3.4733 -0.8750 1.3739
-3.4364 -0.9979 1.3721
-3.4497 -1.1372 1.3923
-4.1458 -1.5334 1.6938
-4.0897 -1.6814 1.6938
-4.0283 -1.8275 1.6938
-3.9616 -1.9712 1.6938
-3.8899 -2.1126 1.6938
-3.8130 -2.2513 1.6938
-3.7313 -2.3872 1.6938
-3.6447 -2.5201 1.6938
-3.5533 -2.6499 1.6938
-3.4573 -2.7763 1.6938
-3.3568 -2.8992 1.6938
-3.2520 -3.0185 1.6938
-3.1428 -3.1340 1.6938
-3.0296 -3.2455 1.6938
-2.9124 -3.3529 1.6938
-2.7914 -3.4561 1.6938
-2.6667 -3.5548 1.6938
-2.5385 -3.6491 1.6938
-2.4070 -3.7386 1.6938
-2.2723 -3.8234 1.6938
-2.1346 -3.9034 1.6938
-1.9941 -3.9783 1.6938
-1.8509 -4.0481 1.6938
-1.7053 -4.1127 1.6938
-1.5574 -4.1721 1.6938
-1.4075 -4.2261 1.6938
-1.2556 -4.2746 1.6938
-1.1021 -4.3177 1.6938
-0.9471 -4.3552 1.6938
-0.7908 -4.3871 1.6938
-0.6335 -4.4134 1.6938
-0.4753 -4.4339 1.6938
-0.3164 -4.4487 1.6938
-0.1571 -4.4578 1.6938
0.0024 -4.4611 1.6938
0.1621 -4.4587 1.6938
0.3215 -4.4505 1.6938
0.4805 -4.4366 1.6938
0.6390 -4.4169 1.6938
0.7966 -4.3915 1.6938
0.9532 -4.3604 1.6938
1.1086 -4.3237 1.6938
1.2626 -4.2814 1.6938
1.4149 -4.2335 1.6938
1.5655 -4.1802 1.6938
1.6095 -3.8703 1.5905
1.7469 -3.8101 1.5905
1.8820 -3.7451 1.5905
2.0146 -3.6752 1.5905
2.1446 -3.6005 1.5905
2.2719 -3.5213 1.5905
2.3962 -3.4374 1.5905
2.5173 -3.3492 1.5905
2.6353 -3.2566 1.5905
2.7497 -3.1599 1.5905
2.8606 -3.0591 1.5905
2.9678 -2.9544 1.5905
3.0711 -2.8459 1.5905
3.1704 -2.7337 1.5905
3.2656 -2.6181 1.5905
3.3565 -2.4991 1.5905
3.4431 -2.3769 1.5905
3.5252 -2.2517 1.5905
3.6027 -2.1237 1.5905
3.6755 -1.9930 1.5905
3.7436 -1.8597 1.5905
3.8068 -1.7242 1.5905
3.8650 -1.5864 1.5905
3.9183 -1.4467 1.5905
3.9664 -1.3052 1.5905
4.0095 -1.1621 1.5905
4.0473 -1.0176 1.5905
4.0799 -0.8718 1.5905
4.1073 -0.7250 1.5905
4.1293 -0.5774 1.5905
4.1460 -0.4291 1.5905
4.1574 -0.2803 1.5905
4.1634 -0.1313 1.5905
4.1640 0.0179 1.5905
4.1593 0.1669 1.5905
4.1493 0.3156 1.5905
4.1339 0.4638 1.5905
4.1133 0.6113 1.5905
4.0873 0.7579 1.5905
4.0561 0.9034 1.5905
4.0198 1.0477 1.5905
3.9783 1.1906 1.5905
3.9317 1.3318 1.5905
3.8801 1.4713 1.5905
3.8236 1.6087 1.5905
3.7622 1.7440 1.5905
3.6960 1.8770 1.5905
3.6251 2.0075 1.5905
3.5496 2.1353 1.5905
3.4697 2.2603 1.5905
3.3853 2.3824 1.5905
3.2967 2.5013 1.5905
3.2039 2.6169 1.5905
3.1071 2.7291 1.5905
3.0063 2.8378 1.5905
2.9018 2.9427 1.5905
2.7936 3.0439 1.5905
2.2188 2.5987 1.3159
2.0830 2.6246 1.2907
2.0847 2.8294 1.3542
0.8828 1.2927 0.6033
0.8358 1.3234 0.6035
0.7878 1.3524 0.6036
0.7388 1.3797 0.6037
0.6888 1.4052 0.6038
0.6380 1.4289 0.6040
0.5863 1.4508 0.6041
0.5339 1.4708 0.6042
0.4808 1.4890 0.6043
0.4271 1.5052 0.6044
0.3729 1.5195 0.6045
0.3181 1.5319 0.6046
0.2630 1.5423 0.6047
0.2076 1.5508 0.6048
0.1518 1.5572 0.6049
0.0959 1.5617 0.6050
-0.7378 1.2679 0.6059
-0.7829 1.2408 0.6060
-0.8270 1.2120 0.6060
-0.8700 1.1818 0.6060
-2.5488 3.2140 1.6938
-2.6627 3.1209 1.6938
-2.7733 3.0238 1.6938
-2.8803 2.9228 1.6938
-2.9837 2.8180 1.6938
-3.0833 2.7097 1.6938
-3.1790 2.5978 1.6938
-3.2707 2.4826 1.6938
-3.3582 2.3642 1.6938
-3.4415 2.2427 1.6938
-3.5204 2.1183 1.6938
-3.5948 1.9912 1.6938
-3.6647 1.8614 1.6938
-3.7300 1.7293 1.6938
-3.7905 1.5948 1.6938
-3.8462 1.4583 1.6938
-3.8970 1.3198 1.6938
-3.9429 1.1796 1.6938
-3.9837 1.0378 1.6938
-4.0194 0.8946 1.6938
-4.0501 0.7502 1.6938
-4.0756 0.6048 1.6938
-4.0958 0.4585 1.6938
-4.1109 0.3115 1.6938
-4.1207 0.1641 1.6938
-4.1252 0.0163 1.6938
-4.1245 -0.1316 1.6938
-4.1184 -0.2793 1.6938
-4.1071 -0.4268 1.6938
-4.0905 -0.5739 1.6938
-4.0686 -0.7203 1.6938
-3.6238 -0.7764 1.5187
-3.5031 -0.8828 1.4799
-3.4650 -1.0065 1.4776
-3.4982 -1.1535 1.5079
-3.8817 -1.4361 1.6938
-3.8291 -1.5747 1.6938
-3.7715 -1.7114 1.6938
-3.7090 -1.8459 1.6938
-3.6418 -1.9782 1.6938
-3.5698 -2.1080 1.6938
-3.4932 -2.2352 1.6938
-3.4120 -2.3596 1.6938
-3.3264 -2.4811 1.6938
-3.2365 -2.5994 1.6938
-3.1424 -2.7145 1.6938
-3.0442 -2.8261 1.6938
-2.9419 -2.9341 1.6938
-2.8359 -3.0385 1.6938
-2.7261 -3.1390 1.6938
-2.6128 -3.2355 1.6938
-2.4961 -3.3278 1.6938
-2.3760 -3.4160 1.6938
-2.2529 -3.4998 1.6938
-2.1268 -3.5791 1.6938
-1.9978 -3.6538 1.6938
-1.8663 -3.7239 1.6938
-1.7323 -3.7892 1.6938
-1.5959 -3.8497 1.6938
-1.4575 -3.9052 1.6938
-1.3172 -3.9557 1.6938
-1.1751 -4.0011 1.6938
-1.0314 -4.0413 1.6938
