ply
format ascii 1.0
element vertex 2146
property float32 x
property float32 y
property float32 z
end_header
-10.6124 4.4230 0.9099
-10.6288 3.9885 0.8960
-10.6448 3.5642 0.8836
-10.5703 3.1221 0.8650
-10.6051 2.7227 0.8568
-12.2568 2.6819 0.9788
-17.5031 3.1764 1.3834
-20.5315 2.9694 1.6080
-20.6932 2.2381 1.6080
-20.8307 1.4992 1.6080
-20.9436 0.7534 1.6080
-21.0313 0.0015 1.6080
-17.6870 -0.6338 1.3483
-11.8756 -0.8530 0.9038
-9.7503 -1.0531 0.7417
-9.7638 -1.4106 0.7432
-9.7774 -1.7727 0.7458
-9.7913 -2.1407 0.7493
-9.8102 -2.5167 0.7542
-9.8242 -2.8997 0.7598
-9.8384 -3.2920 0.7665
-9.8530 -3.6949 0.7744
-9.8656 -4.1090 0.7833
-9.8818 -4.5383 0.7938
-9.8990 -4.9837 0.8058
-9.9160 -5.4466 0.8192
-9.9343 -5.9301 0.8344
-9.9534 -6.4367 0.8514
-9.9735 -6.9694 0.8705
-9.9947 -7.5318 0.8917
-10.0433 -8.1493 0.9179
-10.0645 -8.7835 0.9443
-10.0668 -9.4425 0.9719
-10.0943 -10.1730 1.0052
-15.6177 -16.9116 1.6084
-11.6558 -13.5669 1.2450
-10.8589 -13.5970 1.2067
-7.3691 -9.9382 0.8548
-6.9455 -10.1052 0.8441
-12.5798 -19.7872 1.6084
-11.9034 -20.2960 1.6084
-11.2059 -20.7802 1.6084
-10.4016 -21.0636 1.5951
-9.6707 -21.4920 1.5951
-8.9215 -21.8930 1.5951
-8.1553 -22.2658 1.5951
-7.3731 -22.6095 1.5951
-6.8816 -23.9886 1.6693
-6.1384 -24.7086 1.6984
-5.2620 -24.9766 1.6984
-4.3736 -25.2104 1.6984
-3.4749 -25.4095 1.6984
-2.5672 -25.5733 1.6984
-0.8414 -13.0899 0.8650
-0.3714 -13.1075 0.8631
0.0989 -13.1251 0.8624
0.5707 -13.1428 0.8630
1.9282 -24.2771 1.5953
2.6237 -22.6902 1.4943
3.6720 -24.1357 1.5953
4.5395 -24.0124 1.5953
5.4805 -24.2005 1.6184
5.5876 -21.1264 1.4244
5.9501 -19.6218 1.3358
6.6343 -19.3508 1.3322
7.4313 -19.3808 1.3515
7.7433 -18.2127 1.2885
7.7061 -16.4598 1.1835
7.9088 -15.4269 1.1292
8.5370 -15.2768 1.1404
9.2876 -15.3042 1.1673
10.0744 -15.3330 1.1972
10.2178 -14.3985 1.1532
10.2346 -13.3786 1.1014
9.6258 -11.6892 0.9914
9.6554 -10.9038 0.9549
9.6829 -10.1752 0.9223
9.7086 -9.4958 0.8932
9.7326 -8.8592 0.8672
7.9105 -6.6981 0.6844
9.7765 -7.6936 0.8231
9.7968 -7.1560 0.8045
9.8161 -6.6439 0.7879
9.8346 -6.1541 0.7731
9.8523 -5.6840 0.7600
9.8900 -5.2424 0.7500
9.9069 -4.8045 0.7398
9.9233 -4.3802 0.7310
7.8690 -3.1413 0.5728
10.2872 7.4774 1.2457
10.3959 8.1421 1.2972
10.3566 8.7286 1.3343
12.1390 10.9995 1.6184
11.7037 11.3960 1.6184
2.7165 2.8420 0.3906
10.7972 12.1397 1.6184
10.3272 12.4863 1.6184
9.8470 12.8156 1.6184
6.8588 9.6227 1.1863
8.8580 13.4216 1.6184
8.3505 13.6979 1.6184
7.8351 13.9562 1.6184
7.3126 14.1962 1.6184
6.7835 14.4179 1.6184
6.1590 14.4120 1.5953
5.6263 14.5940 1.5953
5.0888 14.7575 1.5953
4.5473 14.9027 1.5953
4.0022 15.0293 1.5953
3.4542 15.1374 1.5953
2.9039 15.2269 1.5953
2.5038 16.2865 1.6984
1.9148 16.3423 1.6984
1.3251 16.3783 1.6984
0.7353 16.3948 1.6984
0.1461 16.3915 1.6984
-0.4419 16.3687 1.6984
-1.0283 16.3265 1.6984
-1.6124 16.2648 1.6984
-2.1936 16.1840 1.6984
-2.7713 16.0839 1.6984
-3.3451 15.9649 1.6984
-3.9142 15.8270 1.6984
-4.4783 15.6705 1.6984
-5.0366 15.4954 1.6984
-5.4558 14.9380 1.6580
-3.1934 7.8561 0.8842
-3.2242 7.1814 0.8207
-3.3366 6.7701 0.7868
-3.6521 6.7845 0.8030
-7.7370 13.2131 1.5952
-8.2099 12.9324 1.5952
-8.6735 12.6360 1.5952
-9.1273 12.3243 1.5951
-9.6494 12.0958 1.6082
-10.0859 11.7515 1.6082
-10.5112 11.3926 1.6082
-10.9248 11.0193 1.6082
-10.3225 9.6899 1.4657
-10.4354 9.1137 1.4326
-10.4589 8.4921 1.3912
-10.3924 7.8362 1.3421
-10.5022 7.3429 1.3194
-10.5224 6.8081 1.2883
-10.5417 6.2956 1.2600
-10.5603 5.8029 1.2344
-10.4888 5.2826 1.2008
-10.5956 4.8678 1.1900
-10.6124 4.4214 1.1709
-10.6288 3.9868 1.1537
-10.6448 3.5625 1.1384
-10.5703 3.1205 1.1152
-10.6065 2.7214 1.1054
-12.2676 2.6823 1.2647
-15.7492 2.8556 1.6080
-15.8814 2.2943 1.6080
-15.9946 1.7273 1.6080
-16.0885 1.1553 1.6080
-16.1629 0.5787 1.6080
-16.2176 -0.0016 1.6080
-16.2523 -0.5852 1.6080
-11.8564 -0.8537 1.1721
-9.7504 -1.0549 0.9642
-9.7639 -1.4124 0.9671
-9.7775 -1.7746 0.9713
-9.7914 -2.1426 0.9768
-9.8055 -2.5175 0.9836
-9.8200 -2.9004 0.9918
-9.8348 -3.2928 1.0016
-9.8500 -3.6958 1.0129
-9.8657 -4.1112 1.0258
-9.8819 -4.5406 1.0406
-9.8987 -4.9858 1.0572
-9.9161 -5.4491 1.0759
-9.9344 -5.9327 1.0969
-9.9535 -6.4393 1.1204
-9.9736 -6.9722 1.1465
-9.9948 -7.5347 1.1757
-10.0343 -8.1450 1.2103
-10.0557 -8.7789 1.2463
-10.0669 -9.4459 1.2850
-10.0945 -10.1767 1.3303
-11.7897 -12.7708 1.6084
-11.3568 -13.2233 1.6084
-10.8104 -13.5408 1.5943
-6.9337 -9.3542 1.0684
-6.6253 -9.6426 1.0706
-9.3754 -14.7518 1.5951
-8.8636 -15.1180 1.5951
-8.3371 -15.4655 1.5951
-7.7966 -15.7938 1.5951
-7.2428 -16.1020 1.5951
-6.6764 -16.3897 1.5951
-6.4930 -17.7343 1.6984
-5.8658 -17.9949 1.6984
-5.2279 -18.2317 1.6984
-4.5800 -18.4444 1.6984
-3.9234 -18.6324 1.6984
-3.2588 -18.7953 1.6984
-2.5873 -18.9326 1.6984
-1.3148 -13.1091 1.1691
-0.8404 -13.0921 1.1624
-0.3704 -13.1097 1.1604
0.0998 -13.1273 1.1600
0.5717 -13.1450 1.1612
1.4338 -18.0386 1.5953
2.0815 -17.9931 1.5953
2.7275 -17.9222 1.5953
3.3707 -17.8262 1.5953
4.0100 -17.7049 1.5953
4.6445 -17.5586 1.5953
5.2729 -17.3876 1.5953
5.9800 -17.4416 1.6184
6.6023 -17.2185 1.6184
7.2154 -16.9711 1.6184
7.7061 -16.4602 1.5952
7.9089 -15.4276 1.5220
8.5351 -15.2742 1.5366
9.2850 -15.3010 1.5725
9.8316 -14.9645 1.5740
9.9201 -13.9801 1.5080
9.9581 -13.0185 1.4430
9.6258 -11.6905 1.3345
9.6554 -10.9050 1.2849
9.6829 -10.1765 1.2406
9.7085 -9.4971 1.2010
9.7325 -8.8606 1.1655
7.9094 -6.6983 0.9191
9.7765 -7.6950 1.1051
9.7968 -7.1575 1.0795
9.8161 -6.6453 1.0565
9.8346 -6.1555 1.0360
9.8523 -5.6855 1.0178
9.8826 -5.2399 1.0029
9.8996 -4.8025 0.9886
9.9158 -4.3784 0.9761
7.8690 -3.1425 0.7648
10.2870 7.4744 1.5353
10.3106 8.0723 1.5848
10.2029 8.5959 1.6184
9.8649 8.9357 1.6184
9.5162 9.2628 1.6184
2.7164 2.8410 0.4801
8.7880 9.8774 1.6184
8.4096 10.1644 1.6184
8.0224 10.4375 1.6184
7.6268 10.6965 1.6184
7.2233 10.9412 1.6184
6.8126 11.1714 1.6184
6.3034 11.2240 1.5953
5.8856 11.4218 1.5953
5.4619 11.6048 1.5953
5.0331 11.7730 1.5953
4.5995 11.9261 1.5953
4.1617 12.0640 1.5953
3.7202 12.1868 1.5953
3.2754 12.2944 1.5953
2.8279 12.3866 1.5953
2.5319 13.2689 1.6984
2.0513 13.3344 1.6984
1.5693 13.3836 1.6984
1.0866 13.4164 1.6984
0.6035 13.4328 1.6984
0.1207 13.4330 1.6984
-0.3614 13.4168 1.6984
-0.8422 13.3845 1.6984
-1.3213 13.3361 1.6984
-1.7982 13.2716 1.6984
-2.2723 13.1911 1.6984
-2.7432 13.0948 1.6984
-3.2104 12.9828 1.6984
-3.6734 12.8552 1.6984
-4.1318 12.7122 1.6984
-4.5849 12.5539 1.6984
-3.1934 7.8561 1.0777
-3.2242 7.1812 1.0004
-3.3365 6.7696 0.9590
-3.6520 6.7840 0.9788
-6.3472 10.8390 1.5953
-6.7347 10.6079 1.5952
-7.1144 10.3638 1.5952
-7.4858 10.1069 1.5952
-7.8487 9.8375 1.5952
-8.2025 9.5559 1.5952
-8.5469 9.2623 1.5952
-8.8815 8.9570 1.5952
-9.2059 8.6404 1.5951
-9.5197 8.3126 1.5951
-9.9033 8.0395 1.6082
-10.1964 7.6869 1.6080
-10.4787 7.3249 1.6080
-10.5225 6.8065 1.5741
-10.5418 6.2940 1.5401
-10.5604 5.8013 1.5092
-10.4888 5.2810 1.4686
-10.5957 4.8662 1.4559
-10.6125 4.4198 1.4331
-10.6289 3.9852 1.4126
-10.6449 3.5609 1.3943
-10.5704 3.1188 1.3665
-10.6079 2.7200 1.3553
-12.2786 2.6827 1.5524
-12.8362 2.3253 1.6080
-12.9380 1.8669 1.6080
-13.0240 1.4044 1.6080
-13.0942 0.9381 1.6080
-13.1483 0.4685 1.6080
-13.1861 -0.0036 1.6080
-13.2075 -0.4779 1.6080
-11.8373 -0.8544 1.4407
-9.7504 -1.0566 1.1878
-9.7639 -1.4142 1.1920
-9.7776 -1.7764 1.1978
-9.7915 -2.1445 1.2052
-9.8056 -2.5194 1.2143
-9.8201 -2.9024 1.2252
-9.8349 -3.2948 1.2379
-9.8501 -3.6980 1.2526
-9.8657 -4.1134 1.2694
-9.8819 -4.5429 1.2884
-9.8987 -4.9882 1.3098
-9.9162 -5.4515 1.3338
-9.9345 -5.9352 1.3606
-9.9536 -6.4420 1.3905
-9.9737 -6.9749 1.4238
-9.9949 -7.5376 1.4609
-10.0253 -8.1406 1.5034
-10.0469 -8.7744 1.5491
-10.0391 -9.4231 1.5951
-9.7179 -9.8004 1.5951
-9.3823 -10.1665 1.5951
-9.0327 -10.5208 1.5951
-8.6694 -10.8627 1.5951
-6.9315 -9.3543 1.3333
-6.6255 -9.6460 1.3371
-7.5022 -11.8085 1.5951
-7.0890 -12.0953 1.5951
-6.6644 -12.3670 1.5951
-6.4714 -13.1139 1.6571
-6.1583 -13.6959 1.6984
-5.6740 -13.9340 1.6984
-5.1802 -14.1541 1.6984
-4.6777 -14.3558 1.6984
-4.1671 -14.5386 1.6984
-3.6491 -14.7023 1.6984
-3.1245 -14.8464 1.6984
-2.5941 -14.9706 1.6984
-2.0587 -15.0747 1.6984
-1.3152 -13.1246 1.4705
-0.8520 -13.2898 1.4828
-0.4302 -15.2641 1.6984
0.1031 -13.4368 1.4930
0.5738 -13.1752 1.4638
1.2143 -15.2657 1.6984
1.6550 -14.3001 1.5953
2.1680 -14.2414 1.5953
2.6786 -14.1629 1.5953
3.1860 -14.0648 1.5953
3.6895 -13.9472 1.5953
4.1883 -13.8102 1.5953
4.6816 -13.6541 1.5953
5.1685 -13.4791 1.5953
5.7304 -13.4784 1.6184
6.2093 -13.2633 1.6184
6.6795 -13.0300 1.6184
7.1403 -12.7788 1.6184
7.5909 -12.5101 1.6184
8.0307 -12.2244 1.6184
8.4590 -11.9221 1.6184
8.8751 -11.6038 1.6184
9.2785 -11.2699 1.6184
9.6554 -10.9063 1.6163
9.6828 -10.1778 1.5602
9.7085 -9.4985 1.5100
9.7325 -8.8619 1.4650
7.9083 -6.6985 1.1548
9.7764 -7.6964 1.3882
9.7967 -7.1589 1.3556
9.8160 -6.6467 1.3263
9.8345 -6.1570 1.3001
9.8522 -5.6870 1.2766
9.8751 -5.2375 1.2565
9.8921 -4.8004 1.2381
9.9074 -4.3762 1.2218
7.8689 -3.1437 0.9576
9.1157 6.6208 1.6184
8.8544 6.9296 1.6184
8.5830 7.2285 1.6184
8.3017 7.5171 1.6184
8.0111 7.7951 1.6184
2.7164 2.8399 0.5701
7.4033 8.3182 1.6184
7.0869 8.5628 1.6184
6.7629 8.7958 1.6184
6.3395 8.8881 1.5953
6.0060 9.0943 1.5953
5.6662 9.2885 1.5953
5.3205 9.4705 1.5953
4.9692 9.6402 1.5953
4.6129 9.7974 1.5953
4.2519 9.9420 1.5953
3.8867 10.0739 1.5953
3.5177 10.1930 1.5953
3.1453 10.2991 1.5953
2.7700 10.3924 1.5953
2.4674 10.8021 1.6455
2.1423 11.2209 1.6984
1.7361 11.2785 1.6984
1.3287 11.3221 1.6984
0.9203 11.3517 1.6984
0.5117 11.3674 1.6984
0.1030 11.3692 1.6984
-0.3051 11.3571 1.6984
-0.7123 11.3311 1.6984
-1.1181 11.2913 1.6984
-1.5221 11.2377 1.6984
-1.9238 11.1705 1.6984
-2.3228 11.0897 1.6984
-2.7187 10.9955 1.6984
-3.1110 10.8879 1.6984
-3.4994 10.7671 1.6984
-3.8834 10.6333 1.6984
-3.1934 7.8560 1.2724
-3.2242 7.1811 1.1810
-3.3363 6.7691 1.1321
-3.6519 6.7834 1.1555
-5.6139 9.5862 1.6659
-5.7040 8.9837 1.5953
-6.0252 8.7764 1.5953
-6.3394 8.5582 1.5953
-6.6461 8.3292 1.5953
-6.9450 8.0899 1.5952
-7.2357 7.8404 1.5952
-7.5181 7.5810 1.5952
-7.7916 7.3119 1.5952
-8.0561 7.0333 1.5952
-8.3111 6.7457 1.5952
-8.5564 6.4493 1.5952
-8.7917 6.1443 1.5952
-9.0167 5.8311 1.5952
-9.2311 5.5101 1.5951
-9.4346 5.1815 1.5951
-9.6270 4.8456 1.5951
-9.8080 4.5029 1.5951
-10.0581 4.1873 1.6080
-10.2169 3.8291 1.6080
-10.3635 3.4651 1.6080
-10.4976 3.0957 1.6080
-10.6093 2.7187 1.6066
-10.7277 2.3421 1.6080
-10.8233 1.9589 1.6080
-10.9056 1.5719 1.6080
-10.9746 1.1815 1.6080
-11.0300 0.7883 1.6080
-11.0718 0.3927 1.6080
-11.0998 -0.0049 1.6080
-11.1138 -0.4041 1.6080
-11.1139 -0.8042 1.6080
-9.7505 -1.0584 1.4126
-9.7640 -1.4160 1.4181
-9.7777 -1.7783 1.4255
-9.7915 -2.1464 1.4349
-9.8057 -2.5214 1.4463
-9.8201 -2.9044 1.4599
-9.8350 -3.2969 1.4756
-9.8502 -3.7001 1.4937
-9.8658 -4.1156 1.5143
-9.8820 -4.5451 1.5376
-9.8988 -4.9906 1.5638
-9.9163 -5.4540 1.5931
-9.7474 -5.8259 1.5951
-9.5522 -6.1847 1.5951
-9.3438 -6.5370 1.5951
-9.1223 -6.8822 1.5951
-8.8880 -7.2198 1.5951
-8.6410 -7.5493 1.5951
-8.3817 -7.8702 1.5951
-8.1104 -8.1820 1.5951
-7.8272 -8.4843 1.5951
-7.5327 -8.7766 1.5951
-7.2270 -9.0584 1.5951
-6.9106 -9.3292 1.5951
-6.5838 -9.5886 1.5951
-6.3599 -10.0137 1.6239
-6.2828 -10.7235 1.6984
-5.9045 -10.9606 1.6984
-5.5170 -11.1839 1.6984
-5.1209 -11.3929 1.6984
-4.7166 -11.5874 1.6984
-4.3048 -11.7668 1.6984
-3.8860 -11.9309 1.6984
-3.4607 -12.0795 1.6984
-3.0296 -12.2121 1.6984
-2.5933 -12.3286 1.6984
-2.1524 -12.4288 1.6984
-1.7076 -12.5123 1.6984
-1.2594 -12.5791 1.6984
-0.8086 -12.6289 1.6984
-0.3559 -12.6617 1.6984
0.0982 -12.6774 1.6984
0.5529 -12.6758 1.6984
1.0075 -12.6570 1.6984
1.4613 -12.6209 1.6984
1.7976 -11.8047 1.5953
2.2205 -11.7385 1.5953
2.6408 -11.6562 1.5953
3.0578 -11.5580 1.5953
3.4709 -11.4440 1.5953
3.8794 -11.3142 1.5953
4.2828 -11.1690 1.5953
4.6803 -11.0085 1.5953
5.0715 -10.8331 1.5953
5.4556 -10.6428 1.5953
5.9169 -10.5897 1.6184
6.2906 -10.3678 1.6184
6.6555 -10.1318 1.6184
7.0111 -9.8823 1.6184
7.3567 -9.6195 1.6184
7.6920 -9.3439 1.6184
8.0163 -9.0560 1.6184
8.3293 -8.7562 1.6184
8.6305 -8.4450 1.6184
8.9194 -8.1229 1.6184
7.9072 -6.6987 1.3917
8.4804 -6.6774 1.4510
8.7045 -6.3620 1.4510
8.9163 -6.0388 1.4510
9.1155 -5.7082 1.4510
9.3020 -5.3708 1.4510
9.4754 -5.0270 1.4510
9.6357 -4.6774 1.4510
9.7825 -4.3226 1.4510
7.8689 -3.1449 1.1515
7.8557 5.7035 1.6184
7.6326 5.9712 1.6184
7.4006 6.2305 1.6184
7.1601 6.4810 1.6184
6.9112 6.7225 1.6184
2.7163 2.8389 0.6606
6.2987 7.0747 1.5953
6.0311 7.2846 1.5953
5.7567 7.4847 1.5953
5.4760 7.6748 1.5953
5.1892 7.8547 1.5953
4.8967 8.0243 1.5953
4.5989 8.1833 1.5953
4.2963 8.3317 1.5953
3.9890 8.4693 1.5953
3.6776 8.5960 1.5953
3.3624 8.7117 1.5953
3.0438 8.8163 1.5953
2.7221 8.9098 1.5953
2.4072 9.0272 1.6015
2.2050 9.6484 1.6984
1.8552 9.7118 1.6984
1.5038 9.7630 1.6984
1.1512 9.8020 1.6984
0.7977 9.8289 1.6984
0.4439 9.8437 1.6984
0.0899 9.8463 1.6984
-0.2636 9.8367 1.6984
-0.6164 9.8151 1.6984
-0.9681 9.7814 1.6984
-1.3182 9.7357 1.6984
-1.6663 9.6781 1.6984
-2.0122 9.6086 1.6984
-2.3554 9.5273 1.6984
-2.6955 9.4344 1.6984
-3.0321 9.3299 1.6984
-3.3650 9.2141 1.6984
-3.6937 9.0869 1.6984
-3.2242 7.1809 1.3629
-3.3362 6.7686 1.3064
-3.6518 6.7829 1.3335
-4.9594 8.4681 1.6984
-5.2618 8.2867 1.6984
-5.5579 8.0950 1.6984
-5.6859 7.6753 1.6515
-5.7579 7.2154 1.5953
-6.0165 7.0075 1.5953
-6.2679 6.7908 1.5953
-6.5119 6.5654 1.5953
-6.7481 6.3316 1.5953
-6.9764 6.0897 1.5952
-7.1964 5.8399 1.5952
-7.4079 5.5825 1.5952
-7.6105 5.3177 1.5952
-7.8042 5.0458 1.5952
-7.9885 4.7672 1.5952
-8.1633 4.4820 1.5952
-8.3281 4.1905 1.5951
-8.4832 3.8933 1.5951
-8.6281 3.5906 1.5951
-8.7626 3.2827 1.5951
-8.8865 2.9699 1.5951
-8.9996 2.6525 1.5951
-9.1018 2.3309 1.5951
-9.1929 2.0056 1.5951
-9.2727 1.6768 1.5951
-9.3411 1.3448 1.5951
-9.3979 1.0102 1.5951
-9.4431 0.6733 1.5951
-9.4765 0.3345 1.5951
-9.4980 -0.0059 1.5951
-9.5076 -0.3474 1.5951
-9.5051 -0.6895 1.5951
-9.4906 -1.0319 1.5951
-9.4639 -1.3742 1.5951
-9.4251 -1.7160 1.5951
-9.3741 -2.0567 1.5951
-9.3110 -2.3960 1.5951
-9.2357 -2.7335 1.5951
-9.1482 -3.0686 1.5951
-9.0487 -3.4010 1.5951
-8.9372 -3.7302 1.5951
-8.8138 -4.0558 1.5951
-8.6785 -4.3774 1.5951
-8.5315 -4.6944 1.5951
-8.3729 -5.0065 1.5951
-8.2029 -5.3132 1.5951
-8.0216 -5.6141 1.5951
-7.8291 -5.9088 1.5951
-7.6258 -6.1968 1.5951
-7.4118 -6.4777 1.5951
-7.1873 -6.7511 1.5951
-6.9527 -7.0165 1.5951
-6.7081 -7.2737 1.5951
-6.4737 -7.5454 1.6001
-6.2806 -7.8748 1.6184
-6.2975 -8.5044 1.6975
-6.0011 -8.7429 1.6984
-5.6927 -8.9663 1.6984
-5.3758 -9.1785 1.6984
-5.0508 -9.3792 1.6984
-4.7182 -9.5680 1.6984
-4.3784 -9.7445 1.6984
-4.0318 -9.9086 1.6984
-3.6789 -10.0598 1.6984
-3.3202 -10.1980 1.6984
-2.9561 -10.3229 1.6984
-2.5873 -10.4342 1.6984
-2.2142 -10.5318 1.6984
-1.8373 -10.6155 1.6984
-1.4572 -10.6850 1.6984
-1.0744 -10.7404 1.6984
-0.6894 -10.7814 1.6984
-0.3029 -10.8079 1.6984
0.0846 -10.8199 1.6984
0.4725 -10.8173 1.6984
0.8603 -10.8001 1.6984
1.2474 -10.7684 1.6984
1.6332 -10.7220 1.6984
1.8947 -10.0140 1.5953
2.2531 -9.9432 1.5953
2.6086 -9.8590 1.5953
2.9608 -9.7613 1.5953
3.3091 -9.6504 1.5953
3.6530 -9.5265 1.5953
3.9920 -9.3896 1.5953
4.3256 -9.2401 1.5953
4.6533 -9.0780 1.5953
4.9746 -8.9038 1.5953
5.2890 -8.7176 1.5953
5.5961 -8.5197 1.5953
5.9810 -8.4311 1.6184
6.2763 -8.2076 1.6184
6.5629 -7.9733 1.6184
6.8403 -7.7284 1.6184
7.1081 -7.4734 1.6184
7.3660 -7.2087 1.6184
7.6135 -6.9347 1.6184
7.6598 -6.4903 1.5791
7.6766 -6.0456 1.5383
7.6925 -5.6236 1.5016
7.7077 -5.2214 1.4686
7.7871 -4.8775 1.4510
7.9479 -4.5901 1.4510
8.0977 -4.2973 1.4510
8.2363 -3.9994 1.4510
8.3635 -3.6969 1.4510
7.8688 -3.1461 1.3465
6.8957 5.0045 1.6184
6.7013 5.2406 1.6184
6.4989 5.4693 1.6184
6.1990 5.6091 1.5953
5.9847 5.8193 1.5953
2.7162 2.8378 0.7518
5.5357 6.2156 1.5953
5.3015 6.4012 1.5953
5.0613 6.5783 1.5953
4.8153 6.7466 1.5953
4.5640 6.9060 1.5953
4.3075 7.0563 1.5953
4.0463 7.1974 1.5953
3.7806 7.3291 1.5953
3.5109 7.4513 1.5953
3.2373 7.5640 1.5953
2.9603 7.6669 1.5953
2.6802 7.7601 1.5953
2.3974 7.8434 1.5953
0.8185 3.0680 0.6182
0.7078 3.0954 0.6188
0.5961 3.1188 0.6193
0.4837 3.1383 0.6199
0.3707 3.1537 0.6204
0.2572 3.1651 0.6208
0.1433 3.1725 0.6213
0.0292 3.1758 0.6217
-0.0849 3.1750 0.6221
-0.1989 3.1702 0.6225
-0.3127 3.1613 0.6229
-0.4261 3.1484 0.6232
-0.5390 3.1315 0.6235
-0.6513 3.1105 0.6238
-0.7627 3.0855 0.6241
-0.8732 3.0566 0.6243
-2.6725 8.2237 1.6984
-2.9660 8.1216 1.6984
-3.2557 8.0095 1.6984
-3.5415 7.8875 1.6984
-3.8229 7.7558 1.6984
-4.0996 7.6144 1.6984
-4.3714 7.4636 1.6984
-4.6378 7.3035 1.6984
-4.8987 7.1342 1.6984
-5.1536 6.9561 1.6984
-5.4024 6.7692 1.6984
-5.6447 6.5737 1.6984
-5.7409 6.2190 1.6581
-5.7669 5.8135 1.6033
-5.9457 5.5779 1.5953
-6.1463 5.3642 1.5953
-6.3396 5.1436 1.5953
-6.5253 4.9164 1.5953
-6.7031 4.6826 1.5953
-6.8729 4.4426 1.5952
-7.0339 4.1964 1.5951
-7.1870 3.9448 1.5951
-7.3313 3.6878 1.5951
-7.4669 3.4258 1.5951
-7.5934 3.1588 1.5951
-7.7106 2.8874 1.5951
-7.8184 2.6117 1.5951
-7.9167 2.3321 1.5951
-8.0053 2.0488 1.5951
-8.0841 1.7623 1.5951
-8.1528 1.4729 1.5951
-8.2115 1.1808 1.5951
-8.2600 0.8865 1.5951
-8.2981 0.5902 1.5951
-8.3259 0.2924 1.5951
-8.3432 -0.0066 1.5951
-8.3499 -0.3066 1.5951
-8.3461 -0.6069 1.5951
-8.3316 -0.9075 1.5951
-8.3065 -1.2077 1.5951
-8.2707 -1.5074 1.5951
-8.2242 -1.8060 1.5951
-8.1670 -2.1033 1.5951
-8.0992 -2.3988 1.5951
-8.0208 -2.6921 1.5951
-7.9318 -2.9829 1.5951
-7.8323 -3.2708 1.5951
-7.7224 -3.5554 1.5951
-7.6022 -3.8363 1.5951
-7.4718 -4.1131 1.5951
-7.3313 -4.3855 1.5951
-7.1808 -4.6531 1.5951
-7.0205 -4.9154 1.5951
-6.8506 -5.1722 1.5951
-6.6712 -5.4231 1.5951
-6.4825 -5.6676 1.5951
-6.2849 -5.9055 1.5951
-6.2169 -6.2762 1.6315
-6.2317 -6.7595 1.6954
-6.0049 -7.0013 1.6984
-5.7584 -7.2226 1.6984
-5.5037 -7.4350 1.6984
-5.2410 -7.6381 1.6984
-4.9707 -7.8318 1.6984
-4.6931 -8.0156 1.6984
-4.4085 -8.1893 1.6984
-4.1174 -8.3526 1.6984
-3.8201 -8.5052 1.6984
-3.5171 -8.6469 1.6984
-3.2086 -8.7775 1.6984
-2.8953 -8.8966 1.6984
-2.5774 -9.0042 1.6984
-2.2554 -9.1000 1.6984
-1.9298 -9.1838 1.6984
-1.6009 -9.2556 1.6984
-1.2694 -9.3151 1.6984
-0.9357 -9.3622 1.6984
-0.6001 -9.3969 1.6984
-0.2633 -9.4191 1.6984
0.0744 -9.4286 1.6984
0.4123 -9.4256 1.6984
0.7501 -9.4099 1.6984
1.0872 -9.3815 1.6984
1.4232 -9.3406 1.6984
1.7301 -9.1421 1.6719
1.9629 -8.6613 1.5953
2.2724 -8.5876 1.5953
2.5791 -8.5023 1.5953
2.8823 -8.4056 1.5953
3.1818 -8.2976 1.5953
3.4770 -8.1784 1.5953
3.7676 -8.0482 1.5953
4.0530 -7.9072 1.5953
4.3329 -7.7557 1.5953
4.6069 -7.5938 1.5953
4.8745 -7.4217 1.5953
5.1354 -7.2398 1.5953
5.3893 -7.0484 1.5953
5.6357 -6.8476 1.5953
5.9596 -6.7342 1.6184
6.1934 -6.5127 1.6184
6.4187 -6.2827 1.6184
6.6351 -6.0445 1.6184
6.8423 -5.7986 1.6184
7.0400 -5.5454 1.6184
7.2280 -5.2851 1.6184
7.4061 -5.0182 1.6184
7.5739 -4.7452 1.6184
7.7314 -4.4663 1.6184
7.7495 -4.1137 1.5920
7.7624 -3.7705 1.5676
7.7749 -3.4379 1.5460
7.7871 -3.1147 1.5270
6.0513 4.3900 1.5953
5.8817 4.5979 1.5953
5.7050 4.7995 1.5953
5.5216 4.9944 1.5953
5.3316 5.1824 1.5953
2.7162 2.8368 0.8438
4.9332 5.5371 1.5953
4.7252 5.7034 1.5953
4.5117 5.8620 1.5953
4.2931 6.0129 1.5953
4.0696 6.1558 1.5953
3.8415 6.2907 1.5953
3.6090 6.4174 1.5953
3.3725 6.5357 1.5953
3.1323 6.6455 1.5953
2.8886 6.7468 1.5953
2.6418 6.8394 1.5953
2.3922 6.9233 1.5953
0.8264 2.7024 0.6160
0.7287 2.7302 0.6165
0.6302 2.7546 0.6170
0.5308 2.7754 0.6175
0.4307 2.7927 0.6180
0.3301 2.8064 0.6184
0.2291 2.8166 0.6189
0.1277 2.8231 0.6193
0.0262 2.8260 0.6196
-0.0753 2.8253 0.6200
-0.1768 2.8210 0.6204
-0.2781 2.8130 0.6207
-0.3790 2.8015 0.6210
-0.4795 2.7864 0.6212
-0.5794 2.7677 0.6215
-0.6786 2.7454 0.6217
-0.7769 2.7197 0.6219
-0.8743 2.6904 0.6221
-2.6490 7.2539 1.6984
-2.9079 7.1538 1.6984
-3.1631 7.0448 1.6984
-3.4145 6.9270 1.6984
-3.6617 6.8007 1.6984
-3.9043 6.6658 1.6984
-4.1423 6.5226 1.6984
-4.3751 6.3712 1.6984
-4.6027 6.2119 1.6984
-4.8247 6.0447 1.6984
-5.0409 5.8698 1.6984
-5.2510 5.6875 1.6984
-5.4548 5.4980 1.6984
-5.6519 5.3014 1.6984
-5.7851 5.0480 1.6817
-5.8006 4.7055 1.6350
-5.8252 4.3880 1.5953
-5.9829 4.1785 1.5951
-6.1339 3.9640 1.5951
-6.2775 3.7442 1.5951
-6.4135 3.5193 1.5951
-6.5417 3.2896 1.5951
-6.6619 3.0554 1.5951
-6.7740 2.8169 1.5951
-6.8777 2.5744 1.5951
-6.9731 2.3282 1.5951
-7.0599 2.0785 1.5951
-7.1380 1.8257 1.5951
-7.2072 1.5700 1.5951
-7.2675 1.3117 1.5951
-7.3188 1.0512 1.5951
-7.3609 0.7888 1.5951
-7.3938 0.5246 1.5951
-7.4175 0.2592 1.5951
-7.4317 -0.0072 1.5951
-7.4366 -0.2744 1.5951
-7.4320 -0.5418 1.5951
-7.4179 -0.8093 1.5951
-7.3943 -1.0765 1.5951
-7.3612 -1.3431 1.5951
-7.3186 -1.6086 1.5951
-7.2665 -1.8728 1.5951
-7.2050 -2.1354 1.5951
-7.1340 -2.3960 1.5951
-7.0536 -2.6542 1.5951
-6.9639 -2.9097 1.5951
-6.8650 -3.1622 1.5951
-6.7570 -3.4114 1.5951
-6.6399 -3.6568 1.5951
-6.5139 -3.8982 1.5951
-6.3790 -4.1353 1.5951
-6.2356 -4.3676 1.5951
-6.1599 -4.6525 1.6151
-6.1658 -5.0141 1.6604
-6.1273 -5.3589 1.6984
-5.9394 -5.5829 1.6984
-5.7433 -5.8001 1.6984
-5.5391 -6.0104 1.6984
-5.3272 -6.2133 1.6984
-5.1077 -6.4086 1.6984
-4.8810 -6.5959 1.6984
-4.6472 -6.7751 1.6984
-4.4068 -6.9458 1.6984
-4.1601 -7.1078 1.6984
-3.9072 -7.2607 1.6984
-3.6487 -7.4044 1.6984
-3.3847 -7.5387 1.6984
-3.1158 -7.6633 1.6984
-2.8421 -7.7780 1.6984
-2.5642 -7.8826 1.6984
-2.2823 -7.9769 1.6984
-1.9969 -8.0609 1.6984
-1.7083 -8.1343 1.6984
-1.4170 -8.1969 1.6984
-1.1233 -8.2488 1.6984
-0.8277 -8.2898 1.6984
-0.5306 -8.3198 1.6984
-0.2324 -8.3388 1.6984
0.0664 -8.3467 1.6984
0.3655 -8.3434 1.6984
0.6644 -8.3290 1.6984
0.9627 -8.3035 1.6984
1.2600 -8.2668 1.6984
1.5558 -8.2191 1.6984
1.7809 -7.8571 1.6353
2.0112 -7.5997 1.5953
2.2825 -7.5240 1.5953
2.5508 -7.4384 1.5953
2.8157 -7.3427 1.5953
3.0769 -7.2372 1.5953
3.3340 -7.1221 1.5953
3.5865 -6.9975 1.5953
3.8342 -6.8635 1.5953
4.0768 -6.7204 1.5953
4.3137 -6.5684 1.5953
4.5448 -6.4077 1.5953
4.7696 -6.2386 1.5953
4.9879 -6.0612 1.5953
5.1994 -5.8760 1.5953
5.4037 -5.6830 1.5953
5.6006 -5.4827 1.5953
5.7898 -5.2754 1.5953
6.0578 -5.1347 1.6184
6.2334 -4.9109 1.6184
6.4005 -4.6810 1.6184
6.5588 -4.4451 1.6184
6.7081 -4.2038 1.6184
6.8483 -3.9572 1.6184
6.9792 -3.7059 1.6184
7.1006 -3.4501 1.6184
7.2124 -3.1903 1.6184
7.3144 -2.9268 1.6184
5.4480 3.9508 1.5953
5.2960 4.1385 1.5953
5.1376 4.3205 1.5953
4.9731 4.4966 1.5953
2.8142 2.7345 0.9348
2.6605 2.7777 0.9174
2.6489 2.9722 0.9507
4.2580 5.1377 1.5953
4.0661 5.2812 1.5953
3.8696 5.4178 1.5953
3.6686 5.5473 1.5953
3.4633 5.6695 1.5953
3.2541 5.7842 1.5953
3.0412 5.8915 1.5953
2.8249 5.9911 1.5953
2.6054 6.0830 1.5953
0.9168 2.3725 0.6137
0.8309 2.4038 0.6142
0.7440 2.4319 0.6147
0.6561 2.4570 0.6152
0.5674 2.4789 0.6156
0.4779 2.4977 0.6160
0.3879 2.5132 0.6165
0.2973 2.5256 0.6169
0.2064 2.5347 0.6173
0.1152 2.5405 0.6176
0.0238 2.5431 0.6180
-0.0676 2.5425 0.6183
-0.1590 2.5386 0.6186
-0.2501 2.5314 0.6189
-0.3410 2.5210 0.6191
-0.4314 2.5073 0.6194
-0.5213 2.4905 0.6196
-0.6105 2.4704 0.6198
-0.6990 2.4472 0.6200
-0.7866 2.4208 0.6202
-0.8733 2.3913 0.6203
-2.6247 6.4570 1.6984
-2.8551 6.3586 1.6984
-3.0820 6.2523 1.6984
-3.3051 6.1382 1.6984
-3.5241 6.0163 1.6984
-3.7388 5.8869 1.6984
-3.9490 5.7502 1.6984
-4.1543 5.6061 1.6984
-4.3546 5.4550 1.6984
-4.5495 5.2970 1.6984
-4.7389 5.1322 1.6984
-4.9226 4.9609 1.6984
-5.1003 4.7832 1.6984
-5.2718 4.5994 1.6984
-5.4369 4.4096 1.6984
-5.5954 4.2140 1.6984
-5.7470 4.0129 1.6984
-5.8345 3.7696 1.6819
-5.8452 3.4854 1.6466
-5.8627 3.2161 1.6166
-5.9000 2.9660 1.5951
-6.0079 2.7545 1.5951
-6.1084 2.5391 1.5951
-6.2014 2.3202 1.5951
-6.2868 2.0980 1.5951
-6.3644 1.8727 1.5951
-6.4341 1.6446 1.5951
-6.4958 1.4139 1.5951
-6.5494 1.1810 1.5951
-6.5949 0.9461 1.5951
-6.6321 0.7095 1.5951
-6.6609 0.4715 1.5951
-6.6814 0.2323 1.5951
-6.6934 -0.0077 1.5951
-6.6969 -0.2483 1.5951
-6.6919 -0.4891 1.5951
-6.6784 -0.7299 1.5951
-6.6563 -0.9703 1.5951
-6.6256 -1.2101 1.5951
-6.5863 -1.4490 1.5951
-6.5386 -1.6866 1.5951
-6.4823 -1.9226 1.5951
-6.4175 -2.1567 1.5951
-6.3443 -2.3887 1.5951
-6.2628 -2.6182 1.5951
-6.1730 -2.8449 1.5951
-6.1038 -3.0831 1.6027
-6.1070 -3.3649 1.6320
-6.1148 -3.6610 1.6660
-6.1038 -3.9585 1.6984
-5.9657 -4.1802 1.6984
-5.8195 -4.3971 1.6984
-5.6653 -4.6088 1.6984
-5.5034 -4.8151 1.6984
-5.3339 -5.0156 1.6984
-5.1571 -5.2100 1.6984
-4.9731 -5.3981 1.6984
-4.7822 -5.5795 1.6984
-4.5845 -5.7541 1.6984
-4.3804 -5.9216 1.6984
-4.1701 -6.0817 1.6984
-3.9539 -6.2341 1.6984
-3.7320 -6.3787 1.6984
-3.5048 -6.5152 1.6984
-3.2725 -6.6434 1.6984
-3.0354 -6.7631 1.6984
-2.7938 -6.8741 1.6984
-2.5481 -6.9762 1.6984
-2.2987 -7.0694 1.6984
-2.0457 -7.1533 1.6984
-1.7896 -7.2279 1.6984
-1.5308 -7.2931 1.6984
-1.2696 -7.3487 1.6984
-1.0063 -7.3946 1.6984
-0.7413 -7.4308 1.6984
-0.4750 -7.4572 1.6984
-0.2077 -7.4737 1.6984
0.0601 -7.4803 1.6984
0.3281 -7.4770 1.6984
0.5959 -7.4637 1.6984
0.8631 -7.4406 1.6984
1.1293 -7.4074 1.6984
1.3943 -7.3645 1.6984
1.6575 -7.3117 1.6984
1.8226 -6.8862 1.6134
2.0451 -6.7412 1.5953
2.2854 -6.6644 1.5953
2.5228 -6.5787 1.5953
2.7567 -6.4842 1.5953
2.9870 -6.3811 1.5953
3.2133 -6.2695 1.5953
3.4352 -6.1496 1.5953
3.6526 -6.0215 1.5953
3.8649 -5.8855 1.5953
4.0720 -5.7417 1.5953
4.2736 -5.5904 1.5953
4.4694 -5.4318 1.5953
4.6591 -5.2660 1.5953
4.8424 -5.0934 1.5953
5.0191 -4.9142 1.5953
5.1890 -4.7287 1.5953
5.3518 -4.5371 1.5953
5.5073 -4.3397 1.5953
5.6553 -4.1369 1.5953
5.7956 -3.9288 1.5953
5.9281 -3.7159 1.5953
6.1404 -3.5491 1.6184
6.2583 -3.3241 1.6184
6.3678 -3.0951 1.6184
6.4686 -2.8623 1.6184
6.5608 -2.6263 1.6184
4.9494 3.5877 1.5953
4.8119 3.7587 1.5953
4.6685 3.9245 1.5953
4.5195 4.0849 1.5953
2.8113 2.7307 1.0275
2.6385 2.7537 1.0009
2.6447 2.9664 1.0442
3.8712 4.6693 1.5953
3.6972 4.8003 1.5953
3.5188 4.9250 1.5953
3.3364 5.0431 1.5953
3.1500 5.1547 1.5953
2.9600 5.2596 1.5953
2.7666 5.3576 1.5953
2.5701 5.4487 1.5953
0.9098 2.1233 0.6122
0.8329 2.1545 0.6127
0.7549 2.1829 0.6132
0.6759 2.2085 0.6136
0.5961 2.2313 0.6140
0.5155 2.2512 0.6144
0.4343 2.2682 0.6148
0.3525 2.2823 0.6152
0.2702 2.2935 0.6156
0.1876 2.3018 0.6159
0.1048 2.3071 0.6163
0.0218 2.3094 0.6166
-0.0612 2.3088 0.6169
-0.1442 2.3052 0.6171
-0.2270 2.2987 0.6174
-0.3095 2.2892 0.6176
-0.3916 2.2768 0.6179
-0.4733 2.2615 0.6181
-0.5543 2.2432 0.6183
-0.6347 2.2221 0.6184
-0.7142 2.1981 0.6186
-0.7929 2.1713 0.6187
-0.8706 2.1417 0.6188
-2.5992 5.7886 1.6984
-2.8058 5.6918 1.6984
-3.0089 5.5878 1.6984
-3.2083 5.4768 1.6984
-3.4037 5.3589 1.6984
-3.5950 5.2342 1.6984
-3.7818 5.1030 1.6984
-3.9640 4.9652 1.6984
-4.1414 4.8212 1.6984
-4.3137 4.6711 1.6984
-4.4807 4.5149 1.6984
-4.6423 4.3530 1.6984
-4.7982 4.1854 1.6984
-4.9482 4.0124 1.6984
-5.0922 3.8342 1.6984
-5.2299 3.6510 1.6984
-5.3612 3.4630 1.6984
-5.4860 3.2704 1.6984
-5.6040 3.0733 1.6984
-5.7152 2.8721 1.6984
-5.8193 2.6671 1.6984
-5.8844 2.4451 1.6893
-5.8935 2.2041 1.6666
-5.9024 1.9688 1.6466
-5.9149 1.7395 1.6301
-5.9271 1.5140 1.6159
-5.9385 1.2916 1.6038
-5.9547 1.0728 1.5951
-5.9955 0.8591 1.5951
-6.0287 0.6439 1.5951
-6.0543 0.4275 1.5951
-6.0723 0.2100 1.5951
-6.0826 -0.0081 1.5951
-6.0852 -0.2267 1.5951
-6.0800 -0.4455 1.5951
-6.0670 -0.6642 1.5951
-6.0462 -0.8826 1.5951
-6.0302 -1.1026 1.5984
-6.0359 -1.3291 1.6097
-6.0412 -1.5595 1.6230
-6.0460 -1.7945 1.6386
-6.0535 -2.0357 1.6574
-6.0628 -2.2841 1.6793
-6.0523 -2.5315 1.6984
-5.9648 -2.7504 1.6984
-5.8694 -2.9661 1.6984
-5.7662 -3.1785 1.6984
-5.6553 -3.3874 1.6984
-5.5368 -3.5923 1.6984
-5.4108 -3.7930 1.6984
-5.2776 -3.9893 1.6984
-5.1372 -4.1808 1.6984
-4.9898 -4.3674 1.6984
-4.8356 -4.5487 1.6984
-4.6748 -4.7244 1.6984
-4.5075 -4.8944 1.6984
-4.3339 -5.0584 1.6984
-4.1544 -5.2161 1.6984
-3.9690 -5.3673 1.6984
-3.7781 -5.5118 1.6984
-3.5818 -5.6493 1.6984
-3.3804 -5.7798 1.6984
-3.1743 -5.9029 1.6984
-2.9635 -6.0185 1.6984
-2.7485 -6.1263 1.6984
-2.5296 -6.2263 1.6984
-2.3069 -6.3183 1.6984
-2.0808 -6.4021 1.6984
-1.8516 -6.4776 1.6984
-1.6197 -6.5447 1.6984
-1.3852 -6.6032 1.6984
-1.1487 -6.6531 1.6984
-0.9103 -6.6943 1.6984
-0.6704 -6.7266 1.6984
-0.4294 -6.7501 1.6984
-0.1875 -6.7647 1.6984
0.0549 -6.7704 1.6984
0.2974 -6.7671 1.6984
0.5397 -6.7548 1.6984
0.7814 -6.7336 1.6984
1.0223 -6.7034 1.6984
1.2620 -6.6644 1.6984
1.5001 -6.6164 1.6984
1.7364 -6.5597 1.6984
1.8550 -6.1142 1.5990
2.0681 -6.0305 1.5953
2.2828 -5.9529 1.5953
2.4945 -5.8674 1.5953
2.7028 -5.7742 1.5953
2.9076 -5.6732 1.5953
3.1084 -5.5648 1.5953
3.3051 -5.4491 1.5953
3.4973 -5.3261 1.5953
3.6848 -5.1962 1.5953
3.8673 -5.0594 1.5953
4.0446 -4.9160 1.5953
4.2163 -4.7662 1.5953
4.3824 -4.6102 1.5953
4.5425 -4.4483 1.5953
4.6965 -4.2806 1.5953
4.8441 -4.1074 1.5953
4.9851 -3.9291 1.5953
5.1194 -3.7457 1.5953
5.2468 -3.5576 1.5953
5.3671 -3.3650 1.5953
5.4801 -3.1683 1.5953
5.5857 -2.9677 1.5953
5.6839 -2.7636 1.5953
5.7744 -2.5561 1.5953
5.8571 -2.3456 1.5953
4.5300 3.2824 1.5953
4.4046 3.4392 1.5953
4.2737 3.5913 1.5953
4.1377 3.7384 1.5953
2.8084 2.7268 1.1210
2.6345 2.7485 1.0914
2.6405 2.9606 1.1384
3.5455 4.2749 1.5953
3.3864 4.3952 1.5953
3.2233 4.5098 1.5953
3.0564 4.6184 1.5953
2.8859 4.7209 1.5953
2.7121 4.8173 1.5953
2.5351 4.9074 1.5953
0.9021 1.9117 0.6110
0.8327 1.9427 0.6114
0.7623 1.9712 0.6119
0.6910 1.9972 0.6123
0.6187 2.0206 0.6127
0.5457 2.0414 0.6131
0.4719 2.0597 0.6134
0.3976 2.0752 0.6138
0.3227 2.0881 0.6142
0.2474 2.0984 0.6145
0.1719 2.1059 0.6148
0.0960 2.1108 0.6151
0.0201 2.1129 0.6154
-0.0559 2.1123 0.6157
-0.1318 2.1090 0.6159
-0.2075 2.1031 0.6162
-0.2830 2.0944 0.6164
-0.3582 2.0830 0.6166
-0.4329 2.0689 0.6168
-0.5070 2.0522 0.6169
-0.5806 2.0329 0.6171
-0.6534 2.0109 0.6172
-0.7253 1.9863 0.6173
-0.7964 1.9592 0.6174
-0.8664 1.9296 0.6175
-2.5725 5.2183 1.6984
-2.7587 5.1228 1.6984
-2.9415 5.0210 1.6984
-3.1207 4.9128 1.6984
-3.2960 4.7985 1.6984
-3.4672 4.6780 1.6984
-3.6342 4.5516 1.6984
-3.7967 4.4194 1.6984
-3.9546 4.2816 1.6984
-4.1076 4.1383 1.6984
-4.2556 3.9897 1.6984
-4.3983 3.8359 1.6984
-4.5357 3.6772 1.6984
-4.6674 3.5137 1.6984
-4.7935 3.3456 1.6984
-4.9136 3.1731 1.6984
-5.0277 2.9963 1.6984
-5.1356 2.8156 1.6984
-5.2371 2.6311 1.6984
-5.3322 2.4430 1.6984
-5.4207 2.2515 1.6984
-5.5024 2.0569 1.6984
-5.5773 1.8594 1.6984
-5.6453 1.6592 1.6984
-5.7062 1.4566 1.6984
-5.7600 1.2518 1.6984
-5.8066 1.0451 1.6984
-5.8459 0.8367 1.6984
-5.8778 0.6268 1.6984
-5.9023 0.4157 1.6984
-5.9193 0.2037 1.6984
-5.9288 -0.0090 1.6984
-5.9308 -0.2221 1.6984
-5.9252 -0.4353 1.6984
-5.9121 -0.6484 1.6984
-5.8913 -0.8611 1.6984
-5.8629 -1.0732 1.6984
-5.8270 -1.2843 1.6984
-5.7835 -1.4942 1.6984
-5.7325 -1.7027 1.6984
-5.6741 -1.9093 1.6984
-5.6082 -2.1140 1.6984
-5.5349 -2.3165 1.6984
-5.4544 -2.5163 1.6984
-5.3666 -2.7134 1.6984
-5.2717 -2.9073 1.6984
-5.1698 -3.0980 1.6984
-5.0610 -3.2850 1.6984
-4.9454 -3.4682 1.6984
-4.8232 -3.6472 1.6984
-4.6944 -3.8219 1.6984
-4.5593 -3.9920 1.6984
-4.4180 -4.1573 1.6984
-4.2706 -4.3175 1.6984
-4.1174 -4.4724 1.6984
-3.9585 -4.6218 1.6984
-3.7941 -4.7654 1.6984
-3.6245 -4.9031 1.6984
-3.4498 -5.0347 1.6984
-3.2703 -5.1599 1.6984
-3.0862 -5.2786 1.6984
-2.8977 -5.3905 1.6984
-2.7051 -5.4956 1.6984
-2.5086 -5.5937 1.6984
-2.3086 -5.6846 1.6984
-2.1051 -5.7681 1.6984
-1.8987 -5.8442 1.6984
-1.6894 -5.9128 1.6984
-1.4776 -5.9736 1.6984
-1.2636 -6.0267 1.6984
-1.0477 -6.0719 1.6984
-0.8301 -6.1091 1.6984
-0.6112 -6.1383 1.6984
-0.3913 -6.1595 1.6984
-0.1706 -6.1725 1.6984
0.0505 -6.1774 1.6984
0.2717 -6.1742 1.6984
0.4927 -6.1628 1.6984
0.7133 -6.1433 1.6984
0.9330 -6.1156 1.6984
1.1516 -6.0798 1.6984
1.3687 -6.0360 1.6984
1.5842 -5.9842 1.6984
1.7976 -5.9244 1.6984
1.8867 -5.5013 1.5953
2.0825 -5.4305 1.5953
2.2756 -5.3525 1.5953
2.4656 -5.2675 1.5953
2.6524 -5.1755 1.5953
2.8356 -5.0767 1.5953
3.0150 -4.9711 1.5953
3.1904 -4.8591 1.5953
3.3614 -4.7406 1.5953
3.5280 -4.6160 1.5953
3.6898 -4.4853 1.5953
3.8466 -4.3489 1.5953
3.9983 -4.2067 1.5953
4.1445 -4.0591 1.5953
4.2851 -3.9063 1.5953
4.4200 -3.7485 1.5953
4.5489 -3.5859 1.5953
4.6716 -3.4188 1.5953
4.7881 -3.2473 1.5953
4.8981 -3.0718 1.5953
5.0016 -2.8925 1.5953
5.0983 -2.7096 1.5953
5.1882 -2.5234 1.5953
5.2712 -2.3342 1.5953
5.3471 -2.1422 1.5953
4.1720 3.0218 1.5953
4.0568 3.1664 1.5953
3.9366 3.3067 1.5953
3.8116 3.4425 1.5953
2.8054 2.7229 1.2155
2.6304 2.7432 1.1827
2.6362 2.9548 1.2335
3.2671 3.9379 1.5953
3.1207 4.0490 1.5953
2.9707 4.1548 1.5953
2.8171 4.2552 1.5953
2.6601 4.3500 1.5953
2.5001 4.4391 1.5953
0.8936 1.7291 0.6099
0.8308 1.7599 0.6103
0.7669 1.7885 0.6107
0.7021 1.8147 0.6111
0.6364 1.8387 0.6115
0.5699 1.8602 0.6119
0.5026 1.8794 0.6122
0.4347 1.8962 0.6126
0.3662 1.9105 0.6129
0.2973 1.9224 0.6133
0.2280 1.9318 0.6136
0.1584 1.9388 0.6139
0.0886 1.9432 0.6141
0.0187 1.9452 0.6144
-0.0513 1.9447 0.6146
-0.1212 1.9416 0.6149
-0.1910 1.9361 0.6151
-0.2605 1.9281 0.6153
-0.3297 1.9176 0.6155
-0.3984 1.9046 0.6157
-0.4667 1.8892 0.6158
-0.5344 1.8714 0.6160
-0.6014 1.8511 0.6161
-0.6677 1.8285 0.6162
-0.7331 1.8035 0.6163
-0.7976 1.7762 0.6163
-0.8611 1.7466 0.6164
-2.5443 4.7245 1.6984
-2.7129 4.6306 1.6984
-2.8782 4.5307 1.6984
-3.0398 4.4251 1.6984
-3.1977 4.3140 1.6984
-3.3517 4.1973 1.6984
-3.5015 4.0753 1.6984
-3.6470 3.9481 1.6984
-3.7880 3.8158 1.6984
-3.9244 3.6786 1.6984
-4.0559 3.5367 1.6984
-4.1824 3.3902 1.6984
-4.3038 3.2392 1.6984
-4.4198 3.0841 1.6984
-4.5304 2.9249 1.6984
-4.6354 2.7618 1.6984
-4.7346 2.5950 1.6984
-4.8280 2.4247 1.6984
-4.9154 2.2512 1.6984
-4.9967 2.0746 1.6984
-5.0718 1.8951 1.6984
-5.1405 1.7129 1.6984
-5.2028 1.5283 1.6984
-5.2587 1.3415 1.6984
-5.3079 1.1527 1.6984
-5.3505 0.9621 1.6984
-5.3863 0.7699 1.6984
-5.4153 0.5765 1.6984
-5.4375 0.3820 1.6984
-5.4528 0.1866 1.6984
-5.4612 -0.0093 1.6984
-5.4626 -0.2056 1.6984
-5.4570 -0.4019 1.6984
-5.4445 -0.5982 1.6984
-5.4249 -0.7940 1.6984
-5.3984 -0.9892 1.6984
-5.3649 -1.1835 1.6984
-5.3244 -1.3767 1.6984
-5.2770 -1.5685 1.6984
-5.2228 -1.7587 1.6984
-5.1617 -1.9469 1.6984
-5.0938 -2.1331 1.6984
-5.0193 -2.3168 1.6984
-4.9381 -2.4980 1.6984
-4.8504 -2.6762 1.6984
-4.7562 -2.8514 1.6984
-4.6557 -3.0232 1.6984
-4.5490 -3.1915 1.6984
-4.4362 -3.3560 1.6984
-4.3174 -3.5164 1.6984
-4.1928 -3.6725 1.6984
-4.0625 -3.8242 1.6984
-3.9267 -3.9713 1.6984
-3.7855 -4.1134 1.6984
-3.6391 -4.2504 1.6984
-3.4877 -4.3822 1.6984
-3.3315 -4.5084 1.6984
-3.1707 -4.6290 1.6984
-3.0055 -4.7438 1.6984
-2.8360 -4.8525 1.6984
-2.6626 -4.9551 1.6984
-2.4855 -5.0514 1.6984
-2.3048 -5.1412 1.6984
-2.1208 -5.2244 1.6984
-1.9338 -5.3008 1.6984
-1.7440 -5.3705 1.6984
-1.5516 -5.4331 1.6984
-1.3570 -5.4887 1.6984
-1.1603 -5.5372 1.6984
-0.9619 -5.5784 1.6984
-0.7620 -5.6124 1.6984
-0.5609 -5.6390 1.6984
-0.3589 -5.6582 1.6984
-0.1562 -5.6700 1.6984
0.0468 -5.6743 1.6984
0.2500 -5.6711 1.6984
0.4529 -5.6605 1.6984
0.6554 -5.6424 1.6984
0.8572 -5.6169 1.6984
1.0579 -5.5839 1.6984
1.2573 -5.5436 1.6984
1.4551 -5.4959 1.6984
1.6510 -5.4410 1.6984
1.8448 -5.3789 1.6984
1.9126 -4.9874 1.5953
2.0899 -4.9158 1.5953
2.2644 -4.8377 1.5953
2.4359 -4.7532 1.5953
2.6041 -4.6625 1.5953
2.7689 -4.5657 1.5953
2.9300 -4.4629 1.5953
3.0871 -4.3542 1.5953
3.2402 -4.2398 1.5953
3.3888 -4.1199 1.5953
3.5329 -3.9947 1.5953
3.6723 -3.8643 1.5953
3.8067 -3.7289 1.5953
3.9360 -3.5887 1.5953
4.0600 -3.4439 1.5953
4.1786 -3.2947 1.5953
4.2915 -3.1413 1.5953
4.3987 -2.9839 1.5953
4.5000 -2.8228 1.5953
4.5953 -2.6583 1.5953
4.6844 -2.4904 1.5953
4.7673 -2.3195 1.5953
4.8437 -2.1457 1.5953
4.9138 -1.9694 1.5953
3.8626 2.7965 1.5953
3.7562 2.9306 1.5953
3.6451 3.0607 1.5953
3.5297 3.1866 1.5953
2.8024 2.7190 1.3111
2.6263 2.7379 1.2750
2.6319 2.9489 1.3295
3.0262 3.6462 1.5953
2.8909 3.7494 1.5953
2.7520 3.8476 1.5953
2.6099 3.9408 1.5953
2.4647 4.0288 1.5953
0.8843 1.5696 0.6090
0.8273 1.6002 0.6094
0.7692 1.6288 0.6098
0.7101 1.6552 0.6102
0.6501 1.6795 0.6105
0.5892 1.7017 0.6109
0.5276 1.7216 0.6112
0.4654 1.7394 0.6115
0.4025 1.7549 0.6119
0.3392 1.7682 0.6122
0.2753 1.7792 0.6125
0.2112 1.7879 0.6128
0.1468 1.7943 0.6130
0.0821 1.7985 0.6133
0.0174 1.8003 0.6135
-0.0473 1.7997 0.6138
-0.1121 1.7969 0.6140
-0.1766 1.7918 0.6142
-0.2410 1.7844 0.6144
-0.3050 1.7747 0.6145
-0.3687 1.7626 0.6147
-0.4319 1.7484 0.6148
-0.4945 1.7318 0.6150
-0.5565 1.7131 0.6151
-0.6179 1.6921 0.6152
-0.6784 1.6690 0.6153
-0.7381 1.6437 0.6153
-0.7968 1.6163 0.6154
-0.8546 1.5868 0.6154
-2.5147 4.2920 1.6984
-2.6679 4.1994 1.6984
-2.8177 4.1015 1.6984
-2.9641 3.9983 1.6984
-3.1067 3.8901 1.6984
-3.2456 3.7769 1.6984
-3.3804 3.6589 1.6984
-3.5110 3.5362 1.6984
-3.6373 3.4089 1.6984
-3.7591 3.2773 1.6984
-3.8763 3.1414 1.6984
-3.9886 3.0014 1.6984
-4.0960 2.8575 1.6984
-4.1983 2.7098 1.6984
-4.2955 2.5585 1.6984
-4.3873 2.4039 1.6984
-4.4736 2.2460 1.6984
-4.5544 2.0851 1.6984
-4.6295 1.9213 1.6984
-4.6988 1.7549 1.6984
-4.7623 1.5861 1.6984
-4.8198 1.4150 1.6984
-4.8712 1.2418 1.6984
-4.9166 1.0668 1.6984
-4.9557 0.8902 1.6984
-4.9886 0.7122 1.6984
-5.0152 0.5330 1.6984
-5.0354 0.3528 1.6984
-5.0493 0.1719 1.6984
-5.0567 -0.0095 1.6984
-5.0577 -0.1913 1.6984
-5.0522 -0.3731 1.6984
-5.0402 -0.5548 1.6984
-5.0218 -0.7360 1.6984
-4.9969 -0.9167 1.6984
-4.9655 -1.0965 1.6984
-4.9277 -1.2752 1.6984
-4.8835 -1.4526 1.6984
-4.8330 -1.6285 1.6984
-4.7761 -1.8026 1.6984
-4.7130 -1.9747 1.6984
-4.6436 -2.1446 1.6984
-4.5682 -2.3120 1.6984
-4.4867 -2.4768 1.6984
-4.3993 -2.6386 1.6984
-4.3061 -2.7974 1.6984
-4.2071 -2.9528 1.6984
-4.1024 -3.1047 1.6984
-3.9923 -3.2529 1.6984
-3.8768 -3.3970 1.6984
-3.7560 -3.5371 1.6984
-3.6302 -3.6728 1.6984
-3.4994 -3.8039 1.6984
-3.3638 -3.9304 1.6984
-3.2237 -4.0519 1.6984
-3.0791 -4.1684 1.6984
-2.9303 -4.2796 1.6984
-2.7774 -4.3854 1.6984
-2.6206 -4.4856 1.6984
-2.4602 -4.5802 1.6984
-2.2964 -4.6688 1.6984
-2.1293 -4.7516 1.6984
-1.9592 -4.8282 1.6984
-1.7863 -4.8986 1.6984
-1.6108 -4.9627 1.6984
-1.4330 -5.0203 1.6984
-1.2532 -5.0715 1.6984
-1.0715 -5.1160 1.6984
-0.8881 -5.1539 1.6984
-0.7035 -5.1851 1.6984
-0.5177 -5.2095 1.6984
-0.3311 -5.2270 1.6984
-0.1439 -5.2378 1.6984
0.0436 -5.2416 1.6984
0.2313 -5.2385 1.6984
0.4187 -5.2286 1.6984
0.6057 -5.2118 1.6984
0.7920 -5.1881 1.6984
0.9773 -5.1576 1.6984
1.1614 -5.1203 1.6984
1.3441 -5.0762 1.6984
1.5250 -5.0254 1.6984
1.7040 -4.9680 1.6984
1.8807 -4.9041 1.6984
1.9302 -4.5403 1.5953
2.0978 -4.4820 1.6002
2.2498 -4.3903 1.5953
2.4051 -4.3065 1.5953
2.5573 -4.2171 1.5953
2.7061 -4.1222 1.5953
2.8513 -4.0219 1.5953
2.9926 -3.9164 1.5953
3.1300 -3.8058 1.5953
3.2632 -3.6902 1.5953
3.3919 -3.5698 1.5953
3.5162 -3.4449 1.5953
3.6357 -3.3155 1.5953
3.7504 -3.1818 1.5953
3.8600 -3.0441 1.5953
3.9645 -2.9026 1.5953
4.0637 -2.7573 1.5953
4.1574 -2.6086 1.5953
4.2456 -2.4567 1.5953
4.3281 -2.3017 1.5953
4.4049 -2.1439 1.5953
4.4758 -1.9835 1.5953
4.5408 -1.8207 1.5953
3.5922 2.5996 1.5953
3.4934 2.7245 1.5953
3.3904 2.8456 1.5953
3.2832 2.9630 1.5953
2.7993 2.7149 1.4079
2.6221 2.7325 1.3684
2.6276 2.9429 1.4267
2.8156 3.3912 1.5953
2.6898 3.4873 1.5953
2.5608 3.5789 1.5953
2.4287 3.6658 1.5953
0.8745 1.4289 0.6082
0.8224 1.4592 0.6086
0.7694 1.4876 0.6089
0.7153 1.5142 0.6093
0.6604 1.5388 0.6096
0.6046 1.5614 0.6100
0.5480 1.5820 0.6103
0.4908 1.6005 0.6106
0.4329 1.6171 0.6109
0.3744 1.6315 0.6112
0.3155 1.6438 0.6115
0.2562 1.6541 0.6118
0.1965 1.6622 0.6121
0.1366 1.6681 0.6123
0.0765 1.6719 0.6125
0.0163 1.6736 0.6128
-0.0439 1.6731 0.6130
-0.1041 1.6705 0.6132
-0.1641 1.6657 0.6134
-0.2239 1.6588 0.6136
-0.2835 1.6498 0.6137
-0.3427 1.6386 0.6139
-0.4014 1.6253 0.6140
-0.4597 1.6099 0.6141
-0.5173 1.5925 0.6142
-0.5743 1.5730 0.6143
-0.6306 1.5515 0.6144
-0.6861 1.5279 0.6144
-0.7407 1.5024 0.6145
-0.7944 1.4750 0.6145
-0.8471 1.4457 0.6145
-2.4836 3.9091 1.6984
-2.6231 3.8178 1.6984
-2.7594 3.7218 1.6984
-2.8922 3.6210 1.6984
-3.0214 3.5155 1.6984
-3.1468 3.4056 1.6984
-3.2684 3.2913 1.6984
-3.3859 3.1727 1.6984
-3.4991 3.0501 1.6984
-3.6081 2.9235 1.6984
-3.7126 2.7931 1.6984
-3.8124 2.6590 1.6984
-3.9076 2.5215 1.6984
-3.9978 2.3806 1.6984
-4.0831 2.2365 1.6984
-4.1633 2.0895 1.6984
-4.2383 1.9397 1.6984
-4.3081 1.7872 1.6984
-4.3724 1.6323 1.6984
-4.4312 1.4750 1.6984
-4.4845 1.3157 1.6984
-4.5322 1.1546 1.6984
-4.5742 0.9917 1.6984
-4.6104 0.8273 1.6984
-4.6407 0.6617 1.6984
-4.6652 0.4949 1.6984
-4.6838 0.3273 1.6984
-4.6964 0.1590 1.6984
-4.7031 -0.0098 1.6984
-4.7037 -0.1788 1.6984
-4.6983 -0.3479 1.6984
-4.6869 -0.5168 1.6984
-4.6695 -0.6853 1.6984
-4.6460 -0.8533 1.6984
-4.6166 -1.0204 1.6984
-4.5812 -1.1865 1.6984
-4.5398 -1.3514 1.6984
-4.4925 -1.5148 1.6984
-4.4394 -1.6765 1.6984
-4.3804 -1.8364 1.6984
-4.3157 -1.9942 1.6984
-4.2454 -2.1497 1.6984
-4.1694 -2.3027 1.6984
-4.0879 -2.4530 1.6984
-4.0010 -2.6003 1.6984
-3.9087 -2.7446 1.6984
-3.8113 -2.8856 1.6984
-3.7087 -3.0230 1.6984
-3.6012 -3.1568 1.6984
-3.4888 -3.2867 1.6984
-3.3717 -3.4125 1.6984
-3.2500 -3.5342 1.6984
-3.1239 -3.6514 1.6984
-2.9936 -3.7641 1.6984
-2.8591 -3.8720 1.6984
-2.7208 -3.9751 1.6984
-2.5787 -4.0731 1.6984
-2.4330 -4.1660 1.6984
-2.2839 -4.2536 1.6984
-2.1317 -4.3357 1.6984
-1.9765 -4.4123 1.6984
-1.8184 -4.4832 1.6984
-1.6579 -4.5484 1.6984
-1.4949 -4.6077 1.6984
-1.3298 -4.6610 1.6984
-1.1628 -4.7083 1.6984
-0.9941 -4.7495 1.6984
-0.8239 -4.7845 1.6984
-0.6525 -4.8132 1.6984
-0.4801 -4.8357 1.6984
-0.3069 -4.8519 1.6984
-0.1332 -4.8617 1.6984
0.0409 -4.8651 1.6984
0.2150 -4.8622 1.6984
0.3889 -4.8529 1.6984
0.5624 -4.8372 1.6984
0.7353 -4.8151 1.6984
0.9072 -4.7867 1.6984
1.0781 -4.7520 1.6984
1.2476 -4.7111 1.6984
1.4154 -4.6639 1.6984
1.5815 -4.6107 1.6984
1.7454 -4.5513 1.6984
1.9059 -4.4830 1.6972
1.9409 -4.1468 1.5953
2.0879 -4.0745 1.5953
2.2321 -3.9968 1.5953
2.3733 -3.9139 1.5953
2.5114 -3.8259 1.5953
2.6461 -3.7329 1.5953
2.7773 -3.6350 1.5953
2.9048 -3.5324 1.5953
3.0285 -3.4252 1.5953
3.1481 -3.3136 1.5953
3.2634 -3.1978 1.5953
3.3745 -3.0777 1.5953
3.4810 -2.9538 1.5953
3.5828 -2.8261 1.5953
3.6799 -2.6948 1.5953
3.7721 -2.5601 1.5953
3.8592 -2.4222 1.5953
3.9413 -2.2812 1.5953
4.0180 -2.1375 1.5953
4.0895 -1.9910 1.5953
4.1555 -1.8422 1.5953
4.2160 -1.6912 1.5953
3.3537 2.4260 1.5953
3.2616 2.5426 1.5953
3.1656 2.6559 1.5953
3.0657 2.7656 1.5953
2.7962 2.7109 1.5060
2.6179 2.7271 1.4630
2.6232 2.9368 1.5252
2.6296 3.1660 1.5953
2.5123 3.2559 1.5953
2.3939 3.3444 1.5966
0.8639 1.3034 0.6075
0.8164 1.3335 0.6078
0.7678 1.3618 0.6082
0.7183 1.3883 0.6085
0.6679 1.4131 0.6089
0.6166 1.4361 0.6092
0.5645 1.4572 0.6095
0.5117 1.4764 0.6098
0.4582 1.4937 0.6101
0.4042 1.5091 0.6104
0.3496 1.5226 0.6107
0.2946 1.5341 0.6109
0.2392 1.5437 0.6112
0.1836 1.5512 0.6114
0.1276 1.5568 0.6117
0.0715 1.5604 0.6119
0.0154 1.5619 0.6121
-0.0408 1.5615 0.6123
-0.0970 1.5590 0.6125
-0.1530 1.5545 0.6127
-0.2089 1.5481 0.6128
-0.2645 1.5396 0.6130
-0.3197 1.5292 0.6131
-0.3746 1.5168 0.6132
-0.4289 1.5024 0.6134
-0.4827 1.4861 0.6135
-0.5360 1.4679 0.6135
-0.5885 1.4478 0.6136
-0.6403 1.4258 0.6137
-0.6913 1.4020 0.6137
-0.7414 1.3764 0.6137
-0.7905 1.3490 0.6137
-0.8386 1.3199 0.6137
-0.8857 1.2890 0.6137
-2.5783 3.4772 1.6984
-2.7024 3.3830 1.6984
-2.8231 3.2844 1.6984
-2.9403 3.1816 1.6984
-3.0538 3.0747 1.6984
-3.1635 2.9639 1.6984
-3.2693 2.8492 1.6984
-3.3711 2.7308 1.6984
-3.4686 2.6089 1.6984
-3.5618 2.4836 1.6984
-3.6506 2.3550 1.6984
-3.7348 2.2233 1.6984
-3.8144 2.0887 1.6984
-3.8892 1.9513 1.6984
-3.9591 1.8112 1.6984
-4.0241 1.6687 1.6984
-4.0840 1.5239 1.6984
-4.1388 1.3770 1.6984
-4.1884 1.2281 1.6984
-4.2328 1.0776 1.6984
-4.2718 0.9254 1.6984
-4.3054 0.7718 1.6984
-4.3336 0.6171 1.6984
-4.3562 0.4613 1.6984
-4.3734 0.3048 1.6984
-4.3850 0.1476 1.6984
-4.3909 -0.0100 1.6984
-4.3913 -0.1678 1.6984
-4.3861 -0.3257 1.6984
-4.3752 -0.4833 1.6984
-4.3587 -0.6406 1.6984
-4.3366 -0.7974 1.6984
-4.3089 -0.9533 1.6984
-4.2756 -1.1083 1.6984
-4.2367 -1.2621 1.6984
-4.1924 -1.4146 1.6984
-4.1426 -1.5654 1.6984
-4.0873 -1.7145 1.6984
-4.0267 -1.8617 1.6984
-3.9608 -2.0067 1.6984
-3.8897 -2.1493 1.6984
-3.8135 -2.2894 1.6984
-3.7322 -2.4267 1.6984
-3.6459 -2.5612 1.6984
-3.5548 -2.6925 1.6984
-3.4590 -2.8206 1.6984
-3.3585 -2.9452 1.6984
-3.2535 -3.0662 1.6984
-3.1441 -3.1834 1.6984
-3.0305 -3.2967 1.6984
-2.9128 -3.4059 1.6984
-2.7911 -3.5108 1.6984
-2.6656 -3.6112 1.6984
-2.5364 -3.7072 1.6984
-2.4038 -3.7984 1.6984
-2.2679 -3.8848 1.6984
-2.1288 -3.9663 1.6984
-1.9868 -4.0427 1.6984
-1.8420 -4.1139 1.6984
-1.6947 -4.1799 1.6984
-1.5449 -4.2404 1.6984
-1.3930 -4.2955 1.6984
-1.2391 -4.3451 1.6984
-1.0834 -4.3890 1.6984
-0.9261 -4.4272 1.6984
-0.7675 -4.4597 1.6984
-0.6077 -4.4864 1.6984
-0.4470 -4.5072 1.6984
-0.2856 -4.5222 1.6984
-0.1237 -4.5312 1.6984
0.0385 -4.5343 1.6984
0.2007 -4.5315 1.6984
0.3627 -4.5227 1.6984
0.5244 -4.5080 1.6984
0.6855 -4.4874 1.6984
0.8457 -4.4609 1.6984
1.0049 -4.4285 1.6984
1.1627 -4.3903 1.6984
1.3191 -4.3464 1.6984
1.4738 -4.2967 1.6984
1.6266 -4.2414 1.6984
1.7773 -4.1806 1.6984
1.9202 -4.1027 1.6936
1.9456 -3.7971 1.5953
2.0800 -3.7248 1.5953
2.2116 -3.6475 1.5953
2.3403 -3.5656 1.5953
2.4659 -3.4790 1.5953
2.5882 -3.3878 1.5953
2.7070 -3.2923 1.5953
2.8222 -3.1924 1.5953
2.9337 -3.0885 1.5953
3.0413 -2.9806 1.5953
3.1448 -2.8688 1.5953
3.2442 -2.7534 1.5953
3.3392 -2.6345 1.5953
3.4298 -2.5122 1.5953
3.5158 -2.3867 1.5953
3.5971 -2.2583 1.5953
3.6737 -2.1270 1.5953
3.7453 -1.9930 1.5953
3.8121 -1.8566 1.5953
3.8737 -1.7180 1.5953
3.9303 -1.5772 1.5953
3.1415 2.2715 1.5953
3.0554 2.3809 1.5953
2.9656 2.4870 1.5953
2.8721 2.5899 1.5953
2.7751 2.6893 1.5953
2.6136 2.7216 1.5589
2.5709 2.8772 1.5953
2.4641 2.9655 1.5953
0.8950 1.1595 0.6065
0.8527 1.1908 0.6069
0.8092 1.2205 0.6072
0.7647 1.2486 0.6075
0.7193 1.2751 0.6078
0.6729 1.3000 0.6082
0.6256 1.3232 0.6085
0.5776 1.3447 0.6088
0.5288 1.3645 0.6091
0.4793 1.3825 0.6094
0.4293 1.3987 0.6096
0.3787 1.4132 0.6099
0.3276 1.4258 0.6102
0.2761 1.4366 0.6104
0.2242 1.4455 0.6107
0.1720 1.4526 0.6109
0.1197 1.4578 0.6111
0.0671 1.4611 0.6113
0.0145 1.4626 0.6115
-0.0381 1.4621 0.6117
-0.0907 1.4598 0.6119
-0.1432 1.4557 0.6120
-0.1955 1.4496 0.6122
-0.2476 1.4417 0.6123
-0.2993 1.4319 0.6125
-0.3507 1.4202 0.6126
-0.4016 1.4068 0.6127
-0.4520 1.3915 0.6128
-0.5018 1.3745 0.6129
-0.5510 1.3556 0.6129
-0.5995 1.3351 0.6130
-0.6473 1.3127 0.6130
-0.6942 1.2887 0.6130
-0.7402 1.2631 0.6130
-0.7853 1.2358 0.6130
-0.8294 1.2069 0.6130
-0.8724 1.1764 0.6130
-2.5333 3.1709 1.6984
-2.6464 3.0784 1.6984
-2.7562 2.9820 1.6984
-2.8626 2.8817 1.6984
-2.9654 2.7777 1.6984
-3.0645 2.6702 1.6984
-3.1598 2.5592 1.6984
-3.2512 2.4448 1.6984
-3.3385 2.3273 1.6984
-3.4216 2.2067 1.6984
-3.5004 2.0832 1.6984
-3.5749 1.9569 1.6984
-3.6449 1.8281 1.6984
-3.7103 1.6967 1.6984
-3.7711 1.5631 1.6984
-3.8272 1.4274 1.6984
-3.8784 1.2896 1.6984
-3.9248 1.1501 1.6984
-3.9662 1.0089 1.6984
-4.0026 0.8663 1.6984
-4.0339 0.7224 1.6984
-4.0601 0.5774 1.6984
-4.0812 0.4314 1.6984
-4.0971 0.2847 1.6984
-4.1077 0.1375 1.6984
-4.1132 -0.0102 1.6984
-4.1133 -0.1580 1.6984
-4.1082 -0.3059 1.6984
-4.0979 -0.4535 1.6984
-4.0822 -0.6009 1.6984
-4.0613 -0.7476 1.6984
-4.0352 -0.8937 1.6984
-4.0038 -1.0388 1.6984
-3.9672 -1.1828 1.6984
-3.9255 -1.3254 1.6984
-3.8786 -1.4666 1.6984
-3.8267 -1.6062 1.6984
-3.7698 -1.7439 1.6984
-3.7079 -1.8795 1.6984
-3.6412 -2.0130 1.6984
-3.5696 -2.1440 1.6984
-3.4934 -2.2725 1.6984
-3.4125 -2.3982 1.6984
-3.3270 -2.5211 1.6984
-3.2371 -2.6408 1.6984
-3.1430 -2.7573 1.6984
-3.0445 -2.8705 1.6984
-2.9420 -2.9800 1.6984
-2.8356 -3.0859 1.6984
-2.7253 -3.1879 1.6984
-2.6113 -3.2859 1.6984
-2.4938 -3.3797 1.6984
-2.3728 -3.4694 1.6984
-2.2487 -3.5546 1.6984
-2.1214 -3.6353 1.6984
-1.9912 -3.7113 1.6984
-1.8583 -3.7827 1.6984
-1.7228 -3.8492 1.6984
-1.5849 -3.9107 1.6984
-1.4448 -3.9672 1.6984
-1.3026 -4.0187 1.6984
-1.1586 -4.0649 1.6984
-1.0129 -4.1058 1.6984
-0.8658 -4.1415 1.6984
-0.7175 -4.1717 1.6984
-0.5680 -4.1966 1.6984
-0.4177 -4.2159 1.6984
-0.2668 -4.2298 1.6984
-0.1154 -4.2382 1.6984
0.0363 -4.2410 1.6984
0.1880 -4.2383 1.6984
0.3395 -4.2300 1.6984
0.4907 -4.2162 1.6984
0.6413 -4.1968 1.6984
0.7911 -4.1720 1.6984
0.9399 -4.1417 1.6984
1.0876 -4.1060 1.6984
1.2338 -4.0649 1.6984
1.3784 -4.0184 1.6984
1.5213 -3.9667 1.6984
1.6622 -3.9098 1.6984
1.8008 -3.8478 1.6984
1.9327 -3.7720 1.6944
1.9531 -3.4977 1.6017
2.0683 -3.4114 1.5953
2.1886 -3.3348 1.5953
2.3061 -3.2539 1.5953
2.4205 -3.1687 1.5953
