ply
format ascii 1.0
element vertex 2127
property float32 x
property float32 y
property float32 z
end_header
-9.9977 -0.5131 -0.1625
-9.9959 -0.8734 -0.1664
-9.9941 -1.2358 -0.1706
-9.9922 -1.6013 -0.1751
-4.4407 -0.8761 -0.0799
-3.7291 -0.8757 -0.0690
-3.2065 -0.8755 -0.0610
-2.8055 -0.8753 -0.0550
-2.6832 -0.9440 -0.0542
-2.6831 -1.0536 -0.0559
-2.6830 -1.1663 -0.0578
-2.6830 -1.2826 -0.0597
-2.6829 -1.4029 -0.0618
-2.6828 -1.5279 -0.0641
-2.6827 -1.6580 -0.0665
-2.6826 -1.7940 -0.0691
-2.6826 -1.9368 -0.0719
-2.6824 -2.0871 -0.0749
-2.6824 -2.2460 -0.0781
-2.6823 -2.4148 -0.0816
-2.6821 -2.5948 -0.0855
-2.6820 -2.7878 -0.0897
-2.6819 -2.9957 -0.0943
-2.6817 -3.2210 -0.0994
-2.6816 -3.4665 -0.1051
-2.6814 -3.7360 -0.1114
-2.6812 -4.0337 -0.1185
-2.6810 -4.3654 -0.1265
-2.6808 -4.7382 -0.1356
-2.6805 -5.1615 -0.1460
-9.8967 -20.8535 -0.5840
-9.8865 -22.9206 -0.6362
-9.8744 -25.3577 -0.6982
-9.8598 -28.2818 -0.7734
-9.8519 -31.8974 -0.8670
-9.8038 -36.3145 -0.9821
-4.4923 -19.3785 -0.5219
-3.7633 -19.3682 -0.5199
-3.0451 -19.3582 -0.5184
-2.3357 -19.3482 -0.5173
-4.2021 -49.7566 -1.3293
9.4428 -29.4281 -0.8234
8.3483 -23.1294 -0.6533
8.9368 -22.2282 -0.6344
9.0023 -20.2589 -0.5848
8.9932 -18.4268 -0.5386
8.9854 -16.8488 -0.4993
8.9785 -15.4720 -0.4653
8.9725 -14.2575 -0.4357
8.9671 -13.1754 -0.4097
8.9623 -12.2029 -0.3866
8.9579 -11.3219 -0.3660
8.2817 -9.7285 -0.3215
8.4954 -9.2830 -0.3141
9.1255 -9.2799 -0.3221
9.8012 -9.2765 -0.3309
9.8753 -8.6967 -0.3196
9.8722 -8.0840 -0.3068
9.8694 -7.5067 -0.2951
8.2624 -5.8287 -0.2380
8.2602 -5.3940 -0.2295
8.8133 -5.3143 -0.2366
9.5673 -5.3105 -0.2484
10.4243 -5.3063 -0.2621
11.4096 -5.3014 -0.2782
12.5575 -5.2957 -0.2971
13.9159 -5.2889 -0.3199
8.0713 -2.7405 -0.1805
8.0697 -2.4208 -0.1756
8.0682 -2.1080 -0.1711
8.0667 -1.8012 -0.1668
8.7341 -1.6237 -0.1763
8.7325 -1.3013 -0.1722
8.7309 -0.9824 -0.1683
8.7293 -0.6662 -0.1647
8.7278 -0.3518 -0.1612
8.7262 -0.0385 -0.1580
8.7247 0.2746 -0.1550
8.7231 0.5883 -0.1521
8.7215 0.9035 -0.1494
8.7200 1.2208 -0.1469
8.7184 1.5413 -0.1446
8.7168 1.8657 -0.1424
8.7151 2.1950 -0.1404
8.7135 2.5302 -0.1385
8.7118 2.8723 -0.1368
4.9652 28.6282 0.4401
2.5896 25.8192 0.3977
1.0622 37.6579 0.5822
-0.1995 25.9635 0.4024
-10.2240 45.0902 0.7169
-10.1912 38.4865 0.6156
-10.0985 33.2643 0.5355
-10.1469 29.5637 0.4794
-10.1312 26.3936 0.4313
-10.1182 23.7733 0.3917
-10.1072 21.5658 0.3586
-10.0978 19.6762 0.3303
-10.0897 18.0365 0.3060
-10.0825 16.5968 0.2848
-10.0762 15.3194 0.2661
-10.0705 14.1756 0.2495
-6.4243 8.3886 0.1497
-10.0607 12.2037 0.2211
-10.0565 11.3436 0.2090
-10.0525 10.5511 0.1978
-10.0489 9.8167 0.1876
-10.0455 9.1326 0.1782
-10.0423 8.4920 0.1695
-10.0393 7.8897 0.1614
-10.0365 7.3207 0.1539
-10.0338 6.7810 0.1468
-10.0312 6.2672 0.1401
-10.0288 5.7761 0.1338
-9.9581 5.2690 0.1270
-10.0242 4.8521 0.1223
-10.0220 4.4146 0.1169
-10.0199 3.9909 0.1118
-10.0179 3.5793 0.1069
-10.0159 3.1784 0.1022
-10.0140 2.7866 0.0977
-10.0121 2.4027 0.0934
-10.0102 2.0255 0.0892
-10.0084 1.6539 0.0851
-9.9359 1.2777 0.0806
-10.0048 0.9231 0.0774
-10.0030 0.5621 0.0737
-10.0012 0.2026 0.0700
-9.9994 -0.1562 0.0665
-9.9976 -0.5153 0.0630
-9.9959 -0.8756 0.0596
-9.9941 -1.2381 0.0562
-9.9922 -1.6036 0.0529
-4.4405 -0.8771 0.0220
-3.7289 -0.8766 0.0173
-3.2064 -0.8762 0.0138
-2.8054 -0.8759 0.0112
-2.6832 -0.9446 0.0098
-2.6831 -1.0542 0.0090
-2.6830 -1.1670 0.0081
-2.6830 -1.2833 0.0072
-2.6829 -1.4036 0.0063
-2.6828 -1.5286 0.0055
-2.6827 -1.6587 0.0045
-2.6826 -1.7948 0.0036
-2.6825 -1.9376 0.0027
-2.6824 -2.0879 0.0017
-2.6824 -2.2469 0.0007
-2.6822 -2.4157 -0.0004
-2.6821 -2.5957 -0.0014
-2.6820 -2.7888 -0.0026
-2.6819 -2.9967 -0.0038
-2.6817 -3.2220 -0.0050
-2.6816 -3.4676 -0.0064
-2.6814 -3.7371 -0.0078
-2.6812 -4.0349 -0.0094
-2.6810 -4.3667 -0.0111
-2.6808 -4.7396 -0.0129
-2.6805 -5.1630 -0.0150
-9.8967 -20.8598 -0.0641
-9.8864 -22.9277 -0.0739
-9.8743 -25.3655 -0.0853
-9.8598 -28.2906 -0.0987
-6.0508 -19.5969 -0.0707
-9.8037 -36.3264 -0.1348
-4.4899 -19.3749 -0.0738
-3.7612 -19.3647 -0.0755
-3.0433 -19.3547 -0.0770
-2.3343 -19.3447 -0.0783
-4.1999 -49.7582 -0.2045
8.3483 -23.1331 -0.0994
8.9353 -22.2282 -0.0947
9.0023 -20.2626 -0.0855
8.9932 -18.4303 -0.0768
8.9854 -16.8521 -0.0691
8.9786 -15.4752 -0.0623
8.9725 -14.2605 -0.0562
8.9672 -13.1783 -0.0507
8.9623 -12.2057 -0.0456
8.9579 -11.3247 -0.0408
8.2817 -9.7310 -0.0337
8.4932 -9.2830 -0.0306
9.1230 -9.2799 -0.0289
9.7984 -9.2766 -0.0270
9.8753 -8.6993 -0.0232
9.8723 -8.0866 -0.0194
9.8694 -7.5092 -0.0158
8.2624 -5.8307 -0.0102
8.2602 -5.3960 -0.0073
8.8098 -5.3143 -0.0048
9.5632 -5.3105 -0.0020
10.4195 -5.3063 0.0013
11.4039 -5.3014 0.0052
12.5508 -5.2957 0.0098
13.9077 -5.2890 0.0154
8.0713 -2.7423 0.0115
8.0697 -2.4226 0.0141
8.0682 -2.1098 0.0167
8.0667 -1.8030 0.0193
8.7341 -1.6256 0.0238
8.7325 -1.3032 0.0266
8.7309 -0.9843 0.0296
8.7293 -0.6681 0.0325
8.7278 -0.3538 0.0355
8.7262 -0.0404 0.0385
8.7247 0.2727 0.0416
8.7231 0.5864 0.0448
8.7215 0.9015 0.0481
8.7200 1.2188 0.0514
8.7184 1.5392 0.0548
8.7168 1.8636 0.0584
8.7151 2.1929 0.0620
8.7135 2.5281 0.0658
8.7118 2.8702 0.0698
4.9668 28.6263 1.0948
6.0980 44.5935 1.7003
2.5829 25.7390 0.9794
0.9013 14.0368 0.5335
0.3962 14.0307 0.5332
-0.1074 14.0245 0.5335
-0.6109 14.0184 0.5342
-3.5424 44.4998 1.7003
-5.1359 44.3354 1.7003
-2.7612 18.1203 0.6982
-3.1549 16.6642 0.6457
-3.7797 16.6673 0.6502
-4.4149 16.6705 0.6553
-10.0992 33.2618 1.3189
-10.1469 29.5591 1.1836
-10.1312 26.3893 1.0683
-10.1182 23.7691 0.9739
-10.1072 21.5618 0.8952
-10.0978 19.6724 0.8286
-10.0897 18.0329 0.7716
-10.0825 16.5933 0.7223
-10.0762 15.3160 0.6792
-10.0705 14.1724 0.6412
-6.4247 8.3872 0.3878
-10.0607 12.2007 0.5775
-10.0564 11.3407 0.5505
-10.0525 10.5482 0.5262
-10.0489 9.8139 0.5041
-10.0455 9.1298 0.4841
-10.0423 8.4894 0.4658
-10.0393 7.8871 0.4491
-10.0365 7.3181 0.4337
-10.0337 6.7785 0.4196
-10.0312 6.2647 0.4066
-10.0288 5.7738 0.3946
-9.9587 5.2670 0.3809
-10.0242 4.8497 0.3732
-10.0220 4.4122 0.3636
-10.0199 3.9886 0.3548
-10.0179 3.5770 0.3466
-10.0159 3.1761 0.3389
-10.0140 2.7844 0.3319
-10.0121 2.4005 0.3253
-10.0102 2.0232 0.3193
-10.0084 1.6516 0.3137
-9.9365 1.2755 0.3063
-10.0048 0.9209 0.3037
-10.0030 0.5599 0.2994
-10.0012 0.2004 0.2954
-9.9994 -0.1584 0.2918
-9.9976 -0.5176 0.2885
-9.9958 -0.8779 0.2856
-9.9940 -1.2403 0.2830
-9.9922 -1.6059 0.2808
-4.4404 -0.8781 0.1240
-3.7289 -0.8774 0.1036
-3.2063 -0.8770 0.0887
-2.8054 -0.8766 0.0774
-2.6832 -0.9453 0.0739
-2.6831 -1.0549 0.0739
-2.6830 -1.1676 0.0740
-2.6830 -1.2840 0.0742
-2.6829 -1.4043 0.0746
-2.6828 -1.5293 0.0750
-2.6827 -1.6595 0.0756
-2.6826 -1.7956 0.0763
-2.6825 -1.9383 0.0772
-2.6824 -2.0887 0.0783
-2.6823 -2.2477 0.0795
-2.6822 -2.4165 0.0810
-2.6821 -2.5967 0.0826
-2.6820 -2.7897 0.0846
-2.6819 -2.9977 0.0868
-2.6817 -3.2231 0.0894
-2.6816 -3.4687 0.0924
-2.6814 -3.7383 0.0958
-2.6812 -4.0362 0.0998
-2.6810 -4.3680 0.1044
-2.6807 -4.7411 0.1097
-2.6805 -5.1646 0.1160
-9.8966 -20.8661 0.4560
-9.8864 -22.9347 0.4886
-9.8743 -25.3733 0.5279
-3.8439 -11.0327 0.2246
-3.4069 -11.0375 0.2204
-2.9791 -11.0422 0.2166
-2.8733 -12.4030 0.2395
-3.7592 -19.3612 0.3688
-3.0416 -19.3512 0.3642
-2.3328 -19.3413 0.3605
-2.7842 -33.0025 0.6103
12.0139 -37.4517 0.7240
8.3483 -23.1369 0.4546
8.9338 -22.2282 0.4448
9.0024 -20.2662 0.4140
8.9933 -18.4337 0.3852
8.9854 -16.8554 0.3611
8.9786 -15.4784 0.3407
8.9725 -14.2636 0.3233
8.9672 -13.1813 0.3084
8.9623 -12.2085 0.2955
8.9580 -11.3274 0.2844
8.2818 -9.7334 0.2542
8.4909 -9.2831 0.2527
9.1205 -9.2799 0.2642
9.7956 -9.2766 0.2769
9.8753 -8.7019 0.2732
9.8723 -8.0892 0.2680
9.8694 -7.5118 0.2636
8.2624 -5.8328 0.2176
8.2602 -5.3981 0.2149
8.8063 -5.3143 0.2269
9.5592 -5.3105 0.2443
10.4148 -5.3063 0.2646
11.3983 -5.3014 0.2883
12.5441 -5.2957 0.3165
13.8995 -5.2890 0.3503
8.0713 -2.7441 0.2035
8.0698 -2.4244 0.2039
8.0682 -2.1116 0.2046
8.0667 -1.8048 0.2055
8.7341 -1.6275 0.2239
8.7325 -1.3051 0.2255
8.7309 -0.9862 0.2275
8.7294 -0.6700 0.2297
8.7278 -0.3557 0.2322
8.7262 -0.0424 0.2351
8.7247 0.2707 0.2383
8.7231 0.5844 0.2417
8.7216 0.8995 0.2456
8.7200 1.2168 0.2497
8.7184 1.5372 0.2543
8.7168 1.8616 0.2592
8.7151 2.1909 0.2645
8.7135 2.5260 0.2702
8.7118 2.8681 0.2764
4.5326 26.1139 1.5971
3.5867 26.2180 1.5971
2.5816 25.7142 1.5619
0.9017 14.0338 0.8509
0.3966 14.0277 0.8500
-0.1070 14.0216 0.8499
-0.6105 14.0154 0.8508
-2.2239 27.9396 1.7003
-3.2248 27.8384 1.7003
-2.7618 18.1236 1.1122
-2.6058 13.7622 0.8495
-2.5991 11.4600 0.7123
-2.5943 9.7946 0.6138
-2.6790 8.8221 0.5580
-3.0135 8.7775 0.5610
-3.3699 8.7764 0.5675
-3.7362 8.7753 0.5749
-4.1137 8.7742 0.5831
-4.5040 8.7730 0.5922
-10.0897 18.0292 1.2379
-10.0825 16.5898 1.1604
-10.0762 15.3127 1.0929
-10.0705 14.1691 1.0335
-6.4252 8.3858 0.6262
-10.0607 12.1977 0.9343
-10.0564 11.3377 0.8925
-10.0525 10.5454 0.8549
-10.0488 9.8111 0.8211
-10.0454 9.1271 0.7904
-10.0423 8.4867 0.7625
-10.0393 7.8845 0.7371
-10.0365 7.3156 0.7140
-10.0337 6.7760 0.6928
-10.0312 6.2623 0.6734
-10.0288 5.7714 0.6557
-9.9593 5.2650 0.6351
-10.0242 4.8474 0.6244
-10.0220 4.4100 0.6107
-10.0199 3.9863 0.5981
-10.0179 3.5748 0.5865
-10.0159 3.1738 0.5760
-10.0140 2.7821 0.5664
-10.0121 2.3982 0.5576
-10.0102 2.0210 0.5496
-10.0084 1.6494 0.5425
-9.9371 1.2734 0.5323
-10.0048 0.9188 0.5304
-10.0030 0.5577 0.5253
-10.0012 0.1982 0.5210
-9.9994 -0.1607 0.5173
-9.9976 -0.5198 0.5143
-9.9958 -0.8801 0.5119
-9.9940 -1.2426 0.5102
-9.9922 -1.6082 0.5091
-4.4403 -0.8791 0.2261
-3.7288 -0.8783 0.1900
-3.2062 -0.8777 0.1637
-2.8053 -0.8772 0.1437
-2.6831 -0.9460 0.1381
-2.6831 -1.0556 0.1389
-2.6830 -1.1683 0.1400
-2.6829 -1.2847 0.1413
-2.6829 -1.4050 0.1429
-2.6828 -1.5300 0.1447
-2.6827 -1.6602 0.1467
-2.6826 -1.7963 0.1491
-2.6825 -1.9391 0.1519
-2.6824 -2.0895 0.1549
-2.6823 -2.2485 0.1584
-2.6822 -2.4174 0.1624
-2.6821 -2.5976 0.1668
-2.6820 -2.7907 0.1719
-2.6818 -2.9987 0.1775
-2.6817 -3.2241 0.1840
-2.6815 -3.4698 0.1913
-2.6813 -3.7394 0.1996
-2.6812 -4.0374 0.2090
-2.6810 -4.3694 0.2200
-2.6807 -4.7425 0.2326
-2.6804 -5.1661 0.2473
-9.8966 -20.8725 0.9769
-9.8864 -22.9417 1.0518
-9.8742 -25.3812 1.1420
-3.8435 -11.0351 0.4881
-3.4065 -11.0399 0.4808
-2.9787 -11.0446 0.4745
-2.8735 -12.4083 0.5267
-3.7571 -19.3577 0.8132
-3.0399 -19.3477 0.8057
-2.3313 -19.3378 0.7995
-2.7119 -32.1628 1.3223
-2.0075 -41.5695 1.7023
-0.5167 -41.6921 1.7032
0.9793 -41.7144 1.7028
2.4749 -41.6624 1.7021
3.9669 -41.5452 1.7014
5.1203 -38.8450 1.5972
6.5080 -38.6259 1.5972
7.8842 -38.3454 1.5972
7.9803 -32.8026 1.3786
10.5896 -37.6028 1.5972
9.7813 -30.4963 1.3114
8.3483 -23.1406 1.0092
8.9323 -22.2282 0.9848
9.0024 -20.2698 0.9140
8.9933 -18.4372 0.8476
8.9854 -16.8588 0.7917
8.9786 -15.4816 0.7441
8.9726 -14.2666 0.7032
8.9672 -13.1842 0.6679
8.9624 -12.2114 0.6370
8.9580 -11.3302 0.6101
8.2818 -9.7359 0.5423
8.4887 -9.2831 0.5363
9.1180 -9.2799 0.5574
9.7928 -9.2766 0.5810
9.8753 -8.7046 0.5700
9.8723 -8.0917 0.5558
9.8694 -7.5143 0.5433
8.2624 -5.8349 0.4456
8.2602 -5.4001 0.4375
8.8028 -5.3143 0.4587
9.5551 -5.3106 0.4907
10.4100 -5.3063 0.5279
11.3927 -5.3014 0.5715
12.5373 -5.2958 0.6232
13.8913 -5.2890 0.6853
8.0714 -2.7460 0.3958
8.0698 -2.4262 0.3939
8.0682 -2.1134 0.3926
8.0667 -1.8065 0.3919
8.7341 -1.6295 0.4243
8.7325 -1.3070 0.4247
8.7309 -0.9882 0.4256
8.7294 -0.6720 0.4272
8.7278 -0.3576 0.4292
8.7262 -0.0443 0.4319
8.7247 0.2688 0.4351
8.7231 0.5825 0.4389
8.7216 0.8975 0.4433
8.7200 1.2149 0.4483
8.7184 1.5352 0.4539
8.7168 1.8596 0.4602
8.7152 2.1888 0.4671
8.7135 2.5239 0.4748
8.7118 2.8659 0.4832
3.2960 18.9826 1.5971
2.6095 19.0665 1.5971
1.9856 19.7682 1.6505
0.9021 14.0308 1.1690
0.3970 14.0247 1.1674
-0.1066 14.0186 1.1671
-0.6101 14.0125 1.1681
-1.2042 15.1305 1.2644
-2.3486 20.2739 1.7003
-2.6203 17.1938 1.4489
-2.6058 13.7610 1.1665
-2.5991 11.4588 0.9782
-2.5943 9.7934 0.8430
-2.6658 8.7774 0.7628
-3.0136 8.7763 0.7710
-3.3700 8.7752 0.7802
-3.7363 8.7741 0.7907
-4.1139 8.7730 0.8023
-4.5043 8.7718 0.8153
-9.4502 16.8833 1.5972
-4.1519 6.3083 0.6212
-4.3848 6.1680 0.6212
-6.4257 8.3844 0.8653
-10.0607 12.1946 1.2920
-10.0564 11.3348 1.2353
-10.0525 10.5426 1.1845
-10.0488 9.8084 1.1387
-10.0454 9.1244 1.0974
-10.0423 8.4841 1.0599
-10.0393 7.8819 1.0259
-10.0364 7.3131 0.9949
-10.0337 6.7736 0.9666
-10.0312 6.2599 0.9409
-10.0288 5.7689 0.9173
-9.9599 5.2629 0.8899
-10.0242 4.8450 0.8762
-10.0220 4.4076 0.8583
-10.0199 3.9840 0.8419
-10.0179 3.5725 0.8271
-10.0159 3.1716 0.8136
-10.0140 2.7798 0.8014
-10.0121 2.3960 0.7904
-10.0102 2.0188 0.7806
-10.0083 1.6472 0.7718
-9.9377 1.2713 0.7589
-10.0048 0.9165 0.7575
-10.0030 0.5554 0.7519
-10.0012 0.1960 0.7472
-9.9994 -0.1629 0.7435
-9.9976 -0.5220 0.7407
-9.9958 -0.8824 0.7388
-9.9940 -1.2449 0.7379
-9.9922 -1.6105 0.7379
-4.4402 -0.8801 0.3284
-3.7286 -0.8791 0.2766
-3.2061 -0.8784 0.2388
-2.8052 -0.8779 0.2101
-2.6831 -0.9466 0.2024
-2.6831 -1.0562 0.2041
-2.6830 -1.1690 0.2062
-2.6829 -1.2854 0.2086
-2.6828 -1.4058 0.2113
-2.6827 -1.5308 0.2145
-2.6827 -1.6610 0.2181
-2.6826 -1.7971 0.2221
-2.6825 -1.9399 0.2267
-2.6824 -2.0903 0.2318
-2.6823 -2.2494 0.2375
-2.6822 -2.4183 0.2440
-2.6821 -2.5985 0.2512
-2.6820 -2.7916 0.2593
-2.6818 -2.9997 0.2685
-2.6817 -3.2252 0.2788
-2.6815 -3.4709 0.2904
-2.6813 -3.7406 0.3036
-2.6811 -4.0387 0.3186
-2.6809 -4.3707 0.3358
-2.6807 -4.7439 0.3557
-2.6804 -5.1676 0.3788
-4.2550 -9.8769 0.6957
-3.8430 -9.8813 0.6840
-3.4421 -9.8857 0.6736
-3.0591 -9.9171 0.6663
-2.7204 -10.0901 0.6695
-2.7398 -11.8348 0.7767
-3.7551 -19.3542 1.2583
-3.0381 -19.3442 1.2477
-2.3299 -19.3343 1.2391
-2.2468 -26.6611 1.7003
-1.2909 -26.7521 1.7003
-0.3314 -26.8036 1.7003
0.6301 -26.8152 1.7003
1.5916 -26.7869 1.7003
2.3967 -25.0989 1.5972
3.2950 -24.9975 1.5972
4.1882 -24.8591 1.5972
5.0742 -24.6812 1.5971
5.9522 -24.4692 1.5971
6.9199 -24.5754 1.6204
7.7888 -24.2878 1.6204
8.3483 -23.1443 1.5650
8.9308 -22.2282 1.5258
9.0024 -20.2735 1.4151
8.9933 -18.4407 1.3111
8.9854 -16.8621 1.2234
8.9786 -15.4848 1.1485
8.9726 -14.2697 1.0840
8.9672 -13.1872 1.0281
8.9624 -12.2142 0.9793
8.9580 -11.3329 0.9364
8.2818 -9.7383 0.8311
8.4865 -9.2831 0.8203
9.1155 -9.2800 0.8511
9.7900 -9.2766 0.8855
9.8753 -8.7072 0.8675
9.8723 -8.0943 0.8443
9.8694 -7.5168 0.8236
8.2624 -5.8369 0.6742
8.2602 -5.4021 0.6605
8.7993 -5.3143 0.6907
9.5511 -5.3106 0.7375
10.4053 -5.3063 0.7916
11.3871 -5.3015 0.8551
12.5306 -5.2958 0.9303
13.8832 -5.2891 1.0206
8.0714 -2.7478 0.5885
8.0698 -2.4280 0.5844
8.0682 -2.1152 0.5812
8.0667 -1.8083 0.5788
8.7341 -1.6314 0.6251
8.7325 -1.3090 0.6242
8.7309 -0.9901 0.6242
8.7294 -0.6739 0.6250
8.7278 -0.3596 0.6267
8.7263 -0.0463 0.6291
8.7247 0.2668 0.6324
8.7231 0.5805 0.6365
8.7216 0.8956 0.6415
8.7200 1.2129 0.6473
8.7184 1.5332 0.6540
8.7168 1.8575 0.6617
8.7152 2.1868 0.6703
8.7135 2.5218 0.6799
8.7118 2.8638 0.6906
2.5879 14.8986 1.5971
2.0494 14.9682 1.5971
1.6071 15.9912 1.7003
1.0311 16.0278 1.7003
0.4547 16.0455 1.7003
-0.1217 16.0445 1.7003
-0.6602 15.1671 1.6093
-1.2722 15.9863 1.7003
-1.8453 15.9292 1.7003
-2.4161 15.8535 1.7003
-2.6057 13.7598 1.4846
-2.5991 11.4575 1.2451
-2.5943 9.7921 1.0731
-2.6658 8.7763 0.9711
-3.0137 8.7752 0.9817
-3.3701 8.7741 0.9937
-2.5856 6.0709 0.6970
-2.5842 5.5099 0.6422
-2.7086 5.2738 0.6249
-2.8997 5.1795 0.6249
-3.0880 5.0789 0.6249
-3.2733 4.9722 0.6249
-3.4554 4.8595 0.6249
-3.6341 4.7407 0.6250
-3.8092 4.6160 0.6250
-3.9806 4.4854 0.6251
-4.1481 4.3491 0.6252
-4.3115 4.2071 0.6253
-4.4706 4.0595 0.6255
-9.9871 8.4349 1.3508
-10.0393 7.8793 1.3156
-10.0364 7.3105 1.2767
-10.0337 6.7711 1.2414
-10.0312 6.2574 1.2092
-10.0288 5.7665 1.1799
-9.9604 5.2609 1.1456
-10.0242 4.8427 1.1289
-10.0220 4.4053 1.1067
-10.0199 3.9817 1.0866
-10.0179 3.5702 1.0684
-10.0159 3.1693 1.0520
-10.0140 2.7776 1.0372
-10.0120 2.3937 1.0240
-10.0102 2.0166 1.0123
-10.0083 1.6450 1.0020
-9.9383 1.2692 0.9863
-10.0047 0.9143 0.9855
-10.0029 0.5532 0.9792
-10.0012 0.1938 0.9741
-9.9994 -0.1651 0.9703
-9.9976 -0.5243 0.9678
-9.9958 -0.8847 0.9664
-9.9940 -1.2472 0.9664
-9.9922 -1.6128 0.9675
-4.4401 -0.8811 0.4311
-3.7286 -0.8800 0.3635
-3.2061 -0.8792 0.3142
-2.8052 -0.8786 0.2768
-2.6831 -0.9473 0.2669
-2.6831 -1.0569 0.2695
-2.6830 -1.1697 0.2725
-2.6829 -1.2860 0.2760
-2.6828 -1.4065 0.2800
-2.6827 -1.5315 0.2845
-2.6826 -1.6617 0.2896
-2.6826 -1.7979 0.2953
-2.6825 -1.9407 0.3017
-2.6824 -2.0912 0.3089
-2.6823 -2.2502 0.3169
-2.6822 -2.4192 0.3259
-2.6820 -2.5994 0.3359
-2.6819 -2.7926 0.3471
-2.6818 -3.0007 0.3597
-2.6817 -3.2262 0.3739
-2.6815 -3.4721 0.3898
-2.6813 -3.7418 0.4079
-2.6811 -4.0399 0.4285
-2.6809 -4.3720 0.4521
-2.6806 -4.7453 0.4792
-2.6804 -5.1692 0.5108
-7.8143 -16.4910 1.5972
-4.2546 -9.8791 0.9395
-3.8427 -9.8835 0.9243
-3.4418 -9.8878 0.9109
-3.0504 -9.8920 0.8991
-2.7206 -10.0942 0.9065
-2.7400 -11.8399 1.0523
-2.5382 -13.0869 1.1527
-3.0533 -19.4491 1.7003
-2.3568 -19.5666 1.7003
-1.6556 -19.6563 1.7003
-0.9508 -19.7181 1.7003
-0.2436 -19.7516 1.7003
0.4646 -19.7569 1.7003
1.1728 -19.7339 1.7003
1.8796 -19.6826 1.7003
2.4269 -18.4126 1.5971
3.0848 -18.3114 1.5971
3.7381 -18.1840 1.5971
2.7880 -11.4626 1.0153
5.0260 -17.8516 1.5971
5.6585 -17.6473 1.5971
6.3737 -17.6727 1.6204
6.9959 -17.4152 1.6204
7.6067 -17.1335 1.6204
8.2052 -16.8281 1.6204
8.7905 -16.4995 1.6204
8.9786 -15.4880 1.5542
8.9726 -14.2728 1.4661
8.9672 -13.1902 1.3896
8.9624 -12.2171 1.3226
8.9580 -11.3357 1.2638
8.2818 -9.7408 1.1209
8.4843 -9.2831 1.1051
9.1130 -9.2800 1.1457
9.7872 -9.2766 1.1909
9.8753 -8.7099 1.1659
9.8723 -8.0969 1.1337
9.8694 -7.5193 1.1048
8.2624 -5.8390 0.9035
8.2603 -5.4042 0.8842
8.7958 -5.3143 0.9234
9.5470 -5.3106 0.9848
10.4005 -5.3064 1.0559
11.3815 -5.3015 1.1393
12.5239 -5.2958 1.2380
13.8749 -5.2891 1.3566
8.0714 -2.7496 0.7818
8.0698 -2.4298 0.7754
8.0682 -2.1170 0.7703
8.0667 -1.8101 0.7662
8.7341 -1.6334 0.8265
8.7325 -1.3109 0.8245
8.7310 -0.9920 0.8235
8.7294 -0.6758 0.8236
8.7278 -0.3615 0.8248
8.7263 -0.0482 0.8270
8.7247 0.2649 0.8304
8.7232 0.5785 0.8348
8.7216 0.8936 0.8403
8.7200 1.2109 0.8470
8.7184 1.5312 0.8548
8.7168 1.8555 0.8638
8.7152 2.1847 0.8741
8.7135 2.5197 0.8856
8.7118 2.8617 0.8986
2.1287 12.2504 1.5971
1.7952 13.1055 1.7003
1.3225 13.1528 1.7003
0.8488 13.1844 1.7003
0.3745 13.2003 1.7003
-0.0998 13.2005 1.7003
-0.5736 13.1850 1.7003
-1.0467 13.1538 1.7003
-1.5183 13.1069 1.7003
-1.9882 13.0445 1.7003
-2.4557 12.9666 1.7003
-2.8939 12.7556 1.6848
-2.5864 9.7613 1.3003
-2.6659 8.7751 1.1804
-3.0138 8.7741 1.1934
-3.3703 8.7730 1.2082
-2.5858 6.0702 0.8476
-2.5843 5.5092 0.7811
-2.5831 5.0284 0.7249
-2.5820 4.6110 0.6770
-2.5810 4.2441 0.6356
-2.6995 4.0997 0.6273
-2.8489 4.0056 0.6274
-2.9953 3.9064 0.6274
-3.1386 3.8024 0.6275
-3.2786 3.6935 0.6275
-3.4153 3.5798 0.6276
-3.5484 3.4615 0.6277
-3.6778 3.3386 0.6278
-3.8033 3.2112 0.6279
-3.9248 3.0794 0.6281
-4.0422 2.9433 0.6282
-4.1552 2.8030 0.6284
-4.2638 2.6587 0.6286
-4.3678 2.5104 0.6287
-4.4670 2.3583 0.6289
-9.9664 4.8124 1.3747
-9.9696 4.3800 1.3492
-9.9996 3.9714 1.3297
-10.0178 3.5679 1.3108
-10.0159 3.1670 1.2914
-10.0139 2.7753 1.2741
-10.0120 2.3915 1.2586
-10.0102 2.0143 1.2450
-10.0083 1.6428 1.2331
-9.9389 1.2671 1.2147
-10.0047 0.9121 1.2144
-10.0029 0.5510 1.2074
-10.0012 0.1915 1.2021
-9.9994 -0.1674 1.1982
-9.9976 -0.5265 1.1959
-9.9958 -0.8869 1.1951
-9.9940 -1.2494 1.1958
-9.9922 -1.6151 1.1981
-4.4400 -0.8821 0.5342
-3.7285 -0.8809 0.4507
-3.2060 -0.8799 0.3899
-2.8051 -0.8792 0.3437
-2.6831 -0.9479 0.3317
-2.6830 -1.0576 0.3352
-2.6830 -1.1704 0.3392
-2.6829 -1.2867 0.3438
-2.6828 -1.4072 0.3490
-2.6827 -1.5322 0.3549
-2.6826 -1.6625 0.3615
-2.6825 -1.7987 0.3689
-2.6825 -1.9415 0.3771
-2.6824 -2.0920 0.3864
-2.6823 -2.2511 0.3967
-2.6822 -2.4201 0.4081
-2.6820 -2.6003 0.4210
-2.6819 -2.7935 0.4353
-2.6818 -3.0017 0.4513
-2.6816 -3.2273 0.4694
-2.6815 -3.4732 0.4897
-2.6813 -3.7430 0.5127
-2.6811 -4.0411 0.5389
-2.6809 -4.3734 0.5688
-2.6806 -4.7468 0.6033
-2.6804 -5.1708 0.6434
-6.2011 -13.0907 1.5972
-4.2543 -9.8813 1.1843
-3.8423 -9.8857 1.1657
-3.4414 -9.8900 1.1492
-3.0500 -9.8942 1.1347
-2.7208 -10.0983 1.1447
-2.7402 -11.8450 1.3291
-2.5165 -12.9799 1.4439
-2.4161 -15.3962 1.7003
-1.8645 -15.4858 1.7003
-1.3093 -15.5539 1.7003
-0.7516 -15.6003 1.7003
-0.1923 -15.6249 1.7003
0.3678 -15.6275 1.7003
0.9278 -15.6083 1.7003
1.4867 -15.5671 1.7003
2.0435 -15.5041 1.7003
2.4397 -14.4830 1.5971
2.9564 -14.3831 1.5971
2.7849 -11.4513 1.2822
3.9757 -14.1232 1.5971
4.4767 -13.9637 1.5971
4.9707 -13.7848 1.5971
5.4570 -13.5869 1.5971
5.9349 -13.3704 1.5971
6.4972 -13.3276 1.6204
6.9627 -13.0713 1.6204
7.4173 -12.7974 1.6204
7.8604 -12.5064 1.6204
8.2914 -12.1989 1.6204
8.7096 -11.8753 1.6204
8.9580 -11.3385 1.5926
8.2818 -9.7433 1.4119
8.4820 -9.2831 1.3909
9.1105 -9.2800 1.4413
9.7844 -9.2766 1.4974
9.8754 -8.7125 1.4656
9.8723 -8.0995 1.4243
9.8694 -7.5219 1.3872
8.2624 -5.8411 1.1338
8.2603 -5.4062 1.1089
8.7923 -5.3144 1.1569
9.5429 -5.3106 1.2329
10.3957 -5.3064 1.3211
11.3758 -5.3015 1.4244
12.5171 -5.2959 1.5468
13.2669 -5.0604 1.6204
8.0714 -2.7515 0.9759
8.0698 -2.4317 0.9673
8.0682 -2.1188 0.9602
8.0667 -1.8120 0.9545
8.7341 -1.6353 1.0289
8.7325 -1.3129 1.0255
8.7310 -0.9940 1.0236
8.7294 -0.6778 1.0230
8.7278 -0.3635 1.0237
8.7263 -0.0502 1.0258
8.7247 0.2629 1.0292
8.7232 0.5766 1.0339
8.7216 0.8916 1.0400
8.7200 1.2088 1.0475
8.7184 1.5292 1.0564
8.7168 1.8535 1.0668
8.7152 2.1826 1.0788
8.7135 2.5176 1.0923
8.7118 2.8596 1.1075
1.9234 11.0643 1.7003
1.5237 11.1191 1.7003
1.1227 11.1603 1.7003
0.7207 11.1881 1.7003
0.3182 11.2024 1.7003
-0.0844 11.2031 1.7003
-0.4867 11.1904 1.7003
-0.8882 11.1641 1.7003
-1.2887 11.1245 1.7003
-1.6875 11.0714 1.7003
-2.0844 11.0050 1.7003
-2.4789 10.9253 1.7003
-2.5901 9.7738 1.5342
-2.6659 8.7740 1.3909
-3.0138 8.7729 1.4063
-3.3704 8.7718 1.4238
-2.5860 6.0696 0.9990
-2.5845 5.5084 0.9207
-2.5832 5.0277 0.8546
-2.5821 4.6103 0.7982
-2.5811 4.2434 0.7496
-2.5803 3.9178 0.7072
-2.5795 3.6260 0.6701
-2.5788 3.3625 0.6374
-2.6665 3.2297 0.6291
-2.7848 3.1364 0.6292
-2.9001 3.0390 0.6293
-3.0123 2.9377 0.6294
-3.1212 2.8325 0.6295
-3.2267 2.7235 0.6296
-3.3287 2.6108 0.6297
-3.4271 2.4945 0.6298
-3.5217 2.3748 0.6300
-3.7705 2.3501 0.6577
-4.0894 2.3494 0.6968
-4.4507 2.3486 0.7420
-9.7760 4.7182 1.5972
-9.9600 4.3734 1.5972
-9.9395 1.2649 1.4443
-9.9834 0.1889 1.4287
-9.9732 -0.1692 1.4236
-9.9670 -0.5272 1.4208
-9.9646 -0.8865 1.4205
-9.9662 -1.2483 1.4225
-9.9717 -1.6141 1.4270
-4.4399 -0.8832 0.6379
-3.7284 -0.8817 0.5385
-3.2059 -0.8807 0.4661
-2.8050 -0.8799 0.4111
-2.6831 -0.9486 0.3969
-2.6830 -1.0583 0.4012
-2.6830 -1.1711 0.4062
-2.6829 -1.2874 0.4119
-2.6828 -1.4079 0.4184
-2.6827 -1.5330 0.4256
-2.6826 -1.6632 0.4337
-2.6825 -1.7994 0.4428
-2.6825 -1.9423 0.4529
-2.6823 -2.0928 0.4642
-2.6822 -2.2519 0.4768
-2.6822 -2.4209 0.4908
-2.6820 -2.6012 0.5065
-2.6819 -2.7945 0.5239
-2.6818 -3.0027 0.5435
-2.6816 -3.2283 0.5654
-2.6815 -3.4743 0.5901
-2.6813 -3.7441 0.6181
-2.6811 -4.0424 0.6499
-2.6808 -4.3747 0.6862
-2.6806 -4.7482 0.7281
-2.6803 -5.1723 0.7767
-5.4666 -11.5438 1.7003
-4.2539 -9.8836 1.4304
-3.8420 -9.8879 1.4083
-3.4411 -9.8922 1.3888
-3.0497 -9.8964 1.3715
-2.7210 -10.1025 1.3842
-2.8985 -12.5337 1.7003
-2.4498 -12.6407 1.7003
-1.9970 -12.7304 1.7003
-1.5407 -12.8026 1.7003
-1.0818 -12.8573 1.7003
-0.6208 -12.8943 1.7003
-0.1585 -12.9135 1.7003
0.3043 -12.9149 1.7003
0.7669 -12.8984 1.7003
1.2286 -12.8641 1.7003
1.6886 -12.8120 1.7003
2.1463 -12.7422 1.7003
2.4430 -11.8864 1.5971
2.7818 -11.4399 1.5499
3.2856 -11.6732 1.5971
3.6999 -11.5425 1.5971
4.1087 -11.3961 1.5971
4.5113 -11.2340 1.5971
4.9071 -11.0568 1.5971
5.2955 -10.8646 1.5971
5.6759 -10.6578 1.5971
6.0478 -10.4367 1.5971
6.5043 -10.3510 1.6204
6.8626 -10.0990 1.6204
7.2107 -9.8339 1.6204
7.5479 -9.5560 1.6204
7.8739 -9.2658 1.6204
8.1882 -8.9639 1.6204
8.4903 -8.6507 1.6204
8.7800 -8.3268 1.6204
9.0567 -7.9927 1.6204
9.3201 -7.6490 1.6204
9.5701 -7.2962 1.6204
8.2624 -5.8432 1.3653
8.2603 -5.4083 1.3348
8.7888 -5.3144 1.3914
9.5389 -5.3107 1.4822
10.3909 -5.3064 1.5875
10.7697 -5.0216 1.6204
10.9178 -4.6218 1.6204
11.0507 -4.2176 1.6204
8.0714 -2.7533 1.1711
8.0698 -2.4335 1.1602
8.0682 -2.1207 1.1511
8.0667 -1.8138 1.1437
8.0368 -1.5066 1.1339
8.3969 -1.2643 1.1805
8.3954 -0.9576 1.1777
8.3939 -0.6536 1.1764
8.3924 -0.3514 1.1767
8.3909 -0.0501 1.1785
8.3894 0.2509 1.1818
8.0205 0.5283 1.1347
8.0047 0.8165 1.1388
7.9966 1.1067 1.1455
7.9930 1.4001 1.1544
8.7168 1.8514 1.2709
8.7152 2.1805 1.2845
8.7135 2.5155 1.3000
8.7118 2.8574 1.3175
1.6692 9.5985 1.7003
1.3225 9.6468 1.7003
0.9746 9.6834 1.7003
0.6258 9.7081 1.7003
0.2765 9.7209 1.7003
-0.0730 9.7220 1.7003
-0.4222 9.7112 1.7003
-0.7708 9.6886 1.7003
-1.1183 9.6542 1.7003
-1.4646 9.6081 1.7003
-1.8090 9.5503 1.7003
-2.1514 9.4809 1.7003
-2.4913 9.3999 1.7003
-2.8284 9.3074 1.7003
-3.1623 9.2035 1.7003
-3.4926 9.0883 1.7003
-2.5861 6.0689 1.1514
-2.5773 5.4921 1.0582
-2.5834 5.0270 0.9852
-2.5823 4.6095 0.9203
-2.5813 4.2427 0.8643
-2.5804 3.9171 0.8156
-2.5796 3.6253 0.7729
-2.5789 3.3618 0.7352
-2.5783 3.1220 0.7018
-2.5777 2.9024 0.6720
-2.5772 2.6999 0.6454
-2.6148 2.5493 0.6306
-2.7087 2.4574 0.6307
-2.7996 2.3622 0.6308
-2.9998 2.3521 0.6555
-3.2318 2.3515 0.6862
-3.4877 2.3510 0.7210
-3.7723 2.3503 0.7606
-4.0916 2.3496 0.8060
-4.4532 2.3488 0.8586
-8.4509 4.0766 1.5972
-8.6076 3.7775 1.5972
-8.7541 3.4726 1.5972
-8.8902 3.1622 1.5972
-9.0156 2.8466 1.5972
-9.1302 2.5262 1.5972
-9.2336 2.2014 1.5972
-9.3259 1.8724 1.5972
-9.4067 1.5398 1.5972
-9.4759 1.2037 1.5972
-9.5333 0.8648 1.5972
-9.5788 0.5233 1.5972
-9.6123 0.1797 1.5972
-9.6336 -0.1656 1.5972
-9.6427 -0.5123 1.5972
-9.6394 -0.8597 1.5972
-9.6237 -1.2076 1.5972
-9.5955 -1.5555 1.5972
-4.4398 -0.8842 0.7422
-3.7283 -0.8826 0.6267
-3.2058 -0.8814 0.5427
-2.8049 -0.8806 0.4788
-2.6831 -0.9493 0.4625
-2.6830 -1.0589 0.4677
-2.6829 -1.1718 0.4737
-2.6829 -1.2882 0.4805
-2.6828 -1.4086 0.4882
-2.6827 -1.5337 0.4968
-2.6826 -1.6640 0.5064
-2.6825 -1.8002 0.5172
-2.6825 -1.9431 0.5292
-2.6823 -2.0936 0.5426
-2.6822 -2.2528 0.5575
-2.6821 -2.4218 0.5741
-2.6820 -2.6022 0.5925
-2.6819 -2.7955 0.6131
-2.6818 -3.0037 0.6362
-2.6816 -3.2294 0.6621
-2.6814 -3.4754 0.6912
-2.6812 -3.7453 0.7242
-2.6810 -4.0437 0.7616
-2.6808 -4.3761 0.8044
-2.6806 -4.7497 0.8537
-2.6803 -5.1739 0.9108
-4.6604 -9.8442 1.7003
-4.3099 -10.0169 1.7003
-3.9528 -10.1764 1.7003
-3.5896 -10.3225 1.7003
-3.2207 -10.4547 1.7003
-2.8468 -10.5730 1.7003
-2.4683 -10.6771 1.7003
-2.0859 -10.7668 1.7003
-1.7000 -10.8419 1.7003
-1.3114 -10.9024 1.7003
-0.9206 -10.9480 1.7003
-0.5281 -10.9787 1.7003
-0.1346 -10.9943 1.7003
0.2593 -10.9950 1.7003
0.6530 -10.9807 1.7003
1.0460 -10.9513 1.7003
1.4375 -10.9069 1.7003
1.8271 -10.8477 1.7003
2.1370 -10.3984 1.6411
2.4401 -10.0360 1.5971
2.7971 -9.9389 1.5971
3.1500 -9.8283 1.5971
3.4982 -9.7044 1.5971
3.8413 -9.5674 1.5971
4.1788 -9.4176 1.5971
4.5101 -9.2551 1.5971
4.8348 -9.0802 1.5971
5.1524 -8.8933 1.5971
5.4623 -8.6946 1.5971
5.7642 -8.4845 1.5971
6.0577 -8.2633 1.5971
6.4349 -8.1489 1.6204
6.7143 -7.9032 1.6204
6.9838 -7.6475 1.6204
7.2432 -7.3821 1.6204
7.4921 -7.1075 1.6204
7.7302 -6.8242 1.6204
7.9572 -6.5325 1.6204
8.1728 -6.2330 1.6204
8.2624 -5.8453 1.5983
8.2603 -5.4104 1.5621
8.7486 -5.2923 1.6204
8.9162 -4.9662 1.6204
9.0714 -4.6347 1.6204
9.2138 -4.2983 1.6204
9.3436 -3.9576 1.6204
9.4604 -3.6129 1.6204
8.0714 -2.7552 1.3675
8.0698 -2.4354 1.3544
8.0683 -2.1225 1.3433
8.0667 -1.8156 1.3342
8.0075 -1.5029 1.3174
8.0060 -1.2072 1.3120
8.0045 -0.9149 1.3084
8.0031 -0.6250 1.3066
8.0017 -0.3368 1.3064
8.0002 -0.0496 1.3079
7.9988 0.2374 1.3112
7.9974 0.5249 1.3161
7.9960 0.8137 1.3228
7.9945 1.1046 1.3312
7.9931 1.3982 1.3414
8.7168 1.8493 1.4763
8.7152 2.1784 1.4916
8.7135 2.5134 1.5090
8.7118 2.8553 1.5288
0.5440 3.1267 0.6278
0.4313 3.1443 0.6282
0.3180 3.1579 0.6285
0.2043 3.1675 0.6288
0.0903 3.1730 0.6290
-0.0238 3.1745 0.6292
-0.1378 3.1719 0.6294
-0.2518 3.1652 0.6295
-0.3654 3.1545 0.6296
-0.4786 3.1398 0.6297
-0.5912 3.1210 0.6297
-0.7031 3.0982 0.6297
-0.8142 3.0715 0.6297
-2.4960 8.2124 1.7003
-2.7906 8.1203 1.7003
-3.0819 8.0182 1.7003
-2.5863 6.0682 1.3050
-2.5203 5.3695 1.1729
-2.5835 5.0263 1.1168
-2.5824 4.6088 1.0433
-2.5814 4.2420 0.9799
-2.5805 3.9164 0.9247
-2.5798 3.6247 0.8764
-2.5790 3.3612 0.8338
-2.5784 3.1214 0.7960
-2.5778 2.9017 0.7623
-2.5773 2.6992 0.7322
-2.5768 2.5115 0.7051
-2.5946 2.3531 0.6856
-2.7892 2.3527 0.7133
-3.0011 2.3522 0.7444
-3.2332 2.3517 0.7794
-3.4893 2.3512 0.8191
-3.7741 2.3506 0.8643
-4.0937 2.3499 0.9162
-4.4557 2.3491 0.9762
-7.4355 3.5850 1.5972
-7.5717 3.3212 1.5972
-7.6989 3.0522 1.5972
-7.8169 2.7786 1.5972
-7.9253 2.5005 1.5972
-8.0241 2.2184 1.5972
-8.1131 1.9324 1.5972
-8.1922 1.6429 1.5972
-8.2611 1.3504 1.5972
-8.3198 1.0550 1.5972
-8.3681 0.7572 1.5972
-8.4059 0.4573 1.5972
-8.4331 0.1557 1.5972
-8.4496 -0.1472 1.5972
-8.4554 -0.4511 1.5972
-8.4502 -0.7556 1.5972
-8.4342 -1.0603 1.5972
-8.4072 -1.3648 1.5972
-4.4396 -0.8852 0.8473
-3.7282 -0.8835 0.7157
-3.2057 -0.8822 0.6199
-2.8048 -0.8812 0.5470
-2.6830 -0.9499 0.5286
-2.6830 -1.0596 0.5347
-2.6829 -1.1725 0.5416
-2.6829 -1.2889 0.5496
-2.6828 -1.4094 0.5585
-2.6827 -1.5344 0.5685
-2.6826 -1.6648 0.5797
-2.6825 -1.8010 0.5922
-2.6824 -1.9439 0.6061
-2.6823 -2.0945 0.6216
-2.6822 -2.2537 0.6388
-2.6821 -2.4227 0.6579
-2.6820 -2.6031 0.6792
-2.6818 -2.7964 0.7030
-2.6817 -3.0048 0.7296
-2.6816 -3.2305 0.7595
-2.6814 -3.4765 0.7931
-2.6812 -3.7465 0.8310
-2.6810 -4.0449 0.8742
-2.6808 -4.3774 0.9235
-2.6806 -4.7512 0.9802
-2.6803 -5.1755 1.0460
-4.0574 -8.5732 1.7003
-3.7517 -8.7223 1.7003
-3.4403 -8.8599 1.7003
-3.1237 -8.9858 1.7003
-2.8023 -9.0998 1.7003
-2.4767 -9.2016 1.7003
-2.1472 -9.2912 1.7003
-1.8143 -9.3683 1.7003
-1.4785 -9.4329 1.7003
-1.1404 -9.4847 1.7003
-0.8004 -9.5238 1.7003
-0.4590 -9.5499 1.7003
-0.1168 -9.5632 1.7003
0.2257 -9.5634 1.7003
0.5681 -9.5507 1.7003
0.9098 -9.5251 1.7003
1.2503 -9.4865 1.7003
1.5890 -9.4350 1.7003
1.9256 -9.3708 1.7003
2.1374 -8.7918 1.6085
2.4327 -8.6455 1.5971
2.7398 -8.5497 1.5971
3.0428 -8.4425 1.5971
3.3415 -8.3240 1.5971
3.6353 -8.1943 1.5971
3.9239 -8.0537 1.5971
4.2068 -7.9023 1.5971
4.4836 -7.7406 1.5971
4.7539 -7.5686 1.5971
5.0173 -7.3868 1.5971
5.2735 -7.1953 1.5971
5.5220 -6.9945 1.5971
5.7626 -6.7848 1.5971
5.9950 -6.5664 1.5971
6.3096 -6.4324 1.6204
6.5276 -6.1943 1.6204
6.7363 -5.9486 1.6204
6.9355 -5.6956 1.6204
7.1248 -5.4357 1.6204
7.3041 -5.1692 1.6204
7.4732 -4.8967 1.6204
7.6318 -4.6186 1.6204
7.7798 -4.3351 1.6204
7.9170 -4.0469 1.6204
8.0433 -3.7542 1.6204
8.1585 -3.4575 1.6204
8.2626 -3.1574 1.6204
8.0714 -2.7570 1.5654
8.0698 -2.4372 1.5499
8.0683 -2.1244 1.5368
8.0667 -1.8174 1.5260
8.0312 -1.5091 1.5109
8.0297 -1.2126 1.5044
8.0283 -0.9194 1.4998
8.0268 -0.6287 1.4973
8.0254 -0.3396 1.4967
8.0239 -0.0516 1.4981
8.0225 0.2363 1.5013
8.0211 0.5246 1.5066
8.0196 0.8143 1.5138
8.0182 1.1059 1.5230
8.0167 1.4004 1.5343
8.3918 1.7783 1.6204
8.3065 2.0742 1.6204
8.2108 2.3664 1.6204
8.1051 2.6544 1.6204
0.4842 2.7823 0.6251
0.3839 2.7980 0.6254
0.2831 2.8100 0.6257
0.1819 2.8185 0.6259
0.0805 2.8234 0.6261
-0.0211 2.8247 0.6263
-0.1226 2.8224 0.6264
-0.2240 2.8164 0.6266
-0.3251 2.8068 0.6266
-0.4259 2.7937 0.6267
-0.5261 2.7769 0.6267
-0.6257 2.7566 0.6267
-0.7245 2.7327 0.6267
-0.8224 2.7054 0.6266
-2.4947 7.2584 1.7003
-2.7551 7.1668 1.7003
-2.3812 5.5859 1.3441
-2.4984 5.3220 1.3007
-2.5837 5.0256 1.2495
-2.5825 4.6081 1.1673
-2.5815 4.2413 1.0965
-2.5806 3.9157 1.0349
-2.5799 3.6240 0.9809
-2.5791 3.3605 0.9333
-2.5785 3.1207 0.8911
-2.5779 2.9010 0.8534
-2.5774 2.6986 0.8198
-2.5769 2.5109 0.7896
-2.5955 2.3533 0.7680
-2.7903 2.3529 0.7992
-3.0023 2.3524 0.8342
-3.2346 2.3519 0.8736
-3.4909 2.3514 0.9182
-3.7760 2.3508 0.9691
-4.0959 2.3501 1.0275
-4.4582 2.3493 1.0949
-6.6319 3.1959 1.5972
-6.7522 2.9601 1.5972
-6.8645 2.7198 1.5972
-6.9684 2.4754 1.5972
-7.0637 2.2271 1.5972
-7.1505 1.9752 1.5972
-7.2285 1.7200 1.5972
-7.2975 1.4618 1.5972
-7.3575 1.2010 1.5972
-7.4083 0.9377 1.5972
-7.4498 0.6724 1.5972
-7.4819 0.4053 1.5972
-7.5046 0.1368 1.5972
-7.5178 -0.1327 1.5972
-7.5213 -0.4030 1.5972
-7.5151 -0.6738 1.5972
-7.4993 -0.9446 1.5972
-7.4738 -1.2151 1.5972
-4.4396 -0.8863 0.9533
-3.7281 -0.8844 0.8054
-3.2056 -0.8830 0.6977
-2.8048 -0.8819 0.6159
-2.6830 -0.9506 0.5952
-2.6830 -1.0603 0.6022
-2.6829 -1.1732 0.6102
-2.6828 -1.2896 0.6192
-2.6828 -1.4101 0.6294
-2.6827 -1.5352 0.6409
-2.6826 -1.6655 0.6536
-2.6825 -1.8018 0.6678
-2.6824 -1.9448 0.6836
-2.6823 -2.0953 0.7012
-2.6822 -2.2545 0.7208
-2.6821 -2.4236 0.7425
-2.6820 -2.6040 0.7667
-2.6818 -2.7974 0.7937
-2.6817 -3.0058 0.8239
-2.6816 -3.2316 0.8577
-2.6814 -3.4777 0.8958
-2.6812 -3.7477 0.9388
-2.6810 -4.0462 0.9877
-2.6808 -4.3788 1.0435
-2.5852 -4.5835 1.0684
-2.6803 -5.1771 1.1823
-3.5890 -7.5860 1.7003
-3.3182 -7.7169 1.7003
-3.0424 -7.8378 1.7003
-2.7622 -7.9483 1.7003
-2.4777 -8.0483 1.7003
-2.1895 -8.1376 1.7003
-1.8981 -8.2162 1.7003
-1.6036 -8.2838 1.7003
-1.3067 -8.3403 1.7003
-1.0078 -8.3856 1.7003
-0.7072 -8.4197 1.7003
-0.4055 -8.4424 1.7003
-0.1030 -8.4538 1.7003
0.1997 -8.4539 1.7003
0.5023 -8.4425 1.7003
0.8043 -8.4197 1.7003
1.1052 -8.3856 1.7003
1.4046 -8.3402 1.7003
1.7020 -8.2836 1.7003
1.9971 -8.2158 1.7003
2.1503 -7.6428 1.5971
2.4218 -7.5586 1.5971
2.6898 -7.4641 1.5971
2.9539 -7.3598 1.5971
3.2139 -7.2456 1.5971
3.4692 -7.1218 1.5971
3.7196 -6.9886 1.5971
3.9647 -6.8462 1.5971
4.2041 -6.6948 1.5971
4.4375 -6.5346 1.5971
4.6645 -6.3660 1.5971
4.8849 -6.1891 1.5971
5.0984 -6.0043 1.5971
5.3046 -5.8119 1.5971
5.5034 -5.6120 1.5971
5.6943 -5.4052 1.5971
5.8773 -5.1916 1.5971
6.0519 -4.9716 1.5971
6.3090 -4.8149 1.6204
6.4689 -4.5798 1.6204
6.6197 -4.3392 1.6204
6.7614 -4.0935 1.6204
6.8937 -3.8431 1.6204
7.0166 -3.5883 1.6204
7.1298 -3.3295 1.6204
7.2333 -3.0672 1.6204
7.3270 -2.8016 1.6204
7.4108 -2.5331 1.6204
7.4846 -2.2622 1.6204
7.5484 -1.9892 1.6204
7.6021 -1.7145 1.6204
7.6457 -1.4385 1.6204
7.6792 -1.1615 1.6204
7.7026 -0.8839 1.6204
7.7159 -0.6061 1.6204
7.7192 -0.3285 1.6204
7.7125 -0.0514 1.6204
7.6958 0.2248 1.6204
7.6693 0.4998 1.6204
7.6330 0.7732 1.6204
7.5869 1.0447 1.6204
7.5313 1.3138 1.6204
7.4663 1.5804 1.6204
7.3919 1.8440 1.6204
7.3083 2.1044 1.6204
7.2157 2.3613 1.6204
0.4359 2.5037 0.6229
0.3456 2.5178 0.6231
0.2549 2.5287 0.6234
0.1638 2.5363 0.6236
0.0725 2.5407 0.6238
-0.0189 2.5418 0.6239
-0.1103 2.5397 0.6241
-0.2015 2.5343 0.6242
-0.2926 2.5256 0.6243
-0.3832 2.5138 0.6243
-0.4734 2.4987 0.6243
-0.5630 2.4803 0.6243
-0.6519 2.4588 0.6243
-0.7400 2.4342 0.6242
-0.8272 2.4064 0.6242
-2.4887 6.4725 1.7003
-2.7209 6.3815 1.7003
-2.5009 5.3262 1.4415
-2.5838 5.0248 1.3835
-2.5826 4.6074 1.2926
-2.5816 4.2406 1.2142
-2.5808 3.9150 1.1461
-2.5800 3.6233 1.0863
-2.5793 3.3598 1.0337
-2.5786 3.1200 0.9870
-2.5780 2.9004 0.9454
-2.5775 2.6979 0.9082
-2.5770 2.5102 0.8749
-2.5965 2.3535 0.8514
-2.7914 2.3531 0.8860
-3.0036 2.3526 0.9249
-3.2361 2.3521 0.9688
-3.4926 2.3516 1.0184
-3.7779 2.3510 1.0750
-4.0981 2.3503 1.1399
-4.4607 2.3496 1.2149
-5.9876 2.8840 1.5995
-6.0870 2.6670 1.5972
-6.1874 2.4500 1.5972
-6.2801 2.2294 1.5972
-6.3651 2.0053 1.5972
-6.4423 1.7781 1.5972
-6.5116 1.5479 1.5972
-6.5727 1.3151 1.5972
-6.6257 1.0800 1.5972
-6.6704 0.8428 1.5972
-6.7067 0.6038 1.5972
-6.7345 0.3633 1.5972
-6.7539 0.1216 1.5972
-6.7645 -0.1210 1.5972
-6.7666 -0.3642 1.5972
-6.7599 -0.6077 1.5972
-6.7446 -0.8511 1.5972
-6.7204 -1.0942 1.5972
-4.4394 -0.8873 1.0603
-3.7280 -0.8853 0.8960
-3.2055 -0.8837 0.7763
-2.8047 -0.8826 0.6854
-2.6830 -0.9513 0.6625
-2.6830 -1.0610 0.6704
-2.6829 -1.1739 0.6794
-2.6828 -1.2903 0.6896
-2.6828 -1.4108 0.7011
-2.6827 -1.5360 0.7139
-2.6826 -1.6663 0.7282
-2.6825 -1.8026 0.7442
-2.6824 -1.9456 0.7619
-2.6823 -2.0962 0.7816
-2.6822 -2.2554 0.8035
-2.6821 -2.4246 0.8279
-2.6819 -2.6050 0.8550
-2.6818 -2.7984 0.8852
-2.6817 -3.0068 0.9190
-2.6815 -3.2327 0.9569
-2.6814 -3.4788 0.9995
-2.6812 -3.7490 1.0476
-2.6810 -4.0475 1.1023
-2.6348 -4.3051 1.1448
-2.5115 -4.4543 1.1587
-2.6802 -5.1787 1.3200
-3.2143 -6.7963 1.7003
-2.9715 -6.9129 1.7003
-2.7243 -7.0205 1.7003
-2.4731 -7.1189 1.7003
-2.2183 -7.2079 1.7003
-1.9601 -7.2874 1.7003
-1.6990 -7.3572 1.7003
-1.4353 -7.4172 1.7003
-1.1695 -7.4674 1.7003
-0.9018 -7.5077 1.7003
-0.6328 -7.5379 1.7003
-0.3627 -7.5580 1.7003
-0.0920 -7.5680 1.7003
0.1790 -7.5678 1.7003
0.4498 -7.5575 1.7003
0.7200 -7.5371 1.7003
0.9893 -7.5066 1.7003
1.2572 -7.4660 1.7003
1.5235 -7.4154 1.7003
1.7876 -7.3549 1.7003
2.0492 -7.2845 1.7003
2.1678 -6.7669 1.5971
2.4078 -6.6827 1.5971
2.6443 -6.5896 1.5971
2.8772 -6.4877 1.5971
3.1059 -6.3772 1.5971
3.3303 -6.2584 1.5971
3.5499 -6.1313 1.5971
3.7646 -5.9962 1.5971
3.9739 -5.8533 1.5971
4.1776 -5.7028 1.5971
4.3754 -5.5449 1.5971
4.5670 -5.3799 1.5971
4.7522 -5.2080 1.5971
4.9308 -5.0296 1.5971
5.1024 -4.8448 1.5971
5.2670 -4.6540 1.5971
5.4242 -4.4574 1.5971
5.5739 -4.2553 1.5971
5.7158 -4.0481 1.5971
5.8499 -3.8361 1.5971
5.9759 -3.6195 1.5971
6.0937 -3.3986 1.5971
6.2939 -3.2203 1.6204
6.3965 -2.9886 1.6204
6.4903 -2.7537 1.6204
6.5754 -2.5158 1.6204
6.6517 -2.2752 1.6204
6.7190 -2.0324 1.6204
6.7773 -1.7876 1.6204
6.8266 -1.5412 1.6204
6.8669 -1.2936 1.6204
6.8982 -1.0450 1.6204
6.9204 -0.7957 1.6204
6.9335 -0.5463 1.6204
6.9377 -0.2968 1.6204
6.9328 -0.0478 1.6204
6.9190 0.2005 1.6204
6.8963 0.4478 1.6204
6.8648 0.6938 1.6204
6.8246 0.9380 1.6204
6.7757 1.1804 1.6204
6.7183 1.4204 1.6204
6.6525 1.6579 1.6204
6.5783 1.8926 1.6204
6.4960 2.1241 1.6204
0.3960 2.2736 0.6210
0.3140 2.2863 0.6213
0.2316 2.2962 0.6215
0.1489 2.3031 0.6217
0.0659 2.3071 0.6218
-0.0171 2.3081 0.6220
-0.1001 2.3061 0.6221
-0.1830 2.3012 0.6222
-0.2656 2.2933 0.6223
-0.3480 2.2825 0.6223
-0.4299 2.2688 0.6224
-0.5113 2.2521 0.6223
-0.5920 2.2326 0.6223
-0.6720 2.2102 0.6223
-0.7512 2.1849 0.6222
-0.8294 2.1568 0.6221
-2.4785 5.8120 1.7003
-2.5457 5.4206 1.6109
-2.7475 5.3420 1.6151
-2.5828 4.6066 1.4192
-2.5818 4.2398 1.3332
-2.5809 3.9142 1.2585
-2.5801 3.6225 1.1930
-2.5794 3.3591 1.1352
-2.5787 3.1193 1.0840
-2.5781 2.8997 1.0384
-2.5776 2.6972 0.9976
-2.5770 2.5095 0.9610
-2.5975 2.3536 0.9357
-2.7925 2.3532 0.9738
-3.0048 2.3528 1.0167
-3.2375 2.3523 1.0650
-3.4943 2.3518 1.1197
-3.7798 2.3512 1.1821
-4.1002 2.3505 1.2536
-4.4633 2.3498 1.3364
-5.7895 2.7872 1.7003
-5.8932 2.5806 1.7003
-5.9740 2.3641 1.6959
-5.9727 2.1188 1.6707
-5.9716 1.8799 1.6483
-5.9745 1.6475 1.6295
-5.9772 1.4195 1.6131
-5.9793 1.1950 1.5989
-6.0205 0.9799 1.5972
-6.0603 0.7643 1.5972
-6.0925 0.5471 1.5972
-6.1170 0.3285 1.5972
-6.1544 0.1093 1.6027
-6.1539 -0.1115 1.6002
-6.1530 -0.3326 1.5997
-6.1515 -0.5544 1.6011
-6.1218 -0.7740 1.5972
-6.0991 -0.9945 1.5972
-4.4393 -0.8884 1.1685
-3.7279 -0.8862 0.9875
-3.2055 -0.8845 0.8557
-2.8046 -0.8833 0.7556
-2.6830 -0.9520 0.7305
-2.6830 -1.0617 0.7393
-2.6829 -1.1746 0.7493
-2.6828 -1.2911 0.7607
-2.6827 -1.4116 0.7734
-2.6826 -1.5367 0.7877
-2.6826 -1.6671 0.8036
-2.6825 -1.8034 0.8213
-2.6824 -1.9464 0.8410
-2.6823 -2.0970 0.8629
-2.6822 -2.2563 0.8872
-2.6821 -2.4255 0.9142
-2.6819 -2.6060 0.9442
-2.6818 -2.7994 0.9777
-2.6817 -3.0079 1.0151
-2.6815 -3.2338 1.0571
-2.6813 -3.4800 1.1043
-2.6812 -3.7502 1.1576
-2.6810 -4.0488 1.2182
-2.6068 -4.2607 1.2518
-2.4814 -4.4025 1.2654
-3.1232 -6.0366 1.7003
-2.9075 -6.1496 1.7003
-2.6877 -6.2546 1.7003
-2.4639 -6.3515 1.7003
-2.2365 -6.4400 1.7003
-2.0059 -6.5201 1.7003
-1.7723 -6.5916 1.7003
-1.5361 -6.6544 1.7003
-1.2976 -6.7084 1.7003
-1.0572 -6.7535 1.7003
-0.8152 -6.7896 1.7003
-0.5719 -6.8167 1.7003
-0.3277 -6.8347 1.7003
-0.0830 -6.8436 1.7003
0.1620 -6.8433 1.7003
0.4068 -6.8339 1.7003
0.6511 -6.8154 1.7003
0.8945 -6.7878 1.7003
1.1368 -6.7511 1.7003
1.3775 -6.7055 1.7003
1.6163 -6.6508 1.7003
1.8528 -6.5874 1.7003
2.0868 -6.5151 1.7003
2.1771 -6.0435 1.5971
2.3911 -5.9596 1.5971
2.6017 -5.8677 1.5971
2.8087 -5.7681 1.5971
3.0117 -5.6609 1.5971
3.2106 -5.5463 1.5971
3.4049 -5.4245 1.5971
3.5944 -5.2956 1.5971
3.7789 -5.1598 1.5971
3.9581 -5.0174 1.5971
4.1318 -4.8685 1.5971
4.2997 -4.7135 1.5971
4.4617 -4.5524 1.5971
4.6174 -4.3856 1.5971
4.7668 -4.2134 1.5971
4.9096 -4.0359 1.5971
5.0456 -3.8534 1.5971
5.1746 -3.6662 1.5971
5.2966 -3.4746 1.5971
5.4113 -3.2789 1.5971
5.5186 -3.0793 1.5971
5.6185 -2.8761 1.5971
5.7107 -2.6696 1.5971
5.7952 -2.4602 1.5971
5.8720 -2.2480 1.5971
5.9408 -2.0335 1.5971
6.0017 -1.8168 1.5971
6.0547 -1.5984 1.5971
6.0995 -1.3785 1.5971
6.2261 -1.1743 1.6204
6.2553 -0.9490 1.6204
6.2762 -0.7231 1.6204
6.2890 -0.4970 1.6204
6.2937 -0.2708 1.6204
6.2901 -0.0449 1.6204
6.2785 0.1805 1.6204
6.2588 0.4049 1.6204
6.2311 0.6282 1.6204
6.1954 0.8501 1.6204
6.0633 1.0548 1.5971
6.0128 1.2698 1.5971
5.9547 1.4825 1.5971
5.8891 1.6928 1.5971
5.8162 1.9003 1.5971
0.3624 2.0800 0.6195
0.2874 2.0917 0.6197
0.2120 2.1007 0.6199
0.1363 2.1070 0.6201
0.0604 2.1107 0.6202
-0.0156 2.1116 0.6204
-0.0915 2.1098 0.6205
-0.1674 2.1052 0.6206
-0.2430 2.0980 0.6206
-0.3184 2.0881 0.6207
-0.3933 2.0755 0.6207
-0.4678 2.0603 0.6207
-0.5417 2.0423 0.6207
-0.6149 2.0218 0.6206
-0.6873 1.9987 0.6205
-0.7588 1.9729 0.6204
-0.8295 1.9447 0.6203
-2.4648 5.2473 1.7003
-2.6531 5.1575 1.7003
-2.8383 5.0612 1.7003
-2.5819 4.2391 1.4537
-2.5810 3.9135 1.3722
-2.5802 3.6218 1.3008
-2.5795 3.3584 1.2379
-2.4729 2.9906 1.1336
-2.5152 2.8282 1.1048
-2.5776 2.6965 1.0881
-2.5771 2.5089 1.0483
-2.5986 2.3538 1.0210
-2.7937 2.3534 1.0628
-3.0062 2.3530 1.1097
-3.2390 2.3525 1.1625
-3.4959 2.3520 1.2224
-3.7818 2.3514 1.2906
-4.1025 2.3508 1.3689
-4.4659 2.3500 1.4594
-5.3041 2.5522 1.7003
-5.3986 2.3627 1.7003
-5.4863 2.1698 1.7003
-5.5673 1.9737 1.7003
-5.6415 1.7746 1.7003
-5.7086 1.5728 1.7003
-5.7686 1.3686 1.7003
-5.8214 1.1620 1.7003
-5.8669 0.9535 1.7003
-5.9051 0.7433 1.7003
-5.9357 0.5316 1.7003
-5.9589 0.3186 1.7003
-5.9627 0.1045 1.6970
-5.9617 -0.1095 1.6944
-5.9606 -0.3237 1.6941
-5.9595 -0.5386 1.6959
-5.9585 -0.7548 1.6999
-5.9373 -0.9696 1.7003
-4.4392 -0.8895 1.2779
-3.7278 -0.8871 1.0801
-3.2054 -0.8853 0.9361
-2.8046 -0.8840 0.8266
-2.6830 -0.9527 0.7993
-2.6830 -1.0624 0.8090
-2.6829 -1.1753 0.8201
-2.6828 -1.2918 0.8326
-2.6827 -1.4123 0.8467
-2.6826 -1.5375 0.8624
-2.6825 -1.6679 0.8799
-2.6824 -1.8042 0.8994
-2.6824 -1.9473 0.9211
-2.6823 -2.0979 0.9451
-2.6821 -2.2572 0.9718
-2.6820 -2.4264 1.0015
-2.6819 -2.6069 1.0345
-2.6818 -2.8004 1.0713
-2.6817 -3.0089 1.1124
-2.6815 -3.2349 1.1585
-2.6813 -3.4812 1.2104
-2.6812 -3.7514 1.2689
-2.6809 -4.0502 1.3354
-2.5987 -4.2489 1.3681
-2.4753 -4.3931 1.3839
-2.8484 -5.5072 1.7003
-2.6515 -5.6099 1.7003
-2.4508 -5.7053 1.7003
-2.2466 -5.7933 1.7003
-2.0392 -5.8737 1.7003
-1.8288 -5.9464 1.7003
-1.6157 -6.0113 1.7003
-1.4003 -6.0682 1.7003
-1.1828 -6.1172 1.7003
-0.9636 -6.1581 1.7003
-0.7429 -6.1908 1.7003
-0.5212 -6.2153 1.7003
-0.2986 -6.2316 1.7003
-0.0755 -6.2396 1.7003
0.1478 -6.2393 1.7003
0.3710 -6.2306 1.7003
0.5936 -6.2137 1.7003
0.8155 -6.1886 1.7003
1.0364 -6.1552 1.7003
1.2558 -6.1136 1.7003
1.4735 -6.0639 1.7003
1.6891 -6.0061 1.7003
1.9024 -5.9404 1.7003
2.1129 -5.8664 1.7002
2.1799 -5.4342 1.5971
2.3720 -5.3506 1.5971
2.5608 -5.2601 1.5971
2.7460 -5.1626 1.5971
2.9274 -5.0583 1.5971
3.1047 -4.9475 1.5971
3.2778 -4.8302 1.5971
3.4462 -4.7067 1.5971
3.6099 -4.5771 1.5971
3.7685 -4.4417 1.5971
3.9220 -4.3005 1.5971
4.0700 -4.1540 1.5971
4.2124 -4.0021 1.5971
4.3490 -3.8453 1.5971
4.4796 -3.6836 1.5971
4.6041 -3.5175 1.5971
4.7223 -3.3470 1.5971
4.8340 -3.1724 1.5971
4.9392 -2.9941 1.5971
5.0377 -2.8122 1.5971
5.1293 -2.6270 1.5971
5.2140 -2.4387 1.5971
5.2918 -2.2477 1.5971
5.3624 -2.0542 1.5971
5.4259 -1.8585 1.5971
5.4821 -1.6609 1.5971
5.5311 -1.4615 1.5971
5.5727 -1.2607 1.5971
5.6070 -1.0588 1.5971
5.6339 -0.8561 1.5971
5.6535 -0.6527 1.5971
5.6657 -0.4490 1.5971
5.6705 -0.2453 1.5971
5.6680 -0.0418 1.5971
5.6582 0.1613 1.5971
5.6411 0.3636 1.5971
5.6168 0.5649 1.5971
5.5853 0.7650 1.5971
5.5467 0.9636 1.5971
5.5011 1.1604 1.5971
5.4486 1.3552 1.5971
5.3893 1.5477 1.5971
5.3232 1.7378 1.5971
0.3338 1.9148 0.6181
0.2647 1.9256 0.6183
0.1952 1.9339 0.6185
0.1255 1.9397 0.6187
0.0557 1.9430 0.6188
-0.0143 1.9438 0.6190
-0.0842 1.9422 0.6191
-0.1541 1.9380 0.6191
-0.2237 1.9313 0.6192
-0.2931 1.9222 0.6192
-0.3621 1.9106 0.6193
-0.4307 1.8965 0.6193
-0.4987 1.8800 0.6192
-0.5661 1.8611 0.6192
-0.6328 1.8398 0.6191
-0.6986 1.8161 0.6190
-0.7636 1.7900 0.6189
-0.8277 1.7617 0.6188
-0.8907 1.7310 0.6187
-2.6187 4.6686 1.7003
-2.7863 4.5737 1.7003
-2.9506 4.4729 1.7003
-2.5803 3.6211 1.4101
-2.5796 3.3576 1.3420
-2.4184 2.9239 1.2019
-2.4724 2.7793 1.1774
-2.5665 2.6841 1.1746
-2.5772 2.5082 1.1366
-2.5996 2.3540 1.1075
-2.7948 2.3536 1.1529
-3.0075 2.3532 1.2039
-3.2405 2.3527 1.2613
-3.4976 2.3522 1.3264
-3.7837 2.3516 1.4006
-4.6978 2.6907 1.7003
-4.7963 2.5227 1.7003
-4.8890 2.3512 1.7003
-4.9756 2.1763 1.7003
-5.0560 1.9983 1.7003
-5.1303 1.8175 1.7003
-5.1981 1.6339 1.7003
-5.2595 1.4478 1.7003
-5.3143 1.2595 1.7003
-5.3624 1.0691 1.7003
-5.4039 0.8770 1.7003
-5.4385 0.6833 1.7003
-5.4662 0.4882 1.7003
-5.4870 0.2921 1.7003
-5.5008 0.0951 1.7003
-5.5076 -0.1025 1.7003
-5.5073 -0.3004 1.7003
-5.4999 -0.4984 1.7003
-5.4854 -0.6962 1.7003
-5.4639 -0.8937 1.7003
-4.4391 -0.8906 1.3887
-3.7277 -0.8880 1.1739
-3.2053 -0.8861 1.0175
-2.8045 -0.8847 0.8986
-2.6830 -0.9534 0.8690
-2.6829 -1.0632 0.8797
-2.6829 -1.1761 0.8918
-2.6828 -1.2926 0.9055
-2.6827 -1.4131 0.9209
-2.6826 -1.5383 0.9380
-2.6825 -1.6687 0.9572
-2.6824 -1.8051 0.9785
-2.6824 -1.9481 1.0021
-2.6727 -2.0914 1.0248
-2.6821 -2.2581 1.0576
-2.6820 -2.4274 1.0899
-2.6819 -2.6079 1.1260
-2.6818 -2.8015 1.1661
-2.6816 -3.0100 1.2110
-2.6815 -3.2360 1.2613
-2.6813 -3.4824 1.3178
-3.2996 -4.6184 1.7003
-2.7988 -4.2296 1.5180
-2.6143 -4.2757 1.4988
-2.5011 -4.4402 1.5229
-2.6153 -5.0581 1.7003
-2.4343 -5.1521 1.7003
-2.2499 -5.2394 1.7003
-2.0624 -5.3199 1.7003
-1.8718 -5.3935 1.7003
-1.6786 -5.4600 1.7003
-1.4830 -5.5193 1.7003
-1.2852 -5.5714 1.7003
-1.0855 -5.6162 1.7003
-0.8843 -5.6535 1.7003
-0.6817 -5.6834 1.7003
-0.4782 -5.7058 1.7003
-0.2738 -5.7206 1.7003
-0.0691 -5.7278 1.7003
0.1358 -5.7275 1.7003
0.3406 -5.7195 1.7003
0.5450 -5.7040 1.7003
0.7486 -5.6809 1.7003
0.9513 -5.6502 1.7003
1.1526 -5.6121 1.7003
1.3524 -5.5665 1.7003
1.5504 -5.5136 1.7003
1.7462 -5.4534 1.7003
1.9396 -5.3860 1.7003
2.1099 -5.2607 1.6841
2.1773 -4.9124 1.5971
2.3507 -4.8294 1.5971
2.5208 -4.7401 1.5971
2.6874 -4.6446 1.5971
2.8503 -4.5431 1.5971
3.0093 -4.4356 1.5971
3.1641 -4.3225 1.5971
3.3145 -4.2037 1.5971
3.4604 -4.0796 1.5971
3.6015 -3.9502 1.5971
3.7376 -3.8159 1.5971
3.8687 -3.6767 1.5971
3.9944 -3.5329 1.5971
4.1147 -3.3847 1.5971
4.2293 -3.2323 1.5971
4.3382 -3.0759 1.5971
4.4412 -2.9158 1.5971
4.5382 -2.7522 1.5971
4.6291 -2.5853 1.5971
4.7137 -2.4153 1.5971
4.7920 -2.2425 1.5971
4.8638 -2.0672 1.5971
4.9292 -1.8895 1.5971
4.9880 -1.7098 1.5971
5.0402 -1.5282 1.5971
5.0856 -1.3450 1.5971
5.1244 -1.1606 1.5971
5.1565 -0.9750 1.5971
5.1817 -0.7886 1.5971
5.2002 -0.6016 1.5971
5.2120 -0.4143 1.5971
5.2169 -0.2269 1.5971
5.2151 -0.0397 1.5971
5.2066 0.1472 1.5971
5.1914 0.3334 1.5971
5.1695 0.5187 1.5971
5.1411 0.7029 1.5971
5.1061 0.8857 1.5971
5.0646 1.0670 1.5971
5.0168 1.2465 1.5971
4.9626 1.4239 1.5971
4.9022 1.5991 1.5971
0.3090 1.7721 0.6170
0.2451 1.7820 0.6172
0.1808 1.7897 0.6174
0.1163 1.7951 0.6175
0.0516 1.7981 0.6176
-0.0132 1.7989 0.6178
-0.0779 1.7973 0.6179
-0.1426 1.7935 0.6179
-0.2070 1.7873 0.6180
-0.2712 1.7788 0.6180
-0.3351 1.7681 0.6180
-0.3986 1.7550 0.6180
-0.4615 1.7397 0.6180
-0.5239 1.7222 0.6180
-0.5856 1.7024 0.6179
-0.6466 1.6805 0.6178
-0.7067 1.6564 0.6177
-0.7660 1.6301 0.6176
-0.8243 1.6018 0.6175
-0.8816 1.5713 0.6173
-2.5835 4.2399 1.7003
-2.7358 4.1463 1.7003
-2.8848 4.0473 1.7003
-2.5797 3.3569 1.4475
-2.3911 2.8901 1.2817
-2.4474 2.7503 1.2572
-2.5407 2.6563 1.2543
-2.5773 2.5075 1.2262
-2.6006 2.3542 1.1953
-2.7960 2.3538 1.2444
-3.0088 2.3534 1.2995
-3.2420 2.3529 1.3616
-3.4994 2.3524 1.4320
-4.2566 2.6444 1.7003
-4.3529 2.4920 1.7003
-4.4439 2.3362 1.7003
