ply
format ascii 1.0
element vertex 2167
property float32 x
property float32 y
property float32 z
end_header
-3.4094 3.2166 0.5715
-3.5203 3.0905 0.5708
-3.6266 2.9605 0.5702
-3.7281 2.8269 0.5695
-3.8246 2.6898 0.5688
-3.9162 2.5495 0.5681
-4.0026 2.4060 0.5674
-4.0838 2.2597 0.5666
-4.1597 2.1106 0.5659
-4.2301 1.9590 0.5651
-4.2951 1.8051 0.5644
-4.3545 1.6491 0.5636
-4.4082 1.4911 0.5628
-4.4563 1.3314 0.5620
-4.4986 1.1703 0.5612
-4.5352 1.0077 0.5604
-4.5659 0.8441 0.5596
-4.5908 0.6796 0.5588
-4.6098 0.5144 0.5579
-4.6230 0.3487 0.5571
-4.6302 0.1828 0.5563
-4.6316 0.0167 0.5555
-4.6271 -0.1491 0.5546
-4.6167 -0.3147 0.5538
-4.6004 -0.4797 0.5530
-4.5783 -0.6439 0.5522
-8.9193 -1.5822 1.0808
-8.8663 -1.9028 1.0808
-12.9768 -3.2753 1.5934
-12.8648 -3.7421 1.5934
-12.7362 -4.2051 1.5934
-12.5908 -4.6637 1.5934
-12.4290 -5.1173 1.5934
-12.2508 -5.5652 1.5934
-12.0564 -6.0069 1.5934
-11.8461 -6.4418 1.5934
-11.6200 -6.8693 1.5934
-8.2775 -5.3024 1.1592
-8.1659 -5.6534 1.1700
-10.8499 -8.1015 1.5934
-10.5635 -8.4937 1.5934
-10.2628 -8.8756 1.5934
-9.9482 -9.2467 1.5934
-9.6005 -9.5869 1.5902
-9.2598 -9.9342 1.5902
-8.9065 -10.2692 1.5902
-8.4019 -10.4191 1.5643
-8.1634 -10.9005 1.5902
-7.7747 -11.1958 1.5902
-7.3751 -11.4770 1.5902
-6.9651 -11.7436 1.5902
-6.5453 -11.9953 1.5902
-6.1164 -12.2317 1.5902
-5.9680 -13.0868 1.6712
-5.5727 -13.4788 1.6934
-5.0899 -13.6794 1.6934
-4.5999 -13.8623 1.6934
-4.1031 -14.0271 1.6934
-3.6003 -14.1737 1.6934
-3.0922 -14.3019 1.6934
-2.5794 -14.4113 1.6934
-2.0627 -14.5018 1.6934
-1.5428 -14.5733 1.6934
-1.0203 -14.6257 1.6934
-0.4961 -14.6588 1.6934
0.0292 -14.6725 1.6934
0.5548 -14.6669 1.6934
-2.0046 -12.0585 1.6934
-1.5722 -12.1277 1.6934
-1.1373 -12.1809 1.6934
-0.7006 -12.2182 1.6934
-0.2627 -12.2395 1.6934
0.1758 -12.2447 1.6934
0.6143 -12.2338 1.6934
1.0522 -12.2068 1.6934
1.4889 -12.1638 1.6934
1.9239 -12.1047 1.6934
2.2130 -11.2973 1.5903
2.6164 -11.2120 1.5903
3.0164 -11.1119 1.5903
3.4125 -10.9972 1.5903
2.4796 -7.0841 1.0366
4.0801 -10.4416 1.5484
4.5489 -10.5140 1.5824
4.9467 -10.3955 1.5903
5.3151 -10.2103 1.5903
5.6764 -10.0119 1.5903
6.0301 -9.8003 1.5903
6.4282 -9.6547 1.6034
6.7681 -9.4159 1.6034
7.0989 -9.1649 1.6034
7.4201 -8.9019 1.6034
7.7314 -8.6275 1.6034
8.0323 -8.3419 1.6034
8.3225 -8.0456 1.6034
8.6015 -7.7390 1.6034
8.8689 -7.4226 1.6034
9.1245 -7.0967 1.6034
9.3679 -6.7618 1.6034
9.3404 -6.2457 1.5603
9.7390 -6.0190 1.5907
9.7479 -5.5522 1.5596
9.7565 -5.1033 1.5317
9.7031 -4.6407 1.4972
10.5556 -4.5915 1.6034
10.7059 -4.2075 1.6034
10.8420 -3.8187 1.6034
10.7465 -3.3576 1.5717
10.4829 -2.8674 1.5183
10.4329 -2.4558 1.4985
10.5018 -2.0781 1.4979
10.7220 -1.7251 1.5207
10.9640 -1.3632 1.5484
11.3877 -1.0033 1.6034
11.4067 -0.5943 1.6034
11.4109 -0.1851 1.6034
10.8659 0.2130 1.5283
10.6003 0.5882 1.4942
10.4206 0.9536 1.4741
10.3857 1.3271 1.4762
10.4571 1.7189 1.4955
10.7529 2.1658 1.5493
11.0313 2.6363 1.6034
10.9199 3.0271 1.6034
10.7947 3.4132 1.6034
9.7657 3.4774 1.4695
4.1414 1.6441 0.6322
4.1118 1.8055 0.6377
4.0897 1.9735 0.6455
4.0541 2.1386 0.6521
4.0459 2.3233 0.6643
9.5496 5.9486 1.6034
9.3223 6.2814 1.6034
9.0834 6.6057 1.6034
8.8333 6.9211 1.6034
8.5725 7.2271 1.6034
8.3011 7.5234 1.6034
8.0197 7.8096 1.6034
7.7285 8.0855 1.6034
7.4280 8.3508 1.6034
7.1185 8.6050 1.6034
6.8005 8.8479 1.6034
6.4215 9.0052 1.5903
6.0903 9.2229 1.5903
5.7519 9.4287 1.5903
5.4067 9.6224 1.5903
5.0551 9.8036 1.5903
4.6975 9.9722 1.5903
4.3345 10.1280 1.5903
3.9665 10.2709 1.5903
3.5938 10.4007 1.5903
3.2170 10.5173 1.5903
2.8366 10.6205 1.5903
2.6120 11.4045 1.6934
2.2006 11.4857 1.6934
1.7867 11.5523 1.6934
1.3710 11.6044 1.6934
0.9538 11.6418 1.6934
0.5358 11.6646 1.6934
0.1173 11.6728 1.6934
-0.3011 11.6663 1.6934
-0.7189 11.6451 1.6934
-1.1356 11.6094 1.6934
-1.5507 11.5591 1.6934
-1.9637 11.4944 1.6934
-2.3741 11.4153 1.6934
-2.7815 11.3218 1.6934
-3.1854 11.2142 1.6934
-3.5852 11.0925 1.6934
-3.9805 10.9570 1.6934
-4.3709 10.8077 1.6934
-4.7558 10.6448 1.6934
-5.1348 10.4685 1.6934
-5.4288 10.1323 1.6692
-5.5152 9.4624 1.5902
-2.6720 4.2283 0.7261
-2.6798 3.9220 0.6894
-2.6869 3.6446 0.6570
-2.6933 3.3918 0.6282
-2.6993 3.1597 0.6026
-2.7047 2.9454 0.5797
-2.7604 2.7978 0.5695
-2.8574 2.6956 0.5690
-2.9507 2.5902 0.5684
-3.0401 2.4815 0.5679
-3.1255 2.3697 0.5673
-3.2067 2.2550 0.5668
-3.2838 2.1376 0.5662
-3.3566 2.0175 0.5656
-3.4251 1.8949 0.5649
-3.4890 1.7701 0.5643
-3.5485 1.6431 0.5637
-3.6033 1.5141 0.5630
-3.6535 1.3834 0.5624
-3.6989 1.2510 0.5617
-3.7396 1.1171 0.5610
-3.7755 0.9819 0.5604
-3.8065 0.8456 0.5597
-3.8327 0.7083 0.5590
-3.8539 0.5702 0.5583
-3.8702 0.4316 0.5576
-3.8815 0.2925 0.5569
-3.8879 0.1532 0.5562
-3.8894 0.0138 0.5556
-3.8859 -0.1255 0.5549
-3.8774 -0.2646 0.5542
-3.8641 -0.4032 0.5535
-3.8458 -0.5412 0.5528
-3.8227 -0.6784 0.5521
-8.6786 -1.8632 1.2612
-10.8828 -2.7478 1.5934
-10.7871 -3.1387 1.5934
-10.6774 -3.5263 1.5934
-10.5538 -3.9101 1.5934
-10.4163 -4.2896 1.5934
-10.2652 -4.6642 1.5934
-10.1006 -5.0334 1.5934
-9.9227 -5.3969 1.5934
-9.7118 -5.7423 1.5902
-8.4927 -5.4412 1.4203
-9.0366 -6.2573 1.5465
-9.0636 -6.7688 1.5902
-8.8229 -7.0952 1.5902
-8.5704 -7.4130 1.5902
-8.3063 -7.7217 1.5902
-8.0311 -8.0209 1.5902
-7.7449 -8.3101 1.5902
-7.4482 -8.5890 1.5902
-7.1414 -8.8572 1.5902
-6.8248 -9.1142 1.5902
-6.4988 -9.3598 1.5902
-6.1639 -9.5935 1.5902
-5.9023 -9.9531 1.6126
-5.8240 -10.6749 1.6934
-5.4416 -10.8838 1.6934
-5.0516 -11.0788 1.6934
-4.6544 -11.2596 1.6934
-4.2507 -11.4258 1.6934
-3.8410 -11.5772 1.6934
-3.4258 -11.7137 1.6934
-3.0057 -11.8349 1.6934
-2.5812 -11.9408 1.6934
-2.1529 -12.0311 1.6934
-1.7214 -12.1056 1.6934
-1.2873 -12.1644 1.6934
-0.8512 -12.2072 1.6934
-0.4137 -12.2340 1.6934
0.0247 -12.2447 1.6934
0.4633 -12.2394 1.6934
-1.7185 -10.3398 1.6934
-1.3476 -10.3985 1.6934
-0.9747 -10.4436 1.6934
-0.6004 -10.4750 1.6934
-0.2250 -10.4928 1.6934
0.1509 -10.4968 1.6934
0.5268 -10.4871 1.6934
0.9021 -10.4636 1.6934
1.2765 -10.4264 1.6934
1.6492 -10.3755 1.6934
2.0199 -10.3110 1.6934
2.2426 -9.6101 1.5903
2.5854 -9.5242 1.5903
2.9249 -9.4258 1.5903
2.4770 -7.0767 1.2082
3.5919 -9.1921 1.5903
3.9185 -9.0572 1.5903
4.2399 -8.9103 1.5903
4.5557 -8.7518 1.5903
4.8655 -8.5819 1.5903
5.1688 -8.4008 1.5903
5.4652 -8.2087 1.5903
5.7544 -8.0060 1.5903
6.0358 -7.7929 1.5903
6.3612 -7.6320 1.6034
6.6284 -7.3971 1.6034
6.8867 -7.1526 1.6034
7.1359 -6.8990 1.6034
7.3755 -6.6365 1.6034
7.6054 -6.3656 1.6034
7.8251 -6.0866 1.6034
8.0344 -5.7998 1.6034
8.2330 -5.5058 1.6034
8.4207 -5.2048 1.6034
8.5972 -4.8974 1.6034
8.7623 -4.5839 1.6034
8.9159 -4.2648 1.6034
9.0576 -3.9405 1.6034
9.1874 -3.6114 1.6034
9.3051 -3.2781 1.6034
9.4106 -2.9408 1.6034
9.5037 -2.6002 1.6034
9.5843 -2.2567 1.6034
9.6524 -1.9107 1.6034
9.7080 -1.5627 1.6034
9.7508 -1.2131 1.6034
9.7810 -0.8625 1.6034
9.7984 -0.5112 1.6034
9.8032 -0.1598 1.6034
9.7953 0.1913 1.6034
9.7748 0.5416 1.6034
9.7417 0.8908 1.6034
9.6961 1.2382 1.6034
9.6381 1.5835 1.6034
9.5677 1.9263 1.6034
9.4852 2.2660 1.6034
9.3905 2.6023 1.6034
9.2840 2.9348 1.6034
9.1657 3.2629 1.6034
4.1696 1.6549 0.7399
4.1456 1.8199 0.7473
3.9041 1.8835 0.7161
4.0834 2.1537 0.7632
4.0610 2.3315 0.7747
8.2203 5.1196 1.6034
8.0255 5.4068 1.6034
7.8208 5.6866 1.6034
7.6064 5.9588 1.6034
7.3826 6.2230 1.6034
7.1497 6.4789 1.6034
6.9081 6.7262 1.6034
6.6580 6.9646 1.6034
6.3476 7.1351 1.5903
6.0838 7.3531 1.5903
5.8126 7.5615 1.5903
5.5344 7.7600 1.5903
5.2495 7.9485 1.5903
4.9582 8.1266 1.5903
4.6611 8.2942 1.5903
4.3584 8.4512 1.5903
4.0505 8.5973 1.5903
3.7378 8.7324 1.5903
3.4207 8.8563 1.5903
3.0996 8.9689 1.5903
2.7869 9.1097 1.5973
2.6055 9.7534 1.6934
2.2533 9.8365 1.6934
1.8985 9.9071 1.6934
1.5416 9.9651 1.6934
1.1830 10.0106 1.6934
0.8232 10.0434 1.6934
0.4625 10.0635 1.6934
0.1015 10.0709 1.6934
-0.2595 10.0657 1.6934
-0.6200 10.0478 1.6934
-0.9796 10.0173 1.6934
-1.3379 9.9741 1.6934
-1.6943 9.9185 1.6934
-2.0486 9.8503 1.6934
-2.4002 9.7698 1.6934
-2.7487 9.6770 1.6934
-3.0938 9.5721 1.6934
-3.4349 9.4551 1.6934
-3.7718 9.3261 1.6934
-4.1039 9.1855 1.6934
-4.4309 9.0333 1.6934
-4.7524 8.8697 1.6934
-5.0680 8.6948 1.6934
-2.6720 4.2281 0.8415
-2.6798 3.9218 0.7990
-2.6869 3.6444 0.7614
-2.6933 3.3916 0.7281
-2.6993 3.1595 0.6985
-2.7047 2.9452 0.6719
-2.7098 2.7463 0.6481
-2.7145 2.5607 0.6266
-2.7190 2.3866 0.6073
-2.7231 2.2226 0.5898
-2.7271 2.0675 0.5740
-2.7582 1.9395 0.5653
-2.8248 1.8385 0.5647
-2.8876 1.7354 0.5642
-2.9467 1.6301 0.5637
-3.0019 1.5228 0.5632
-3.0533 1.4136 0.5626
-3.1007 1.3027 0.5621
-3.1441 1.1903 0.5615
-3.1834 1.0764 0.5609
-3.2187 0.9612 0.5603
-3.2498 0.8449 0.5598
-3.2767 0.7276 0.5592
-3.2994 0.6095 0.5586
-3.3179 0.4907 0.5580
-3.3321 0.3713 0.5574
-3.3421 0.2516 0.5568
-3.3478 0.1317 0.5562
-3.3492 0.0116 0.5556
-3.3464 -0.1084 0.5550
-3.3393 -0.2281 0.5544
-3.3280 -0.3475 0.5539
-3.3124 -0.4664 0.5533
-3.2926 -0.5846 0.5527
-3.2687 -0.7020 0.5521
-9.3433 -2.3598 1.5902
-9.2600 -2.6952 1.5902
-9.1646 -3.0275 1.5902
-9.0574 -3.3566 1.5902
-8.9383 -3.6818 1.5902
-8.8075 -4.0027 1.5902
-8.6652 -4.3190 1.5902
-8.5116 -4.6303 1.5902
-8.3467 -4.9360 1.5902
-8.1708 -5.2358 1.5902
-7.9841 -5.5293 1.5902
-7.7867 -5.8162 1.5902
-7.5790 -6.0959 1.5902
-7.3612 -6.3681 1.5902
-7.1336 -6.6325 1.5902
-6.8964 -6.8886 1.5902
-6.6499 -7.1362 1.5902
-6.3944 -7.3749 1.5902
-6.1303 -7.6043 1.5902
-5.8586 -7.8250 1.5904
-5.8601 -8.4411 1.6707
-5.6330 -8.7685 1.6934
-5.3186 -8.9701 1.6934
-4.9969 -9.1602 1.6934
-4.6684 -9.3386 1.6934
-4.3333 -9.5050 1.6934
-3.9923 -9.6593 1.6934
-3.6457 -9.8010 1.6934
-3.2940 -9.9301 1.6934
-2.9377 -10.0464 1.6934
-2.5772 -10.1497 1.6934
-2.2130 -10.2398 1.6934
-1.8457 -10.3165 1.6934
-1.4756 -10.3798 1.6934
-1.1034 -10.4296 1.6934
-0.7295 -10.4657 1.6934
-0.3543 -10.4882 1.6934
0.0214 -10.4970 1.6934
0.3974 -10.4920 1.6934
-1.5024 -9.0417 1.6934
-1.1781 -9.0926 1.6934
-0.8520 -9.1317 1.6934
-0.5246 -9.1588 1.6934
-0.1964 -9.1740 1.6934
0.1322 -9.1772 1.6934
0.4608 -9.1685 1.6934
0.7889 -9.1477 1.6934
1.1161 -9.1150 1.6934
1.4419 -9.0704 1.6934
1.7659 -9.0139 1.6934
2.0876 -8.9456 1.6934
2.2602 -8.3259 1.5903
2.5569 -8.2399 1.5903
2.4744 -7.0694 1.3807
3.1399 -8.0356 1.5903
3.4254 -7.9177 1.5903
3.7064 -7.7894 1.5903
3.9826 -7.6510 1.5903
4.2534 -7.5026 1.5903
4.5186 -7.3444 1.5903
4.7779 -7.1767 1.5903
5.0308 -6.9996 1.5903
5.2770 -6.8135 1.5903
5.5162 -6.6186 1.5903
5.7481 -6.4151 1.5903
5.9724 -6.2034 1.5903
6.1887 -5.9838 1.5903
6.4495 -5.8038 1.6034
6.6508 -5.5671 1.6034
6.8433 -5.3234 1.6034
7.0267 -5.0729 1.6034
7.2008 -4.8161 1.6034
7.3654 -4.5531 1.6034
7.5203 -4.2845 1.6034
7.6653 -4.0105 1.6034
7.8001 -3.7317 1.6034
7.9247 -3.4482 1.6034
8.0388 -3.1605 1.6034
8.1424 -2.8691 1.6034
8.2353 -2.5742 1.6034
8.3175 -2.2763 1.6034
8.3887 -1.9758 1.6034
8.4490 -1.6731 1.6034
8.4983 -1.3686 1.6034
8.5366 -1.0627 1.6034
8.5637 -0.7558 1.6034
8.5798 -0.4483 1.6034
8.5847 -0.1406 1.6034
8.5786 0.1669 1.6034
8.5614 0.4737 1.6034
8.5332 0.7796 1.6034
8.4940 1.0840 1.6034
8.4440 1.3866 1.6034
8.3831 1.6871 1.6034
8.3116 1.9849 1.6034
8.2295 2.2798 1.6034
8.1369 2.5714 1.6034
8.0340 2.8593 1.6034
4.4725 1.7747 0.9054
4.1803 1.8348 0.8596
4.0051 1.9318 0.8378
3.9999 2.1092 0.8526
4.0764 2.3399 0.8868
7.2093 4.4892 1.6034
7.0391 4.7414 1.6034
6.8602 4.9873 1.6034
6.6727 5.2265 1.6034
6.4241 5.4142 1.5903
6.2220 5.6373 1.5903
6.0123 5.8531 1.5903
5.7951 6.0610 1.5903
5.5708 6.2610 1.5903
5.3397 6.4529 1.5903
5.1021 6.6363 1.5903
4.8582 6.8110 1.5903
4.6085 6.9770 1.5903
4.3531 7.1339 1.5903
4.0926 7.2815 1.5903
3.8270 7.4199 1.5903
3.5569 7.5486 1.5903
3.2826 7.6677 1.5903
3.0043 7.7770 1.5903
2.7224 7.8763 1.5903
2.5798 8.4312 1.6833
0.8202 3.0698 0.6069
0.7096 3.0973 0.6071
0.5982 3.1208 0.6073
0.4859 3.1403 0.6075
0.3731 3.1559 0.6077
0.2597 3.1674 0.6079
0.1460 3.1749 0.6081
0.0321 3.1783 0.6083
-0.0819 3.1777 0.6085
-0.1958 3.1731 0.6087
-0.3094 3.1644 0.6089
-0.4227 3.1516 0.6090
-0.5355 3.1349 0.6092
-0.6476 3.1141 0.6093
-0.7589 3.0894 0.6095
-0.8694 3.0607 0.6096
-2.7183 8.4104 1.6934
-3.0181 8.3076 1.6934
-3.3141 8.1943 1.6934
-3.6059 8.0707 1.6934
-3.8932 7.9368 1.6934
-4.1756 7.7930 1.6934
-4.4529 7.6392 1.6934
-2.6720 4.2279 0.9577
-2.6798 3.9216 0.9094
-2.6869 3.6443 0.8667
-2.6933 3.3914 0.8288
-2.6993 3.1593 0.7950
-2.7047 2.9451 0.7648
-2.7098 2.7461 0.7377
-2.7145 2.5605 0.7133
-2.7190 2.3864 0.6913
-2.7232 2.2224 0.6715
-2.7271 2.0673 0.6535
-2.7309 1.9200 0.6372
-2.7345 1.7796 0.6225
-2.7379 1.6452 0.6092
-2.7412 1.5162 0.5972
-2.7443 1.3919 0.5863
-2.7474 1.2718 0.5766
-2.7504 1.1553 0.5679
-2.7568 1.0435 0.5608
-2.7915 0.9436 0.5603
-2.8225 0.8427 0.5598
-2.8499 0.7407 0.5593
-2.8737 0.6379 0.5588
-2.8937 0.5343 0.5583
-2.9101 0.4302 0.5578
-2.9227 0.3255 0.5572
-2.9316 0.2205 0.5567
-2.9367 0.1153 0.5562
-2.9381 0.0099 0.5557
-2.9358 -0.0953 0.5552
-2.9297 -0.2004 0.5546
-2.9198 -0.3052 0.5541
-2.9063 -0.4095 0.5536
-2.8890 -0.5132 0.5531
-2.8681 -0.6162 0.5526
-2.8436 -0.7185 0.5521
-8.1166 -2.3631 1.5902
-8.0323 -2.6542 1.5902
-7.9375 -2.9423 1.5902
-7.8324 -3.2270 1.5902
-7.7171 -3.5079 1.5902
-7.5917 -3.7847 1.5902
-7.4564 -4.0570 1.5902
-7.3112 -4.3244 1.5902
-7.1565 -4.5867 1.5902
-6.9923 -4.8433 1.5902
-6.8189 -5.0940 1.5902
-6.6364 -5.3385 1.5902
-6.4451 -5.5764 1.5902
-6.2452 -5.8074 1.5902
-6.0370 -6.0311 1.5902
-5.8219 -6.2486 1.5905
-5.8200 -6.7133 1.6536
-5.7134 -7.0881 1.6934
-5.4591 -7.2924 1.6934
-5.1974 -7.4875 1.6934
-4.9287 -7.6731 1.6934
-4.6532 -7.8489 1.6934
-4.3714 -8.0147 1.6934
-4.0837 -8.1702 1.6934
-3.7903 -8.3152 1.6934
-3.4918 -8.4496 1.6934
-3.1884 -8.5730 1.6934
-2.8807 -8.6855 1.6934
-2.5689 -8.7867 1.6934
-2.2535 -8.8765 1.6934
-1.9349 -8.9548 1.6934
-1.6136 -9.0214 1.6934
-1.2900 -9.0764 1.6934
-0.9645 -9.1196 1.6934
-0.6375 -9.1508 1.6934
-0.3096 -9.1701 1.6934
0.0190 -9.1775 1.6934
0.3476 -9.1728 1.6934
-1.3333 -8.0257 1.6934
-1.0454 -8.0706 1.6934
-0.7559 -8.1050 1.6934
-0.4654 -8.1289 1.6934
-0.1741 -8.1421 1.6934
0.1175 -8.1448 1.6934
0.4091 -8.1368 1.6934
0.7003 -8.1183 1.6934
0.9906 -8.0891 1.6934
1.2797 -8.0494 1.6934
1.5672 -7.9992 1.6934
1.8527 -7.9385 1.6934
2.1358 -7.8675 1.6934
2.2690 -7.3122 1.5903
2.4718 -7.0619 1.5542
2.7864 -7.1310 1.5903
3.0397 -7.0263 1.5903
3.2891 -6.9126 1.5903
3.5342 -6.7898 1.5903
3.7746 -6.6582 1.5903
4.0100 -6.5179 1.5903
4.2401 -6.3692 1.5903
4.4646 -6.2123 1.5903
4.6833 -6.0472 1.5903
4.8957 -5.8744 1.5903
5.1016 -5.6940 1.5903
5.3008 -5.5063 1.5903
5.4930 -5.3115 1.5903
5.6780 -5.1099 1.5903
5.8554 -4.9018 1.5903
6.0251 -4.6874 1.5903
6.1869 -4.4671 1.5903
6.3926 -4.2760 1.6034
6.5391 -4.0428 1.6034
6.6769 -3.8045 1.6034
6.8059 -3.5614 1.6034
6.9260 -3.3140 1.6034
7.0370 -3.0625 1.6034
7.1388 -2.8072 1.6034
7.2312 -2.5485 1.6034
7.3142 -2.2868 1.6034
7.3876 -2.0223 1.6034
7.4513 -1.7556 1.6034
7.5054 -1.4868 1.6034
7.5497 -1.2164 1.6034
7.5842 -0.9447 1.6034
7.6088 -0.6721 1.6034
7.6236 -0.3989 1.6034
7.6285 -0.1255 1.6034
7.6236 0.1477 1.6034
7.6089 0.4204 1.6034
7.5844 0.6923 1.6034
7.5501 0.9629 1.6034
7.5062 1.2320 1.6034
7.4526 1.4992 1.6034
7.3896 1.7641 1.6034
7.3171 2.0264 1.6034
7.2353 2.2858 1.6034
7.1443 2.5420 1.6034
4.5009 1.7856 1.0245
4.1513 1.8216 0.9598
4.1124 1.9832 0.9672
4.0645 2.1428 0.9739
6.5567 3.7630 1.6034
6.3615 3.9605 1.5903
6.2118 4.1834 1.5903
6.0543 4.4007 1.5903
5.8892 4.6121 1.5903
5.7169 4.8174 1.5903
5.5374 5.0163 1.5903
5.3511 5.2086 1.5903
5.1582 5.3941 1.5903
4.9589 5.5725 1.5903
4.7534 5.7436 1.5903
4.5422 5.9072 1.5903
4.3254 6.0631 1.5903
4.1033 6.2112 1.5903
3.8762 6.3513 1.5903
3.6443 6.4831 1.5903
3.4081 6.6066 1.5903
3.1677 6.7216 1.5903
2.9235 6.8280 1.5903
2.6758 6.9257 1.5903
2.5557 7.3928 1.6761
0.8276 2.7042 0.6062
0.7301 2.7321 0.6064
0.6317 2.7565 0.6066
0.5325 2.7775 0.6068
0.4326 2.7948 0.6070
0.3321 2.8087 0.6072
0.2312 2.8189 0.6074
0.1300 2.8255 0.6076
0.0287 2.8286 0.6077
-0.0728 2.8280 0.6079
-0.1741 2.8238 0.6080
-0.2753 2.8160 0.6082
-0.3761 2.8046 0.6083
-0.4765 2.7897 0.6085
-0.5763 2.7712 0.6086
-0.6753 2.7491 0.6087
-0.7736 2.7235 0.6088
-0.8709 2.6945 0.6089
-2.6889 7.4016 1.6934
-2.9527 7.3006 1.6934
-3.2127 7.1904 1.6934
-3.4686 7.0711 1.6934
-3.7203 6.9428 1.6934
-3.9672 6.8058 1.6934
-2.6720 4.2278 1.0750
-2.6798 3.9214 1.0207
-2.6869 3.6441 0.9728
-2.6934 3.3912 0.9303
-2.6993 3.1591 0.8925
-2.7047 2.9449 0.8586
-2.7098 2.7459 0.8282
-2.7145 2.5603 0.8008
-2.7190 2.3862 0.7761
-2.7232 2.2222 0.7539
-2.7271 2.0671 0.7337
-2.7309 1.9198 0.7155
-2.7345 1.7794 0.6990
-2.7379 1.6450 0.6841
-2.7412 1.5160 0.6706
-2.7443 1.3917 0.6585
-2.7474 1.2716 0.6476
-2.7504 1.1551 0.6378
-2.7533 1.0419 0.6291
-2.7561 0.9315 0.6214
-2.7588 0.8235 0.6147
-2.7615 0.7176 0.6088
-2.7642 0.6134 0.6039
-2.7668 0.5107 0.5997
-2.7694 0.4092 0.5964
-2.7720 0.3085 0.5939
-2.7745 0.2085 0.5921
-2.7771 0.1088 0.5911
-2.7796 0.0092 0.5908
-2.7822 -0.0905 0.5913
-2.7847 -0.1907 0.5926
-2.7873 -0.2915 0.5946
-2.7899 -0.3933 0.5974
-2.7925 -0.4963 0.6011
-2.7952 -0.6008 0.6055
-2.7979 -0.7072 0.6108
-7.2177 -2.1021 1.5902
-7.1422 -2.3608 1.5902
-7.0575 -2.6167 1.5902
-6.9635 -2.8697 1.5902
-6.8605 -3.1192 1.5902
-6.7485 -3.3650 1.5902
-6.6277 -3.6068 1.5902
-6.4982 -3.8443 1.5902
-6.3602 -4.0770 1.5902
-6.2138 -4.3048 1.5902
-6.0593 -4.5273 1.5902
-5.8967 -4.7442 1.5902
-5.7888 -5.0093 1.6075
-5.7891 -5.3841 1.6592
-5.7112 -5.7065 1.6934
-5.5063 -5.9106 1.6934
-5.2939 -6.1074 1.6934
-5.0745 -6.2964 1.6934
-4.8483 -6.4775 1.6934
-4.6156 -6.6503 1.6934
-4.3767 -6.8147 1.6934
-4.1318 -6.9704 1.6934
-3.8814 -7.1172 1.6934
-3.6257 -7.2549 1.6934
-3.3651 -7.3833 1.6934
-3.0998 -7.5022 1.6934
-2.8304 -7.6114 1.6934
-2.5570 -7.7109 1.6934
-2.2801 -7.8004 1.6934
-2.0001 -7.8798 1.6934
-1.7173 -7.9489 1.6934
-1.4320 -8.0078 1.6934
-1.1447 -8.0563 1.6934
-0.8558 -8.0943 1.6934
-0.5656 -8.1219 1.6934
-0.2745 -8.1388 1.6934
0.0171 -8.1451 1.6934
0.3087 -8.1408 1.6934
-1.1971 -7.2082 1.6934
-0.9386 -7.2482 1.6934
-0.6787 -7.2790 1.6934
-0.4177 -7.3002 1.6934
-0.1562 -7.3120 1.6934
0.1057 -7.3142 1.6934
0.3675 -7.3069 1.6934
0.6290 -7.2901 1.6934
0.8896 -7.2639 1.6934
1.1492 -7.2281 1.6934
1.4073 -7.1830 1.6934
1.6637 -7.1284 1.6934
1.9179 -7.0646 1.6934
2.1696 -6.9916 1.6934
2.2712 -6.4888 1.5903
2.5020 -6.4033 1.5903
2.7295 -6.3094 1.5903
2.9534 -6.2072 1.5903
3.1735 -6.0971 1.5903
3.3894 -5.9790 1.5903
3.6008 -5.8531 1.5903
3.8075 -5.7197 1.5903
4.0092 -5.5788 1.5903
4.2056 -5.4307 1.5903
4.3964 -5.2757 1.5903
4.5815 -5.1138 1.5903
4.7605 -4.9453 1.5903
4.9332 -4.7705 1.5903
5.0995 -4.5896 1.5903
5.2590 -4.4028 1.5903
5.4116 -4.2104 1.5903
5.5570 -4.0127 1.5903
5.6952 -3.8099 1.5903
5.8259 -3.6023 1.5903
5.9489 -3.3901 1.5903
6.0641 -3.1737 1.5903
6.1714 -2.9534 1.5903
6.2706 -2.7293 1.5903
6.4139 -2.5226 1.6034
6.4972 -2.2903 1.6034
6.5721 -2.0552 1.6034
6.6384 -1.8177 1.6034
6.6960 -1.5781 1.6034
6.7449 -1.3366 1.6034
6.7851 -1.0937 1.6034
6.8164 -0.8496 1.6034
6.8390 -0.6046 1.6034
6.8526 -0.3591 1.6034
6.8575 -0.1134 1.6034
6.8535 0.1322 1.6034
6.8406 0.3774 1.6034
6.8190 0.6219 1.6034
6.7885 0.8652 1.6034
6.7494 1.1072 1.6034
6.7017 1.3475 1.6034
6.6454 1.5859 1.6034
6.5806 1.8219 1.6034
6.5074 2.0553 1.6034
6.3736 2.2672 1.5903
4.5585 1.8080 1.1535
4.0788 1.7894 1.0483
4.2267 2.0379 1.1050
4.0354 2.1271 1.0748
5.8511 3.3574 1.5903
5.7239 3.5629 1.5903
5.5895 3.7637 1.5903
5.4481 3.9594 1.5903
5.2999 4.1499 1.5903
5.1451 4.3349 1.5903
4.9839 4.5142 1.5903
4.8164 4.6875 1.5903
4.6430 4.8547 1.5903
4.4638 5.0155 1.5903
4.2792 5.1698 1.5903
4.0892 5.3173 1.5903
3.8942 5.4580 1.5903
3.6944 5.5915 1.5903
3.4901 5.7179 1.5903
3.2815 5.8368 1.5903
3.0689 5.9483 1.5903
2.8526 6.0521 1.5903
2.6328 6.1482 1.5903
2.5365 6.5640 1.6739
0.8318 2.4056 0.6057
0.7450 2.4338 0.6059
0.6572 2.4590 0.6061
0.5687 2.4810 0.6062
0.4794 2.4998 0.6064
0.3894 2.5154 0.6066
0.2990 2.5278 0.6068
0.2082 2.5370 0.6069
0.1171 2.5430 0.6071
0.0259 2.5457 0.6072
-0.0654 2.5452 0.6074
-0.1567 2.5414 0.6075
-0.2477 2.5343 0.6077
-0.3385 2.5241 0.6078
-0.4288 2.5106 0.6079
-0.5186 2.4939 0.6080
-0.6077 2.4740 0.6081
-0.6961 2.4509 0.6082
-0.7837 2.4247 0.6083
-0.8703 2.3954 0.6084
-2.6598 6.5764 1.6934
-2.8940 6.4771 1.6934
-3.1246 6.3696 1.6934
-3.3512 6.2540 1.6934
-3.5737 6.1304 1.6934
-2.6720 4.2276 1.1934
-2.6798 3.9212 1.1332
-2.6869 3.6439 1.0800
-2.6934 3.3910 1.0328
-2.6993 3.1589 0.9908
-2.7047 2.9447 0.9532
-2.7098 2.7457 0.9195
-2.7145 2.5601 0.8891
-2.7190 2.3860 0.8618
-2.7232 2.2220 0.8370
-2.7271 2.0669 0.8147
-2.7309 1.9196 0.7945
-2.7345 1.7792 0.7762
-2.7379 1.6448 0.7597
-2.7412 1.5158 0.7447
-2.7444 1.3915 0.7313
-2.7474 1.2714 0.7192
-2.7504 1.1549 0.7084
-2.7533 1.0417 0.6987
-2.7561 0.9313 0.6902
-2.7589 0.8233 0.6828
-2.7615 0.7174 0.6763
-2.7642 0.6132 0.6709
-2.7668 0.5105 0.6663
-2.7694 0.4090 0.6626
-2.7720 0.3083 0.6598
-2.7745 0.2082 0.6579
-2.7771 0.1086 0.6568
-2.7796 0.0090 0.6566
-2.7822 -0.0908 0.6572
-2.7847 -0.1909 0.6586
-2.7873 -0.2917 0.6609
-2.7899 -0.3935 0.6641
-2.7925 -0.4965 0.6681
-2.7952 -0.6011 0.6731
-2.7979 -0.7074 0.6791
-6.4919 -1.8913 1.5902
-6.4236 -2.1238 1.5902
-6.3470 -2.3539 1.5902
-6.2621 -2.5812 1.5902
-6.1691 -2.8055 1.5902
-6.0680 -3.0263 1.5902
-5.9591 -3.2436 1.5902
-5.8423 -3.4569 1.5902
-5.7597 -3.6927 1.6018
-5.7571 -3.9891 1.6389
-5.7641 -4.3075 1.6829
-5.6444 -4.5419 1.6934
-5.4810 -4.7437 1.6934
-5.3103 -4.9395 1.6934
-5.1327 -5.1292 1.6934
-4.9482 -5.3123 1.6934
-4.7571 -5.4889 1.6934
-4.5597 -5.6584 1.6934
-4.3562 -5.8208 1.6934
-4.1469 -5.9758 1.6934
-3.9320 -6.1233 1.6934
-3.7119 -6.2629 1.6934
-3.4867 -6.3945 1.6934
-3.2569 -6.5179 1.6934
-3.0226 -6.6329 1.6934
-2.7842 -6.7395 1.6934
-2.5421 -6.8373 1.6934
-2.2965 -6.9264 1.6934
-2.0477 -7.0065 1.6934
-1.7961 -7.0776 1.6934
-1.5421 -7.1395 1.6934
-1.2858 -7.1922 1.6934
-1.0278 -7.2355 1.6934
-0.7683 -7.2695 1.6934
-0.5077 -7.2940 1.6934
-0.2463 -7.3090 1.6934
0.0155 -7.3145 1.6934
0.2774 -7.3105 1.6934
-1.0851 -6.5354 1.6934
-0.8507 -6.5716 1.6934
-0.6151 -6.5993 1.6934
-0.3785 -6.6184 1.6934
-0.1414 -6.6290 1.6934
0.0960 -6.6309 1.6934
0.3333 -6.6242 1.6934
0.5703 -6.6089 1.6934
0.8066 -6.5850 1.6934
1.0419 -6.5526 1.6934
1.2759 -6.5116 1.6934
1.5082 -6.4621 1.6934
1.7386 -6.4042 1.6934
1.9668 -6.3380 1.6934
2.1924 -6.2636 1.6934
2.2681 -5.8047 1.5903
2.4743 -5.7196 1.5903
2.6773 -5.6271 1.5903
2.8768 -5.5273 1.5903
3.0726 -5.4202 1.5903
3.2642 -5.3062 1.5903
3.4516 -5.1853 1.5903
3.6345 -5.0577 1.5903
3.8126 -4.9236 1.5903
3.9857 -4.7831 1.5903
4.1535 -4.6364 1.5903
4.3159 -4.4838 1.5903
4.4726 -4.3254 1.5903
4.6234 -4.1615 1.5903
4.7681 -3.9923 1.5903
4.9066 -3.8179 1.5903
5.0386 -3.6388 1.5903
5.1641 -3.4550 1.5903
5.2827 -3.2668 1.5903
5.3945 -3.0745 1.5903
5.4991 -2.8784 1.5903
5.5966 -2.6787 1.5903
5.6867 -2.4757 1.5903
5.7695 -2.2696 1.5903
5.8446 -2.0607 1.5903
5.9122 -1.8493 1.5903
5.9721 -1.6358 1.5903
6.0242 -1.4202 1.5903
6.0685 -1.2031 1.5903
6.1049 -0.9845 1.5903
6.1334 -0.7649 1.5903
6.1539 -0.5445 1.5903
6.1665 -0.3236 1.5903
6.1711 -0.1025 1.5903
6.1678 0.1185 1.5903
6.1565 0.3392 1.5903
6.1374 0.5592 1.5903
6.1103 0.7783 1.5903
6.0754 0.9961 1.5903
6.0327 1.2125 1.5903
5.9823 1.4271 1.5903
5.9243 1.6396 1.5903
5.8587 1.8499 1.5903
5.7857 2.0575 1.5903
4.5209 1.7926 1.2602
4.3354 1.9015 1.2273
4.2763 2.0613 1.2314
4.1406 2.1821 1.2147
5.3127 3.0479 1.5903
5.1975 3.2347 1.5903
5.0757 3.4171 1.5903
4.9475 3.5950 1.5903
4.8132 3.7682 1.5903
4.6728 3.9364 1.5903
4.5266 4.0993 1.5903
4.3747 4.2569 1.5903
4.2174 4.4090 1.5903
4.0548 4.5552 1.5903
3.8872 4.6956 1.5903
3.7148 4.8298 1.5903
3.5378 4.9577 1.5903
3.3564 5.0793 1.5903
3.1710 5.1943 1.5903
2.9816 5.3026 1.5903
2.7885 5.4040 1.5903
2.5921 5.4985 1.5903
0.9102 2.1252 0.6051
0.8334 2.1564 0.6052
0.7555 2.1848 0.6054
0.6767 2.2105 0.6056
0.5970 2.2333 0.6058
0.5166 2.2532 0.6059
0.4355 2.2703 0.6061
0.3538 2.2845 0.6062
0.2716 2.2958 0.6064
0.1892 2.3041 0.6065
0.1064 2.3095 0.6067
0.0236 2.3120 0.6068
-0.0594 2.3115 0.6070
-0.1422 2.3080 0.6071
-0.2249 2.3016 0.6072
-0.3073 2.2923 0.6073
-0.3894 2.2800 0.6074
-0.4709 2.2648 0.6075
-0.5519 2.2467 0.6076
-0.6322 2.2257 0.6077
-0.7117 2.2019 0.6078
-0.7903 2.1753 0.6079
-0.8679 2.1458 0.6080
-2.6303 5.8868 1.6934
-2.8399 5.7890 1.6934
-3.0459 5.6839 1.6934
-3.2480 5.5715 1.6934
-2.6720 4.2274 1.3131
-2.6799 3.9211 1.2468
-2.6869 3.6437 1.1883
-2.6934 3.3908 1.1364
-2.6993 3.1587 1.0902
-2.7047 2.9445 1.0489
-2.7098 2.7455 1.0118
-2.7146 2.5599 0.9784
-2.7190 2.3858 0.9483
-2.7232 2.2218 0.9211
-2.7271 2.0667 0.8965
-2.7309 1.9194 0.8743
-2.7345 1.7790 0.8542
-2.7379 1.6446 0.8360
-2.7412 1.5156 0.8196
-2.7444 1.3913 0.8049
-2.7474 1.2712 0.7916
-2.7504 1.1547 0.7797
-2.7533 1.0415 0.7691
-2.7561 0.9311 0.7598
-2.7589 0.8231 0.7516
-2.7616 0.7172 0.7446
-2.7642 0.6130 0.7386
-2.7668 0.5103 0.7336
-2.7694 0.4088 0.7296
-2.7720 0.3081 0.7265
-2.7746 0.2080 0.7244
-2.7771 0.1084 0.7233
-2.7796 0.0088 0.7230
-2.7822 -0.0910 0.7237
-2.7847 -0.1912 0.7254
-2.7873 -0.2920 0.7279
-2.7899 -0.3938 0.7314
-2.7925 -0.4968 0.7360
-2.7952 -0.6013 0.7415
-2.7979 -0.7076 0.7481
-5.9161 -1.7240 1.5964
-5.8307 -1.9283 1.5902
-5.7608 -2.1371 1.5902
-5.7285 -2.3618 1.6028
-5.7280 -2.6055 1.6269
-5.7305 -2.8586 1.6548
-5.7366 -3.1231 1.6869
-5.6456 -3.3411 1.6934
-5.5251 -3.5430 1.6934
-5.3974 -3.7405 1.6934
-5.2626 -3.9334 1.6934
-5.1208 -4.1213 1.6934
-4.9724 -4.3042 1.6934
-4.8173 -4.4816 1.6934
-4.6559 -4.6535 1.6934
-4.4884 -4.8194 1.6934
-4.3149 -4.9793 1.6934
-4.1357 -5.1329 1.6934
-3.9509 -5.2800 1.6934
-3.7609 -5.4204 1.6934
-3.5659 -5.5539 1.6934
-3.3661 -5.6802 1.6934
-3.1618 -5.7994 1.6934
-2.9532 -5.9111 1.6934
-2.7407 -6.0152 1.6934
-2.5245 -6.1116 1.6934
-2.3048 -6.2002 1.6934
-2.0821 -6.2807 1.6934
-1.8564 -6.3532 1.6934
-1.6283 -6.4174 1.6934
-1.3979 -6.4734 1.6934
-1.1656 -6.5210 1.6934
-0.9316 -6.5601 1.6934
-0.6963 -6.5907 1.6934
-0.4601 -6.6128 1.6934
-0.2231 -6.6263 1.6934
0.0142 -6.6312 1.6934
0.2516 -6.6275 1.6934
-0.9913 -5.9716 1.6934
-0.7771 -6.0046 1.6934
-0.5618 -6.0298 1.6934
-0.3456 -6.0472 1.6934
-0.1290 -6.0567 1.6934
0.0879 -6.0584 1.6934
0.3047 -6.0522 1.6934
0.5212 -6.0382 1.6934
0.7370 -6.0163 1.6934
0.9520 -5.9866 1.6934
1.1657 -5.9491 1.6934
1.3780 -5.9039 1.6934
1.5885 -5.8510 1.6934
1.7969 -5.7905 1.6934
2.0030 -5.7225 1.6934
2.2065 -5.6471 1.6934
2.2718 -5.2515 1.5983
2.4556 -5.1613 1.5966
2.6283 -5.0499 1.5903
2.8071 -4.9521 1.5903
2.9822 -4.8480 1.5903
3.1535 -4.7376 1.5903
3.3206 -4.6211 1.5903
3.4833 -4.4986 1.5903
3.6415 -4.3703 1.5903
3.7949 -4.2364 1.5903
3.9433 -4.0970 1.5903
4.0865 -3.9524 1.5903
4.2244 -3.8027 1.5903
4.3568 -3.6482 1.5903
4.4834 -3.4890 1.5903
4.6041 -3.3253 1.5903
4.7189 -3.1575 1.5903
4.8274 -2.9856 1.5903
4.9297 -2.8100 1.5903
5.0254 -2.6309 1.5903
5.1147 -2.4484 1.5903
5.1972 -2.2629 1.5903
5.2730 -2.0747 1.5903
5.3419 -1.8838 1.5903
5.4038 -1.6907 1.5903
5.4587 -1.4956 1.5903
5.5065 -1.2986 1.5903
5.5472 -1.1001 1.5903
5.5807 -0.9004 1.5903
5.6069 -0.6997 1.5903
5.6259 -0.4982 1.5903
5.6377 -0.2963 1.5903
5.6421 -0.0942 1.5903
5.6393 0.1079 1.5903
5.6292 0.3097 1.5903
5.6119 0.5108 1.5903
5.5874 0.7112 1.5903
5.5557 0.9104 1.5903
5.5169 1.1084 1.5903
5.4710 1.3046 1.5903
5.4182 1.4991 1.5903
5.3585 1.6914 1.5903
5.2919 1.8814 1.5903
5.2186 2.0688 1.5903
5.1387 2.2533 1.5903
4.2755 2.0605 1.3458
4.2363 2.2321 1.3585
4.8603 2.7878 1.5903
4.7550 2.9588 1.5903
4.6438 3.1258 1.5903
4.5267 3.2887 1.5903
4.4040 3.4473 1.5903
4.2757 3.6013 1.5903
4.1421 3.7505 1.5903
4.0033 3.8949 1.5903
3.8594 4.0342 1.5903
3.7108 4.1682 1.5903
3.5576 4.2967 1.5903
3.3999 4.4197 1.5903
3.2380 4.5370 1.5903
3.0721 4.6484 1.5903
2.9025 4.7538 1.5903
2.7292 4.8530 1.5903
2.5526 4.9460 1.5903
0.9022 1.9136 0.6047
0.8330 1.9446 0.6049
0.7627 1.9731 0.6050
0.6914 1.9992 0.6052
0.6193 2.0226 0.6053
0.5464 2.0435 0.6055
0.4728 2.0618 0.6057
0.3985 2.0774 0.6058
0.3238 2.0904 0.6059
0.2486 2.1007 0.6061
0.1732 2.1083 0.6062
0.0974 2.1132 0.6064
0.0216 2.1155 0.6065
-0.0543 2.1150 0.6066
-0.1301 2.1118 0.6067
-0.2057 2.1059 0.6068
-0.2812 2.0974 0.6069
-0.3562 2.0861 0.6070
-0.4308 2.0722 0.6071
-0.5049 2.0556 0.6072
-0.5784 2.0364 0.6073
-0.6511 2.0146 0.6074
-0.7230 1.9902 0.6075
-0.7940 1.9632 0.6075
-0.8641 1.9338 0.6076
-2.6001 5.3002 1.6934
-2.7887 5.2039 1.6934
-2.9738 5.1010 1.6934
-2.6720 4.2272 1.4341
-2.6799 3.9209 1.3618
-2.6869 3.6435 1.2979
-2.6934 3.3906 1.2413
-2.6993 3.1585 1.1908
-2.7048 2.9443 1.1457
-2.7098 2.7453 1.1051
-2.7146 2.5597 1.0687
-2.7190 2.3856 1.0358
-2.7232 2.2216 1.0062
-2.7271 2.0665 0.9794
-2.7309 1.9192 0.9551
-2.7345 1.7788 0.9332
-2.7379 1.6444 0.9133
-2.7412 1.5154 0.8954
-2.7444 1.3911 0.8793
-2.7474 1.2710 0.8648
-2.7504 1.1545 0.8519
-2.7533 1.0413 0.8404
-2.7561 0.9309 0.8302
-2.7589 0.8229 0.8213
-2.7616 0.7170 0.8136
-2.7642 0.6128 0.8071
-2.7669 0.5101 0.8016
-2.7694 0.4085 0.7973
-2.7720 0.3079 0.7940
-2.7746 0.2078 0.7917
-2.7771 0.1081 0.7905
-2.7796 0.0085 0.7903
-2.7822 -0.0912 0.7911
-2.7847 -0.1914 0.7929
-2.7873 -0.2922 0.7957
-2.7899 -0.3940 0.7996
-2.7925 -0.4970 0.8046
-2.7952 -0.6015 0.8106
-2.7979 -0.7079 0.8179
-5.7027 -1.6624 1.6825
-5.6789 -1.8786 1.6934
-5.6106 -2.0819 1.6934
-5.5351 -2.2826 1.6934
-5.4524 -2.4806 1.6934
-5.3626 -2.6756 1.6934
-5.2658 -2.8674 1.6934
-5.1621 -3.0556 1.6934
-5.0517 -3.2400 1.6934
-4.9347 -3.4205 1.6934
-4.8113 -3.5966 1.6934
-4.6815 -3.7683 1.6934
-4.5456 -3.9354 1.6934
-4.4037 -4.0974 1.6934
-4.2560 -4.2544 1.6934
-4.1026 -4.4059 1.6934
-3.9439 -4.5519 1.6934
-3.7799 -4.6921 1.6934
-3.6110 -4.8264 1.6934
-3.4372 -4.9545 1.6934
-3.2588 -5.0764 1.6934
-3.0761 -5.1917 1.6934
-2.8893 -5.3004 1.6934
-2.6986 -5.4023 1.6934
-2.5044 -5.4973 1.6934
-2.3067 -5.5853 1.6934
-2.1059 -5.6660 1.6934
-1.9023 -5.7395 1.6934
-1.6961 -5.8055 1.6934
-1.4876 -5.8641 1.6934
-1.2771 -5.9151 1.6934
-1.0648 -5.9585 1.6934
-0.8510 -5.9941 1.6934
-0.6360 -6.0220 1.6934
-0.4202 -6.0421 1.6934
-0.2037 -6.0543 1.6934
0.0132 -6.0587 1.6934
0.2300 -6.0552 1.6934
-0.9114 -5.4919 1.6934
-0.7144 -5.5221 1.6934
-0.5164 -5.5452 1.6934
-0.3177 -5.5611 1.6934
-0.1185 -5.5698 1.6934
0.0810 -5.5713 1.6934
0.2803 -5.5655 1.6934
0.4794 -5.5525 1.6934
0.6779 -5.5324 1.6934
0.8755 -5.5050 1.6934
1.0720 -5.4705 1.6934
1.2672 -5.4289 1.6934
1.4607 -5.3803 1.6934
1.6523 -5.3247 1.6934
1.8418 -5.2621 1.6934
2.0289 -5.1928 1.6934
2.2134 -5.1167 1.6934
2.2794 -4.7909 1.6117
2.4168 -4.6437 1.5903
2.5812 -4.5539 1.5903
2.7423 -4.4582 1.5903
2.8998 -4.3567 1.5903
3.0535 -4.2496 1.5903
3.2031 -4.1370 1.5903
3.3486 -4.0191 1.5903
3.4897 -3.8960 1.5903
3.6263 -3.7679 1.5903
3.7580 -3.6350 1.5903
3.8849 -3.4974 1.5903
4.0067 -3.3553 1.5903
4.1232 -3.2090 1.5903
4.2343 -3.0586 1.5903
4.3399 -2.9042 1.5903
4.4399 -2.7463 1.5903
4.5340 -2.5848 1.5903
4.6222 -2.4201 1.5903
4.7044 -2.2524 1.5903
4.7804 -2.0818 1.5903
4.8503 -1.9087 1.5903
4.9138 -1.7332 1.5903
4.9709 -1.5556 1.5903
5.0215 -1.3761 1.5903
5.0657 -1.1950 1.5903
5.1032 -1.0125 1.5903
5.1342 -0.8288 1.5903
5.1585 -0.6442 1.5903
5.1762 -0.4588 1.5903
5.1871 -0.2731 1.5903
5.1914 -0.0871 1.5903
5.1890 0.0989 1.5903
5.1799 0.2845 1.5903
5.1641 0.4697 1.5903
5.1417 0.6540 1.5903
5.1128 0.8374 1.5903
5.0772 1.0196 1.5903
5.0352 1.2002 1.5903
4.9867 1.3792 1.5903
4.9319 1.5563 1.5903
4.7628 1.6928 1.5551
4.7928 1.8995 1.5868
4.7196 2.0691 1.5868
4.2746 2.0597 1.4617
4.5553 2.3996 1.5868
4.4644 2.5602 1.5868
4.2805 2.6630 1.5551
4.2754 2.8773 1.5903
4.1678 3.0274 1.5903
4.0549 3.1735 1.5903
3.9369 3.3154 1.5903
3.8140 3.4529 1.5903
3.6863 3.5859 1.5903
3.5540 3.7143 1.5903
3.4172 3.8378 1.5903
3.2762 3.9563 1.5903
3.1311 4.0697 1.5903
2.9821 4.1778 1.5903
2.8294 4.2805 1.5903
2.6782 4.3858 1.5933
2.5137 4.4692 1.5903
0.8935 1.7311 0.6044
0.8308 1.7619 0.6045
0.7671 1.7905 0.6047
0.7024 1.8167 0.6049
0.6368 1.8407 0.6050
0.5703 1.8623 0.6051
0.5032 1.8815 0.6053
0.4354 1.8983 0.6054
0.3670 1.9127 0.6056
0.2982 1.9247 0.6057
0.2290 1.9342 0.6058
0.1595 1.9412 0.6059
0.0898 1.9457 0.6061
0.0199 1.9478 0.6062
-0.0499 1.9473 0.6063
-0.1197 1.9444 0.6064
-0.1894 1.9389 0.6065
-0.2588 1.9310 0.6066
-0.3280 1.9207 0.6067
-0.3966 1.9078 0.6068
-0.4649 1.8926 0.6069
-0.5325 1.8749 0.6069
-0.5995 1.8548 0.6070
-0.6657 1.8323 0.6071
-0.7310 1.8074 0.6072
-0.7955 1.7803 0.6072
-0.8590 1.7508 0.6073
-2.5691 4.7938 1.6934
-2.7395 4.6989 1.6934
-2.9066 4.5981 1.6934
-2.6799 3.9207 1.4783
-2.6869 3.6433 1.4089
-2.6934 3.3904 1.3475
-2.6993 3.1584 1.2927
-2.6867 2.9245 1.2354
-2.6747 2.7096 1.1842
-2.7146 2.5595 1.1602
-2.7190 2.3854 1.1245
-2.7232 2.2214 1.0923
-2.7272 2.0663 1.0633
-2.7309 1.9190 1.0369
-2.7345 1.7786 1.0131
-2.7379 1.6442 0.9916
-2.7412 1.5152 0.9722
-2.7444 1.3909 0.9547
-2.7474 1.2708 0.9391
-2.7504 1.1543 0.9250
-2.7533 1.0411 0.9125
-2.7561 0.9307 0.9015
-2.7589 0.8227 0.8919
-2.7616 0.7168 0.8835
-2.7642 0.6126 0.8765
-2.7669 0.5099 0.8706
-2.7694 0.4083 0.8659
-2.7720 0.3077 0.8624
-2.7746 0.2076 0.8599
-2.7771 0.1079 0.8586
-2.7796 0.0083 0.8584
-2.7822 -0.0914 0.8593
-2.7848 -0.1916 0.8613
-2.7873 -0.2924 0.8644
-2.7899 -0.3943 0.8686
-2.7925 -0.4973 0.8740
-2.7952 -0.6018 0.8807
-2.7979 -0.7082 0.8886
-5.2829 -1.5405 1.6934
-5.2267 -1.7295 1.6934
-5.1637 -1.9165 1.6934
-5.0940 -2.1012 1.6934
-5.0177 -2.2834 1.6934
-4.9348 -2.4627 1.6934
-4.8456 -2.6391 1.6934
-4.7501 -2.8122 1.6934
-4.6483 -2.9818 1.6934
-4.5405 -3.1477 1.6934
-4.4268 -3.3097 1.6934
-4.3072 -3.4676 1.6934
-4.1820 -3.6212 1.6934
-4.0513 -3.7701 1.6934
-3.9153 -3.9144 1.6934
-3.7741 -4.0537 1.6934
-3.6280 -4.1879 1.6934
-3.4770 -4.3167 1.6934
-3.3215 -4.4401 1.6934
-3.1615 -4.5579 1.6934
-2.9974 -4.6698 1.6934
-2.8293 -4.7758 1.6934
-2.6574 -4.8756 1.6934
-2.4819 -4.9692 1.6934
-2.3032 -5.0565 1.6934
-2.1213 -5.1372 1.6934
-1.9366 -5.2114 1.6934
-1.7493 -5.2788 1.6934
-1.5597 -5.3395 1.6934
-1.3679 -5.3932 1.6934
-1.1742 -5.4400 1.6934
-0.9790 -5.4798 1.6934
-0.7824 -5.5125 1.6934
-0.5847 -5.5380 1.6934
-0.3862 -5.5564 1.6934
-0.1871 -5.5676 1.6934
0.0123 -5.5716 1.6934
0.2117 -5.5683 1.6934
-0.8426 -5.0783 1.6934
-0.6604 -5.1061 1.6934
-0.4773 -5.1274 1.6934
-0.2936 -5.1421 1.6934
-0.1094 -5.1500 1.6934
0.0750 -5.1514 1.6934
0.2593 -5.1460 1.6934
0.4434 -5.1340 1.6934
0.6268 -5.1153 1.6934
0.8096 -5.0900 1.6934
0.9912 -5.0581 1.6934
1.1717 -5.0196 1.6934
1.3506 -4.9746 1.6934
1.5278 -4.9232 1.6934
1.7030 -4.8653 1.6934
1.8759 -4.8012 1.6934
2.0465 -4.7309 1.6934
2.2144 -4.6544 1.6934
2.2852 -4.3911 1.6264
2.3866 -4.2106 1.5903
2.5355 -4.1221 1.5903
2.6811 -4.0283 1.5903
2.8232 -3.9294 1.5903
2.9616 -3.8253 1.5903
3.0962 -3.7163 1.5903
3.2267 -3.6026 1.5903
3.3530 -3.4842 1.5903
3.4748 -3.3613 1.5903
3.5922 -3.2341 1.5903
3.7049 -3.1028 1.5903
3.8126 -2.9676 1.5903
3.9155 -2.8285 1.5903
4.0132 -2.6859 1.5903
4.1057 -2.5399 1.5903
4.1928 -2.3906 1.5903
4.2745 -2.2384 1.5903
4.3506 -2.0833 1.5903
4.4210 -1.9256 1.5903
4.4857 -1.7656 1.5903
4.5445 -1.6033 1.5903
4.5974 -1.4391 1.5903
4.6444 -1.2732 1.5903
4.6853 -1.1057 1.5903
4.7202 -0.9369 1.5903
4.7490 -0.7670 1.5903
4.7716 -0.5962 1.5903
4.7880 -0.4248 1.5903
4.7983 -0.2530 1.5903
4.8024 -0.0809 1.5903
4.8003 0.0911 1.5903
4.7920 0.2628 1.5903
4.7776 0.4341 1.5903
4.7570 0.6047 1.5903
4.7304 0.7744 1.5903
4.6977 0.9429 1.5903
4.6589 1.1101 1.5903
4.6142 1.2758 1.5903
4.5636 1.4397 1.5903
4.4972 1.5980 1.5868
4.4352 1.7573 1.5868
4.3676 1.9143 1.5868
4.2738 2.0588 1.5792
4.2157 2.2203 1.5868
4.1318 2.3690 1.5868
3.9617 2.4642 1.5551
3.9571 2.6626 1.5903
3.8576 2.8016 1.5903
3.7532 2.9369 1.5903
3.6441 3.0683 1.5903
3.5304 3.1957 1.5903
3.4123 3.3189 1.5903
3.2900 3.4378 1.5903
3.1634 3.5523 1.5903
3.0330 3.6621 1.5903
2.8987 3.7671 1.5903
2.7609 3.8673 1.5903
2.6196 3.9624 1.5903
2.4882 4.0741 1.5988
0.8841 1.5717 0.6041
0.8272 1.6022 0.6043
0.7691 1.6308 0.6044
0.7101 1.6572 0.6046
0.6502 1.6816 0.6047
0.5895 1.7037 0.6048
0.5280 1.7237 0.6050
0.4658 1.7415 0.6051
0.4031 1.7571 0.6052
0.3398 1.7704 0.6054
0.2761 1.7815 0.6055
0.2120 1.7902 0.6056
0.1477 1.7967 0.6057
0.0831 1.8009 0.6058
0.0185 1.8028 0.6059
-0.0462 1.8024 0.6060
-0.1108 1.7997 0.6061
-0.1753 1.7946 0.6062
-0.2395 1.7873 0.6063
-0.3035 1.7777 0.6064
-0.3671 1.7658 0.6065
-0.4302 1.7517 0.6066
-0.4928 1.7353 0.6066
-0.5548 1.7166 0.6067
-0.6161 1.6958 0.6068
-0.6766 1.6728 0.6068
-0.7362 1.6476 0.6069
-0.7950 1.6204 0.6069
-0.8527 1.5910 0.6070
-2.5369 4.3512 1.6934
-2.6916 4.2577 1.6934
-2.8428 4.1589 1.6934
-2.9905 4.0548 1.6934
-2.6934 3.3903 1.4551
-2.6993 3.1582 1.3960
-2.6306 2.8631 1.3063
-2.6392 2.6734 1.2619
-2.7063 2.5515 1.2492
-2.7190 2.3852 1.2145
-2.7232 2.2212 1.1797
-2.7272 2.0661 1.1483
-2.7309 1.9188 1.1199
-2.7345 1.7784 1.0942
-2.7379 1.6440 1.0710
-2.7412 1.5150 1.0501
-2.7444 1.3907 1.0312
-2.7474 1.2706 1.0143
-2.7504 1.1541 0.9992
-2.7533 1.0409 0.9857
-2.7561 0.9305 0.9738
-2.7589 0.8225 0.9634
-2.7616 0.7165 0.9544
-2.7642 0.6124 0.9468
-2.7669 0.5097 0.9405
-2.7695 0.4081 0.9355
-2.7720 0.3074 0.9317
-2.7746 0.2074 0.9291
-2.7771 0.1077 0.9277
-2.7796 0.0081 0.9275
-2.7822 -0.0917 0.9284
-2.7848 -0.1918 0.9306
-2.7873 -0.2927 0.9340
-2.7899 -0.3945 0.9386
-2.7925 -0.4975 0.9445
-2.7952 -0.6021 0.9517
-2.7979 -0.7084 0.9603
-4.8884 -1.4259 1.6934
-4.8362 -1.6008 1.6934
-4.7777 -1.7738 1.6934
-4.7131 -1.9446 1.6934
-4.6423 -2.1131 1.6934
-4.5656 -2.2789 1.6934
-4.4829 -2.4420 1.6934
-4.3944 -2.6021 1.6934
-4.3001 -2.7589 1.6934
-4.2002 -2.9124 1.6934
-4.0949 -3.0622 1.6934
-3.9842 -3.2081 1.6934
-3.8683 -3.3500 1.6934
-3.7473 -3.4878 1.6934
-3.6213 -3.6211 1.6934
-3.4907 -3.7498 1.6934
-3.3554 -3.8738 1.6934
-3.2157 -3.9929 1.6934
-3.0718 -4.1069 1.6934
-2.9238 -4.2157 1.6934
-2.7719 -4.3191 1.6934
-2.6163 -4.4170 1.6934
-2.4573 -4.5093 1.6934
-2.2950 -4.5957 1.6934
-2.1297 -4.6763 1.6934
-1.9615 -4.7509 1.6934
-1.7906 -4.8194 1.6934
-1.6174 -4.8816 1.6934
-1.4420 -4.9376 1.6934
-1.2647 -4.9872 1.6934
-1.0856 -5.0304 1.6934
-0.9051 -5.0671 1.6934
-0.7233 -5.0973 1.6934
-0.5405 -5.1208 1.6934
-0.3569 -5.1377 1.6934
-0.1729 -5.1480 1.6934
0.0115 -5.1516 1.6934
0.1958 -5.1486 1.6934
-0.7825 -4.7176 1.6934
-0.6133 -4.7435 1.6934
-0.4433 -4.7632 1.6934
-0.2726 -4.7767 1.6934
-0.1015 -4.7841 1.6934
0.0698 -4.7853 1.6934
0.2410 -4.7803 1.6934
0.4119 -4.7691 1.6934
0.5824 -4.7517 1.6934
0.7521 -4.7282 1.6934
0.9208 -4.6985 1.6934
1.0884 -4.6627 1.6934
1.2546 -4.6210 1.6934
1.4192 -4.5732 1.6934
1.5819 -4.5195 1.6934
1.7426 -4.4599 1.6934
1.9010 -4.3946 1.6934
2.0569 -4.3236 1.6934
2.2102 -4.2470 1.6934
2.2902 -4.0407 1.6429
2.3552 -3.8292 1.5903
2.4905 -3.7421 1.5903
2.6225 -3.6502 1.5903
2.7511 -3.5536 1.5903
2.8761 -3.4524 1.5903
2.9973 -3.3467 1.5903
3.1147 -3.2368 1.5903
3.2279 -3.1227 1.5903
3.3370 -3.0046 1.5903
3.4417 -2.8827 1.5903
3.5419 -2.7571 1.5903
3.6375 -2.6280 1.5903
3.7283 -2.4955 1.5903
3.8143 -2.3599 1.5903
3.8953 -2.2213 1.5903
3.9712 -2.0799 1.5903
4.0420 -1.9358 1.5903
4.1075 -1.7894 1.5903
4.1677 -1.6407 1.5903
4.2224 -1.4900 1.5903
4.2717 -1.3375 1.5903
4.3154 -1.1833 1.5903
4.3536 -1.0277 1.5903
4.3861 -0.8709 1.5903
4.4129 -0.7130 1.5903
4.4340 -0.5544 1.5903
4.4494 -0.3951 1.5903
4.4591 -0.2355 1.5903
4.4630 -0.0756 1.5903
4.4612 0.0842 1.5903
4.4536 0.2439 1.5903
4.4403 0.4031 1.5903
4.4213 0.5616 1.5903
4.3966 0.7193 1.5903
4.3663 0.8760 1.5903
4.3304 1.0314 1.5903
4.2890 1.1854 1.5903
4.2421 1.3378 1.5903
4.1898 1.4883 1.5903
4.0404 1.6005 1.5551
4.0602 1.7792 1.5868
3.9922 1.9227 1.5868
3.9192 2.0637 1.5868
3.7644 2.1579 1.5551
3.7669 2.3426 1.5903
3.6791 2.4751 1.5903
3.5867 2.6044 1.5903
3.4897 2.7302 1.5903
3.3884 2.8525 1.5903
3.2827 2.9710 1.5903
3.1730 3.0857 1.5903
3.0593 3.1963 1.5903
2.9417 3.3028 1.5903
2.8205 3.4049 1.5903
2.6957 3.5027 1.5903
2.5675 3.5959 1.5903
2.4765 3.7454 1.6166
0.8741 1.4309 0.6039
0.8221 1.4612 0.6040
0.7692 1.4897 0.6042
0.7152 1.5162 0.6043
0.6603 1.5408 0.6044
0.6046 1.5635 0.6046
0.5482 1.5841 0.6047
0.4910 1.6027 0.6048
0.4332 1.6192 0.6049
0.3749 1.6337 0.6051
0.3160 1.6461 0.6052
0.2568 1.6564 0.6053
0.1972 1.6645 0.6054
0.1374 1.6705 0.6055
0.0774 1.6744 0.6056
0.0173 1.6762 0.6057
-0.0429 1.6758 0.6058
-0.1030 1.6732 0.6059
-0.1629 1.6685 0.6060
-0.2227 1.6617 0.6061
-0.2822 1.6528 0.6062
-0.3413 1.6417 0.6062
-0.4000 1.6285 0.6063
-0.4582 1.6133 0.6064
-0.5158 1.5960 0.6064
-0.5728 1.5766 0.6065
-0.6290 1.5552 0.6065
-0.6845 1.5318 0.6066
-0.7391 1.5064 0.6066
-0.7927 1.4791 0.6067
-0.8454 1.4499 0.6067
-0.8970 1.4188 0.6067
-2.6442 3.8682 1.6934
-2.7816 3.7713 1.6934
-2.9154 3.6695 1.6934
-2.6993 3.1580 1.5009
-2.6143 2.8453 1.3957
-2.6214 2.6552 1.3476
-2.6880 2.5340 1.3339
-2.7190 2.3850 1.3058
-2.7232 2.2210 1.2684
-2.7272 2.0659 1.2347
-2.7309 1.9186 1.2042
-2.7345 1.7782 1.1766
-2.7379 1.6438 1.1516
-2.7412 1.5148 1.1291
-2.7444 1.3905 1.1089
-2.7475 1.2704 1.0907
-2.7504 1.1539 1.0744
-2.7533 1.0407 1.0600
-2.7561 0.9302 1.0472
-2.7589 0.8223 1.0360
-2.7616 0.7163 1.0264
-2.7642 0.6122 1.0182
-2.7669 0.5094 1.0115
-2.7695 0.4079 1.0061
-2.7720 0.3072 1.0020
-2.7746 0.2072 0.9992
-2.7771 0.1074 0.9978
-2.7797 0.0078 0.9976
-2.7822 -0.0919 0.9986
-2.7848 -0.1921 1.0010
-2.7873 -0.2929 1.0047
-2.7899 -0.3947 1.0097
-2.7926 -0.4978 1.0160
-2.7952 -0.6023 1.0238
-2.7979 -0.7087 1.0330
-4.5439 -1.3258 1.6934
-4.4952 -1.4884 1.6934
-4.4408 -1.6491 1.6934
-4.3806 -1.8079 1.6934
-4.3147 -1.9644 1.6934
-4.2433 -2.1185 1.6934
-4.1663 -2.2700 1.6934
-4.0839 -2.4188 1.6934
-3.9962 -2.5645 1.6934
-3.9033 -2.7070 1.6934
-3.8053 -2.8461 1.6934
-3.7023 -2.9817 1.6934
-3.5945 -3.1135 1.6934
-3.4820 -3.2414 1.6934
-3.3649 -3.3652 1.6934
-3.2434 -3.4847 1.6934
-3.1176 -3.5999 1.6934
-2.9877 -3.7104 1.6934
-2.8540 -3.8163 1.6934
-2.7164 -3.9173 1.6934
-2.5752 -4.0133 1.6934
-2.4306 -4.1041 1.6934
-2.2828 -4.1897 1.6934
-2.1320 -4.2700 1.6934
-1.9784 -4.3448 1.6934
-1.8221 -4.4140 1.6934
-1.6634 -4.4775 1.6934
-1.5024 -4.5353 1.6934
-1.3394 -4.5872 1.6934
-1.1747 -4.6333 1.6934
-1.0083 -4.6733 1.6934
-0.8406 -4.7073 1.6934
-0.6717 -4.7353 1.6934
-0.5019 -4.7571 1.6934
-0.3314 -4.7728 1.6934
-0.1604 -4.7823 1.6934
0.0108 -4.7856 1.6934
0.1820 -4.7827 1.6934
-0.7297 -4.4002 1.6934
-0.5719 -4.4242 1.6934
-0.4133 -4.4426 1.6934
-0.2541 -4.4551 1.6934
-0.0945 -4.4620 1.6934
0.0652 -4.4630 1.6934
0.2249 -4.4584 1.6934
0.3843 -4.4479 1.6934
0.5432 -4.4316 1.6934
0.7015 -4.4097 1.6934
0.8589 -4.3820 1.6934
1.0151 -4.3486 1.6934
1.1701 -4.3097 1.6934
1.3236 -4.2651 1.6934
1.4753 -4.2150 1.6934
1.6252 -4.1595 1.6934
1.7729 -4.0986 1.6934
1.9183 -4.0324 1.6934
2.0613 -3.9610 1.6934
2.2015 -3.8844 1.6934
2.2973 -3.7351 1.6633
2.3227 -3.4902 1.5903
2.4458 -3.4045 1.5903
2.5657 -3.3144 1.5903
2.6823 -3.2200 1.5903
2.7954 -3.1215 1.5903
2.9049 -3.0190 1.5903
3.0106 -2.9127 1.5903
3.1123 -2.8026 1.5903
3.2100 -2.6889 1.5903
3.3035 -2.5718 1.5903
3.3927 -2.4514 1.5903
3.4774 -2.3279 1.5903
3.5577 -2.2014 1.5903
3.6333 -2.0722 1.5903
3.7042 -1.9403 1.5903
3.7702 -1.8060 1.5903
3.8314 -1.6694 1.5903
3.8876 -1.5308 1.5903
3.9387 -1.3902 1.5903
3.9848 -1.2480 1.5903
4.0257 -1.1042 1.5903
4.0613 -0.9591 1.5903
4.0917 -0.8128 1.5903
4.1168 -0.6655 1.5903
4.1366 -0.5175 1.5903
4.1511 -0.3690 1.5903
4.1602 -0.2200 1.5903
4.1639 -0.0709 1.5903
4.1623 0.0783 1.5903
4.1553 0.2272 1.5903
4.1430 0.3757 1.5903
4.1254 0.5237 1.5903
4.1025 0.6708 1.5903
4.0743 0.8170 1.5903
4.0409 0.9621 1.5903
4.0023 1.1058 1.5903
3.9587 1.2480 1.5903
3.9100 1.3885 1.5903
3.8562 1.5271 1.5903
3.7976 1.6637 1.5903
3.7342 1.7980 1.5903
3.6660 1.9300 1.5903
3.5932 2.0593 1.5903
3.5158 2.1860 1.5903
3.4339 2.3097 1.5903
3.3477 2.4304 1.5903
3.2573 2.5480 1.5903
3.1628 2.6621 1.5903
3.0643 2.7728 1.5903
2.9619 2.8799 1.5903
2.8558 2.9832 1.5903
2.7461 3.0827 1.5903
2.6490 3.1974 1.6000
2.5166 3.2695 1.5903
2.4653 3.4522 1.6357
0.8634 1.3056 0.6037
0.8159 1.3356 0.6038
0.7675 1.3639 0.6039
0.7180 1.3904 0.6041
0.6677 1.4152 0.6042
0.6165 1.4382 0.6043
0.5645 1.4593 0.6044
0.5117 1.4785 0.6046
0.4584 1.4959 0.6047
0.4044 1.5113 0.6048
0.3500 1.5248 0.6049
0.2950 1.5364 0.6050
0.2397 1.5460 0.6051
0.1841 1.5536 0.6052
0.1283 1.5592 0.6053
0.0723 1.5628 0.6054
0.0162 1.5645 0.6055
-0.0400 1.5641 0.6056
-0.0961 1.5617 0.6057
-0.1520 1.5573 0.6058
-0.2078 1.5510 0.6059
-0.2633 1.5426 0.6059
-0.3185 1.5323 0.6060
-0.3733 1.5200 0.6061
-0.4276 1.5057 0.6061
-0.4814 1.4895 0.6062
-0.5346 1.4714 0.6062
-0.5871 1.4514 0.6063
-0.6389 1.4296 0.6063
-0.6898 1.4059 0.6064
-0.7399 1.3804 0.6064
-0.7890 1.3532 0.6064
-0.8372 1.3242 0.6065
-0.8842 1.2934 0.6065
-2.5972 3.5210 1.6934
-2.7221 3.4260 1.6934
-2.8437 3.3266 1.6934
-2.6480 2.8817 1.5141
-2.6219 2.6555 1.4436
-2.6856 2.5316 1.4274
-2.7190 2.3848 1.3986
-2.7232 2.2208 1.3586
-2.7272 2.0657 1.3224
-2.7309 1.9184 1.2898
-2.7345 1.7780 1.2602
-2.7379 1.6436 1.2335
-2.7412 1.5145 1.2095
-2.7444 1.3903 1.1878
-2.7475 1.2701 1.1683
-2.7504 1.1537 1.1509
-2.7533 1.0405 1.1354
-2.7561 0.9300 1.1218
-2.7589 0.8220 1.1099
-2.7616 0.7161 1.0996
-2.7643 0.6119 1.0908
-2.7669 0.5092 1.0836
-2.7695 0.4077 1.0778
-2.7720 0.3070 1.0735
-2.7746 0.2069 1.0706
-2.7771 0.1072 1.0690
-2.7797 0.0076 1.0688
-2.7822 -0.0921 1.0700
-2.7848 -0.1923 1.0725
-2.7873 -0.2932 1.0765
-2.7899 -0.3950 1.0819
-2.7926 -0.4980 1.0887
-2.7952 -0.6026 1.0971
-2.7979 -0.7090 1.1070
-4.2402 -1.2377 1.6934
-4.1947 -1.3893 1.6934
-4.1438 -1.5393 1.6934
-4.0875 -1.6873 1.6934
-4.0260 -1.8334 1.6934
-3.9592 -1.9771 1.6934
-3.8873 -2.1185 1.6934
-3.8103 -2.2572 1.6934
-3.7284 -2.3931 1.6934
-3.6416 -2.5260 1.6934
-3.5501 -2.6557 1.6934
-3.4540 -2.7821 1.6934
-3.3533 -2.9051 1.6934
-3.2483 -3.0243 1.6934
-3.1390 -3.1397 1.6934
-3.0255 -3.2512 1.6934
-2.9082 -3.3585 1.6934
-2.7870 -3.4616 1.6934
-2.6621 -3.5603 1.6934
-2.5337 -3.6544 1.6934
-2.4020 -3.7439 1.6934
-2.2671 -3.8286 1.6934
-2.1292 -3.9084 1.6934
-1.9885 -3.9832 1.6934
-1.8451 -4.0528 1.6934
-1.6993 -4.1173 1.6934
-1.5513 -4.1765 1.6934
-1.4011 -4.2303 1.6934
-1.2491 -4.2787 1.6934
-1.0954 -4.3216 1.6934
-0.9403 -4.3589 1.6934
-0.7838 -4.3906 1.6934
-0.6263 -4.4166 1.6934
-0.4680 -4.4369 1.6934
-0.3090 -4.4515 1.6934
-0.1495 -4.4603 1.6934
0.0102 -4.4633 1.6934
0.1699 -4.4606 1.6934
-0.6828 -4.1182 1.6934
-0.5351 -4.1407 1.6934
-0.3866 -4.1578 1.6934
-0.2376 -4.1696 1.6934
-0.0883 -4.1760 1.6934
0.0612 -4.1769 1.6934
0.2106 -4.1725 1.6934
0.3598 -4.1627 1.6934
0.5085 -4.1475 1.6934
0.6566 -4.1269 1.6934
0.8038 -4.1010 1.6934
0.9501 -4.0698 1.6934
1.0951 -4.0333 1.6934
1.2387 -3.9916 1.6934
1.3807 -3.9447 1.6934
1.5209 -3.8928 1.6934
1.6592 -3.8358 1.6934
1.7953 -3.7738 1.6934
1.9290 -3.7070 1.6934
2.0603 -3.6354 1.6934
2.1889 -3.5591 1.6934
2.3036 -3.4617 1.6854
2.3163 -3.2244 1.6094
2.4012 -3.1020 1.5903
2.5103 -3.0137 1.5903
2.6162 -2.9216 1.5903
2.7186 -2.8257 1.5903
2.8175 -2.7262 1.5903
2.9128 -2.6231 1.5903
3.0042 -2.5168 1.5903
3.0918 -2.4072 1.5903
3.1753 -2.2946 1.5903
3.2546 -2.1790 1.5903
3.3298 -2.0607 1.5903
3.4006 -1.9397 1.5903
3.4670 -1.8163 1.5903
3.5289 -1.6907 1.5903
3.5862 -1.5629 1.5903
3.6388 -1.4331 1.5903
3.6868 -1.3016 1.5903
3.7299 -1.1685 1.5903
3.7683 -1.0339 1.5903
3.8017 -0.8981 1.5903
3.8302 -0.7612 1.5903
3.8538 -0.6233 1.5903
3.8724 -0.4848 1.5903
3.8860 -0.3457 1.5903
3.8946 -0.2063 1.5903
3.8982 -0.0667 1.5903
3.8967 0.0729 1.5903
3.8903 0.2123 1.5903
3.8789 0.3514 1.5903
3.8624 0.4899 1.5903
3.8410 0.6277 1.5903
3.8147 0.7646 1.5903
3.7835 0.9005 1.5903
3.7475 1.0351 1.5903
3.7067 1.1682 1.5903
3.6612 1.2998 1.5903
3.6110 1.4296 1.5903
3.5561 1.5575 1.5903
3.4968 1.6833 1.5903
3.4330 1.8069 1.5903
3.3649 1.9281 1.5903
3.2925 2.0467 1.5903
3.2159 2.1627 1.5903
3.1352 2.2758 1.5903
3.0506 2.3859 1.5903
2.9622 2.4928 1.5903
2.8700 2.5966 1.5903
2.7741 2.6969 1.5903
2.6748 2.7937 1.5903
2.5721 2.8869 1.5903
2.4662 2.9764 1.5903
0.8943 1.1617 0.6034
0.8521 1.1929 0.6035
0.8086 1.2226 0.6036
0.7642 1.2507 0.6038
0.7188 1.2772 0.6039
0.6725 1.3021 0.6040
0.6254 1.3253 0.6041
0.5774 1.3468 0.6042
0.5287 1.3666 0.6043
0.4793 1.3847 0.6045
0.4293 1.4009 0.6046
0.3788 1.4154 0.6047
0.3278 1.4280 0.6048
0.2764 1.4388 0.6049
0.2246 1.4478 0.6050
0.1725 1.4549 0.6051
0.1202 1.4602 0.6052
0.0677 1.4636 0.6053
0.0152 1.4651 0.6053
-0.0374 1.4648 0.6054
-0.0899 1.4625 0.6055
-0.1423 1.4584 0.6056
-0.1946 1.4524 0.6057
-0.2466 1.4446 0.6057
