ply
format ascii 1.0
element vertex 2182
property float32 x
property float32 y
property float32 z
end_header
-1.5386 -6.4584 1.7264
-1.3064 -6.5132 1.7264
-1.0722 -6.5596 1.7264
-0.8364 -6.5975 1.7264
-0.5992 -6.6271 1.7264
-0.3610 -6.6481 1.7264
-0.1221 -6.6606 1.7264
0.1173 -6.6645 1.7264
0.3567 -6.6598 1.7264
0.5960 -6.6466 1.7264
0.8348 -6.6247 1.7264
1.0727 -6.5942 1.7264
1.3095 -6.5552 1.7264
1.5449 -6.5076 1.7264
1.7786 -6.4516 1.7264
2.0102 -6.3871 1.7264
2.2394 -6.3143 1.7264
2.4660 -6.2333 1.7264
2.6876 -6.1393 1.7250
2.9100 -6.0468 1.7264
3.1268 -5.9415 1.7264
3.3313 -5.8136 1.7220
3.5487 -5.7077 1.7264
3.7531 -5.5795 1.7264
3.9529 -5.4438 1.7264
4.1477 -5.3009 1.7264
4.3373 -5.1510 1.7264
4.5214 -4.9943 1.7264
4.6997 -4.8310 1.7264
4.8721 -4.6612 1.7264
5.0383 -4.4851 1.7264
5.1282 -4.2453 1.7032
5.1101 -3.9300 1.6486
5.1691 -3.6880 1.6233
5.3000 -3.5013 1.6233
5.4240 -3.3100 1.6233
5.5410 -3.1142 1.6233
2.2273 -1.1487 0.6398
2.2671 -1.0680 0.6397
2.3040 -0.9860 0.6395
2.3379 -0.9027 0.6394
2.3688 -0.8182 0.6392
2.3966 -0.7327 0.6391
2.4212 -0.6462 0.6389
2.4427 -0.5589 0.6388
2.4610 -0.4709 0.6386
2.4761 -0.3823 0.6385
2.4880 -0.2932 0.6384
2.4966 -0.2037 0.6383
2.5020 -0.1140 0.6382
2.5042 -0.0241 0.6380
2.5030 0.0657 0.6379
2.4987 0.1554 0.6378
2.4910 0.2449 0.6377
2.4802 0.3341 0.6377
2.4661 0.4228 0.6376
2.4488 0.5109 0.6375
2.4284 0.5983 0.6374
2.4048 0.6848 0.6374
2.3781 0.7705 0.6373
2.3483 0.8551 0.6372
2.3155 0.9385 0.6372
3.9516 -4.7178 1.7264
4.1201 -4.5749 1.7264
4.2833 -4.4259 1.7264
4.4411 -4.2710 1.7264
4.5933 -4.1104 1.7264
4.7395 -3.9444 1.7264
4.8797 -3.7731 1.7264
5.0137 -3.5968 1.7264
5.0782 -3.3739 1.7052
5.0629 -3.1078 1.6610
2.0394 -1.1532 0.6549
2.0329 -1.0552 0.6400
2.0693 -0.9815 0.6399
2.1033 -0.9066 0.6397
2.1345 -0.8306 0.6396
2.1629 -0.7535 0.6394
2.1884 -0.6754 0.6393
2.2112 -0.5964 0.6392
2.2311 -0.5167 0.6391
2.2480 -0.4363 0.6389
2.2621 -0.3554 0.6388
2.2732 -0.2740 0.6387
2.2813 -0.1922 0.6386
2.2865 -0.1103 0.6385
2.2887 -0.0282 0.6384
2.2879 0.0540 0.6383
2.2842 0.1360 0.6382
2.2775 0.2178 0.6381
2.2678 0.2993 0.6380
2.2552 0.3804 0.6379
2.2396 0.4609 0.6379
2.2212 0.5409 0.6378
2.1999 0.6201 0.6377
2.1757 0.6984 0.6377
2.1488 0.7759 0.6376
2.1190 0.8522 0.6376
2.0866 0.9275 0.6375
2.0514 1.0015 0.6375
2.0136 1.0741 0.6375
1.9732 1.1454 0.6375
1.9303 1.2151 0.6374
1.8849 1.2832 0.6374
1.8726 1.3756 0.6497
1.8659 1.4767 0.6656
1.8589 1.5829 0.6832
1.8516 1.6949 0.7026
1.8438 1.8136 0.7242
1.8355 1.9398 0.7480
1.8267 2.0748 0.7746
1.8171 2.2198 0.8042
1.8069 2.3763 0.8372
3.5462 5.0287 1.7264
3.3620 5.1505 1.7264
3.1736 5.2655 1.7264
2.9812 5.3736 1.7264
2.7851 5.4746 1.7264
0.8921 1.9212 0.5956
0.8225 1.9518 0.5959
0.7519 1.9800 0.5961
0.6803 2.0056 0.5964
0.6078 2.0287 0.5967
0.5346 2.0491 0.5970
0.4607 2.0669 0.5973
0.3861 2.0821 0.5976
0.3111 2.0946 0.5979
0.2357 2.1044 0.5982
0.1600 2.1116 0.5985
0.0841 2.1160 0.5988
0.0081 2.1177 0.5992
-0.0680 2.1167 0.5995
-0.1440 2.1129 0.5998
-0.2198 2.1065 0.6002
-0.2953 2.0973 0.6005
-0.3704 2.0855 0.6009
-0.4451 2.0710 0.6012
-0.5193 2.0538 0.6016
-0.5928 2.0339 0.6019
-0.6655 2.0115 0.6023
-0.7374 1.9865 0.6026
-0.8083 1.9589 0.6030
-0.8783 1.9288 0.6034
-2.7083 5.4222 1.7264
-2.9000 5.3188 1.7264
-3.0878 5.2088 1.7264
-3.2714 5.0921 1.7264
-3.4209 4.9260 1.7114
-3.4118 4.5544 1.6246
-3.5684 4.4229 1.6231
-3.7235 4.2901 1.6231
-3.8737 4.1518 1.6231
-4.0188 4.0083 1.6231
-4.1587 3.8598 1.6231
-4.2932 3.7065 1.6231
-4.4221 3.5486 1.6231
-4.5452 3.3862 1.6231
-4.6625 3.2196 1.6231
-4.7737 3.0490 1.6231
-4.8788 2.8746 1.6231
-4.9776 2.6966 1.6231
-5.0700 2.5153 1.6231
-5.1559 2.3309 1.6231
-5.2352 2.1435 1.6231
-5.2513 1.9328 1.6058
-5.3174 1.7428 1.6062
-5.3757 1.5502 1.6062
-5.4271 1.3558 1.6062
-3.5534 0.7531 1.0431
-5.5672 0.9722 1.6231
-5.5980 0.7713 1.6231
-5.6217 0.5695 1.6231
-5.6382 0.3671 1.6231
-5.6475 0.1641 1.6231
-5.6496 -0.0390 1.6231
-5.6445 -0.2421 1.6231
-5.6322 -0.4449 1.6231
-5.6128 -0.6471 1.6231
-5.5862 -0.8485 1.6231
-5.5524 -1.0489 1.6231
-5.5116 -1.2479 1.6231
-5.4638 -1.4454 1.6231
-5.4090 -1.6411 1.6231
-5.3472 -1.8348 1.6231
-5.2787 -2.0261 1.6231
-5.2034 -2.2150 1.6231
-5.1214 -2.4011 1.6231
-5.0328 -2.5842 1.6231
-4.9378 -2.7641 1.6231
-4.8365 -2.9405 1.6231
-4.7289 -3.1133 1.6231
-4.6153 -3.2822 1.6231
-4.4956 -3.4470 1.6231
-4.3702 -3.6074 1.6231
-4.2391 -3.7634 1.6231
-4.1025 -3.9147 1.6231
-3.9606 -4.0611 1.6231
-3.8135 -4.2023 1.6231
-3.6614 -4.3383 1.6231
-3.5045 -4.4689 1.6231
-3.3430 -4.5938 1.6231
-3.1771 -4.7130 1.6231
-3.0070 -4.8262 1.6231
-2.8920 -5.0362 1.6569
-2.8239 -5.3544 1.7264
-2.6309 -5.4550 1.7264
-2.4344 -5.5486 1.7264
-2.2345 -5.6352 1.7264
-2.0316 -5.7146 1.7264
-1.8259 -5.7868 1.7264
-1.6177 -5.8516 1.7264
-1.4072 -5.9089 1.7264
-1.1946 -5.9587 1.7264
-0.9803 -6.0009 1.7264
-0.7645 -6.0354 1.7264
-0.5475 -6.0621 1.7264
-0.3296 -6.0811 1.7264
-0.1111 -6.0922 1.7264
0.1078 -6.0955 1.7264
0.3268 -6.0910 1.7264
0.5456 -6.0785 1.7264
0.7639 -6.0582 1.7264
0.9815 -6.0301 1.7264
1.1980 -5.9941 1.7264
1.4132 -5.9504 1.7264
1.6268 -5.8989 1.7264
1.8385 -5.8397 1.7264
2.0480 -5.7729 1.7264
2.2550 -5.6985 1.7264
2.4594 -5.6167 1.7264
2.6607 -5.5275 1.7264
2.8588 -5.4311 1.7264
3.0534 -5.3275 1.7264
3.2441 -5.2170 1.7264
3.4309 -5.0995 1.7264
3.6133 -4.9753 1.7264
3.7912 -4.8446 1.7264
3.9643 -4.7074 1.7264
4.1324 -4.5640 1.7264
4.2953 -4.4146 1.7264
4.4526 -4.2592 1.7264
4.6044 -4.0983 1.7264
4.7502 -3.9319 1.7264
4.8899 -3.7602 1.7264
5.0234 -3.5835 1.7264
5.0770 -3.3536 1.7018
5.0618 -3.0886 1.6579
2.0389 -1.1458 0.6537
2.0355 -1.0496 0.6400
2.0720 -0.9760 0.6398
2.1057 -0.9010 0.6397
2.1367 -0.8249 0.6396
2.1649 -0.7477 0.6394
2.1902 -0.6696 0.6393
2.2128 -0.5905 0.6392
2.2324 -0.5108 0.6390
2.2492 -0.4303 0.6389
2.2630 -0.3493 0.6388
2.2739 -0.2679 0.6387
2.2818 -0.1861 0.6386
2.2867 -0.1042 0.6385
2.2887 -0.0220 0.6384
2.2877 0.0601 0.6383
2.2838 0.1421 0.6382
2.2768 0.2239 0.6381
2.2669 0.3053 0.6380
2.2541 0.3864 0.6379
2.2384 0.4669 0.6379
2.2197 0.5468 0.6378
2.1982 0.6259 0.6377
2.1738 0.7042 0.6377
2.1467 0.7816 0.6376
2.1167 0.8579 0.6376
3.6351 -4.3393 1.7264
3.7900 -4.2077 1.7264
3.9400 -4.0705 1.7264
4.0850 -3.9280 1.7264
4.2248 -3.7802 1.7264
4.3592 -3.6274 1.7264
4.4880 -3.4698 1.7264
4.6111 -3.3076 1.7264
4.7282 -3.1410 1.7264
4.8392 -2.9702 1.7264
2.0394 -1.1531 0.7121
2.0329 -1.0551 0.6960
2.0267 -0.9612 0.6815
2.0208 -0.8710 0.6684
2.0150 -0.7840 0.6566
2.0094 -0.7000 0.6461
2.0130 -0.6212 0.6395
2.0339 -0.5486 0.6394
2.0522 -0.4752 0.6393
2.0678 -0.4013 0.6392
2.0807 -0.3268 0.6391
2.0909 -0.2520 0.6390
2.0984 -0.1768 0.6388
2.1032 -0.1014 0.6388
2.1053 -0.0259 0.6387
2.1046 0.0496 0.6386
2.1012 0.1251 0.6385
2.0950 0.2003 0.6384
2.0861 0.2753 0.6383
2.0746 0.3499 0.6383
2.0603 0.4240 0.6382
2.0434 0.4975 0.6381
2.0238 0.5704 0.6381
2.0017 0.6425 0.6380
1.9769 0.7137 0.6380
1.9496 0.7840 0.6379
1.9197 0.8532 0.6379
1.9020 0.9285 0.6428
1.8966 1.0116 0.6529
1.8909 1.0975 0.6643
1.8851 1.1865 0.6769
1.8790 1.2790 0.6910
1.8727 1.3755 0.7065
1.8660 1.4766 0.7238
1.8591 1.5828 0.7428
1.8517 1.6948 0.7640
1.8439 1.8134 0.7874
1.8356 1.9397 0.8133
1.8268 2.0746 0.8422
1.8173 2.2196 0.8743
1.8070 2.3761 0.9101
3.2623 4.6253 1.7264
3.0929 4.7375 1.7264
2.9197 4.8434 1.7264
2.7429 4.9430 1.7264
0.8846 1.7385 0.5960
0.8216 1.7690 0.5962
0.7575 1.7973 0.5964
0.6925 1.8232 0.5967
0.6266 1.8468 0.5969
0.5599 1.8680 0.5972
0.4924 1.8869 0.5974
0.4244 1.9033 0.5977
0.3557 1.9173 0.5980
0.2867 1.9288 0.5983
0.2172 1.9378 0.5985
0.1475 1.9443 0.5988
0.0776 1.9484 0.5991
0.0076 1.9500 0.5994
-0.0624 1.9490 0.5997
-0.1324 1.9455 0.6001
-0.2022 1.9396 0.6004
-0.2717 1.9312 0.6007
-0.3409 1.9202 0.6010
-0.4097 1.9068 0.6013
-0.4779 1.8910 0.6017
-0.5456 1.8727 0.6020
-0.6126 1.8521 0.6023
-0.6787 1.8290 0.6027
-0.7441 1.8036 0.6030
-0.8085 1.7758 0.6033
-0.8718 1.7458 0.6036
-2.6699 4.8978 1.7264
-2.8429 4.7966 1.7264
-3.0122 4.6894 1.7264
-3.1774 4.5762 1.7264
-3.3384 4.4572 1.7264
-3.3794 4.1893 1.6692
-3.4289 3.9512 1.6231
-3.5717 3.8286 1.6251
-3.7011 3.6920 1.6231
-3.8301 3.5553 1.6231
-3.9541 3.4142 1.6231
-4.0729 3.2688 1.6231
-4.1864 3.1193 1.6231
-4.2945 2.9659 1.6231
-4.3971 2.8088 1.6231
-4.4940 2.6482 1.6231
-4.5851 2.4843 1.6231
-4.6704 2.3173 1.6231
-4.7496 2.1474 1.6231
-4.8227 1.9749 1.6231
-4.8896 1.7999 1.6231
-4.9503 1.6226 1.6231
-5.0046 1.4434 1.6231
-5.0525 1.2623 1.6231
-3.5534 0.7532 1.1322
-5.1290 0.8958 1.6231
-5.1574 0.7107 1.6231
-5.1792 0.5248 1.6231
-5.1944 0.3382 1.6231
-5.2030 0.1512 1.6231
-5.2050 -0.0359 1.6231
-5.2003 -0.2231 1.6231
-5.1889 -0.4099 1.6231
-5.1710 -0.5962 1.6231
-5.1465 -0.7818 1.6231
-5.1154 -0.9664 1.6231
-5.0777 -1.1498 1.6231
-5.0336 -1.3317 1.6231
-4.9831 -1.5120 1.6231
-4.9261 -1.6904 1.6231
-4.8629 -1.8667 1.6231
-4.7935 -2.0407 1.6231
-4.7179 -2.2121 1.6231
-4.6362 -2.3808 1.6231
-4.5486 -2.5464 1.6231
-4.4552 -2.7089 1.6231
-4.3560 -2.8681 1.6231
-4.2512 -3.0236 1.6231
-4.1409 -3.1753 1.6231
-4.0253 -3.3231 1.6231
-3.9044 -3.4667 1.6231
-3.7785 -3.6060 1.6231
-3.6476 -3.7407 1.6231
-3.5121 -3.8707 1.6231
-3.3719 -3.9959 1.6231
-3.2273 -4.1160 1.6231
-3.0785 -4.2309 1.6231
-2.9354 -4.3551 1.6286
-2.9072 -4.6668 1.7042
-2.7743 -4.8322 1.7264
-2.6000 -4.9308 1.7264
-2.4222 -5.0233 1.7264
-2.2411 -5.1093 1.7264
-2.0570 -5.1888 1.7264
-1.8701 -5.2618 1.7264
-1.6807 -5.3280 1.7264
-1.4889 -5.3875 1.7264
-1.2950 -5.4401 1.7264
-1.0992 -5.4857 1.7264
-0.9019 -5.5243 1.7264
-0.7033 -5.5559 1.7264
-0.5035 -5.5803 1.7264
-0.3029 -5.5975 1.7264
-0.1017 -5.6076 1.7264
0.0998 -5.6104 1.7264
0.3013 -5.6060 1.7264
0.5027 -5.5943 1.7264
0.7036 -5.5754 1.7264
0.9038 -5.5493 1.7264
1.1030 -5.5160 1.7264
1.3010 -5.4755 1.7264
1.4974 -5.4279 1.7264
1.6922 -5.3732 1.7264
1.8849 -5.3115 1.7264
2.0753 -5.2429 1.7264
2.2632 -5.1675 1.7264
2.4484 -5.0852 1.7264
2.6305 -4.9964 1.7264
2.8094 -4.9009 1.7264
2.9848 -4.7990 1.7264
3.1564 -4.6908 1.7264
3.3241 -4.5764 1.7264
3.4877 -4.4560 1.7264
3.6468 -4.3297 1.7264
3.8013 -4.1977 1.7264
3.9509 -4.0601 1.7264
4.0956 -3.9172 1.7264
4.2350 -3.7690 1.7264
4.3690 -3.6159 1.7264
4.4974 -3.4579 1.7264
4.6200 -3.2953 1.7264
4.7366 -3.1284 1.7264
4.8472 -2.9573 1.7264
2.0390 -1.1457 0.7109
2.0325 -1.0480 0.6949
2.0263 -0.9544 0.6805
2.0203 -0.8644 0.6675
2.0146 -0.7777 0.6558
2.0090 -0.6938 0.6453
2.0146 -0.6158 0.6395
2.0353 -0.5431 0.6394
2.0534 -0.4697 0.6393
2.0688 -0.3958 0.6392
2.0816 -0.3213 0.6390
2.0916 -0.2464 0.6389
2.0989 -0.1712 0.6388
2.1035 -0.0958 0.6387
2.1053 -0.0203 0.6387
2.1044 0.0552 0.6386
2.1008 0.1307 0.6385
2.0945 0.2059 0.6384
2.0854 0.2809 0.6383
2.0736 0.3554 0.6383
2.0592 0.4295 0.6382
2.0420 0.5030 0.6381
2.0223 0.5758 0.6381
1.9999 0.6478 0.6380
1.9749 0.7190 0.6380
1.9474 0.7892 0.6379
3.3622 -4.0128 1.7264
3.5053 -3.8910 1.7264
3.6439 -3.7641 1.7264
3.7779 -3.6322 1.7264
3.9071 -3.4954 1.7264
4.0313 -3.3541 1.7264
4.1503 -3.2083 1.7264
4.2640 -3.0582 1.7264
4.3721 -2.9041 1.7264
4.4747 -2.7461 1.7264
2.0395 -1.1530 0.7702
2.0330 -1.0550 0.7528
2.0268 -0.9611 0.7371
2.0209 -0.8709 0.7229
2.0151 -0.7840 0.7102
2.0095 -0.6999 0.6988
2.0041 -0.6184 0.6887
1.9989 -0.5391 0.6797
1.9938 -0.4616 0.6718
1.9888 -0.3859 0.6649
1.9839 -0.3116 0.6590
1.9790 -0.2385 0.6541
1.9743 -0.1663 0.6501
1.9696 -0.0949 0.6470
1.9649 -0.0242 0.6447
1.9602 0.0462 0.6433
1.9556 0.1164 0.6428
1.9510 0.1865 0.6431
1.9463 0.2568 0.6442
1.9417 0.3275 0.6461
1.9370 0.3986 0.6490
1.9323 0.4704 0.6527
1.9275 0.5432 0.6573
1.9226 0.6171 0.6628
1.9177 0.6923 0.6693
1.9126 0.7691 0.6769
1.9074 0.8477 0.6855
1.9021 0.9284 0.6952
1.8967 1.0115 0.7062
1.8910 1.0974 0.7185
1.8852 1.1864 0.7321
1.8791 1.2789 0.7473
1.8728 1.3754 0.7641
1.8661 1.4765 0.7827
1.8592 1.5827 0.8033
1.8518 1.6947 0.8262
1.8440 1.8133 0.8515
1.8357 1.9395 0.8795
1.8269 2.0745 0.9107
1.8174 2.2194 0.9454
1.8071 2.3759 0.9841
3.0174 4.2774 1.7264
2.8609 4.3813 1.7264
2.7008 4.4794 1.7264
0.8763 1.5790 0.5963
0.8191 1.6093 0.5965
0.7607 1.6376 0.5967
0.7014 1.6637 0.5969
0.6412 1.6877 0.5971
0.5802 1.7096 0.5973
0.5184 1.7292 0.5976
0.4560 1.7466 0.5978
0.3930 1.7618 0.5981
0.3295 1.7748 0.5983
0.2655 1.7854 0.5986
0.2013 1.7938 0.5989
0.1367 1.7998 0.5991
0.0720 1.8036 0.5994
0.0072 1.8050 0.5997
-0.0576 1.8041 0.6000
-0.1224 1.8009 0.6003
-0.1870 1.7954 0.6006
-0.2513 1.7876 0.6009
-0.3154 1.7774 0.6011
-0.3790 1.7650 0.6014
-0.4422 1.7504 0.6018
-0.5048 1.7334 0.6021
-0.5668 1.7143 0.6024
-0.6281 1.6929 0.6027
-0.6885 1.6694 0.6030
-0.7481 1.6437 0.6033
-0.8068 1.6159 0.6036
-0.8644 1.5860 0.6039
-2.6313 4.4404 1.7264
-2.7880 4.3412 1.7264
-2.9411 4.2365 1.7264
-3.0902 4.1265 1.7264
-3.2353 4.0113 1.7264
-3.3617 3.8743 1.7189
-3.3455 3.5867 1.6442
-3.4264 3.4184 1.6231
-3.5459 3.2920 1.6231
-3.6608 3.1614 1.6231
-3.7709 3.0268 1.6231
-3.8761 2.8884 1.6231
-3.9763 2.7464 1.6231
-4.0714 2.6010 1.6231
-4.1612 2.4524 1.6231
-4.2456 2.3006 1.6231
-4.3246 2.1460 1.6231
-4.3980 1.9887 1.6231
-4.4658 1.8289 1.6231
-4.5279 1.6669 1.6231
-4.5841 1.5028 1.6231
-4.6345 1.3368 1.6231
-4.6789 1.1691 1.6231
-3.5535 0.7533 1.2227
-4.7497 0.8296 1.6231
-4.7761 0.6582 1.6231
-4.7963 0.4861 1.6231
-4.8104 0.3133 1.6231
-4.8184 0.1401 1.6231
-4.8202 -0.0333 1.6231
-4.8159 -0.2066 1.6231
-4.8054 -0.3796 1.6231
-4.7888 -0.5522 1.6231
-4.7660 -0.7240 1.6231
-4.7372 -0.8950 1.6231
-4.7023 -1.0649 1.6231
-4.6614 -1.2334 1.6231
-4.6146 -1.4003 1.6231
-4.5618 -1.5655 1.6231
-4.5032 -1.7288 1.6231
-4.4388 -1.8899 1.6231
-4.3688 -2.0486 1.6231
-4.2931 -2.2048 1.6231
-4.2119 -2.3582 1.6231
-4.1253 -2.5086 1.6231
-4.0334 -2.6560 1.6231
-3.9363 -2.7999 1.6231
-3.8341 -2.9404 1.6231
-3.7269 -3.0772 1.6231
-3.6149 -3.2101 1.6231
-3.4982 -3.3390 1.6231
-3.3770 -3.4636 1.6231
-3.2514 -3.5839 1.6231
-3.1215 -3.6997 1.6231
-2.9876 -3.8109 1.6231
-2.9334 -4.0322 1.6708
-2.8804 -4.2742 1.7264
-2.7259 -4.3766 1.7264
-2.5679 -4.4735 1.7264
-2.4064 -4.5647 1.7264
-2.2417 -4.6501 1.7264
-2.0741 -4.7296 1.7264
-1.9036 -4.8031 1.7264
-1.7305 -4.8705 1.7264
-1.5551 -4.9316 1.7264
-1.3775 -4.9865 1.7264
-1.1981 -5.0350 1.7264
-1.0169 -5.0771 1.7264
-0.8342 -5.1127 1.7264
-0.6503 -5.1417 1.7264
-0.4654 -5.1641 1.7264
-0.2798 -5.1799 1.7264
-0.0936 -5.1890 1.7264
0.0928 -5.1914 1.7264
0.2793 -5.1872 1.7264
0.4656 -5.1762 1.7264
0.6515 -5.1585 1.7264
0.8367 -5.1342 1.7264
1.0210 -5.1032 1.7264
1.2041 -5.0656 1.7264
1.3858 -5.0214 1.7264
1.5659 -4.9706 1.7264
1.7441 -4.9134 1.7264
1.9202 -4.8498 1.7264
2.0939 -4.7798 1.7264
2.2651 -4.7036 1.7264
2.4335 -4.6213 1.7264
2.5989 -4.5328 1.7264
2.7611 -4.4385 1.7264
2.9197 -4.3383 1.7264
3.0747 -4.2324 1.7264
3.2259 -4.1209 1.7264
3.3729 -4.0040 1.7264
3.5157 -3.8818 1.7264
3.6540 -3.7545 1.7264
3.7877 -3.6222 1.7264
3.9165 -3.4851 1.7264
4.0403 -3.3434 1.7264
4.1589 -3.1973 1.7264
4.2722 -3.0469 1.7264
4.3800 -2.8925 1.7264
4.4821 -2.7342 1.7264
2.0390 -1.1456 0.7688
2.0326 -1.0479 0.7516
2.0264 -0.9543 0.7360
2.0204 -0.8643 0.7219
2.0147 -0.7776 0.7093
2.0091 -0.6938 0.6980
2.0037 -0.6124 0.6879
1.9985 -0.5332 0.6790
1.9934 -0.4560 0.6712
1.9884 -0.3803 0.6644
1.9835 -0.3061 0.6586
1.9787 -0.2331 0.6538
1.9739 -0.1610 0.6498
1.9692 -0.0897 0.6468
1.9645 -0.0189 0.6446
1.9599 0.0515 0.6433
1.9553 0.1216 0.6428
1.9506 0.1918 0.6431
1.9460 0.2621 0.6443
1.9413 0.3327 0.6463
1.9366 0.4039 0.6492
1.9319 0.4758 0.6530
1.9271 0.5487 0.6577
1.9223 0.6226 0.6633
1.9173 0.6979 0.6699
1.9122 0.7749 0.6775
3.1241 -3.7281 1.7264
3.2570 -3.6149 1.7264
3.3857 -3.4969 1.7264
3.5101 -3.3742 1.7264
3.6301 -3.2472 1.7264
3.7453 -3.1158 1.7264
3.8558 -2.9803 1.7264
3.9613 -2.8408 1.7264
4.0618 -2.6976 1.7264
4.1570 -2.5508 1.7264
2.0396 -1.1530 0.8291
2.0331 -1.0549 0.8104
2.0269 -0.9610 0.7935
2.0209 -0.8709 0.7783
2.0152 -0.7839 0.7646
2.0096 -0.6999 0.7523
2.0042 -0.6183 0.7414
1.9990 -0.5390 0.7317
1.9939 -0.4616 0.7232
1.9888 -0.3859 0.7159
1.9839 -0.3116 0.7095
1.9791 -0.2384 0.7042
1.9743 -0.1663 0.6999
1.9696 -0.0949 0.6966
1.9650 -0.0241 0.6942
1.9603 0.0462 0.6926
1.9557 0.1164 0.6920
1.9511 0.1865 0.6923
1.9464 0.2568 0.6935
1.9418 0.3275 0.6957
1.9371 0.3986 0.6987
1.9323 0.4704 0.7027
1.9276 0.5432 0.7076
1.9227 0.6171 0.7136
1.9177 0.6923 0.7206
1.9127 0.7690 0.7287
1.9075 0.8476 0.7380
1.9022 0.9284 0.7485
1.8968 1.0115 0.7603
1.8911 1.0974 0.7734
1.8853 1.1863 0.7881
1.8792 1.2788 0.8045
1.8729 1.3754 0.8225
1.8662 1.4764 0.8426
1.8593 1.5825 0.8648
1.8519 1.6945 0.8893
1.8441 1.8132 0.9165
1.8359 1.9394 0.9467
1.8270 2.0743 0.9802
1.8175 2.2192 1.0175
1.8073 2.3757 1.0592
2.8038 3.9740 1.7264
2.6585 4.0706 1.7264
0.8673 1.4381 0.5965
0.8150 1.4682 0.5967
0.7618 1.4964 0.5969
0.7075 1.5227 0.5971
0.6524 1.5470 0.5973
0.5964 1.5693 0.5975
0.5397 1.5896 0.5977
0.4822 1.6079 0.5979
0.4242 1.6241 0.5982
0.3656 1.6382 0.5984
0.3065 1.6503 0.5986
0.2471 1.6602 0.5989
0.1873 1.6679 0.5991
0.1273 1.6736 0.5994
0.0671 1.6770 0.5996
0.0069 1.6784 0.5999
-0.0534 1.6775 0.6002
-0.1136 1.6745 0.6004
-0.1737 1.6694 0.6007
-0.2335 1.6621 0.6010
-0.2931 1.6527 0.6013
-0.3523 1.6411 0.6015
-0.4110 1.6275 0.6018
-0.4692 1.6117 0.6021
-0.5269 1.5939 0.6024
-0.5838 1.5740 0.6027
-0.6400 1.5521 0.6030
-0.6954 1.5282 0.6032
-0.7499 1.5024 0.6035
-0.8035 1.4746 0.6038
-0.8560 1.4448 0.6041
-2.5921 4.0370 1.7264
-2.7345 3.9397 1.7264
-2.8733 3.8375 1.7264
-3.0083 3.7305 1.7264
-3.1394 3.6187 1.7264
-3.2663 3.5023 1.7264
-3.3306 3.3233 1.6966
-3.3222 3.0847 1.6353
-3.4044 2.9403 1.6231
-3.5141 2.8210 1.6264
-3.6048 2.6866 1.6231
-3.6981 2.5546 1.6231
-3.7865 2.4194 1.6231
-3.8701 2.2811 1.6231
-3.9488 2.1400 1.6231
-4.0223 1.9962 1.6231
-4.0906 1.8499 1.6231
-4.1537 1.7013 1.6231
-4.2115 1.5506 1.6231
-4.2639 1.3979 1.6231
-4.3107 1.2435 1.6231
-4.3521 1.0876 1.6231
-3.5536 0.7534 1.3145
-4.4181 0.7718 1.6231
-4.4426 0.6124 1.6231
-4.4615 0.4522 1.6231
-4.4746 0.2914 1.6231
-4.4820 0.1303 1.6231
-4.4837 -0.0309 1.6231
-4.4797 -0.1922 1.6231
-4.4699 -0.3531 1.6231
-4.4545 -0.5137 1.6231
-4.4333 -0.6736 1.6231
-4.4065 -0.8326 1.6231
-4.3740 -0.9906 1.6231
-4.3359 -1.1473 1.6231
-4.2923 -1.3027 1.6231
-4.2432 -1.4563 1.6231
-4.1886 -1.6082 1.6231
-4.1287 -1.7580 1.6231
-4.0635 -1.9057 1.6231
-3.9931 -2.0509 1.6231
-3.9175 -2.1936 1.6231
-3.8369 -2.3335 1.6231
-3.7513 -2.4705 1.6231
-3.6609 -2.6044 1.6231
-3.5658 -2.7350 1.6231
-3.4661 -2.8621 1.6231
-3.3618 -2.9857 1.6231
-3.2533 -3.1055 1.6231
-3.1404 -3.2214 1.6231
-3.0235 -3.3333 1.6231
-2.9552 -3.5031 1.6525
-2.9447 -3.7568 1.7205
-2.8183 -3.8747 1.7264
-2.6782 -3.9749 1.7264
-2.5345 -4.0700 1.7264
-2.3875 -4.1600 1.7264
-2.2373 -4.2447 1.7264
-2.0841 -4.3240 1.7264
-1.9281 -4.3978 1.7264
-1.7696 -4.4661 1.7264
-1.6086 -4.5286 1.7264
-1.4455 -4.5853 1.7264
-1.2590 -4.5591 1.6976
-1.0952 -4.6045 1.6981
-0.9294 -4.6429 1.6981
-0.7624 -4.6753 1.6981
-0.5942 -4.7017 1.6981
-0.4250 -4.7208 1.6976
-0.2596 -4.8152 1.7264
-0.0866 -4.8235 1.7264
0.0868 -4.8256 1.7264
0.2601 -4.8215 1.7264
0.4333 -4.8112 1.7264
0.6060 -4.7946 1.7264
0.7781 -4.7719 1.7264
0.9494 -4.7429 1.7264
1.1195 -4.7078 1.7264
1.2884 -4.6666 1.7264
1.4557 -4.6193 1.7264
1.6213 -4.5660 1.7264
1.7849 -4.5068 1.7264
1.9463 -4.4416 1.7264
2.1053 -4.3707 1.7264
2.2617 -4.2940 1.7264
2.4153 -4.2118 1.7264
2.5659 -4.1240 1.7264
2.7133 -4.0308 1.7264
2.8572 -3.9323 1.7264
2.9976 -3.8286 1.7264
3.1341 -3.7199 1.7264
3.2667 -3.6063 1.7264
3.3951 -3.4879 1.7264
3.5192 -3.3649 1.7264
3.6388 -3.2375 1.7264
3.7537 -3.1058 1.7264
3.8638 -2.9700 1.7264
3.9690 -2.8303 1.7264
4.0690 -2.6868 1.7264
4.1638 -2.5398 1.7264
2.0391 -1.1455 0.8277
2.0327 -1.0478 0.8091
2.0265 -0.9542 0.7923
2.0205 -0.8643 0.7772
2.0148 -0.7776 0.7636
2.0092 -0.6937 0.7515
2.0038 -0.6124 0.7406
1.9986 -0.5332 0.7311
1.9935 -0.4559 0.7227
1.9885 -0.3803 0.7154
1.9836 -0.3061 0.7091
1.9788 -0.2330 0.7039
1.9740 -0.1610 0.6997
1.9693 -0.0896 0.6964
1.9646 -0.0189 0.6940
1.9600 0.0515 0.6926
1.9553 0.1216 0.6920
1.9507 0.1918 0.6924
1.9461 0.2621 0.6937
1.9414 0.3327 0.6959
1.9367 0.4039 0.6990
1.9320 0.4758 0.7030
1.9272 0.5486 0.7081
1.9223 0.6226 0.7141
1.9174 0.6979 0.7212
1.9123 0.7748 0.7294
2.9145 -3.4774 1.7264
3.0383 -3.3717 1.7264
3.1583 -3.2616 1.7264
3.2743 -3.1471 1.7264
3.3861 -3.0285 1.7264
3.4936 -2.9059 1.7264
3.5966 -2.7795 1.7264
3.6949 -2.6494 1.7264
3.7885 -2.5158 1.7264
3.8772 -2.3789 1.7264
2.0397 -1.1529 0.8890
2.0332 -1.0548 0.8689
2.0270 -0.9610 0.8508
2.0210 -0.8708 0.8345
2.0153 -0.7839 0.8198
2.0097 -0.6998 0.8067
2.0043 -0.6183 0.7950
1.9991 -0.5390 0.7846
1.9939 -0.4616 0.7755
1.9889 -0.3858 0.7676
1.9840 -0.3115 0.7609
1.9792 -0.2384 0.7552
1.9744 -0.1663 0.7506
1.9697 -0.0949 0.7470
1.9650 -0.0241 0.7444
1.9604 0.0462 0.7427
1.9558 0.1164 0.7421
1.9511 0.1865 0.7424
1.9465 0.2568 0.7437
1.9419 0.3274 0.7460
1.9372 0.3986 0.7492
1.9324 0.4704 0.7535
1.9276 0.5432 0.7588
1.9228 0.6170 0.7652
1.9178 0.6922 0.7727
1.9128 0.7690 0.7814
1.9076 0.8476 0.7913
1.9023 0.9283 0.8026
1.8968 1.0114 0.8152
1.8912 1.0973 0.8293
1.8854 1.1863 0.8451
1.8793 1.2788 0.8625
1.8730 1.3753 0.8819
1.8663 1.4763 0.9034
1.8594 1.5824 0.9271
1.8520 1.6944 0.9535
1.8443 1.8130 0.9826
1.8360 1.9393 1.0149
1.8271 2.0742 1.0508
1.8176 2.2191 1.0908
1.8074 2.3755 1.1355
0.9040 1.2811 0.5967
0.8574 1.3126 0.5968
0.8097 1.3424 0.5970
0.7609 1.3705 0.5971
0.7112 1.3968 0.5973
0.6606 1.4214 0.5975
0.6091 1.4441 0.5977
0.5569 1.4649 0.5979
0.5039 1.4839 0.5981
0.4503 1.5009 0.5983
0.3961 1.5160 0.5985
0.3414 1.5292 0.5987
0.2863 1.5404 0.5989
0.2308 1.5497 0.5991
0.1750 1.5569 0.5994
0.1190 1.5622 0.5996
0.0628 1.5654 0.5999
0.0066 1.5666 0.6001
-0.0497 1.5659 0.6003
-0.1059 1.5631 0.6006
-0.1620 1.5583 0.6008
-0.2178 1.5515 0.6011
-0.2734 1.5427 0.6014
-0.3287 1.5319 0.6016
-0.3835 1.5191 0.6019
-0.4378 1.5044 0.6021
-0.4916 1.4878 0.6024
-0.5448 1.4692 0.6027
-0.5972 1.4488 0.6029
-0.6489 1.4264 0.6032
-0.6998 1.4023 0.6035
-0.7498 1.3763 0.6037
-0.7988 1.3486 0.6040
-0.8468 1.3191 0.6043
-0.8937 1.2879 0.6045
-2.6819 3.5825 1.7264
-2.8080 3.4827 1.7264
-2.9304 3.3784 1.7264
-3.0490 3.2698 1.7264
-3.1636 3.1571 1.7264
-3.2741 3.0404 1.7264
-3.3042 2.8542 1.6875
-3.2978 2.6477 1.6350
-3.3654 2.5085 1.6231
-3.4525 2.3853 1.6231
-3.5352 2.2590 1.6231
-3.6133 2.1300 1.6231
-3.6867 1.9982 1.6231
-3.7554 1.8640 1.6231
-3.8193 1.7274 1.6231
-3.8783 1.5887 1.6231
-3.9322 1.4479 1.6231
-3.9812 1.3054 1.6231
-4.0250 1.1612 1.6231
-4.0636 1.0156 1.6231
-3.5536 0.7535 1.4078
-4.1253 0.7207 1.6231
-4.1482 0.5719 1.6231
-4.1659 0.4223 1.6231
-4.1781 0.2722 1.6231
-4.1851 0.1217 1.6231
-4.1867 -0.0289 1.6231
-4.1829 -0.1794 1.6231
-4.1738 -0.3298 1.6231
-4.1593 -0.4797 1.6231
-4.1396 -0.6290 1.6231
-4.1145 -0.7775 1.6231
-4.0841 -0.9250 1.6231
-4.0486 -1.0714 1.6231
-4.0078 -1.2164 1.6231
-3.9619 -1.3599 1.6231
-3.9110 -1.5017 1.6231
-3.8550 -1.6416 1.6231
-3.7940 -1.7795 1.6231
-3.7282 -1.9151 1.6231
-3.6576 -2.0483 1.6231
-3.5823 -2.1789 1.6231
-3.5023 -2.3068 1.6231
-3.4179 -2.4318 1.6231
-3.3290 -2.5537 1.6231
-3.2359 -2.6724 1.6231
-3.1385 -2.7877 1.6231
-3.0371 -2.8995 1.6231
-2.9767 -3.0539 1.6480
-2.9648 -3.2690 1.7050
-2.8820 -3.4168 1.7264
-2.7581 -3.5193 1.7264
-2.6307 -3.6173 1.7264
-2.4998 -3.7108 1.7264
-2.3656 -3.7995 1.7264
-2.2283 -3.8834 1.7264
-2.0881 -3.9624 1.7264
-1.9450 -4.0364 1.7264
-1.7994 -4.1052 1.7264
-1.6513 -4.1688 1.7264
-1.4761 -4.1567 1.6976
-1.3266 -4.2098 1.6981
-1.1750 -4.2564 1.6981
-1.0217 -4.2976 1.6981
-0.8670 -4.3333 1.6981
-0.7111 -4.3634 1.6981
-0.5541 -4.3879 1.6981
-0.3963 -4.4068 1.6981
-0.2379 -4.4201 1.6981
-0.0803 -4.5013 1.7264
0.0814 -4.5032 1.7264
0.2432 -4.4992 1.7264
0.4047 -4.4895 1.7264
0.5659 -4.4739 1.7264
0.7265 -4.4525 1.7264
0.8863 -4.4254 1.7264
1.0450 -4.3925 1.7264
1.2025 -4.3540 1.7264
1.3586 -4.3098 1.7264
1.5130 -4.2599 1.7264
1.6656 -4.2045 1.7264
1.8162 -4.1437 1.7264
1.9645 -4.0774 1.7264
2.1103 -4.0058 1.7264
2.2536 -3.9289 1.7264
2.3940 -3.8469 1.7264
2.5314 -3.7599 1.7264
2.6656 -3.6680 1.7264
2.7965 -3.5712 1.7264
2.9238 -3.4697 1.7264
3.0474 -3.3637 1.7264
3.1671 -3.2532 1.7264
3.2828 -3.1384 1.7264
3.3943 -3.0195 1.7264
3.5014 -2.8967 1.7264
3.6040 -2.7700 1.7264
3.7020 -2.6396 1.7264
3.7953 -2.5057 1.7264
3.8836 -2.3686 1.7264
2.0392 -1.1454 0.8874
2.0327 -1.0477 0.8675
2.0265 -0.9541 0.8495
2.0206 -0.8642 0.8333
2.0148 -0.7775 0.8188
2.0093 -0.6937 0.8058
2.0039 -0.6123 0.7942
1.9987 -0.5332 0.7839
1.9936 -0.4559 0.7749
1.9886 -0.3803 0.7671
1.9837 -0.3061 0.7604
1.9788 -0.2330 0.7548
1.9741 -0.1609 0.7503
1.9694 -0.0896 0.7467
1.9647 -0.0189 0.7442
1.9600 0.0515 0.7427
1.9554 0.1216 0.7421
1.9508 0.1918 0.7425
1.9462 0.2621 0.7438
1.9415 0.3327 0.7462
1.9368 0.4039 0.7495
1.9321 0.4758 0.7539
1.9273 0.5486 0.7593
1.9224 0.6226 0.7657
1.9175 0.6979 0.7733
1.9124 0.7748 0.7821
2.7282 -3.2547 1.7264
2.8441 -3.1557 1.7264
2.9564 -3.0526 1.7264
3.0649 -2.9454 1.7264
3.1695 -2.8344 1.7264
3.2700 -2.7196 1.7264
3.3663 -2.6012 1.7264
3.4583 -2.4794 1.7264
3.5459 -2.3544 1.7264
3.6289 -2.2262 1.7264
2.0398 -1.1528 0.9499
2.0333 -1.0548 0.9285
2.0271 -0.9609 0.9091
2.0211 -0.8707 0.8917
2.0154 -0.7838 0.8760
2.0098 -0.6998 0.8620
2.0044 -0.6182 0.8495
1.9991 -0.5389 0.8385
1.9940 -0.4615 0.8287
1.9890 -0.3858 0.8203
1.9841 -0.3115 0.8131
1.9793 -0.2384 0.8070
1.9745 -0.1663 0.8021
1.9698 -0.0949 0.7982
1.9651 -0.0241 0.7955
1.9605 0.0462 0.7937
1.9558 0.1164 0.7930
1.9512 0.1865 0.7934
1.9466 0.2568 0.7947
1.9419 0.3274 0.7972
1.9372 0.3986 0.8006
1.9325 0.4704 0.8052
1.9277 0.5431 0.8109
1.9229 0.6170 0.8177
1.9179 0.6922 0.8257
1.9129 0.7690 0.8350
1.9077 0.8476 0.8456
1.9024 0.9283 0.8576
1.8969 1.0114 0.8711
1.8913 1.0972 0.8862
1.8855 1.1862 0.9030
1.8794 1.2787 0.9216
1.8731 1.3752 0.9423
1.8664 1.4762 0.9652
1.8595 1.5823 0.9906
1.8521 1.6943 1.0187
1.8444 1.8129 1.0498
1.8361 1.9391 1.0843
1.8273 2.0740 1.1227
1.8178 2.2189 1.1654
0.8894 1.1688 0.5969
0.8468 1.1999 0.5970
0.8032 1.2294 0.5972
0.7585 1.2573 0.5973
0.7128 1.2836 0.5975
0.6663 1.3083 0.5976
0.6188 1.3312 0.5978
0.5706 1.3525 0.5980
0.5217 1.3720 0.5982
0.4721 1.3898 0.5984
0.4219 1.4057 0.5986
0.3711 1.4199 0.5987
0.3199 1.4323 0.5990
0.2683 1.4428 0.5992
0.2163 1.4514 0.5994
0.1641 1.4582 0.5996
0.1116 1.4631 0.5998
0.0590 1.4661 0.6000
0.0063 1.4673 0.6003
-0.0464 1.4666 0.6005
-0.0990 1.4639 0.6007
-0.1515 1.4594 0.6010
-0.2039 1.4530 0.6012
-0.2559 1.4448 0.6015
-0.3077 1.4347 0.6017
-0.3590 1.4227 0.6019
-0.4099 1.4090 0.6022
-0.4603 1.3934 0.6024
-0.5100 1.3760 0.6027
-0.5592 1.3568 0.6029
-0.6076 1.3359 0.6032
-0.6552 1.3133 0.6034
-0.7020 1.2889 0.6037
-0.7479 1.2629 0.6039
-0.7929 1.2353 0.6042
-0.8368 1.2061 0.6044
-0.8797 1.1753 0.6046
-2.6298 3.2622 1.7264
-2.7445 3.1646 1.7264
-2.8557 3.0629 1.7264
-2.9631 2.9574 1.7264
-3.0666 2.8482 1.7264
-3.1661 2.7353 1.7264
-3.2616 2.6190 1.7264
-3.2813 2.4461 1.6895
-3.2714 2.2605 1.6419
-3.3114 2.1163 1.6231
-3.3847 1.9954 1.6231
-3.4608 1.8760 1.6265
-3.5179 1.7463 1.6231
-3.5778 1.6184 1.6231
-3.6331 1.4884 1.6231
-3.6837 1.3566 1.6231
-3.7295 1.2230 1.6231
-3.7706 1.0880 1.6231
-3.8069 0.9515 1.6231
-3.5537 0.7536 1.5028
-3.8647 0.6753 1.6231
-3.8862 0.5358 1.6231
-3.9027 0.3957 1.6231
-3.9142 0.2550 1.6231
-3.9207 0.1141 1.6231
-3.9222 -0.0270 1.6231
-3.9187 -0.1681 1.6231
-3.9102 -0.3089 1.6231
-3.8966 -0.4494 1.6231
-3.8781 -0.5893 1.6231
-3.8546 -0.7284 1.6231
-3.8261 -0.8667 1.6231
-3.7928 -1.0038 1.6231
-3.7546 -1.1397 1.6231
-3.7116 -1.2741 1.6231
-3.6638 -1.4069 1.6231
-3.6113 -1.5380 1.6231
-3.5542 -1.6671 1.6231
-3.4925 -1.7942 1.6231
-3.4263 -1.9189 1.6231
-3.3557 -2.0413 1.6231
-3.2808 -2.1611 1.6231
-3.2016 -2.2781 1.6231
-3.1183 -2.3923 1.6231
-3.0310 -2.5035 1.6231
-2.9982 -2.6635 1.6554
-2.9878 -2.8529 1.7048
-2.9206 -2.9967 1.7264
-2.8117 -3.1006 1.7264
-2.6992 -3.2006 1.7264
-2.5832 -3.2966 1.7264
-2.4638 -3.3884 1.7264
-2.3411 -3.4758 1.7264
-2.2154 -3.5589 1.7264
-2.0867 -3.6374 1.7264
-1.9553 -3.7113 1.7264
-1.8213 -3.7805 1.7264
-1.6849 -3.8449 1.7264
-1.5462 -3.9044 1.7264
-1.3824 -3.8940 1.6981
-1.2420 -3.9426 1.6981
-1.1000 -3.9862 1.6981
-0.9564 -4.0247 1.6981
-0.8115 -4.0580 1.6981
-0.6655 -4.0861 1.6981
-0.5185 -4.1090 1.6981
-0.3707 -4.1266 1.6981
-0.2223 -4.1389 1.6981
-0.0736 -4.1447 1.6976
0.0766 -4.2165 1.7264
0.2281 -4.2127 1.7264
0.3794 -4.2035 1.7264
0.5303 -4.1888 1.7264
0.6806 -4.1687 1.7264
0.8302 -4.1432 1.7264
0.9788 -4.1124 1.7264
1.1262 -4.0762 1.7264
1.2723 -4.0347 1.7264
1.4168 -3.9879 1.7264
1.5597 -3.9360 1.7264
1.7006 -3.8789 1.7264
1.8393 -3.8168 1.7264
1.9759 -3.7497 1.7264
2.1099 -3.6777 1.7264
2.2413 -3.6008 1.7264
2.3699 -3.5193 1.7264
2.4955 -3.4332 1.7264
2.6179 -3.3425 1.7264
2.7370 -3.2475 1.7264
2.8526 -3.1482 1.7264
2.9646 -3.0447 1.7264
3.0728 -2.9373 1.7264
3.1771 -2.8260 1.7264
3.2773 -2.7109 1.7264
3.3733 -2.5923 1.7264
3.4650 -2.4703 1.7264
3.5522 -2.3450 1.7264
3.6348 -2.2166 1.7264
2.0393 -1.1453 0.9482
2.0328 -1.0476 0.9270
2.0266 -0.9541 0.9078
2.0207 -0.8642 0.8905
2.0149 -0.7775 0.8749
2.0094 -0.6936 0.8610
2.0040 -0.6123 0.8486
1.9988 -0.5331 0.8377
1.9936 -0.4559 0.8281
1.9886 -0.3802 0.8197
1.9837 -0.3060 0.8126
1.9789 -0.2330 0.8066
1.9741 -0.1609 0.8017
1.9694 -0.0896 0.7980
1.9648 -0.0189 0.7953
1.9601 0.0515 0.7936
1.9555 0.1216 0.7930
1.9509 0.1918 0.7934
1.9462 0.2621 0.7949
1.9416 0.3327 0.7974
1.9369 0.4039 0.8009
1.9322 0.4758 0.8056
1.9274 0.5486 0.8113
1.9225 0.6225 0.8183
1.9176 0.6978 0.8264
1.9125 0.7747 0.8357
2.5616 -3.0554 1.7264
2.6703 -2.9624 1.7264
2.7757 -2.8655 1.7264
2.8775 -2.7649 1.7264
2.9756 -2.6606 1.7264
3.0699 -2.5529 1.7264
3.1603 -2.4417 1.7264
3.2466 -2.3274 1.7264
3.3288 -2.2099 1.7264
3.4066 -2.0896 1.7264
2.0399 -1.1527 1.0119
2.0334 -1.0547 0.9891
2.0272 -0.9608 0.9685
2.0212 -0.8707 0.9500
2.0154 -0.7838 0.9333
2.0099 -0.6997 0.9184
2.0045 -0.6182 0.9051
1.9992 -0.5389 0.8933
1.9941 -0.4615 0.8829
1.9891 -0.3858 0.8739
1.9842 -0.3115 0.8662
1.9793 -0.2384 0.8598
1.9746 -0.1662 0.8545
1.9699 -0.0949 0.8504
1.9652 -0.0241 0.8475
1.9606 0.0462 0.8456
1.9559 0.1164 0.8449
1.9513 0.1865 0.8453
1.9467 0.2568 0.8467
1.9420 0.3274 0.8493
1.9373 0.3985 0.8530
1.9326 0.4704 0.8579
1.9278 0.5431 0.8639
1.9230 0.6170 0.8712
1.9180 0.6922 0.8797
1.9130 0.7689 0.8896
1.9078 0.8475 0.9009
1.9025 0.9282 0.9136
1.8970 1.0113 0.9280
1.8914 1.0972 0.9441
1.8856 1.1861 0.9619
1.8795 1.2786 0.9818
1.8732 1.3751 1.0038
1.8665 1.4761 1.0283
1.8596 1.5822 1.0553
1.8523 1.6942 1.0852
1.8445 1.8128 1.1183
1.8051 1.9061 1.1355
1.7878 2.0289 1.1700
0.8745 1.0673 0.5971
0.8356 1.0979 0.5973
0.7956 1.1271 0.5974
0.7546 1.1548 0.5975
0.7126 1.1810 0.5977
0.6697 1.2057 0.5978
0.6260 1.2289 0.5980
0.5814 1.2505 0.5981
0.5362 1.2704 0.5983
0.4902 1.2888 0.5985
0.4436 1.3055 0.5986
0.3964 1.3205 0.5988
0.3488 1.3338 0.5990
0.3006 1.3454 0.5992
0.2521 1.3552 0.5994
0.2033 1.3633 0.5996
0.1542 1.3697 0.5998
0.1050 1.3743 0.6000
0.0555 1.3772 0.6002
0.0061 1.3783 0.6004
-0.0434 1.3776 0.6006
-0.0929 1.3751 0.6009
-0.1422 1.3709 0.6011
-0.1913 1.3649 0.6013
-0.2402 1.3571 0.6015
-0.2888 1.3476 0.6018
-0.3371 1.3364 0.6020
-0.3849 1.3234 0.6022
-0.4322 1.3088 0.6025
-0.4789 1.2924 0.6027
-0.5251 1.2744 0.6029
-0.5705 1.2548 0.6032
-0.6153 1.2335 0.6034
-0.6592 1.2106 0.6036
-0.7024 1.1862 0.6038
-0.7446 1.1603 0.6041
-0.7858 1.1328 0.6043
-0.8261 1.1039 0.6045
-0.8653 1.0736 0.6048
-2.5779 2.9729 1.7264
-2.6824 2.8775 1.7264
-2.7833 2.7784 1.7264
-2.8806 2.6758 1.7264
-2.9742 2.5698 1.7264
-3.0639 2.4606 1.7264
-3.1496 2.3483 1.7264
-3.2313 2.2330 1.7264
-3.2609 2.0843 1.7014
-3.2515 1.9172 1.6598
-3.2529 1.7635 1.6274
-3.3049 1.6408 1.6231
-3.3612 1.5206 1.6231
-3.4310 1.4058 1.6315
-3.4608 1.2747 1.6231
-3.5039 1.1492 1.6231
-3.5425 1.0223 1.6231
-3.5766 0.8941 1.6231
-3.5538 0.7537 1.5996
-3.6310 0.6345 1.6231
-3.6512 0.5035 1.6231
-3.6667 0.3718 1.6231
-3.6776 0.2396 1.6231
-3.6837 0.1072 1.6231
-3.6851 -0.0254 1.6231
-3.6818 -0.1579 1.6231
-3.6737 -0.2903 1.6231
-3.6610 -0.4223 1.6231
-3.6436 -0.5537 1.6231
-3.6215 -0.6844 1.6231
-3.5947 -0.8143 1.6231
-3.5634 -0.9432 1.6231
-3.5275 -1.0708 1.6231
-3.4870 -1.1972 1.6231
-3.4421 -1.3220 1.6231
-3.3928 -1.4451 1.6231
-3.3391 -1.5664 1.6231
-3.2811 -1.6858 1.6231
-3.2189 -1.8030 1.6231
-3.1525 -1.9179 1.6231
-3.0821 -2.0305 1.6231
-3.0309 -2.1569 1.6356
-3.0174 -2.3152 1.6719
-3.0081 -2.4849 1.7148
-2.9372 -2.6096 1.7264
-2.8422 -2.7142 1.7264
-2.7435 -2.8154 1.7264
-2.6412 -2.9130 1.7264
-2.5354 -3.0069 1.7264
-2.4264 -3.0970 1.7264
-2.3141 -3.1831 1.7264
-2.1989 -3.2652 1.7264
-2.0807 -3.3432 1.7264
-1.9598 -3.4169 1.7264
-1.8364 -3.4863 1.7264
-1.7105 -3.5512 1.7264
-1.5823 -3.6116 1.7264
-1.4519 -3.6674 1.7264
-1.2977 -3.6566 1.6976
-1.1662 -3.7032 1.6981
-1.0328 -3.7441 1.6981
-0.8979 -3.7801 1.6981
-0.7618 -3.8114 1.6981
-0.6246 -3.8377 1.6981
-0.4866 -3.8591 1.6981
-0.3477 -3.8755 1.6981
-0.2084 -3.8870 1.6981
-0.0691 -3.9151 1.7075
0.0724 -3.9597 1.7264
0.2146 -3.9561 1.7264
0.3567 -3.9473 1.7264
0.4984 -3.9335 1.7264
0.6395 -3.9145 1.7264
0.7800 -3.8905 1.7264
0.9195 -3.8615 1.7264
1.0579 -3.8274 1.7264
1.1950 -3.7884 1.7264
1.3307 -3.7444 1.7264
1.4648 -3.6955 1.7264
1.5971 -3.6419 1.7264
1.7273 -3.5835 1.7264
1.8555 -3.5204 1.7264
1.9813 -3.4527 1.7264
2.1046 -3.3806 1.7264
2.2253 -3.3040 1.7264
2.3431 -3.2230 1.7264
2.4580 -3.1379 1.7264
2.5698 -3.0486 1.7264
2.6783 -2.9553 1.7264
2.7834 -2.8582 1.7264
2.8849 -2.7573 1.7264
2.9828 -2.6527 1.7264
3.0768 -2.5447 1.7264
3.1669 -2.4333 1.7264
3.2529 -2.3187 1.7264
3.3347 -2.2011 1.7264
3.4122 -2.0805 1.7264
2.0394 -1.1452 1.0102
2.0329 -1.0476 0.9875
2.0267 -0.9540 0.9671
2.0208 -0.8641 0.9486
2.0150 -0.7774 0.9321
2.0095 -0.6936 0.9173
2.0041 -0.6122 0.9041
1.9988 -0.5331 0.8925
1.9937 -0.4558 0.8822
1.9887 -0.3802 0.8733
1.9838 -0.3060 0.8657
1.9790 -0.2330 0.8594
1.9742 -0.1609 0.8542
1.9695 -0.0896 0.8502
1.9649 -0.0189 0.8473
1.9602 0.0515 0.8455
1.9556 0.1216 0.8449
1.9510 0.1917 0.8453
1.9463 0.2620 0.8469
1.9417 0.3327 0.8495
1.9370 0.4038 0.8533
1.9323 0.4757 0.8583
1.9275 0.5485 0.8644
1.9226 0.6225 0.8718
1.9176 0.6978 0.8804
1.9126 0.7747 0.8904
2.4114 -2.8758 1.7264
2.5137 -2.7882 1.7264
2.6129 -2.6970 1.7264
2.7086 -2.6023 1.7264
2.8010 -2.5041 1.7264
2.8897 -2.4026 1.7264
2.9747 -2.2980 1.7264
3.0559 -2.1903 1.7264
3.1332 -2.0798 1.7264
3.2064 -1.9665 1.7264
2.0400 -1.1526 1.0752
2.0335 -1.0546 1.0509
2.0273 -0.9607 1.0291
2.0213 -0.8706 1.0094
2.0155 -0.7837 0.9917
2.0100 -0.6997 0.9758
2.0046 -0.6182 0.9617
1.9993 -0.5388 0.9492
1.9942 -0.4615 0.9382
1.9892 -0.3857 0.9286
1.9843 -0.3115 0.9205
1.9794 -0.2383 0.9136
1.9747 -0.1662 0.9080
1.9700 -0.0949 0.9037
1.9653 -0.0241 0.9005
1.9606 0.0463 0.8986
1.9560 0.1164 0.8978
1.9514 0.1865 0.8982
1.9468 0.2568 0.8997
1.9421 0.3274 0.9025
1.9374 0.3985 0.9064
1.9327 0.4703 0.9116
1.9279 0.5431 0.9180
1.9230 0.6169 0.9257
1.9181 0.6921 0.9348
1.9131 0.7689 0.9452
1.9079 0.8475 0.9572
1.9026 0.9282 0.9708
1.8971 1.0112 0.9860
1.8915 1.0971 1.0031
1.8857 1.1860 1.0221
1.8796 1.2785 1.0432
1.8733 1.3750 1.0666
1.8667 1.4760 1.0925
1.8597 1.5821 1.1212
1.8524 1.6941 1.1529
1.8149 1.7835 1.1690
0.8938 0.9437 0.5973
0.8593 0.9750 0.5974
0.8237 1.0051 0.5975
0.7870 1.0339 0.5976
0.7494 1.0614 0.5977
0.7107 1.0875 0.5978
0.6712 1.1122 0.5980
0.6308 1.1355 0.5981
0.5896 1.1573 0.5982
0.5477 1.1776 0.5984
0.5051 1.1964 0.5985
0.4618 1.2137 0.5987
0.4179 1.2294 0.5989
0.3735 1.2435 0.5990
0.3286 1.2560 0.5992
0.2833 1.2670 0.5994
0.2376 1.2763 0.5996
0.1916 1.2839 0.5998
0.1454 1.2899 0.6000
0.0990 1.2942 0.6002
0.0524 1.2969 0.6004
0.0058 1.2979 0.6006
-0.0408 1.2973 0.6008
-0.0873 1.2950 0.6010
-0.1338 1.2910 0.6012
-0.1801 1.2853 0.6014
-0.2261 1.2780 0.6016
-0.2719 1.2691 0.6018
-0.3173 1.2585 0.6020
-0.3623 1.2463 0.6023
-0.4068 1.2325 0.6025
-0.4509 1.2171 0.6027
-0.4943 1.2001 0.6029
-0.5371 1.1816 0.6031
-0.5793 1.1616 0.6034
-0.6206 1.1400 0.6036
-0.6612 1.1170 0.6038
-0.7010 1.0926 0.6040
-0.7399 1.0667 0.6042
-0.7778 1.0395 0.6044
-0.8147 1.0109 0.6046
-0.8505 0.9810 0.6048
-0.8853 0.9499 0.6051
-2.6211 2.6169 1.7264
-2.7128 2.5203 1.7264
-2.8009 2.4205 1.7264
-2.8854 2.3177 1.7264
-2.9662 2.2119 1.7264
-3.0432 2.1033 1.7264
-3.1162 1.9921 1.7264
-3.1852 1.8783 1.7264
-3.2425 1.7581 1.7224
-3.2340 1.6058 1.6863
-3.2257 1.4595 1.6538
-3.2269 1.3224 1.6293
-3.2596 1.2007 1.6231
-3.3002 1.0825 1.6231
-3.3367 0.9630 1.6231
-3.3688 0.8423 1.6231
-3.3983 0.7208 1.6239
-3.4200 0.5977 1.6231
-3.4391 0.4743 1.6231
-3.4537 0.3502 1.6231
-3.4639 0.2257 1.6231
-3.4697 0.1010 1.6231
-3.4710 -0.0239 1.6231
-3.4679 -0.1488 1.6231
-3.4603 -0.2734 1.6231
-3.4483 -0.3978 1.6231
-3.4319 -0.5216 1.6231
-3.4111 -0.6447 1.6231
-3.3859 -0.7671 1.6231
-3.3563 -0.8885 1.6231
-3.3225 -1.0087 1.6231
-3.2936 -1.1309 1.6277
-3.2421 -1.2453 1.6231
-3.1956 -1.3612 1.6231
-3.1450 -1.4755 1.6231
-3.0903 -1.5879 1.6231
-3.0554 -1.7116 1.6358
-3.0430 -1.8515 1.6635
-3.0349 -1.9996 1.6970
-3.0129 -2.1444 1.7264
-2.9344 -2.2518 1.7264
-2.8521 -2.3564 1.7264
-2.7662 -2.4580 1.7264
-2.6766 -2.5565 1.7264
-2.5836 -2.6517 1.7264
-2.4872 -2.7436 1.7264
-2.3876 -2.8320 1.7264
-2.2849 -2.9168 1.7264
-2.1791 -2.9979 1.7264
-2.0705 -3.0752 1.7264
-1.9592 -3.1486 1.7264
-1.8454 -3.2180 1.7264
-1.7290 -3.2833 1.7264
-1.6104 -3.3444 1.7264
-1.4897 -3.4012 1.7264
-1.3669 -3.4537 1.7264
-1.2424 -3.5017 1.7264
-1.0975 -3.4863 1.6976
-0.9721 -3.5257 1.6981
-0.8451 -3.5596 1.6981
-0.7170 -3.5889 1.6981
-0.5878 -3.6136 1.6981
-0.4578 -3.6337 1.6981
-0.3270 -3.6491 1.6981
-0.1971 -3.6838 1.7092
-0.0654 -3.7269 1.7264
0.0685 -3.7282 1.7264
0.2025 -3.7247 1.7264
0.3362 -3.7164 1.7264
0.4696 -3.7033 1.7264
0.6025 -3.6854 1.7264
0.7347 -3.6627 1.7264
0.8660 -3.6353 1.7264
0.9963 -3.6031 1.7264
1.1254 -3.5663 1.7264
1.2531 -3.5249 1.7264
1.3793 -3.4788 1.7264
1.5038 -3.4283 1.7264
1.6264 -3.3732 1.7264
1.7470 -3.3138 1.7264
1.8654 -3.2500 1.7264
1.9814 -3.1820 1.7264
2.0950 -3.1099 1.7264
2.2059 -3.0337 1.7264
2.3140 -2.9535 1.7264
2.4191 -2.8694 1.7264
2.5212 -2.7816 1.7264
2.6201 -2.6901 1.7264
2.7156 -2.5951 1.7264
2.8077 -2.4966 1.7264
2.8961 -2.3949 1.7264
2.9809 -2.2901 1.7264
3.0618 -2.1822 1.7264
3.1388 -2.0715 1.7264
3.2117 -1.9580 1.7264
2.0395 -1.1452 1.0733
2.0330 -1.0475 1.0492
2.0268 -0.9539 1.0275
2.0209 -0.8640 1.0080
2.0151 -0.7774 0.9904
2.0096 -0.6935 0.9747
2.0042 -0.6122 0.9607
1.9989 -0.5330 0.9483
1.9938 -0.4558 0.9374
1.9888 -0.3802 0.9280
1.9839 -0.3060 0.9199
1.9791 -0.2330 0.9131
1.9743 -0.1609 0.9077
1.9696 -0.0896 0.9034
1.9649 -0.0189 0.9003
1.9603 0.0515 0.8985
1.9557 0.1216 0.8978
1.9510 0.1917 0.8983
1.9464 0.2620 0.8999
1.9418 0.3327 0.9027
1.9371 0.4038 0.9067
1.9323 0.4757 0.9120
1.9276 0.5485 0.9185
1.9227 0.6225 0.9263
1.9177 0.6978 0.9355
1.9127 0.7746 0.9461
2.2753 -2.7129 1.7264
2.3718 -2.6303 1.7264
2.4652 -2.5442 1.7264
2.5556 -2.4548 1.7264
2.6426 -2.3622 1.7264
2.7263 -2.2664 1.7264
2.8064 -2.1677 1.7264
2.8830 -2.0661 1.7264
2.9559 -1.9618 1.7264
3.0249 -1.8550 1.7264
2.0401 -1.1525 1.1398
2.0336 -1.0545 1.1141
2.0274 -0.9607 1.0909
2.0214 -0.8705 1.0700
2.0156 -0.7836 1.0513
2.0100 -0.6996 1.0345
2.0047 -0.6181 1.0195
1.9994 -0.5388 1.0062
1.9943 -0.4614 0.9946
1.9893 -0.3857 0.9845
1.9844 -0.3114 0.9758
1.9795 -0.2383 0.9685
1.9748 -0.1662 0.9626
1.9700 -0.0949 0.9580
1.9654 -0.0241 0.9547
1.9607 0.0463 0.9526
1.9561 0.1164 0.9518
1.9515 0.1865 0.9522
1.9468 0.2568 0.9538
1.9422 0.3274 0.9567
1.9375 0.3985 0.9609
1.9328 0.4703 0.9664
1.9280 0.5430 0.9732
1.9231 0.6169 0.9813
1.9182 0.6921 0.9910
1.9132 0.7688 1.0021
1.9080 0.8474 1.0148
1.9027 0.9281 1.0291
1.8972 1.0112 1.0453
1.8916 1.0970 1.0633
1.8858 1.1860 1.0835
1.8797 1.2784 1.1058
1.8734 1.3749 1.1306
1.8668 1.4759 1.1581
1.8598 1.5820 1.1885
1.8518 1.6933 1.2217
0.8752 0.8599 0.5975
0.8437 0.8907 0.5976
0.8111 0.9202 0.5977
0.7775 0.9487 0.5978
0.7430 0.9758 0.5979
0.7074 1.0018 0.5980
0.6710 1.0264 0.5981
0.6336 1.0497 0.5982
0.5955 1.0717 0.5984
0.5567 1.0923 0.5985
0.5171 1.1115 0.5986
0.4768 1.1292 0.5988
0.4360 1.1455 0.5989
0.3945 1.1604 0.5991
0.3526 1.1737 0.5992
0.3102 1.1855 0.5994
0.2675 1.1958 0.5996
0.2244 1.2046 0.5998
0.1810 1.2118 0.5999
0.1374 1.2175 0.6001
0.0936 1.2216 0.6003
0.0496 1.2241 0.6005
0.0056 1.2250 0.6007
-0.0383 1.2244 0.6009
-0.0823 1.2222 0.6011
-0.1261 1.2184 0.6013
-0.1698 1.2131 0.6015
-0.2133 1.2062 0.6017
-0.2565 1.1978 0.6019
-0.2993 1.1878 0.6021
-0.3418 1.1762 0.6023
-0.3838 1.1632 0.6025
-0.4254 1.1487 0.6027
-0.4664 1.1327 0.6029
-0.5068 1.1152 0.6031
-0.5466 1.0963 0.6033
-0.5856 1.0759 0.6035
-0.6239 1.0542 0.6037
-0.6614 1.0311 0.6039
-0.6981 1.0067 0.6041
-0.7339 0.9810 0.6043
-0.7687 0.9540 0.6045
-0.8026 0.9258 0.6047
-0.8354 0.8964 0.6049
-0.8671 0.8659 0.6051
-0.8977 0.8342 0.6053
-2.6436 2.2849 1.7264
-2.7235 2.1879 1.7264
-2.7998 2.0880 1.7264
-2.8724 1.9855 1.7264
-2.9414 1.8806 1.7264
-3.0065 1.7732 1.7264
-3.0678 1.6636 1.7264
-3.1251 1.5519 1.7264
-3.1784 1.4383 1.7264
-3.2179 1.3188 1.7212
-3.2104 1.1827 1.6935
-3.2031 1.0508 1.6689
-3.1960 0.9225 1.6470
-3.1966 0.7993 1.6316
-3.2063 0.6802 1.6231
-3.2284 0.5643 1.6231
-3.2464 0.4478 1.6231
-3.2603 0.3307 1.6231
-3.2699 0.2131 1.6231
-3.2754 0.0953 1.6231
-3.2766 -0.0226 1.6231
-3.2737 -0.1404 1.6231
-3.2665 -0.2581 1.6231
-3.2552 -0.3755 1.6231
-3.2397 -0.4924 1.6231
-3.2200 -0.6087 1.6231
-3.1962 -0.7242 1.6231
-3.1683 -0.8388 1.6231
-3.1364 -0.9523 1.6231
-3.1004 -1.0646 1.6231
-3.0844 -1.1848 1.6358
-3.0729 -1.3091 1.6535
-3.0658 -1.4385 1.6762
-3.0585 -1.5717 1.7018
-3.0437 -1.7053 1.7264
-2.9809 -1.8140 1.7264
-2.9143 -1.9204 1.7264
-2.8438 -2.0243 1.7264
-2.7697 -2.1257 1.7264
-2.6921 -2.2244 1.7264
-2.6109 -2.3203 1.7264
-2.5263 -2.4133 1.7264
-2.4385 -2.5031 1.7264
-2.3475 -2.5899 1.7264
-2.2534 -2.6733 1.7264
-2.1564 -2.7533 1.7264
-2.0566 -2.8298 1.7264
-1.9541 -2.9027 1.7264
-1.8490 -2.9720 1.7264
-1.7414 -3.0374 1.7264
-1.6316 -3.0990 1.7264
-1.5197 -3.1566 1.7264
-1.4057 -3.2102 1.7264
-1.2898 -3.2597 1.7264
-1.1722 -3.3050 1.7264
-1.0530 -3.3461 1.7264
-0.9324 -3.3829 1.7264
-0.7979 -3.3623 1.6995
-0.6776 -3.3938 1.7015
-0.5568 -3.4255 1.7056
-0.4352 -3.4574 1.7120
-0.3134 -3.5011 1.7264
-0.1875 -3.5113 1.7264
-0.0613 -3.5170 1.7264
0.0651 -3.5182 1.7264
0.1914 -3.5148 1.7264
0.3176 -3.5069 1.7264
0.4435 -3.4945 1.7264
0.5689 -3.4775 1.7264
0.6936 -3.4561 1.7264
0.8175 -3.4301 1.7264
0.9404 -3.3997 1.7264
1.0622 -3.3649 1.7264
1.1827 -3.3258 1.7264
1.3018 -3.2823 1.7264
1.4192 -3.2345 1.7264
1.5348 -3.1825 1.7264
1.6486 -3.1264 1.7264
1.7602 -3.0662 1.7264
1.8697 -3.0020 1.7264
1.9768 -2.9339 1.7264
2.0814 -2.8620 1.7264
2.1834 -2.7863 1.7264
2.2825 -2.7069 1.7264
2.3788 -2.6240 1.7264
2.4721 -2.5377 1.7264
2.5621 -2.4480 1.7264
2.6490 -2.3551 1.7264
2.7324 -2.2592 1.7264
2.8123 -2.1603 1.7264
2.8886 -2.0585 1.7264
2.9611 -1.9540 1.7264
3.0299 -1.8469 1.7264
2.0396 -1.1451 1.1378
2.0331 -1.0474 1.1123
2.0269 -0.9538 1.0893
2.0209 -0.8640 1.0685
2.0152 -0.7773 1.0499
2.0096 -0.6935 1.0333
2.0043 -0.6121 1.0184
1.9990 -0.5330 1.0053
1.9939 -0.4557 0.9938
1.9889 -0.3801 0.9838
1.9840 -0.3060 0.9752
1.9792 -0.2329 0.9681
1.9744 -0.1609 0.9622
1.9697 -0.0896 0.9577
1.9650 -0.0189 0.9545
1.9604 0.0515 0.9525
1.9558 0.1216 0.9518
1.9511 0.1917 0.9523
1.9465 0.2620 0.9540
1.9418 0.3326 0.9570
1.9372 0.4038 0.9613
1.9324 0.4757 0.9668
1.9276 0.5485 0.9737
1.9228 0.6224 0.9820
1.9178 0.6977 0.9917
1.9128 0.7746 1.0030
2.1511 -2.5645 1.7264
2.2423 -2.4863 1.7264
2.3307 -2.4049 1.7264
2.4160 -2.3204 1.7264
2.4983 -2.2328 1.7264
2.5773 -2.1423 1.7264
2.6531 -2.0489 1.7264
2.7254 -1.9529 1.7264
2.7942 -1.8543 1.7264
2.8595 -1.7533 1.7264
2.0402 -1.1524 1.2058
2.0337 -1.0544 1.1786
2.0275 -0.9606 1.1541
2.0215 -0.8705 1.1320
2.0157 -0.7836 1.1122
2.0101 -0.6995 1.0944
2.0047 -0.6181 1.0786
1.9995 -0.5388 1.0646
1.9944 -0.4614 1.0522
1.9894 -0.3857 1.0415
1.9844 -0.3114 1.0324
1.9796 -0.2383 1.0247
1.9748 -0.1662 1.0185
1.9701 -0.0948 1.0136
1.9655 -0.0241 1.0101
1.9608 0.0463 1.0079
1.9562 0.1164 1.0070
1.9516 0.1865 1.0074
1.9469 0.2568 1.0092
1.9423 0.3274 1.0122
1.9376 0.3985 1.0166
1.9329 0.4703 1.0224
1.9281 0.5430 1.0296
1.9232 0.6169 1.0382
1.9183 0.6920 1.0484
1.9132 0.7688 1.0601
1.9081 0.8474 1.0736
1.9028 0.9280 1.0888
1.8973 1.0111 1.1058
1.8917 1.0969 1.1249
1.8859 1.1859 1.1462
1.8798 1.2784 1.1699
1.8735 1.3748 1.1961
1.8669 1.4758 1.2251
0.8841 0.7519 0.5976
0.8565 0.7831 0.5977
0.8278 0.8132 0.5978
0.7980 0.8423 0.5979
0.7672 0.8703 0.5979
0.7354 0.8971 0.5980
0.7027 0.9228 0.5981
0.6691 0.9474 0.5982
0.6347 0.9707 0.5984
0.5994 0.9927 0.5985
0.5633 1.0135 0.5986
0.5266 1.0330 0.5987
0.4891 1.0511 0.5989
0.4511 1.0679 0.5990
0.4124 1.0833 0.5991
0.3733 1.0974 0.5993
0.3336 1.1100 0.5994
0.2935 1.1212 0.5996
0.2531 1.1309 0.5998
0.2123 1.1392 0.5999
0.1713 1.1460 0.6001
0.1300 1.1514 0.6003
0.0886 1.1552 0.6004
0.0471 1.1576 0.6006
0.0055 1.1585 0.6008
-0.0361 1.1579 0.6010
-0.0777 1.1558 0.6012
-0.1192 1.1523 0.6014
-0.1605 1.1472 0.6015
-0.2016 1.1407 0.6017
-0.2424 1.1327 0.6019
-0.2829 1.1232 0.6021
-0.3231 1.1123 0.6023
-0.3629 1.1000 0.6025
-0.4022 1.0863 0.6027
-0.4409 1.0711 0.6029
-0.4791 1.0546 0.6031
-0.5167 1.0367 0.6033
-0.5537 1.0175 0.6035
-0.5899 0.9969 0.6037
-0.6254 0.9751 0.6039
-0.6600 0.9520 0.6041
-0.6939 0.9277 0.6043
-0.7268 0.9022 0.6044
-0.7588 0.8755 0.6046
-0.7898 0.8477 0.6048
-0.8198 0.8188 0.6050
-0.8488 0.7888 0.6052
-0.8766 0.7578 0.6053
-0.9034 0.7258 0.6055
-2.6478 1.9750 1.7264
-2.7165 1.8781 1.7264
-2.7818 1.7788 1.7264
-2.8434 1.6773 1.7264
-2.9014 1.5736 1.7264
-2.9557 1.4680 1.7264
-3.0061 1.3605 1.7264
-3.0526 1.2513 1.7264
-3.0953 1.1405 1.7264
-3.1339 1.0282 1.7264
-3.1685 0.9147 1.7264
-3.1891 0.7975 1.7210
-3.1824 0.6752 1.7033
-3.1758 0.5552 1.6881
-3.1693 0.4372 1.6753
-3.1629 0.3208 1.6648
-3.1565 0.2058 1.6565
-3.1502 0.0917 1.6505
-3.1440 -0.0216 1.6466
-3.1377 -0.1346 1.6448
-3.1315 -0.2475 1.6451
-3.1253 -0.3605 1.6476
-3.1190 -0.4741 1.6521
-3.1127 -0.5884 1.6589
-3.1063 -0.7039 1.6678
-3.0999 -0.8207 1.6790
-3.0933 -0.9393 1.6925
-3.0867 -1.0600 1.7085
-3.0787 -1.1827 1.7264
-3.0345 -1.2929 1.7264
-2.9864 -1.4014 1.7264
-2.9344 -1.5082 1.7264
-2.8787 -1.6130 1.7264
-2.8193 -1.7158 1.7264
-2.7562 -1.8164 1.7264
-2.6895 -1.9147 1.7264
-2.6194 -2.0106 1.7264
-2.5459 -2.1040 1.7264
-2.4691 -2.1946 1.7264
-2.3891 -2.2825 1.7264
-2.3060 -2.3675 1.7264
-2.2199 -2.4495 1.7264
-2.1309 -2.5284 1.7264
-2.0391 -2.6040 1.7264
-1.9447 -2.6764 1.7264
-1.8477 -2.7453 1.7264
-1.7483 -2.8108 1.7264
-1.6466 -2.8726 1.7264
-1.5427 -2.9308 1.7264
-1.4368 -2.9853 1.7264
-1.3290 -3.0359 1.7264
-1.2194 -3.0827 1.7264
-1.1082 -3.1255 1.7264
-0.9954 -3.1643 1.7264
-0.8814 -3.1990 1.7264
-0.7661 -3.2297 1.7264
-0.6498 -3.2562 1.7264
-0.5326 -3.2786 1.7264
-0.4146 -3.2967 1.7264
-0.2960 -3.3105 1.7264
-0.1769 -3.3202 1.7264
-0.0576 -3.3255 1.7264
0.0619 -3.3266 1.7264
0.1814 -3.3233 1.7264
0.3007 -3.3158 1.7264
0.4197 -3.3040 1.7264
0.5382 -3.2879 1.7264
0.6561 -3.2676 1.7264
0.7733 -3.2430 1.7264
0.8895 -3.2142 1.7264
1.0046 -3.1813 1.7264
1.1185 -3.1442 1.7264
1.2310 -3.1030 1.7264
1.3420 -3.0578 1.7264
1.4513 -3.0087 1.7264
1.5588 -2.9556 1.7264
1.6644 -2.8986 1.7264
1.7678 -2.8379 1.7264
1.8691 -2.7735 1.7264
1.9679 -2.7054 1.7264
2.0643 -2.6338 1.7264
2.1580 -2.5588 1.7264
2.2490 -2.4804 1.7264
2.3371 -2.3988 1.7264
2.4222 -2.3140 1.7264
2.5042 -2.2262 1.7264
2.5831 -2.1354 1.7264
2.6586 -2.0419 1.7264
2.7307 -1.9457 1.7264
2.7992 -1.8469 1.7264
2.8642 -1.7457 1.7264
2.0397 -1.1450 1.2036
2.0332 -1.0473 1.1767
2.0270 -0.9538 1.1524
2.0210 -0.8639 1.1305
2.0153 -0.7772 1.1108
2.0097 -0.6934 1.0932
2.0043 -0.6121 1.0775
1.9991 -0.5329 1.0636
1.9940 -0.4557 1.0514
1.9890 -0.3801 1.0408
1.9841 -0.3059 1.0318
1.9793 -0.2329 1.0242
1.9745 -0.1609 1.0180
1.9698 -0.0896 1.0133
1.9651 -0.0189 1.0099
1.9605 0.0515 1.0078
1.9558 0.1216 1.0070
1.9512 0.1917 1.0075
1.9466 0.2620 1.0093
1.9419 0.3326 1.0125
1.9373 0.4038 1.0170
1.9325 0.4757 1.0229
1.9277 0.5485 1.0302
1.9229 0.6224 1.0389
1.9179 0.6977 1.0492
1.9129 0.7746 1.0611
2.0374 -2.4284 1.7264
2.1237 -2.3544 1.7264
2.2073 -2.2773 1.7264
2.2881 -2.1972 1.7264
2.3660 -2.1143 1.7264
2.4408 -2.0285 1.7264
2.5126 -1.9401 1.7264
2.5810 -1.8492 1.7264
2.6462 -1.7558 1.7264
2.7079 -1.6601 1.7264
