ply
format ascii 1.0
element vertex 2161
property float32 x
property float32 y
property float32 z
end_header
-2.0038 0.4952 0.6390
-2.0047 0.4197 0.6339
-2.0057 0.3452 0.6297
-2.0066 0.2716 0.6263
-2.0076 0.1986 0.6238
-2.0085 0.1261 0.6221
-2.0094 0.0539 0.6212
-2.0104 -0.0183 0.6211
-2.0113 -0.0906 0.6218
-2.0122 -0.1631 0.6233
-2.0132 -0.2362 0.6256
-2.0141 -0.3100 0.6287
-2.0151 -0.3846 0.6327
-2.0161 -0.4604 0.6376
-2.0171 -0.5375 0.6434
-2.0181 -0.6161 0.6501
-2.0191 -0.6966 0.6578
-2.0202 -0.7791 0.6666
-2.0213 -0.8641 0.6765
-2.0224 -0.9518 0.6877
-2.0236 -1.0426 0.7001
-2.0248 -1.1370 0.7139
-2.0261 -1.2354 0.7293
-2.0274 -1.3383 0.7463
-2.0288 -1.4463 0.7652
-2.0303 -1.5602 0.7861
-2.0318 -1.6807 0.8093
-2.0335 -1.8088 0.8350
-2.0353 -1.9456 0.8635
-2.0372 -2.0923 0.8953
-2.0392 -2.2506 0.9308
-3.5602 -4.2243 1.6926
-3.4074 -4.3507 1.6926
-3.2502 -4.4716 1.6926
-3.0887 -4.5867 1.6926
-2.9231 -4.6960 1.6926
-2.7536 -4.7993 1.6926
-2.5805 -4.8964 1.6926
-2.4039 -4.9872 1.6926
-2.2241 -5.0717 1.6926
-2.0413 -5.1496 1.6926
-1.8558 -5.2208 1.6926
-1.6678 -5.2854 1.6926
-1.4776 -5.3431 1.6926
-1.2853 -5.3939 1.6926
-1.0913 -5.4377 1.6926
-0.8958 -5.4746 1.6926
-0.6990 -5.5043 1.6926
-0.5013 -5.5269 1.6926
-0.3029 -5.5423 1.6926
-0.1040 -5.5506 1.6926
0.0952 -5.5516 1.6926
0.2942 -5.5455 1.6926
0.4929 -5.5321 1.6926
0.6911 -5.5116 1.6926
0.8883 -5.4839 1.6926
1.0845 -5.4491 1.6926
1.2793 -5.4072 1.6926
1.4724 -5.3582 1.6926
1.6637 -5.3023 1.6926
1.8529 -5.2396 1.6926
2.0396 -5.1700 1.6926
2.2237 -5.0936 1.6926
2.4049 -5.0107 1.6926
2.5831 -4.9213 1.6926
2.7578 -4.8254 1.6926
2.9290 -4.7233 1.6926
3.0963 -4.6151 1.6926
3.2386 -4.4719 1.6817
3.2470 -4.1608 1.6076
3.3557 -3.9960 1.5895
3.4965 -3.8727 1.5895
3.6327 -3.7445 1.5895
3.7642 -3.6114 1.5895
3.8908 -3.4737 1.5895
4.0123 -3.3315 1.5895
4.1285 -3.1850 1.5895
-2.0225 -0.9572 0.7440
-2.0237 -1.0483 0.7575
-2.0249 -1.1429 0.7726
-2.0262 -1.2415 0.7893
-2.0275 -1.3447 0.8078
-2.0289 -1.4531 0.8284
-2.0304 -1.5673 0.8511
-2.0319 -1.6883 0.8763
-2.0336 -1.8169 0.9043
-2.0354 -1.9542 0.9354
-2.0373 -2.1016 0.9700
-3.4223 -3.7936 1.6926
-3.2850 -3.9151 1.6926
-3.1434 -4.0317 1.6926
-2.9977 -4.1431 1.6926
-2.8480 -4.2492 1.6926
-2.6945 -4.3498 1.6926
-2.5375 -4.4449 1.6926
-2.3771 -4.5343 1.6926
-2.2135 -4.6179 1.6926
-2.0470 -4.6956 1.6926
-1.8778 -4.7672 1.6926
-1.7060 -4.8326 1.6926
-1.5320 -4.8919 1.6926
-1.3559 -4.9448 1.6926
-1.1780 -4.9913 1.6926
-0.9985 -5.0314 1.6926
-0.8176 -5.0650 1.6926
-0.6356 -5.0920 1.6926
-0.4526 -5.1125 1.6926
-0.2691 -5.1263 1.6926
-0.0851 -5.1335 1.6926
0.0990 -5.1340 1.6926
0.2831 -5.1279 1.6926
0.4668 -5.1151 1.6926
0.6499 -5.0957 1.6926
0.8323 -5.0696 1.6926
1.0136 -5.0370 1.6926
1.1937 -4.9978 1.6926
1.3722 -4.9522 1.6926
1.5489 -4.9001 1.6926
1.7237 -4.8416 1.6926
1.8962 -4.7769 1.6926
2.0663 -4.7060 1.6926
2.2337 -4.6289 1.6926
2.3983 -4.5458 1.6926
2.5597 -4.4569 1.6926
2.7177 -4.3622 1.6926
2.8723 -4.2618 1.6926
3.0231 -4.1558 1.6926
3.1699 -4.0446 1.6926
3.2406 -3.8425 1.6558
3.2517 -3.5865 1.5948
3.3666 -3.4558 1.5895
3.4880 -3.3325 1.5895
3.6048 -3.2049 1.5895
3.7169 -3.0732 1.5895
3.8242 -2.9375 1.5895
3.9264 -2.7981 1.5895
4.0236 -2.6551 1.5895
4.1155 -2.5087 1.5895
4.2020 -2.3591 1.5895
4.2831 -2.2065 1.5895
4.3586 -2.0511 1.5895
4.4284 -1.8930 1.5895
4.4924 -1.7326 1.5895
4.5507 -1.5701 1.5895
4.6029 -1.4055 1.5895
4.6492 -1.2393 1.5895
4.6895 -1.0715 1.5895
4.7237 -0.9024 1.5895
4.7517 -0.7322 1.5895
4.7736 -0.5611 1.5895
4.7893 -0.3894 1.5895
4.7988 -0.2173 1.5895
4.8021 -0.0451 1.5895
4.7992 0.1272 1.5895
4.7901 0.2992 1.5895
4.7748 0.4706 1.5895
4.7533 0.6414 1.5895
4.7258 0.8113 1.5895
4.6657 0.9745 1.5806
4.6001 1.1344 1.5716
4.6068 1.3130 1.5895
4.5552 1.4770 1.5895
4.4978 1.6390 1.5895
4.4346 1.7987 1.5895
4.3657 1.9560 1.5895
4.2913 2.1107 1.5895
4.2114 2.2626 1.5895
4.1261 2.4114 1.5895
4.0356 2.5571 1.5895
3.9399 2.6994 1.5895
3.8393 2.8381 1.5895
3.7337 2.9731 1.5895
3.6234 3.1042 1.5895
3.5085 3.2312 1.5895
3.3892 3.3540 1.5895
3.2737 3.4810 1.5935
3.2639 3.7302 1.6533
3.2012 3.9351 1.6926
3.0569 4.0463 1.6926
2.9088 4.1522 1.6926
2.7571 4.2527 1.6926
2.6019 4.3477 1.6926
0.8701 1.5800 0.6027
0.8128 1.6101 0.6028
0.7544 1.6382 0.6030
0.6950 1.6641 0.6031
0.6348 1.6880 0.6032
0.5738 1.7096 0.6034
0.5120 1.7291 0.6035
0.4496 1.7463 0.6036
0.3866 1.7613 0.6037
0.3231 1.7741 0.6039
0.2592 1.7845 0.6040
0.1949 1.7927 0.6041
0.1304 1.7986 0.6042
0.0657 1.8022 0.6043
0.0010 1.8034 0.6044
-0.0638 1.8024 0.6046
-0.1285 1.7990 0.6047
-0.1930 1.7933 0.6048
-0.2573 1.7854 0.6049
-0.3213 1.7751 0.6050
-0.3849 1.7625 0.6051
-0.4480 1.7477 0.6052
-0.5105 1.7307 0.6053
-0.5724 1.7114 0.6054
-0.6336 1.6899 0.6054
-0.6939 1.6662 0.6055
-0.7534 1.6404 0.6056
-0.8119 1.6125 0.6057
-0.8695 1.5825 0.6058
-2.5867 4.3317 1.6926
-2.7407 4.2361 1.6926
-2.8912 4.1351 1.6926
-3.0380 4.0288 1.6926
-3.1810 3.9174 1.6926
-3.3199 3.8009 1.6926
-3.4545 3.6795 1.6926
-3.5848 3.5534 1.6926
-3.7105 3.4228 1.6926
-2.1834 1.8735 0.9645
-2.0223 1.6128 0.8671
-2.0237 1.4983 0.8439
-2.0251 1.3896 0.8230
-2.0264 1.2860 0.8041
-2.0277 1.1868 0.7871
-1.9964 1.0742 0.7593
-1.9975 0.9840 0.7457
-1.9987 0.8968 0.7334
-1.9997 0.8124 0.7225
-2.0008 0.7303 0.7128
-2.0018 0.6502 0.7042
-2.0028 0.5719 0.6967
-2.0038 0.4951 0.6903
-2.0048 0.4196 0.6848
-2.0057 0.3451 0.6803
-2.0067 0.2715 0.6766
-2.0076 0.1985 0.6739
-2.0085 0.1260 0.6721
-2.0095 0.0538 0.6711
-2.0104 -0.0184 0.6710
-2.0113 -0.0907 0.6718
-2.0122 -0.1633 0.6734
-2.0132 -0.2364 0.6759
-2.0141 -0.3101 0.6793
-2.0151 -0.3848 0.6837
-2.0161 -0.4605 0.6890
-2.0171 -0.5376 0.6952
-2.0181 -0.6163 0.7025
-2.0191 -0.6967 0.7109
-2.0202 -0.7793 0.7204
-2.0213 -0.8643 0.7312
-2.0224 -0.9520 0.7432
-2.0236 -1.0428 0.7567
-2.0248 -1.1372 0.7716
-2.0261 -1.2356 0.7883
-2.0274 -1.3385 0.8067
-2.0288 -1.4465 0.8271
-2.0303 -1.5604 0.8497
-2.0319 -1.6810 0.8748
-2.0335 -1.8091 0.9026
-2.0353 -1.9458 0.9335
-2.0372 -2.0926 0.9678
-3.4302 -3.7863 1.6926
-3.2932 -3.9081 1.6926
-3.1519 -4.0250 1.6926
-3.0064 -4.1367 1.6926
-2.8569 -4.2431 1.6926
-2.7037 -4.3441 1.6926
-2.5468 -4.4395 1.6926
-2.3866 -4.5292 1.6926
-2.2232 -4.6132 1.6926
-2.0569 -4.6912 1.6926
-1.8878 -4.7631 1.6926
-1.7162 -4.8289 1.6926
-1.5423 -4.8885 1.6926
-1.3663 -4.9418 1.6926
-1.1885 -4.9888 1.6926
-1.0091 -5.0292 1.6926
-0.8283 -5.0632 1.6926
-0.6463 -5.0906 1.6926
-0.4634 -5.1115 1.6926
-0.2799 -5.1257 1.6926
-0.0960 -5.1332 1.6926
0.0881 -5.1342 1.6926
0.2722 -5.1284 1.6926
0.4560 -5.1160 1.6926
0.6392 -5.0970 1.6926
0.8216 -5.0713 1.6926
1.0030 -5.0391 1.6926
1.1831 -5.0003 1.6926
1.3617 -4.9550 1.6926
1.5386 -4.9033 1.6926
1.7135 -4.8453 1.6926
1.8861 -4.7809 1.6926
2.0564 -4.7103 1.6926
2.2240 -4.6336 1.6926
2.3886 -4.5509 1.6926
2.5502 -4.4623 1.6926
2.7085 -4.3679 1.6926
2.8633 -4.2678 1.6926
3.0143 -4.1622 1.6926
3.1614 -4.0512 1.6926
3.2405 -3.8590 1.6599
3.2509 -3.6008 1.5981
3.3593 -3.4629 1.5895
3.4810 -3.3399 1.5895
3.5981 -3.2125 1.5895
3.7104 -3.0811 1.5895
3.8180 -2.9456 1.5895
-2.0225 -0.9574 0.8004
-2.0237 -1.0485 0.8150
-2.0249 -1.1431 0.8312
-2.0262 -1.2417 0.8492
-2.0275 -1.3449 0.8692
-2.0289 -1.4533 0.8913
-2.0304 -1.5676 0.9158
-2.0320 -1.6886 0.9429
-2.0336 -1.8171 0.9731
-2.0686 -1.9863 1.0229
-2.0705 -2.1361 1.0608
-3.1803 -3.5258 1.6926
-3.0527 -3.6387 1.6926
-2.9210 -3.7469 1.6926
-2.7855 -3.8504 1.6926
-2.6464 -3.9489 1.6926
-2.5037 -4.0423 1.6926
-2.3578 -4.1306 1.6926
-2.2087 -4.2136 1.6926
-2.0567 -4.2912 1.6926
-1.9019 -4.3633 1.6926
-1.7446 -4.4298 1.6926
-1.5850 -4.4905 1.6926
-1.4233 -4.5455 1.6926
-1.2597 -4.5946 1.6926
-1.0943 -4.6378 1.6926
-0.9275 -4.6750 1.6926
-0.7594 -4.7061 1.6926
-0.5903 -4.7312 1.6926
-0.4204 -4.7501 1.6926
-0.2499 -4.7629 1.6926
-0.0789 -4.7695 1.6926
0.0921 -4.7699 1.6926
0.2631 -4.7642 1.6926
0.4338 -4.7523 1.6926
0.6040 -4.7342 1.6926
0.7734 -4.7100 1.6926
0.9418 -4.6796 1.6926
1.1091 -4.6432 1.6926
1.2749 -4.6008 1.6926
1.4391 -4.5524 1.6926
1.6014 -4.4981 1.6926
1.7617 -4.4379 1.6926
1.9197 -4.3720 1.6926
2.0752 -4.3004 1.6926
2.2281 -4.2233 1.6926
2.3780 -4.1406 1.6926
2.5249 -4.0526 1.6926
2.6684 -3.9594 1.6926
2.8085 -3.8610 1.6926
2.9450 -3.7576 1.6926
3.0776 -3.6494 1.6926
3.2062 -3.5364 1.6926
3.2421 -3.3281 1.6477
3.2530 -3.1081 1.5956
3.3491 -2.9777 1.5895
3.4532 -2.8553 1.5895
3.5529 -2.7293 1.5895
3.6480 -2.5998 1.5895
3.7383 -2.4670 1.5895
3.8237 -2.3310 1.5895
3.9041 -2.1920 1.5895
3.9795 -2.0503 1.5895
4.0497 -1.9059 1.5895
4.1146 -1.7591 1.5895
4.1742 -1.6101 1.5895
4.2283 -1.4591 1.5895
4.2769 -1.3062 1.5895
4.3200 -1.1518 1.5895
4.3575 -0.9959 1.5895
4.3893 -0.8387 1.5895
4.4155 -0.6806 1.5895
4.4359 -0.5217 1.5895
4.4505 -0.3622 1.5895
4.4595 -0.2022 1.5895
4.4626 -0.0422 1.5895
4.4600 0.1179 1.5895
4.4516 0.2777 1.5895
4.4375 0.4371 1.5895
4.4176 0.5958 1.5895
4.3921 0.7537 1.5895
4.3609 0.9105 1.5895
4.3241 1.0660 1.5895
4.2818 1.2201 1.5895
4.2339 1.3725 1.5895
4.1807 1.5231 1.5895
4.1220 1.6716 1.5895
4.0581 1.8178 1.5895
3.9890 1.9617 1.5895
3.9148 2.1029 1.5895
3.8356 2.2413 1.5895
3.7516 2.3768 1.5895
3.6627 2.5091 1.5895
3.5692 2.6381 1.5895
3.4711 2.7636 1.5895
3.3687 2.8856 1.5895
3.2721 3.0130 1.5945
3.2623 3.2280 1.6456
3.2331 3.4374 1.6926
3.1068 3.5502 1.6926
2.9764 3.6584 1.6926
2.8424 3.7618 1.6926
2.7047 3.8604 1.6926
2.5637 3.9539 1.6926
0.8614 1.4391 0.6026
0.8091 1.4690 0.6027
0.7558 1.4971 0.6028
0.7015 1.5232 0.6030
0.6463 1.5473 0.6031
0.5903 1.5694 0.6032
0.5336 1.5896 0.6033
0.4761 1.6077 0.6034
0.4181 1.6237 0.6035
0.3595 1.6377 0.6037
0.3005 1.6495 0.6038
0.2410 1.6592 0.6039
0.1813 1.6668 0.6040
0.1213 1.6723 0.6041
0.0612 1.6756 0.6042
0.0010 1.6768 0.6043
-0.0593 1.6758 0.6044
-0.1194 1.6727 0.6045
-0.1794 1.6674 0.6046
-0.2392 1.6600 0.6047
-0.2987 1.6504 0.6048
-0.3578 1.6387 0.6049
-0.4165 1.6249 0.6050
-0.4746 1.6091 0.6051
-0.5322 1.5911 0.6052
-0.5890 1.5711 0.6053
-0.6451 1.5491 0.6053
-0.7004 1.5251 0.6054
-0.7549 1.4991 0.6055
-0.8083 1.4712 0.6056
-0.8607 1.4414 0.6056
-2.5489 3.9396 1.6926
-2.6889 3.8456 1.6926
-2.8254 3.7468 1.6926
-2.9583 3.6431 1.6926
-3.0875 3.5347 1.6926
-3.2127 3.4218 1.6926
-3.3339 3.3046 1.6926
-2.1303 1.9650 1.0449
-2.1295 1.8271 1.0115
-2.0223 1.6127 0.9324
-2.0238 1.4982 0.9075
-2.0251 1.3895 0.8850
-2.0265 1.2859 0.8647
-2.0277 1.1868 0.8464
-1.9964 1.0741 0.8165
-1.9976 0.9839 0.8019
-1.9987 0.8968 0.7887
-1.9998 0.8123 0.7770
-2.0008 0.7302 0.7665
-2.0018 0.6501 0.7573
-2.0028 0.5718 0.7493
-2.0038 0.4950 0.7423
-2.0048 0.4195 0.7365
-2.0057 0.3450 0.7316
-2.0067 0.2714 0.7277
-2.0076 0.1984 0.7248
-2.0086 0.1259 0.7229
-2.0095 0.0536 0.7219
-2.0104 -0.0185 0.7218
-2.0113 -0.0908 0.7226
-2.0123 -0.1634 0.7244
-2.0132 -0.2365 0.7271
-2.0142 -0.3103 0.7308
-2.0151 -0.3849 0.7354
-2.0161 -0.4607 0.7411
-2.0171 -0.5378 0.7479
-2.0181 -0.6164 0.7557
-2.0191 -0.6969 0.7648
-2.0202 -0.7795 0.7750
-2.0213 -0.8644 0.7866
-2.0225 -0.9522 0.7996
-2.0236 -1.0430 0.8141
-2.0249 -1.1374 0.8302
-2.0261 -1.2358 0.8481
-2.0274 -1.3387 0.8679
-2.0289 -1.4468 0.8899
-2.0303 -1.5607 0.9143
-2.0319 -1.6812 0.9413
-2.0335 -1.8093 0.9712
-2.0685 -1.9778 1.0208
-2.0704 -2.1270 1.0585
-3.1877 -3.5190 1.6926
-3.0603 -3.6322 1.6926
-2.9289 -3.7407 1.6926
-2.7936 -3.8444 1.6926
-2.6547 -3.9432 1.6926
-2.5122 -4.0370 1.6926
-2.3664 -4.1256 1.6926
-2.2175 -4.2089 1.6926
-2.0657 -4.2868 1.6926
-1.9111 -4.3592 1.6926
-1.7540 -4.4260 1.6926
-1.5945 -4.4871 1.6926
-1.4329 -4.5424 1.6926
-1.2693 -4.5919 1.6926
-1.1041 -4.6354 1.6926
-0.9374 -4.6729 1.6926
-0.7694 -4.7044 1.6926
-0.6003 -4.7298 1.6926
-0.4304 -4.7491 1.6926
-0.2599 -4.7623 1.6926
-0.0890 -4.7693 1.6926
0.0820 -4.7701 1.6926
0.2531 -4.7647 1.6926
0.4238 -4.7532 1.6926
0.5940 -4.7354 1.6926
0.7634 -4.7116 1.6926
0.9319 -4.6816 1.6926
1.0992 -4.6455 1.6926
1.2652 -4.6035 1.6926
1.4295 -4.5554 1.6926
1.5919 -4.5014 1.6926
1.7523 -4.4416 1.6926
1.9105 -4.3761 1.6926
2.0662 -4.3048 1.6926
2.2192 -4.2280 1.6926
2.3693 -4.1457 1.6926
2.5163 -4.0580 1.6926
2.6601 -3.9650 1.6926
2.8004 -3.8669 1.6926
2.9370 -3.7638 1.6926
3.0699 -3.6559 1.6926
3.1987 -3.5432 1.6926
3.2421 -3.3421 1.6512
3.2522 -3.1206 1.5985
3.3428 -2.9848 1.5895
3.4472 -2.8627 1.5895
3.5472 -2.7369 1.5895
-2.0225 -0.9576 0.8577
-2.0237 -1.0487 0.8734
-2.0250 -1.1433 0.8908
-2.0262 -1.2419 0.9101
-2.0276 -1.3452 0.9315
-2.0290 -1.4536 0.9553
-2.0305 -1.5678 0.9815
-2.0651 -1.7163 1.0271
-2.0668 -1.8470 1.0599
-2.0686 -1.9866 1.0964
-2.0706 -2.1365 1.1370
-2.9671 -3.2898 1.6926
-2.8479 -3.3951 1.6926
-2.7250 -3.4960 1.6926
-2.5986 -3.5925 1.6926
-2.4687 -3.6843 1.6926
-2.3356 -3.7715 1.6926
-2.1994 -3.8538 1.6926
-2.0603 -3.9311 1.6926
-1.9185 -4.0034 1.6926
-1.7741 -4.0706 1.6926
-1.6273 -4.1326 1.6926
-1.4784 -4.1892 1.6926
-1.3275 -4.2404 1.6926
-1.1749 -4.2861 1.6926
-1.0206 -4.3264 1.6926
-0.8650 -4.3610 1.6926
-0.7083 -4.3900 1.6926
-0.5505 -4.4133 1.6926
-0.3920 -4.4310 1.6926
-0.2329 -4.4428 1.6926
-0.0735 -4.4490 1.6926
0.0861 -4.4493 1.6926
0.2455 -4.4440 1.6926
0.4048 -4.4328 1.6926
0.5635 -4.4159 1.6926
0.7215 -4.3933 1.6926
0.8786 -4.3650 1.6926
1.0346 -4.3310 1.6926
1.1892 -4.2914 1.6926
1.3424 -4.2462 1.6926
1.4938 -4.1956 1.6926
1.6433 -4.1395 1.6926
1.7906 -4.0780 1.6926
1.9357 -4.0112 1.6926
2.0782 -3.9393 1.6926
2.2181 -3.8622 1.6926
2.3550 -3.7801 1.6926
2.4889 -3.6931 1.6926
2.6196 -3.6014 1.6926
2.7469 -3.5050 1.6926
2.8706 -3.4040 1.6926
2.9905 -3.2987 1.6926
3.1066 -3.1891 1.6926
3.2186 -3.0754 1.6926
3.2435 -2.8840 1.6504
3.2521 -2.6892 1.6049
3.3140 -2.5460 1.5895
3.4027 -2.4252 1.5895
3.4870 -2.3014 1.5895
3.5667 -2.1745 1.5895
3.6418 -2.0449 1.5895
3.7121 -1.9127 1.5895
3.7776 -1.7781 1.5895
3.8382 -1.6412 1.5895
3.8938 -1.5022 1.5895
3.9444 -1.3613 1.5895
3.9898 -1.2188 1.5895
4.0301 -1.0747 1.5895
4.0651 -0.9293 1.5895
4.0948 -0.7827 1.5895
4.1193 -0.6352 1.5895
4.1384 -0.4869 1.5895
4.1521 -0.3381 1.5895
4.1605 -0.1889 1.5895
4.1635 -0.0396 1.5895
4.1611 0.1097 1.5895
4.1534 0.2588 1.5895
4.1403 0.4075 1.5895
4.1218 0.5557 1.5895
4.0981 0.7030 1.5895
4.0691 0.8493 1.5895
4.0348 0.9944 1.5895
3.9954 1.1382 1.5895
3.9508 1.2804 1.5895
3.9011 1.4209 1.5895
3.8465 1.5595 1.5895
3.7870 1.6960 1.5895
3.7225 1.8303 1.5895
3.6534 1.9621 1.5895
3.5796 2.0913 1.5895
3.5012 2.2178 1.5895
3.4183 2.3413 1.5895
3.3311 2.4617 1.5895
3.2686 2.6021 1.6038
3.2610 2.7929 1.6486
3.2420 2.9849 1.6926
3.1318 3.0985 1.6926
3.0177 3.2080 1.6926
2.8998 3.3133 1.6926
2.7783 3.4144 1.6926
2.6532 3.5109 1.6926
0.8985 1.2823 0.6024
0.8519 1.3136 0.6025
0.8041 1.3433 0.6026
0.7553 1.3712 0.6027
0.7055 1.3973 0.6028
0.6549 1.4217 0.6029
0.6034 1.4442 0.6031
0.5511 1.4649 0.6032
0.4981 1.4837 0.6033
0.4445 1.5006 0.6034
0.3903 1.5156 0.6035
0.3356 1.5286 0.6036
0.2805 1.5396 0.6037
0.2250 1.5487 0.6038
0.1693 1.5558 0.6039
0.1133 1.5609 0.6040
0.0572 1.5640 0.6041
0.0009 1.5651 0.6042
-0.0553 1.5642 0.6043
-0.1114 1.5612 0.6044
-0.1674 1.5563 0.6045
-0.2232 1.5493 0.6046
-0.2788 1.5404 0.6047
-0.3339 1.5295 0.6048
-0.3887 1.5166 0.6049
-0.4430 1.5018 0.6049
-0.4967 1.4850 0.6050
-0.5497 1.4664 0.6051
-0.6021 1.4458 0.6052
-0.6537 1.4234 0.6052
-0.7045 1.3991 0.6053
-0.7544 1.3731 0.6054
-0.8033 1.3452 0.6054
-0.8512 1.3157 0.6055
-0.8981 1.2844 0.6055
-2.6378 3.4979 1.6926
-2.7619 3.4011 1.6926
-2.8825 3.2999 1.6926
-2.9994 3.1945 1.6926
-3.1125 3.0849 1.6926
-2.0852 1.9233 1.0956
-2.0954 1.7977 1.0661
-2.0156 1.6073 0.9954
-2.0148 1.4915 0.9678
-2.0252 1.3894 0.9480
-2.0265 1.2858 0.9263
-2.0277 1.1867 0.9066
-1.9965 1.0740 0.8747
-1.9976 0.9838 0.8590
-1.9987 0.8967 0.8449
-1.9998 0.8122 0.8323
-2.0008 0.7301 0.8212
-2.0019 0.6500 0.8113
-2.0029 0.5717 0.8027
-2.0039 0.4949 0.7953
-2.0048 0.4193 0.7890
-2.0058 0.3449 0.7838
-2.0067 0.2713 0.7797
-2.0077 0.1983 0.7766
-2.0086 0.1258 0.7745
-2.0095 0.0535 0.7734
-2.0104 -0.0187 0.7733
-2.0114 -0.0910 0.7742
-2.0123 -0.1635 0.7761
-2.0133 -0.2366 0.7790
-2.0142 -0.3104 0.7830
-2.0152 -0.3851 0.7880
-2.0161 -0.4608 0.7941
-2.0171 -0.5379 0.8014
-2.0181 -0.6166 0.8098
-2.0192 -0.6971 0.8195
-2.0203 -0.7796 0.8305
-2.0213 -0.8646 0.8430
-2.0225 -0.9524 0.8569
-2.0236 -1.0432 0.8724
-2.0249 -1.1376 0.8897
-2.0262 -1.2360 0.9089
-2.0275 -1.3390 0.9302
-2.0289 -1.4470 0.9538
-2.0304 -1.5609 0.9799
-2.0650 -1.7089 1.0253
-2.0667 -1.8391 1.0579
-2.0685 -1.9781 1.0942
-2.0704 -2.1274 1.1345
-2.9739 -3.2835 1.6926
-2.8550 -3.3890 1.6926
-2.7324 -3.4902 1.6926
-2.6061 -3.5869 1.6926
-2.4765 -3.6790 1.6926
-2.3435 -3.7664 1.6926
-2.2075 -3.8491 1.6926
-2.0686 -3.9267 1.6926
-1.9269 -3.9993 1.6926
-1.7826 -4.0668 1.6926
-1.6360 -4.1291 1.6926
-1.4872 -4.1860 1.6926
-1.3365 -4.2375 1.6926
-1.1839 -4.2836 1.6926
-1.0298 -4.3242 1.6926
-0.8742 -4.3591 1.6926
-0.7175 -4.3884 1.6926
-0.5598 -4.4121 1.6926
-0.4013 -4.4301 1.6926
-0.2423 -4.4423 1.6926
-0.0829 -4.4488 1.6926
0.0767 -4.4495 1.6926
0.2362 -4.4444 1.6926
0.3954 -4.4336 1.6926
0.5541 -4.4171 1.6926
0.7122 -4.3948 1.6926
0.8694 -4.3668 1.6926
1.0254 -4.3332 1.6926
1.1802 -4.2939 1.6926
1.3334 -4.2491 1.6926
1.4849 -4.1987 1.6926
1.6345 -4.1429 1.6926
1.7820 -4.0818 1.6926
1.9272 -4.0153 1.6926
2.0699 -3.9436 1.6926
2.2099 -3.8669 1.6926
2.3471 -3.7851 1.6926
2.4812 -3.6984 1.6926
2.6120 -3.6069 1.6926
2.7395 -3.5108 1.6926
2.8634 -3.4101 1.6926
2.9836 -3.3050 1.6926
3.0999 -3.1957 1.6926
3.2121 -3.0822 1.6926
3.2435 -2.8962 1.6535
3.2515 -2.7003 1.6074
3.3087 -2.5530 1.5895
-2.0226 -0.9578 0.9161
-2.0238 -1.0489 0.9328
-2.0250 -1.1435 0.9514
-2.0263 -1.2422 0.9721
-2.0308 -1.3475 0.9966
-1.9783 -1.4175 0.9949
-1.9470 -1.5036 1.0053
-1.9494 -1.6204 1.0357
-2.0668 -1.8473 1.1322
-2.0687 -1.9870 1.1712
-2.0706 -2.1368 1.2146
-2.7775 -3.0801 1.6926
-2.6660 -3.1786 1.6926
-2.5509 -3.2730 1.6926
-2.4325 -3.3633 1.6926
-2.3109 -3.4492 1.6926
-2.1862 -3.5308 1.6926
-2.0587 -3.6078 1.6926
-1.9285 -3.6801 1.6926
-1.7957 -3.7478 1.6926
-1.6605 -3.8106 1.6926
-1.5231 -3.8685 1.6926
-1.3837 -3.9215 1.6926
-1.2425 -3.9694 1.6926
-1.0996 -4.0122 1.6926
-0.9552 -4.0498 1.6926
-0.8095 -4.0821 1.6926
-0.6628 -4.1092 1.6926
-0.5151 -4.1310 1.6926
-0.3667 -4.1475 1.6926
-0.2179 -4.1586 1.6926
-0.0686 -4.1643 1.6926
0.0807 -4.1646 1.6926
0.2300 -4.1595 1.6926
0.3790 -4.1491 1.6926
0.5275 -4.1332 1.6926
0.6754 -4.1120 1.6926
0.8224 -4.0855 1.6926
0.9684 -4.0537 1.6926
1.1131 -4.0166 1.6926
1.2564 -3.9743 1.6926
1.3982 -3.9269 1.6926
1.5381 -3.8744 1.6926
1.6760 -3.8169 1.6926
1.8117 -3.7544 1.6926
1.9451 -3.6870 1.6926
2.0760 -3.6149 1.6926
2.2042 -3.5381 1.6926
2.3296 -3.4567 1.6926
2.4518 -3.3708 1.6926
2.5710 -3.2806 1.6926
2.6867 -3.1862 1.6926
2.7990 -3.0876 1.6926
2.9077 -2.9850 1.6926
3.0125 -2.8786 1.6926
3.1134 -2.7685 1.6926
3.2103 -2.6548 1.6926
3.2447 -2.4929 1.6627
3.2494 -2.3161 1.6217
3.2638 -2.1542 1.5895
3.3384 -2.0355 1.5895
3.4087 -1.9142 1.5895
3.4746 -1.7905 1.5895
3.5359 -1.6645 1.5895
3.5927 -1.5364 1.5895
3.6448 -1.4063 1.5895
3.6922 -1.2745 1.5895
3.7347 -1.1411 1.5895
3.7724 -1.0062 1.5895
3.8053 -0.8701 1.5895
3.8332 -0.7329 1.5895
3.8561 -0.5948 1.5895
3.8740 -0.4561 1.5895
3.8870 -0.3168 1.5895
3.8949 -0.1771 1.5895
3.8977 -0.0373 1.5895
3.8956 0.1025 1.5895
3.8884 0.2421 1.5895
3.8762 0.3813 1.5895
3.8590 0.5199 1.5895
3.8368 0.6579 1.5895
3.8097 0.7949 1.5895
3.7777 0.9308 1.5895
3.7408 1.0654 1.5895
3.6991 1.1986 1.5895
3.6527 1.3301 1.5895
3.6016 1.4599 1.5895
3.5459 1.5878 1.5895
3.4857 1.7135 1.5895
3.4210 1.8370 1.5895
3.3519 1.9580 1.5895
3.2785 2.0764 1.5895
3.2636 2.2350 1.6206
3.2598 2.4087 1.6611
3.2305 2.5714 1.6926
3.1353 2.6849 1.6926
3.0361 2.7949 1.6926
2.9330 2.9013 1.6926
2.8262 3.0040 1.6926
2.7158 3.1026 1.6926
2.6020 3.1973 1.6926
0.8842 1.1700 0.6023
0.8416 1.2009 0.6024
0.7979 1.2302 0.6025
0.7532 1.2580 0.6026
0.7075 1.2841 0.6027
0.6608 1.3086 0.6028
0.6134 1.3314 0.6029
0.5652 1.3525 0.6030
0.5162 1.3719 0.6031
0.4666 1.3895 0.6032
0.4164 1.4053 0.6033
0.3656 1.4194 0.6035
0.3144 1.4315 0.6036
0.2628 1.4419 0.6037
0.2108 1.4504 0.6038
0.1586 1.4570 0.6038
0.1062 1.4618 0.6039
0.0536 1.4647 0.6040
0.0009 1.4657 0.6041
-0.0517 1.4649 0.6042
-0.1043 1.4621 0.6043
-0.1568 1.4575 0.6044
-0.2090 1.4510 0.6045
-0.2611 1.4426 0.6046
-0.3127 1.4324 0.6047
-0.3640 1.4203 0.6047
-0.4148 1.4064 0.6048
-0.4651 1.3907 0.6049
-0.5148 1.3732 0.6050
-0.5638 1.3539 0.6050
-0.6122 1.3329 0.6051
-0.6597 1.3102 0.6051
-0.7065 1.2858 0.6052
-0.7523 1.2597 0.6053
-0.7971 1.2320 0.6053
-0.8410 1.2027 0.6054
-0.8837 1.1719 0.6054
-2.5871 3.1857 1.6926
-2.7000 3.0909 1.6926
-2.8095 2.9921 1.6926
-2.9154 2.8895 1.6926
-2.0626 1.9023 1.1569
-1.9546 1.6769 1.0618
-1.9207 1.5316 1.0127
-1.9419 1.4374 0.9958
-1.9851 1.3618 0.9921
-2.0265 1.2857 0.9889
-2.0278 1.1866 0.9680
-1.9965 1.0739 0.9339
-1.9976 0.9837 0.9171
-1.9988 0.8966 0.9021
-1.9998 0.8121 0.8887
-2.0009 0.7299 0.8767
-2.0019 0.6499 0.8662
-2.0029 0.5715 0.8570
-2.0039 0.4947 0.8491
-2.0049 0.4192 0.8424
-2.0058 0.3448 0.8369
-2.0068 0.2711 0.8325
-2.0077 0.1982 0.8292
-2.0086 0.1257 0.8270
-2.0096 0.0534 0.8258
-2.0105 -0.0188 0.8258
-2.0114 -0.0911 0.8267
-2.0123 -0.1637 0.8288
-2.0133 -0.2368 0.8319
-2.0142 -0.3106 0.8362
-2.0152 -0.3852 0.8415
-2.0162 -0.4610 0.8481
-2.0172 -0.5381 0.8558
-2.0182 -0.6167 0.8649
-2.0192 -0.6972 0.8752
-2.0203 -0.7798 0.8870
-2.0214 -0.8648 0.9003
-2.0225 -0.9526 0.9152
-2.0237 -1.0434 0.9318
-2.0249 -1.1378 0.9503
-2.0262 -1.2362 0.9708
-2.0275 -1.3392 0.9936
-1.9809 -1.4130 0.9946
-1.9482 -1.4980 1.0043
-1.9474 -1.6118 1.0328
-2.0667 -1.8394 1.1300
-2.0686 -1.9785 1.1688
-2.0705 -2.1277 1.2119
-2.7840 -3.0742 1.6926
-2.6726 -3.1729 1.6926
-2.5578 -3.2676 1.6926
-2.4396 -3.3581 1.6926
-2.3181 -3.4443 1.6926
-2.1937 -3.5261 1.6926
-2.0663 -3.6033 1.6926
-1.9362 -3.6760 1.6926
-1.8036 -3.7439 1.6926
-1.6685 -3.8070 1.6926
-1.5313 -3.8653 1.6926
-1.3920 -3.9185 1.6926
-1.2508 -3.9667 1.6926
-1.1080 -4.0098 1.6926
-0.9637 -4.0477 1.6926
-0.8181 -4.0804 1.6926
-0.6715 -4.1078 1.6926
-0.5238 -4.1299 1.6926
-0.3755 -4.1467 1.6926
-0.2266 -4.1581 1.6926
-0.0774 -4.1641 1.6926
0.0719 -4.1647 1.6926
0.2212 -4.1600 1.6926
0.3702 -4.1498 1.6926
0.5188 -4.1343 1.6926
0.6667 -4.1134 1.6926
0.8138 -4.0872 1.6926
0.9598 -4.0557 1.6926
1.1047 -4.0190 1.6926
1.2481 -3.9770 1.6926
1.3899 -3.9299 1.6926
1.5299 -3.8776 1.6926
1.6679 -3.8204 1.6926
1.8038 -3.7582 1.6926
1.9374 -3.6911 1.6926
2.0684 -3.6193 1.6926
2.1967 -3.5427 1.6926
2.3223 -3.4616 1.6926
2.4447 -3.3760 1.6926
2.5640 -3.2860 1.6926
2.6800 -3.1918 1.6926
2.7925 -3.0935 1.6926
2.9014 -2.9912 1.6926
3.0065 -2.8850 1.6926
3.1076 -2.7751 1.6926
3.2048 -2.6616 1.6926
3.2447 -2.5038 1.6654
-2.0226 -0.9580 0.9756
-2.0567 -1.0662 1.0096
-2.0580 -1.1624 1.0297
-2.0458 -1.2544 1.0452
-1.9765 -1.3117 1.0329
-1.9259 -1.3801 1.0314
-1.8917 -1.4611 1.0402
-1.8790 -1.5621 1.0631
-1.9465 -1.7400 1.1356
-2.0687 -1.9873 1.2474
-2.0706 -2.1372 1.2937
-2.6079 -2.8924 1.6926
-2.5031 -2.9848 1.6926
-2.3950 -3.0734 1.6926
-2.2838 -3.1581 1.6926
-2.1696 -3.2388 1.6926
-2.0525 -3.3153 1.6926
-1.9328 -3.3875 1.6926
-1.8104 -3.4554 1.6926
-1.6858 -3.5189 1.6926
-1.5588 -3.5778 1.6926
-1.4298 -3.6322 1.6926
-1.2990 -3.6819 1.6926
-1.1663 -3.7268 1.6926
-1.0322 -3.7669 1.6926
-0.8966 -3.8022 1.6926
-0.7598 -3.8325 1.6926
-0.6221 -3.8579 1.6926
-0.4834 -3.8784 1.6926
-0.3441 -3.8938 1.6926
-0.2044 -3.9042 1.6926
-0.0643 -3.9095 1.6926
0.0759 -3.9098 1.6926
0.2160 -3.9050 1.6926
0.3559 -3.8951 1.6926
0.4953 -3.8802 1.6926
0.6341 -3.8603 1.6926
0.7721 -3.8354 1.6926
0.9092 -3.8055 1.6926
1.0450 -3.7707 1.6926
1.1796 -3.7310 1.6926
1.3126 -3.6865 1.6926
1.4439 -3.6372 1.6926
1.5734 -3.5832 1.6926
1.7008 -3.5245 1.6926
1.8261 -3.4613 1.6926
1.9489 -3.3936 1.6926
2.0692 -3.3215 1.6926
2.1869 -3.2451 1.6926
2.3017 -3.1645 1.6926
2.4135 -3.0798 1.6926
2.5222 -2.9912 1.6926
2.6276 -2.8986 1.6926
2.7296 -2.8024 1.6926
2.8281 -2.7025 1.6926
2.9228 -2.5992 1.6926
3.0138 -2.4924 1.6926
3.1009 -2.3825 1.6926
3.1839 -2.2696 1.6926
3.2458 -2.1425 1.6838
3.2463 -1.9795 1.6464
3.2523 -1.8266 1.6154
3.2620 -1.6811 1.5895
3.3196 -1.5629 1.5895
3.3730 -1.4426 1.5895
3.4393 -1.3272 1.5976
3.4664 -1.1968 1.5895
3.5064 -1.0715 1.5895
3.5418 -0.9449 1.5895
3.5727 -0.8171 1.5895
3.5989 -0.6884 1.5895
3.6205 -0.5587 1.5895
3.6374 -0.4284 1.5895
3.6496 -0.2977 1.5895
3.6570 -0.1665 1.5895
3.6598 -0.0353 1.5895
3.6578 0.0960 1.5895
3.6511 0.2270 1.5895
3.6397 0.3578 1.5895
3.6236 0.4880 1.5895
3.6028 0.6175 1.5895
3.5774 0.7461 1.5895
3.5474 0.8737 1.5895
3.5128 1.0002 1.5895
3.4738 1.1253 1.5895
3.4473 1.2551 1.5974
3.3823 1.3707 1.5895
3.3300 1.4908 1.5895
3.2735 1.6089 1.5895
3.2635 1.7521 1.6146
3.2582 1.9029 1.6452
3.2587 2.0635 1.6823
3.2013 2.1920 1.6926
3.1197 2.3049 1.6926
3.0342 2.4147 1.6926
2.9448 2.5214 1.6926
2.8516 2.6248 1.6926
2.7549 2.7247 1.6926
2.6546 2.8212 1.6926
2.5510 2.9139 1.6926
0.8696 1.0684 0.6022
0.8306 1.0989 0.6023
0.7906 1.1279 0.6024
0.7495 1.1555 0.6025
0.7075 1.1815 0.6026
0.6646 1.2061 0.6027
0.6208 1.2291 0.6028
0.5762 1.2506 0.6029
0.5309 1.2704 0.6030
0.4849 1.2886 0.6031
0.4383 1.3051 0.6032
0.3912 1.3200 0.6033
0.3435 1.3331 0.6034
0.2954 1.3446 0.6035
0.2469 1.3543 0.6036
0.1981 1.3623 0.6037
0.1490 1.3685 0.6038
0.0998 1.3730 0.6039
0.0504 1.3757 0.6040
0.0009 1.3767 0.6041
-0.0485 1.3759 0.6041
-0.0979 1.3733 0.6042
-0.1472 1.3689 0.6043
-0.1963 1.3628 0.6044
-0.2451 1.3549 0.6045
-0.2937 1.3453 0.6045
-0.3419 1.3340 0.6046
-0.3896 1.3209 0.6047
-0.4368 1.3062 0.6048
-0.4835 1.2897 0.6048
-0.5296 1.2716 0.6049
-0.5750 1.2519 0.6049
-0.6196 1.2305 0.6050
-0.6635 1.2076 0.6051
-0.7065 1.1831 0.6051
-0.7487 1.1571 0.6052
-0.7898 1.1296 0.6052
-0.8300 1.1006 0.6053
-0.8691 1.0702 0.6053
-2.5364 2.9036 1.6926
-2.6393 2.8108 1.6926
-2.7388 2.7143 1.6926
-2.0590 1.8989 1.2294
-1.8663 1.6011 1.0792
-1.8651 1.4871 1.0468
-1.8915 1.4000 1.0325
-1.9347 1.3271 1.0293
-1.9942 1.2651 1.0360
-2.0278 1.1865 1.0304
-2.0290 1.0913 1.0103
-1.9977 0.9836 0.9763
-1.9988 0.8965 0.9603
-1.9999 0.8120 0.9461
-2.0009 0.7299 0.9334
-2.0019 0.6498 0.9222
-2.0029 0.5714 0.9124
-2.0039 0.4946 0.9040
-2.0049 0.4191 0.8969
-2.0058 0.3446 0.8910
-2.0068 0.2710 0.8863
-2.0077 0.1981 0.8828
-2.0086 0.1255 0.8805
-2.0096 0.0533 0.8793
-2.0105 -0.0189 0.8792
-2.0114 -0.0912 0.8802
-2.0124 -0.1638 0.8824
-2.0133 -0.2369 0.8858
-2.0142 -0.3107 0.8903
-2.0152 -0.3854 0.8960
-2.0162 -0.4611 0.9030
-2.0172 -0.5382 0.9113
-2.0182 -0.6169 0.9209
-2.0192 -0.6974 0.9320
-2.0203 -0.7800 0.9445
-2.0214 -0.8650 0.9587
-2.0226 -0.9528 0.9746
-2.0237 -1.0436 0.9923
-2.0579 -1.1566 1.0285
-2.0506 -1.2514 1.0463
-1.9800 -1.3080 1.0333
-1.9284 -1.3758 1.0312
-1.8932 -1.4559 1.0394
-1.8789 -1.5553 1.0612
-1.9282 -1.7164 1.1229
-2.0686 -1.9788 1.2448
-2.0705 -2.1280 1.2908
-2.6139 -2.8868 1.6926
-2.5093 -2.9795 1.6926
-2.4015 -3.0683 1.6926
-2.2904 -3.1532 1.6926
-2.1764 -3.2341 1.6926
-2.0595 -3.3109 1.6926
-1.9399 -3.3834 1.6926
-1.8177 -3.4515 1.6926
-1.6931 -3.5153 1.6926
-1.5664 -3.5745 1.6926
-1.4375 -3.6291 1.6926
-1.3067 -3.6791 1.6926
-1.1742 -3.7243 1.6926
-1.0401 -3.7647 1.6926
-0.9046 -3.8002 1.6926
-0.7679 -3.8309 1.6926
-0.6302 -3.8566 1.6926
-0.4916 -3.8773 1.6926
-0.3524 -3.8930 1.6926
-0.2126 -3.9037 1.6926
-0.0726 -3.9093 1.6926
0.0676 -3.9099 1.6926
0.2078 -3.9054 1.6926
0.3476 -3.8959 1.6926
0.4871 -3.8813 1.6926
0.6260 -3.8616 1.6926
0.7640 -3.8370 1.6926
0.9011 -3.8074 1.6926
1.0371 -3.7729 1.6926
1.1717 -3.7335 1.6926
1.3048 -3.6892 1.6926
1.4362 -3.6402 1.6926
1.5658 -3.5865 1.6926
1.6934 -3.5281 1.6926
1.8187 -3.4651 1.6926
1.9417 -3.3977 1.6926
2.0622 -3.3259 1.6926
2.1801 -3.2497 1.6926
2.2950 -3.1694 1.6926
2.4070 -3.0849 1.6926
2.5159 -2.9965 1.6926
2.6215 -2.9042 1.6926
2.7237 -2.8081 1.6926
2.8224 -2.7085 1.6926
2.9174 -2.6053 1.6926
3.0086 -2.4988 1.6926
3.0958 -2.3891 1.6926
-2.0556 -0.9738 1.0531
-2.0568 -1.0664 1.0723
-2.0580 -1.1626 1.0937
-2.0006 -1.2268 1.0857
-1.9353 -1.2846 1.0743
-1.8860 -1.3517 1.0729
-1.8508 -1.4298 1.0811
-1.8328 -1.5239 1.1015
-1.8515 -1.6554 1.1475
-2.0687 -1.9876 1.3251
-2.0707 -2.1375 1.3743
-2.4549 -2.7231 1.6926
-2.3562 -2.8101 1.6926
-2.2545 -2.8935 1.6926
-2.1498 -2.9732 1.6926
-2.0422 -3.0491 1.6926
-1.9320 -3.1210 1.6926
-1.8192 -3.1890 1.6926
-1.7041 -3.2529 1.6926
-1.5867 -3.3126 1.6926
-1.4672 -3.3681 1.6926
-1.3458 -3.4192 1.6926
-1.2225 -3.4659 1.6926
-1.0977 -3.5082 1.6926
-0.9714 -3.5459 1.6926
-0.8438 -3.5791 1.6926
-0.7151 -3.6076 1.6926
-0.5854 -3.6315 1.6926
-0.4549 -3.6507 1.6926
-0.3238 -3.6652 1.6926
-0.1922 -3.6749 1.6926
-0.0604 -3.6799 1.6926
0.0715 -3.6801 1.6926
0.2034 -3.6756 1.6926
0.3351 -3.6663 1.6926
0.4663 -3.6523 1.6926
0.5969 -3.6335 1.6926
0.7268 -3.6101 1.6926
0.8558 -3.5819 1.6926
0.9837 -3.5492 1.6926
1.1103 -3.5118 1.6926
1.2355 -3.4699 1.6926
1.3591 -3.4235 1.6926
1.4810 -3.3726 1.6926
1.6009 -3.3174 1.6926
1.7188 -3.2579 1.6926
1.8344 -3.1942 1.6926
1.9476 -3.1263 1.6926
2.0584 -3.0544 1.6926
2.1664 -2.9786 1.6926
2.2717 -2.8989 1.6926
2.3740 -2.8155 1.6926
2.4732 -2.7284 1.6926
2.5692 -2.6378 1.6926
2.6619 -2.5438 1.6926
2.7511 -2.4466 1.6926
2.8367 -2.3461 1.6926
2.9187 -2.2427 1.6926
2.9968 -2.1364 1.6926
3.0711 -2.0274 1.6926
3.1414 -1.9157 1.6926
3.2076 -1.8016 1.6926
3.2472 -1.6737 1.6810
3.2477 -1.5292 1.6521
3.2509 -1.3906 1.6275
3.2561 -1.2567 1.6068
3.2629 -1.1267 1.5895
3.3006 -1.0088 1.5895
3.3340 -0.8897 1.5895
3.3631 -0.7694 1.5895
3.3878 -0.6482 1.5895
3.4082 -0.5262 1.5895
3.4421 -0.4057 1.5979
3.4436 -0.2811 1.5932
3.4446 -0.1571 1.5904
3.4453 -0.0334 1.5895
3.4454 0.0902 1.5904
3.4451 0.2140 1.5932
3.4444 0.3383 1.5978
3.4114 0.4591 1.5895
3.3919 0.5811 1.5895
3.3680 0.7022 1.5895
3.3398 0.8224 1.5895
3.3073 0.9414 1.5895
3.2705 1.0592 1.5895
3.2637 1.1879 1.6063
3.2594 1.3206 1.6269
3.2569 1.4577 1.6511
3.2573 1.6006 1.6798
3.2212 1.7291 1.6926
3.1563 1.8431 1.6926
3.0873 1.9547 1.6926
3.0144 2.0637 1.6926
2.9376 2.1700 1.6926
2.8571 2.2734 1.6926
2.7729 2.3739 1.6926
2.6853 2.4713 1.6926
2.5942 2.5654 1.6926
0.8892 0.9449 0.6021
0.8546 0.9761 0.6022
0.8190 1.0061 0.6023
0.7823 1.0347 0.6024
0.7445 1.0621 0.6025
0.7059 1.0880 0.6026
0.6663 1.1126 0.6026
0.6259 1.1357 0.6027
0.5847 1.1574 0.6028
0.5427 1.1776 0.6029
0.5000 1.1963 0.6030
0.4567 1.2134 0.6031
0.4128 1.2290 0.6032
0.3684 1.2430 0.6033
0.3235 1.2554 0.6034
0.2782 1.2662 0.6035
0.2325 1.2753 0.6036
0.1866 1.2828 0.6036
0.1404 1.2887 0.6037
0.0940 1.2929 0.6038
0.0475 1.2955 0.6039
0.0009 1.2964 0.6040
-0.0457 1.2956 0.6041
-0.0922 1.2931 0.6041
-0.1386 1.2890 0.6042
-0.1848 1.2833 0.6043
-0.2308 1.2759 0.6044
-0.2765 1.2668 0.6044
-0.3219 1.2561 0.6045
-0.3668 1.2438 0.6046
-0.4113 1.2299 0.6046
-0.4552 1.2144 0.6047
-0.4986 1.1974 0.6048
-0.5414 1.1788 0.6048
-0.5834 1.1587 0.6049
-0.6247 1.1371 0.6049
-0.6653 1.1140 0.6050
-0.7049 1.0895 0.6050
-0.7437 1.0636 0.6051
-0.7815 1.0363 0.6051
-0.8183 1.0076 0.6051
-0.8541 0.9777 0.6052
-0.8888 0.9465 0.6052
-2.5795 2.5563 1.6926
-2.0928 1.9300 1.3268
-1.8171 1.5587 1.1156
-1.8247 1.4548 1.0874
-1.8532 1.3716 1.0741
-1.8960 1.3005 1.0711
-1.9532 1.2389 1.0773
-2.0278 1.1864 1.0942
-2.0291 1.0912 1.0728
-2.0302 0.9995 1.0536
-2.0314 0.9110 1.0363
-2.0325 0.8251 1.0209
-2.0335 0.7416 1.0073
-2.0020 0.6496 0.9793
-2.0030 0.5713 0.9689
-2.0039 0.4945 0.9600
-2.0049 0.4190 0.9524
-2.0059 0.3445 0.9462
-2.0068 0.2709 0.9412
-2.0077 0.1979 0.9375
-2.0087 0.1254 0.9350
-2.0096 0.0531 0.9338
-2.0105 -0.0191 0.9337
-2.0115 -0.0914 0.9348
-2.0124 -0.1640 0.9372
-2.0133 -0.2371 0.9407
-2.0143 -0.3109 0.9455
-2.0152 -0.3855 0.9516
-2.0162 -0.4613 0.9591
-2.0172 -0.5384 0.9679
-2.0182 -0.6171 0.9781
-2.0193 -0.6976 0.9899
-2.0532 -0.7929 1.0196
-2.0544 -0.8793 1.0349
-2.0555 -0.9685 1.0520
-2.0567 -1.0608 1.0711
-2.0580 -1.1568 1.0924
-2.0051 -1.2238 1.0867
-1.9387 -1.2809 1.0747
-1.8885 -1.3475 1.0727
-1.8524 -1.4248 1.0803
-1.8332 -1.5177 1.0999
-1.8480 -1.6452 1.1431
-2.0686 -1.9791 1.3224
-2.0706 -2.1284 1.3712
-2.4606 -2.7179 1.6926
-2.3621 -2.8051 1.6926
-2.2605 -2.8887 1.6926
-2.1560 -2.9686 1.6926
-2.0486 -3.0447 1.6926
-1.9386 -3.1169 1.6926
-1.8259 -3.1851 1.6926
-1.7109 -3.2493 1.6926
-1.5937 -3.3092 1.6926
-1.4743 -3.3649 1.6926
-1.3530 -3.4163 1.6926
-1.2298 -3.4633 1.6926
-1.1051 -3.5058 1.6926
-0.9789 -3.5438 1.6926
-0.8514 -3.5772 1.6926
-0.7227 -3.6060 1.6926
-0.5930 -3.6302 1.6926
-0.4626 -3.6497 1.6926
-0.3315 -3.6644 1.6926
-0.2000 -3.6745 1.6926
-0.0682 -3.6797 1.6926
0.0638 -3.6803 1.6926
0.1957 -3.6760 1.6926
0.3273 -3.6670 1.6926
0.4586 -3.6533 1.6926
0.5893 -3.6348 1.6926
0.7192 -3.6116 1.6926
0.8483 -3.5837 1.6926
0.9762 -3.5512 1.6926
1.1029 -3.5141 1.6926
1.2282 -3.4725 1.6926
1.3519 -3.4263 1.6926
1.4738 -3.3757 1.6926
1.5939 -3.3208 1.6926
1.7119 -3.2615 1.6926
1.8276 -3.1981 1.6926
1.9410 -3.1304 1.6926
2.0519 -3.0588 1.6926
2.1601 -2.9832 1.6926
2.2656 -2.9037 1.6926
2.3681 -2.8205 1.6926
2.4675 -2.7336 1.6926
2.5637 -2.6432 1.6926
2.6565 -2.5494 1.6926
2.7459 -2.4524 1.6926
2.8318 -2.3521 1.6926
2.9140 -2.2489 1.6926
-2.0556 -0.9740 1.1160
-2.0568 -1.0666 1.1364
-2.0504 -1.1585 1.1548
-1.9661 -1.2059 1.1307
-1.9032 -1.2635 1.1196
-1.8548 -1.3296 1.1182
-1.8193 -1.4056 1.1262
-1.7991 -1.4961 1.1460
-1.8073 -1.6160 1.1871
-2.0688 -1.9879 1.4045
-2.0707 -2.1379 1.4566
-2.3162 -2.5696 1.6926
-2.2231 -2.6516 1.6926
-2.1270 -2.7303 1.6926
-2.0282 -2.8055 1.6926
-1.9267 -2.8770 1.6926
-1.8227 -2.9449 1.6926
-1.7163 -3.0090 1.6926
-1.6076 -3.0692 1.6926
-1.4969 -3.1256 1.6926
-1.3841 -3.1778 1.6926
-1.2695 -3.2260 1.6926
-1.1533 -3.2701 1.6926
-1.0355 -3.3099 1.6926
-0.9163 -3.3455 1.6926
-0.7959 -3.3767 1.6926
-0.6745 -3.4036 1.6926
-0.5521 -3.4262 1.6926
-0.4290 -3.4442 1.6926
-0.3053 -3.4579 1.6926
-0.1812 -3.4671 1.6926
-0.0569 -3.4717 1.6926
0.0676 -3.4720 1.6926
0.1920 -3.4677 1.6926
0.3162 -3.4589 1.6926
0.4400 -3.4456 1.6926
0.5632 -3.4279 1.6926
0.6858 -3.4058 1.6926
0.8075 -3.3792 1.6926
0.9281 -3.3483 1.6926
1.0475 -3.3131 1.6926
1.1656 -3.2735 1.6926
1.2822 -3.2297 1.6926
1.3972 -3.1817 1.6926
1.5103 -3.1297 1.6926
1.6215 -3.0735 1.6926
1.7306 -3.0134 1.6926
1.8374 -2.9494 1.6926
1.9419 -2.8816 1.6926
2.0438 -2.8101 1.6926
2.1431 -2.7349 1.6926
2.2396 -2.6562 1.6926
2.3332 -2.5741 1.6926
2.4238 -2.4886 1.6926
2.5112 -2.4000 1.6926
2.5954 -2.3082 1.6926
2.6762 -2.2135 1.6926
2.7535 -2.1159 1.6926
2.8272 -2.0157 1.6926
2.8973 -1.9128 1.6926
2.9636 -1.8075 1.6926
3.0261 -1.6999 1.6926
3.0846 -1.5901 1.6926
3.1392 -1.4783 1.6926
3.1896 -1.3646 1.6926
3.2360 -1.2492 1.6926
3.2489 -1.1221 1.6776
3.2493 -0.9933 1.6586
3.2497 -0.8674 1.6422
3.2525 -0.7443 1.6293
3.2552 -0.6230 1.6188
3.2576 -0.5031 1.6103
3.2595 -0.3843 1.6037
3.2609 -0.2664 1.5990
3.2619 -0.1490 1.5962
3.2625 -0.0319 1.5953
3.2627 0.0852 1.5962
3.2624 0.2024 1.5989
3.2617 0.3202 1.6036
3.2605 0.4386 1.6101
3.2589 0.5581 1.6185
3.2569 0.6788 1.6290
3.2548 0.8012 1.6417
3.2552 0.9263 1.6580
3.2556 1.0541 1.6768
3.2453 1.1809 1.6926
3.2000 1.2963 1.6926
3.1506 1.4099 1.6926
3.0973 1.5217 1.6926
3.0399 1.6314 1.6926
2.9786 1.7390 1.6926
2.9136 1.8444 1.6926
2.8448 1.9472 1.6926
2.7724 2.0476 1.6926
2.6964 2.1452 1.6926
2.6170 2.2401 1.6926
0.9013 0.8294 0.6020
0.8709 0.8611 0.6021
0.8393 0.8917 0.6021
0.8067 0.9212 0.6022
0.7730 0.9495 0.6023
0.7384 0.9765 0.6024
0.7028 1.0023 0.6025
0.6663 1.0269 0.6026
0.6289 1.0500 0.6027
0.5908 1.0719 0.6027
0.5519 1.0923 0.6028
0.5123 1.1114 0.6029
0.4720 1.1290 0.6030
0.4311 1.1452 0.6031
0.3897 1.1599 0.6032
0.3478 1.1731 0.6033
0.3054 1.1848 0.6033
0.2626 1.1950 0.6034
0.2195 1.2036 0.6035
0.1761 1.2107 0.6036
0.1325 1.2162 0.6037
0.0888 1.2202 0.6038
0.0449 1.2226 0.6038
0.0009 1.2235 0.6039
-0.0431 1.2227 0.6040
-0.0870 1.2204 0.6041
-0.1308 1.2165 0.6041
-0.1744 1.2111 0.6042
-0.2178 1.2041 0.6043
-0.2610 1.1956 0.6043
-0.3038 1.1855 0.6044
-0.3462 1.1738 0.6045
-0.3881 1.1607 0.6045
-0.4296 1.1461 0.6046
-0.4706 1.1300 0.6046
-0.5109 1.1124 0.6047
-0.5506 1.0935 0.6048
-0.5896 1.0731 0.6048
-0.6278 1.0513 0.6049
-0.6653 1.0281 0.6049
-0.7018 1.0037 0.6049
-0.7375 0.9779 0.6050
-0.7723 0.9509 0.6050
-0.8060 0.9226 0.6050
-0.8388 0.8932 0.6051
-0.8704 0.8626 0.6051
-0.9010 0.8308 0.6051
-1.7828 1.5292 1.1596
-1.7940 1.4302 1.1326
-1.8233 1.3493 1.1196
-1.8657 1.2796 1.1166
-1.9213 1.2187 1.1228
-1.9939 1.1664 1.1398
-2.0291 1.0911 1.1366
-2.0303 0.9994 1.1163
-2.0314 0.9109 1.0980
-2.0325 0.8250 1.0817
-2.0335 0.7415 1.0672
-2.0346 0.6601 1.0544
-2.0356 0.5805 1.0433
-2.0366 0.5025 1.0337
-2.0376 0.4257 1.0255
-2.0386 0.3500 1.0188
-2.0395 0.2752 1.0135
-2.0405 0.2010 1.0095
-2.0414 0.1273 1.0069
-2.0424 0.0539 1.0055
-2.0433 -0.0195 1.0054
-2.0442 -0.0930 1.0067
-2.0452 -0.1668 1.0092
-2.0461 -0.2411 1.0131
-2.0471 -0.3161 1.0183
-2.0481 -0.3920 1.0248
-2.0491 -0.4690 1.0329
-2.0501 -0.5474 1.0423
-2.0511 -0.6273 1.0534
-2.0522 -0.7091 1.0661
-2.0533 -0.7931 1.0805
-2.0544 -0.8795 1.0967
-2.0555 -0.9687 1.1149
-2.0568 -1.0611 1.1352
-2.0564 -1.1561 1.1568
-1.9704 -1.2028 1.1317
-1.9064 -1.2598 1.1200
-1.8573 -1.3254 1.1180
-1.8210 -1.4008 1.1255
-1.7997 -1.4902 1.1444
-1.8053 -1.6074 1.1835
-2.0687 -1.9794 1.4016
-2.0706 -2.1287 1.4534
-2.3216 -2.5647 1.6926
-2.2286 -2.6469 1.6926
-2.1328 -2.7258 1.6926
-2.0341 -2.8011 1.6926
-1.9328 -2.8729 1.6926
-1.8289 -2.9410 1.6926
-1.7226 -3.0053 1.6926
-1.6141 -3.0658 1.6926
-1.5034 -3.1224 1.6926
-1.3908 -3.1749 1.6926
-1.2763 -3.2233 1.6926
-1.1602 -3.2676 1.6926
-1.0424 -3.3077 1.6926
-0.9234 -3.3435 1.6926
-0.8031 -3.3750 1.6926
-0.6817 -3.4022 1.6926
-0.5594 -3.4250 1.6926
-0.4363 -3.4433 1.6926
-0.3127 -3.4572 1.6926
-0.1886 -3.4666 1.6926
-0.0642 -3.4716 1.6926
0.0603 -3.4721 1.6926
0.1847 -3.4680 1.6926
0.3089 -3.4595 1.6926
0.4327 -3.4465 1.6926
0.5560 -3.4291 1.6926
0.6786 -3.4072 1.6926
0.8003 -3.3809 1.6926
0.9210 -3.3503 1.6926
1.0405 -3.3152 1.6926
1.1587 -3.2759 1.6926
1.2754 -3.2324 1.6926
1.3904 -3.1847 1.6926
1.5037 -3.1328 1.6926
1.6150 -3.0769 1.6926
1.7242 -3.0171 1.6926
1.8312 -2.9533 1.6926
1.9358 -2.8857 1.6926
2.0379 -2.8144 1.6926
2.1373 -2.7394 1.6926
2.2340 -2.6609 1.6926
2.3278 -2.5790 1.6926
2.4185 -2.4937 1.6926
2.5061 -2.4053 1.6926
2.5905 -2.3137 1.6926
2.6715 -2.2191 1.6926
2.7491 -2.1217 1.6926
-2.0557 -0.9743 1.1803
-2.0568 -1.0668 1.2020
-2.0217 -1.1425 1.2043
-1.9399 -1.1900 1.1800
-1.8783 -1.2472 1.1687
-1.8306 -1.3125 1.1673
-1.7952 -1.3873 1.1755
-1.7743 -1.4757 1.1954
-1.7793 -1.5913 1.2362
-2.0688 -1.9883 1.4856
-2.2749 -2.3490 1.6926
-2.1897 -2.4296 1.6926
-2.1016 -2.5071 1.6926
-2.0108 -2.5815 1.6926
-1.9173 -2.6525 1.6926
-1.8214 -2.7201 1.6926
-1.7230 -2.7843 1.6926
-1.6224 -2.8449 1.6926
-1.5197 -2.9018 1.6926
-1.4149 -2.9550 1.6926
-1.3084 -3.0044 1.6926
-1.2000 -3.0499 1.6926
-1.0901 -3.0915 1.6926
-0.9788 -3.1292 1.6926
-0.8661 -3.1628 1.6926
-0.7523 -3.1923 1.6926
-0.6375 -3.2177 1.6926
-0.5218 -3.2390 1.6926
-0.4054 -3.2560 1.6926
-0.2885 -3.2689 1.6926
-0.1712 -3.2776 1.6926
-0.0536 -3.2820 1.6926
0.0640 -3.2822 1.6926
0.1816 -3.2781 1.6926
0.2990 -3.2698 1.6926
0.4160 -3.2572 1.6926
0.5325 -3.2405 1.6926
0.6484 -3.2196 1.6926
0.7634 -3.1944 1.6926
0.8774 -3.1652 1.6926
0.9903 -3.1319 1.6926
1.1019 -3.0945 1.6926
1.2121 -3.0531 1.6926
1.3208 -3.0077 1.6926
1.4277 -2.9585 1.6926
1.5328 -2.9055 1.6926
1.6359 -2.8486 1.6926
1.7369 -2.7881 1.6926
1.8357 -2.7240 1.6926
1.9320 -2.6564 1.6926
2.0259 -2.5854 1.6926
2.1171 -2.5110 1.6926
2.2056 -2.4334 1.6926
2.2912 -2.3526 1.6926
2.3739 -2.2688 1.6926
2.4534 -2.1821 1.6926
2.5298 -2.0926 1.6926
2.6029 -2.0004 1.6926
2.6726 -1.9056 1.6926
2.7389 -1.8084 1.6926
2.8016 -1.7088 1.6926
2.8607 -1.6071 1.6926
2.9160 -1.5033 1.6926
2.9676 -1.3976 1.6926
3.0153 -1.2902 1.6926
3.0591 -1.1811 1.6926
3.0990 -1.0705 1.6926
3.1348 -0.9585 1.6926
3.1666 -0.8454 1.6926
3.1943 -0.7312 1.6926
3.2178 -0.6161 1.6926
3.2372 -0.5002 1.6926
3.2512 -0.3836 1.6920
3.2516 -0.2658 1.6865
3.2519 -0.1487 1.6832
3.2523 -0.0320 1.6820
3.2526 0.0847 1.6831
3.2530 0.2016 1.6863
3.2534 0.3191 1.6917
3.2408 0.4357 1.6926
3.2223 0.5515 1.6926
3.1997 0.6666 1.6926
3.1730 0.7808 1.6926
3.1422 0.8939 1.6926
3.1073 1.0058 1.6926
3.0685 1.1164 1.6926
3.0258 1.2254 1.6926
2.9791 1.3329 1.6926
2.9287 1.4386 1.6926
2.8744 1.5424 1.6926
2.8166 1.6441 1.6926
2.7551 1.7437 1.6926
2.6901 1.8410 1.6926
2.6216 1.9359 1.6926
2.5498 2.0283 1.6926
0.8801 0.7532 0.6019
0.8524 0.7842 0.6020
0.8236 0.8143 0.6021
0.7938 0.8432 0.6022
0.7629 0.8711 0.6023
0.7311 0.8978 0.6023
0.6983 0.9234 0.6024
0.6647 0.9478 0.6025
0.6301 0.9710 0.6026
0.5948 0.9929 0.6027
0.5587 1.0136 0.6027
0.5220 1.0329 0.6028
0.4845 1.0510 0.6029
0.4464 1.0676 0.6030
0.4077 1.0829 0.6031
0.3686 1.0968 0.6031
0.3289 1.1093 0.6032
0.2888 1.1204 0.6033
0.2484 1.1300 0.6034
0.2076 1.1382 0.6035
0.1666 1.1449 0.6035
0.1254 1.1501 0.6036
0.0840 1.1539 0.6037
0.0425 1.1562 0.6038
0.0009 1.1569 0.6038
-0.0407 1.1563 0.6039
-0.0822 1.1541 0.6040
-0.1236 1.1504 0.6041
-0.1649 1.1452 0.6041
-0.2059 1.1386 0.6042
-0.2467 1.1305 0.6043
-0.2872 1.1210 0.6043
-0.3273 1.1100 0.6044
-0.3670 1.0976 0.6044
-0.4063 1.0837 0.6045
-0.4450 1.0685 0.6045
-0.4831 1.0519 0.6046
-0.5206 1.0340 0.6046
-0.5575 1.0147 0.6047
-0.5937 0.9941 0.6047
-0.6291 0.9722 0.6048
-0.6636 0.9490 0.6048
-0.6974 0.9247 0.6049
-0.7302 0.8991 0.6049
-0.7622 0.8724 0.6049
-0.7931 0.8445 0.6050
-0.8230 0.8156 0.6050
-0.8519 0.7856 0.6050
-0.8797 0.7545 0.6050
-1.7709 1.4117 1.1821
-1.8003 1.3322 1.1689
-1.8423 1.2635 1.1658
-1.8970 1.2031 1.1721
-1.9679 1.1511 1.1895
-2.0291 1.0910 1.2018
-2.0303 0.9993 1.1803
-2.0314 0.9108 1.1610
-2.0325 0.8249 1.1438
-2.0336 0.7414 1.1285
-2.0346 0.6600 1.1150
-2.0356 0.5804 1.1032
-2.0366 0.5023 1.0931
-2.0376 0.4256 1.0845
-2.0386 0.3499 1.0774
-2.0396 0.2751 1.0718
-2.0405 0.2009 1.0676
-2.0415 0.1272 1.0648
-2.0424 0.0537 1.0633
-2.0433 -0.0197 1.0633
-2.0443 -0.0931 1.0646
-2.0452 -0.1669 1.0673
-2.0462 -0.2412 1.0714
-2.0472 -0.3162 1.0769
-2.0481 -0.3921 1.0838
-2.0491 -0.4692 1.0923
-2.0501 -0.5475 1.1024
-2.0512 -0.6275 1.1141
-2.0522 -0.7093 1.1275
-2.0533 -0.7933 1.1427
-2.0544 -0.8797 1.1599
-2.0556 -0.9689 1.1791
-2.0568 -1.0613 1.2006
-2.0275 -1.1401 1.2063
-1.9441 -1.1870 1.1810
-1.8815 -1.2436 1.1691
-1.8330 -1.3084 1.1671
-1.7969 -1.3826 1.1747
-1.7750 -1.4700 1.1938
-1.7777 -1.5831 1.2327
-2.0687 -1.9798 1.4825
-2.2798 -2.3441 1.6926
-2.1948 -2.4249 1.6926
-2.1069 -2.5027 1.6926
-2.0162 -2.5772 1.6926
-1.9229 -2.6484 1.6926
-1.8271 -2.7162 1.6926
-1.7289 -2.7806 1.6926
-1.6284 -2.8414 1.6926
-1.5258 -2.8985 1.6926
-1.4212 -2.9520 1.6926
-1.3147 -3.0016 1.6926
-1.2064 -3.0474 1.6926
-1.0966 -3.0892 1.6926
-0.9853 -3.1271 1.6926
-0.8728 -3.1609 1.6926
-0.7590 -3.1907 1.6926
-0.6443 -3.2163 1.6926
-0.5287 -3.2378 1.6926
-0.4123 -3.2552 1.6926
-0.2954 -3.2683 1.6926
-0.1781 -3.2772 1.6926
-0.0606 -3.2818 1.6926
0.0571 -3.2823 1.6926
0.1747 -3.2784 1.6926
0.2921 -3.2704 1.6926
0.4092 -3.2581 1.6926
0.5257 -3.2416 1.6926
0.6416 -3.2209 1.6926
0.7566 -3.1960 1.6926
0.8707 -3.1670 1.6926
0.9837 -3.1339 1.6926
1.0954 -3.0968 1.6926
1.2057 -3.0556 1.6926
1.3144 -3.0105 1.6926
1.4215 -2.9615 1.6926
1.5267 -2.9087 1.6926
1.6299 -2.8521 1.6926
1.7310 -2.7918 1.6926
1.8299 -2.7279 1.6926
1.9264 -2.6605 1.6926
2.0204 -2.5896 1.6926
2.1118 -2.5155 1.6926
2.2005 -2.4380 1.6926
2.2863 -2.3574 1.6926
2.3691 -2.2738 1.6926
2.4488 -2.1873 1.6926
2.5254 -2.0979 1.6926
2.5987 -2.0059 1.6926
-2.0557 -0.9745 1.2462
-2.0569 -1.0671 1.2690
-2.0027 -1.1319 1.2596
-1.9212 -1.1788 1.2339
-1.8601 -1.2353 1.2220
-1.8128 -1.2999 1.2205
-1.7779 -1.3741 1.2291
-1.7575 -1.4620 1.2502
-1.7637 -1.5776 1.2938
-2.2324 -2.1457 1.6926
-2.1544 -2.2249 1.6926
-2.0737 -2.3013 1.6926
-1.9903 -2.3747 1.6926
-1.9043 -2.4451 1.6926
-1.8157 -2.5123 1.6926
-1.7248 -2.5763 1.6926
-1.6317 -2.6371 1.6926
-1.5364 -2.6944 1.6926
-1.4391 -2.7483 1.6926
-1.3399 -2.7987 1.6926
-1.2389 -2.8454 1.6926
-1.1363 -2.8885 1.6926
-1.0322 -2.9279 1.6926
-0.9268 -2.9635 1.6926
-0.8201 -2.9953 1.6926
-0.7123 -3.0233 1.6926
-0.6036 -3.0473 1.6926
-0.4940 -3.0674 1.6926
-0.3838 -3.0836 1.6926
-0.2731 -3.0958 1.6926
-0.1620 -3.1039 1.6926
-0.0507 -3.1081 1.6926
0.0607 -3.1083 1.6926
0.1721 -3.1044 1.6926
0.2833 -3.0965 1.6926
0.3941 -3.0846 1.6926
0.5044 -3.0688 1.6926
0.6141 -3.0489 1.6926
0.7230 -3.0251 1.6926
0.8309 -2.9974 1.6926
0.9378 -2.9659 1.6926
1.0435 -2.9305 1.6926
1.1479 -2.8913 1.6926
1.2508 -2.8483 1.6926
1.3520 -2.8017 1.6926
1.4515 -2.7515 1.6926
1.5492 -2.6977 1.6926
1.6448 -2.6404 1.6926
1.7383 -2.5797 1.6926
1.8296 -2.5157 1.6926
1.9185 -2.4484 1.6926
2.0049 -2.3779 1.6926
2.0886 -2.3044 1.6926
2.1697 -2.2280 1.6926
2.2480 -2.1486 1.6926
2.3234 -2.0665 1.6926
2.3957 -1.9818 1.6926
2.4649 -1.8945 1.6926
2.5310 -1.8047 1.6926
2.5937 -1.7127 1.6926
2.6531 -1.6184 1.6926
2.7091 -1.5221 1.6926
2.7615 -1.4238 1.6926
2.8104 -1.3238 1.6926
2.8556 -1.2220 1.6926
2.8971 -1.1187 1.6926
2.9348 -1.0139 1.6926
2.9688 -0.9079 1.6926
2.9989 -0.8008 1.6926
3.0251 -0.6927 1.6926
3.0475 -0.5836 1.6926
3.0658 -0.4739 1.6926
3.0803 -0.3636 1.6926
3.0907 -0.2529 1.6926
3.0972 -0.1419 1.6926
3.0996 -0.0307 1.6926
3.0981 0.0804 1.6926
3.0925 0.1914 1.6926
3.0830 0.3021 1.6926
3.0695 0.4124 1.6926
3.0520 0.5221 1.6926
3.0306 0.6311 1.6926
3.0054 0.7393 1.6926
2.9762 0.8464 1.6926
2.9432 0.9524 1.6926
2.9065 1.0571 1.6926
2.8660 1.1605 1.6926
2.8219 1.2623 1.6926
2.7741 1.3624 1.6926
2.7228 1.4607 1.6926
2.6680 1.5571 1.6926
2.6098 1.6515 1.6926
2.5482 1.7437 1.6926
0.8830 0.6520 0.6018
0.8589 0.6832 0.6019
0.8338 0.7135 0.6020
0.8075 0.7429 0.6021
0.7803 0.7713 0.6021
0.7520 0.7987 0.6022
0.7228 0.8251 0.6023
0.6926 0.8505 0.6024
0.6616 0.8747 0.6024
0.6297 0.8978 0.6025
0.5970 0.9198 0.6026
0.5635 0.9406 0.6027
0.5294 0.9601 0.6027
0.4945 0.9785 0.6028
0.4590 0.9955 0.6029
0.4229 1.0113 0.6030
0.3863 1.0258 0.6031
0.3492 1.0390 0.6031
0.3116 1.0508 0.6032
0.2737 1.0613 0.6033
0.2354 1.0704 0.6034
0.1968 1.0782 0.6034
0.1579 1.0845 0.6035
0.1188 1.0895 0.6036
0.0796 1.0930 0.6037
0.0403 1.0952 0.6037
0.0009 1.0959 0.6038
-0.0385 1.0953 0.6039
-0.0778 1.0932 0.6039
-0.1171 1.0897 0.6040
-0.1562 1.0848 0.6041
-0.1950 1.0786 0.6041
-0.2337 1.0709 0.6042
-0.2720 1.0619 0.6042
-0.3100 1.0514 0.6043
-0.3476 1.0397 0.6044
-0.3848 1.0266 0.6044
-0.4215 1.0121 0.6045
-0.4576 0.9964 0.6045
-0.4932 0.9794 0.6045
-0.5281 0.9611 0.6046
-0.5623 0.9416 0.6046
-0.5959 0.9209 0.6047
-0.6286 0.8989 0.6047
-0.6606 0.8758 0.6047
-0.6917 0.8516 0.6048
-0.7219 0.8263 0.6048
-0.7512 0.7999 0.6048
-0.7796 0.7725 0.6049
-0.8069 0.7440 0.6049
-0.8333 0.7146 0.6049
-0.8585 0.6843 0.6049
-0.8826 0.6531 0.6049
-0.9057 0.6211 0.6049
-1.8795 1.1919 1.2259
-1.9502 1.1406 1.2443
-2.0292 1.0909 1.2686
-2.0303 0.9992 1.2459
-2.0315 0.9106 1.2256
-2.0325 0.8248 1.2074
-2.0336 0.7413 1.1912
-2.0347 0.6599 1.1770
-2.0357 0.5803 1.1645
-2.0367 0.5022 1.1538
-2.0376 0.4254 1.1448
-2.0386 0.3498 1.1373
-2.0396 0.2749 1.1314
-2.0405 0.2007 1.1270
-2.0415 0.1270 1.1240
-2.0424 0.0536 1.1225
-2.0434 -0.0198 1.1225
-2.0443 -0.0933 1.1239
-2.0453 -0.1671 1.1267
-2.0462 -0.2414 1.1310
-2.0472 -0.3164 1.1369
-2.0482 -0.3923 1.1442
-2.0491 -0.4693 1.1532
-2.0502 -0.5477 1.1638
-2.0512 -0.6277 1.1762
-2.0523 -0.7095 1.1904
-2.0533 -0.7935 1.2065
-2.0545 -0.8799 1.2246
-2.0556 -0.9691 1.2449
-2.0568 -1.0615 1.2676
-2.0084 -1.1296 1.2617
-1.9254 -1.1757 1.2349
-1.8633 -1.2317 1.2224
-1.8152 -1.2959 1.2203
-1.7796 -1.3694 1.2283
-1.7582 -1.4563 1.2485
-1.7619 -1.5693 1.2901
-2.2369 -2.1410 1.6926
-2.1591 -2.2203 1.6926
-2.0785 -2.2969 1.6926
-1.9953 -2.3705 1.6926
-1.9094 -2.4410 1.6926
-1.8210 -2.5085 1.6926
-1.7302 -2.5727 1.6926
-1.6372 -2.6336 1.6926
-1.5421 -2.6911 1.6926
-1.4449 -2.7452 1.6926
-1.3458 -2.7958 1.6926
-1.2449 -2.8428 1.6926
-1.1424 -2.8861 1.6926
-1.0384 -2.9257 1.6926
-0.9330 -2.9615 1.6926
-0.8264 -2.9936 1.6926
-0.7187 -3.0217 1.6926
-0.6100 -3.0460 1.6926
-0.5005 -3.0664 1.6926
-0.3903 -3.0827 1.6926
-0.2796 -3.0952 1.6926
-0.1686 -3.1036 1.6926
-0.0572 -3.1080 1.6926
0.0542 -3.1084 1.6926
0.1655 -3.1047 1.6926
0.2767 -3.0971 1.6926
0.3876 -3.0854 1.6926
0.4979 -3.0698 1.6926
0.6076 -3.0502 1.6926
0.7166 -3.0266 1.6926
0.8246 -2.9992 1.6926
0.9316 -2.9678 1.6926
1.0373 -2.9326 1.6926
1.1418 -2.8937 1.6926
1.2447 -2.8510 1.6926
1.3461 -2.8045 1.6926
