ply
format ascii 1.0
element vertex 2157
property float32 x
property float32 y
property float32 z
end_header
6.7593 -1.2453 0.3258
5.1344 -0.7568 0.2481
5.1316 -0.5693 0.2490
5.1289 -0.3835 0.2501
5.1261 -0.1990 0.2516
5.1234 -0.0151 0.2535
5.1206 0.1686 0.2556
5.1179 0.3525 0.2581
6.8652 0.7209 0.3503
6.6898 0.9460 0.3457
6.5710 1.1708 0.3444
6.5041 1.4012 0.3461
6.4631 1.6369 0.3496
6.4771 1.8900 0.3566
6.5154 2.1575 0.3656
6.6678 2.4765 0.3818
7.0243 2.8996 0.4111
7.9010 3.5983 0.4731
7.8259 3.9087 0.4802
7.1547 3.9001 0.4505
6.5680 3.8920 0.4251
6.1436 3.9448 0.4093
7.1880 4.9883 0.4938
7.1838 5.3770 0.5097
6.7144 5.4120 0.4930
6.2332 5.4041 0.4745
5.8869 5.4858 0.4656
6.9846 6.9933 0.5751
6.6337 7.1364 0.5701
6.1650 7.1286 0.5544
5.7999 7.2140 0.5473
6.5641 8.7925 0.6520
6.3455 9.1682 0.6657
6.3355 9.8942 0.7047
6.9069 11.6897 0.8179
6.6060 12.1559 0.8367
7.3817 14.8276 1.0056
6.7253 14.8187 0.9916
6.0906 14.8101 0.9791
5.4750 14.8017 0.9680
5.3868 16.3425 1.0585
7.3321 25.2575 1.6223
6.4055 25.4415 1.6223
5.3982 25.2317 1.5991
3.5315 19.9865 1.2603
3.5619 25.4583 1.5991
2.4965 24.1223 1.5108
1.8336 27.2259 1.7022
0.8548 27.2461 1.7022
-0.1231 27.2378 1.7022
-1.0995 27.2012 1.7022
-2.0740 27.1361 1.7022
-3.0460 27.0428 1.7022
-4.0149 26.9213 1.7022
-2.6063 14.0104 0.8908
-2.7825 12.4541 0.7971
-3.2542 12.4489 0.8030
-3.7346 12.4435 0.8099
-4.2249 12.4380 0.8177
-9.1433 24.0482 1.5989
-10.1021 23.9464 1.6122
-10.9778 23.6187 1.6122
-11.8460 23.2646 1.6122
-12.7058 22.8840 1.6122
-13.5568 22.4770 1.6122
-14.5925 13.1318 1.6122
-14.6860 12.2916 1.5671
-14.6719 11.4104 1.5153
-14.6262 10.5552 1.4649
-14.6133 9.7684 1.4219
-14.6369 9.0419 1.3860
-14.6268 8.3261 1.3501
-14.5814 7.6212 1.3140
-14.6062 6.9791 1.2871
-14.5972 6.3421 1.2596
-14.5528 5.7116 1.2314
-14.5784 5.1263 1.2113
-14.5363 4.5327 1.1876
-14.6479 3.9971 1.1783
-15.1244 3.5497 1.1994
-16.2387 3.2016 1.2711
-17.6139 2.8208 1.3627
-17.9431 2.2170 1.3736
-17.5651 1.5334 1.3323
-19.7929 1.0146 1.4892
-18.6285 0.2861 1.3921
-18.6185 -0.3818 1.3836
-17.2039 -0.9706 1.2729
-17.1946 -1.5901 1.2683
-17.1853 -2.2131 1.2653
-17.1759 -2.8411 1.2639
-17.3491 -3.5128 1.2775
-18.3100 -4.3960 1.3511
-18.2996 -5.0937 1.3549
-18.2890 -5.8046 1.3607
-18.2781 -6.5311 1.3684
-18.2670 -7.2754 1.3781
-18.2556 -8.0404 1.3900
-18.2438 -8.8289 1.4041
-18.2316 -9.6441 1.4207
-17.3124 -9.9678 1.3682
-16.2010 -10.1177 1.3009
-15.6970 -10.6032 1.2829
-15.0643 -10.9821 1.2557
-17.6152 -13.8349 1.5006
-17.6002 -14.8730 1.5355
-17.5843 -15.9740 1.5749
-17.4924 -17.0738 1.6122
-16.9537 -17.7779 1.6122
-16.3853 -18.4634 1.6122
-15.7876 -19.1287 1.6122
-7.0052 -9.1357 0.7449
-6.9912 -9.8276 0.7769
-10.8144 -16.4168 1.2610
-11.5651 -19.0051 1.4212
-10.6437 -18.9913 1.3853
-3.8863 -7.5570 0.5387
-3.5477 -7.5521 0.5271
-3.2207 -7.5474 0.5166
-2.9039 -7.5429 0.5072
-2.5961 -7.5384 0.4989
-2.2962 -7.5341 0.4915
-2.1864 -8.2187 0.5293
-2.1678 -9.5075 0.6055
-2.1427 -11.2417 0.7092
-4.1808 -27.1994 1.7022
-3.2090 -27.3758 1.7022
-2.2293 -27.5109 1.7022
-1.2438 -27.6044 1.7022
-0.2544 -27.6558 1.7022
0.2591 -9.7257 0.5984
0.5641 -9.0199 0.5556
0.8899 -9.0253 0.5575
1.2185 -9.0308 0.5602
1.5507 -9.0364 0.5639
5.3097 -25.4380 1.5991
6.2123 -25.2104 1.5991
6.8713 -24.1286 1.5468
6.2920 -19.4239 1.2605
6.4007 -17.5844 1.1571
6.3370 -15.6419 1.0454
6.3501 -14.1908 0.9650
6.3306 -12.8881 0.8932
6.1622 -11.4861 0.8129
6.2994 -10.7947 0.7815
6.1207 -9.6749 0.7180
6.5772 -9.6158 0.7329
7.0903 -9.6082 0.7537
7.6303 -9.6001 0.7768
8.2010 -9.5916 0.8023
8.8068 -9.5825 0.8307
9.4525 -9.5729 0.8621
5.1963 -4.8983 0.4596
5.1911 -4.5535 0.4463
5.1863 -4.2303 0.4346
5.1818 -3.9260 0.4241
5.3780 -3.7792 0.4309
5.8002 -3.7729 0.4559
6.2700 -3.7659 0.4843
6.7977 -3.7582 0.5170
7.0894 -3.5940 0.5319
7.7464 -3.5842 0.5742
8.2776 -3.4755 0.6073
8.2724 -3.1296 0.6016
8.2674 -2.7933 0.5969
8.2625 -2.4655 0.5932
3.0928 -0.8034 0.2211
8.2530 -1.8308 0.5883
6.7594 -1.2471 0.4811
5.1345 -0.7582 0.3654
5.1317 -0.5707 0.3657
5.1289 -0.3849 0.3664
5.1261 -0.2003 0.3676
5.1234 -0.0164 0.3693
5.1206 0.1672 0.3715
5.1179 0.3511 0.3741
6.7998 0.7122 0.5015
6.6907 0.9443 0.4985
6.5718 1.1692 0.4953
6.4537 1.3886 0.4926
6.4131 1.6224 0.4964
6.4222 1.8721 0.5048
6.4602 2.1373 0.5164
6.6666 2.4741 0.5425
7.3847 3.0462 0.6128
7.9011 3.5959 0.6694
7.8311 3.9089 0.6784
7.1588 3.9000 0.6351
6.5717 3.8921 0.5980
5.9924 3.8458 0.5602
5.9629 4.1361 0.5737
7.0147 5.2480 0.6958
6.7176 5.4121 0.6883
6.2361 5.4043 0.6613
5.8652 5.4633 0.6451
5.6931 5.6978 0.6510
6.6364 7.1365 0.7908
6.1676 7.1288 0.7679
5.7296 7.1238 0.7475
6.5651 8.7906 0.9003
6.3460 9.1655 0.9179
6.3377 9.8939 0.9707
6.9133 11.6963 1.1259
6.6072 12.1536 1.1498
7.3844 14.8277 1.3807
6.7276 14.8186 1.3601
6.0927 14.8099 1.3417
5.4772 14.8023 1.3254
5.4038 16.3881 1.4522
5.2885 18.2111 1.5991
4.6233 18.3558 1.5991
3.9552 18.4796 1.5991
3.2848 18.5824 1.5991
2.6125 18.6643 1.5991
2.0639 19.9323 1.7022
1.3462 19.9749 1.7022
0.6280 19.9952 1.7022
-0.0898 19.9933 1.7022
-0.8068 19.9692 1.7022
-1.5225 19.9230 1.7022
-2.2364 19.8547 1.7022
-2.9478 19.7645 1.7022
-2.6063 14.0085 1.2133
-2.7829 12.4542 1.0861
-3.2548 12.4489 1.0944
-3.7353 12.4435 1.1041
-4.2258 12.4380 1.1152
-6.7029 17.6258 1.5989
-7.3412 17.3980 1.5989
-7.9731 17.1501 1.5989
-8.5982 16.8823 1.5989
-9.2160 16.5944 1.5989
-9.9072 16.4218 1.6122
-11.4324 10.2843 1.6122
-11.8270 9.8951 1.6122
-12.2099 9.4919 1.6122
-12.5805 9.0751 1.6122
-12.9384 8.6449 1.6122
-13.2830 8.2017 1.6122
-13.6140 7.7456 1.6122
-13.9308 7.2772 1.6122
-14.2329 6.7967 1.6122
-14.5199 6.3046 1.6122
-14.5527 5.7075 1.5862
-14.5783 5.1223 1.5620
-14.5362 4.5287 1.5331
-14.6497 3.9937 1.5230
-15.1297 3.5469 1.5524
-15.8986 3.1304 1.6122
-16.0669 2.5688 1.6122
-16.2165 1.9994 1.6122
-16.3471 1.4227 1.6122
-16.4581 0.8393 1.6122
-16.5491 0.2497 1.6122
-16.6199 -0.3452 1.6122
-16.6701 -0.9450 1.6122
-16.6993 -1.5488 1.6122
-16.7073 -2.1560 1.6122
-16.6936 -2.7658 1.6122
-16.6581 -3.3775 1.6122
-16.6005 -3.9903 1.6122
-16.5207 -4.6032 1.6122
-16.4183 -5.2156 1.6122
-16.2933 -5.8266 1.6122
-16.1454 -6.4352 1.6122
-15.9747 -7.0407 1.6122
-15.7811 -7.6420 1.6122
-15.5646 -8.2383 1.6122
-15.3250 -8.8285 1.6122
-15.0627 -9.4119 1.6122
-14.7776 -9.9873 1.6122
-14.4698 -10.5538 1.6122
-14.1396 -11.1104 1.6122
-13.7873 -11.6561 1.6122
-13.4131 -12.1900 1.6122
-13.0173 -12.7111 1.6122
-12.6004 -13.2184 1.6122
-12.1627 -13.7108 1.6122
-11.7049 -14.1875 1.6122
-6.6244 -8.6424 0.9512
-10.7308 -15.0899 1.6122
-6.4866 -9.8507 1.0237
-9.6828 -15.9179 1.6122
-9.0579 -16.1678 1.5989
-3.8849 -7.5569 0.7311
-3.5464 -7.5520 0.7160
-3.2195 -7.5473 0.7024
-2.9028 -7.5427 0.6902
-2.5952 -7.5383 0.6794
-2.2954 -7.5340 0.6698
-2.1864 -8.2217 0.7221
-2.1677 -9.5110 0.8266
-2.1427 -11.2461 0.9687
-3.0592 -19.9112 1.7022
-2.3469 -20.0317 1.7022
-1.6297 -20.1231 1.7022
-0.9087 -20.1854 1.7022
-0.1067 -11.6345 0.9795
0.2591 -9.7215 0.8183
0.5641 -9.0181 0.7601
0.8898 -9.0235 0.7627
1.2182 -9.0290 0.7664
1.5502 -9.0346 0.7713
3.8810 -18.5961 1.5991
4.5417 -18.4339 1.5991
5.1948 -18.2449 1.5991
5.8392 -18.0297 1.5991
6.2320 -17.1242 1.5393
6.2591 -15.4529 1.4102
6.3501 -14.1941 1.3172
6.3307 -12.8912 1.2186
6.1607 -11.4861 1.1080
6.2994 -10.7975 1.0647
6.1208 -9.6775 0.9774
6.0142 -8.7951 0.9116
7.0883 -9.6082 1.0240
7.6281 -9.6001 1.0544
7.5695 -8.8558 1.0045
8.8040 -9.5826 1.1253
9.4494 -9.5730 1.1667
5.1963 -4.9001 0.6214
5.1911 -4.5552 0.6029
5.1863 -4.2319 0.5863
5.1818 -3.9276 0.5715
5.3757 -3.7793 0.5796
5.7976 -3.7730 0.6124
6.2671 -3.7660 0.6498
6.7977 -3.7601 0.6931
7.0855 -3.5941 0.7116
7.7419 -3.5843 0.7673
8.2776 -3.4778 0.8108
8.2724 -3.1318 0.8021
8.2674 -2.7956 0.7948
8.2625 -2.4677 0.7887
3.0911 -0.8038 0.2934
8.2530 -1.8330 0.7800
6.7595 -1.2490 0.6370
5.1345 -0.7595 0.4831
5.1317 -0.5721 0.4827
5.1289 -0.3863 0.4830
5.1261 -0.2017 0.4839
5.1234 -0.0178 0.4855
5.1207 0.1659 0.4876
5.1179 0.3498 0.4904
6.9927 0.7305 0.6752
6.6916 0.9426 0.6518
6.5727 1.1675 0.6468
6.5845 1.4149 0.6554
6.5808 1.6630 0.6634
6.5770 1.9154 0.6724
6.4599 2.1353 0.6707
6.6654 2.4717 0.7037
7.3857 3.0443 0.7941
7.9013 3.5936 0.8664
7.8364 3.9090 0.8776
7.1632 3.9001 0.8206
6.5755 3.8922 0.7717
6.0570 3.8851 0.7296
5.8065 4.0255 0.7190
6.6551 4.9766 0.8487
6.6510 5.3560 0.8753
6.2391 5.4044 0.8490
5.7543 5.3577 0.8114
5.4845 5.4867 0.8032
5.3674 5.7694 0.8184
6.1702 7.1290 0.9822
5.7300 7.1215 0.9550
5.3154 7.1146 0.9305
6.3465 9.1628 1.1710
6.3398 9.8936 1.2377
6.8757 11.6284 1.4265
6.6083 12.1514 1.4640
6.8198 13.6889 1.6223
6.2206 13.6970 1.5991
5.7139 13.8841 1.5991
5.2024 14.0544 1.5991
4.6866 14.2079 1.5991
4.1672 14.3444 1.5991
3.6445 14.4640 1.5991
3.1189 14.5666 1.5991
2.5911 14.6521 1.5991
2.1944 15.6697 1.7022
1.6291 15.7245 1.7022
1.0629 15.7612 1.7022
0.4962 15.7797 1.7022
-0.0705 15.7801 1.7022
-0.6366 15.7624 1.7022
-1.2017 15.7266 1.7022
-1.7654 15.6729 1.7022
-2.3271 15.6011 1.7022
-2.3646 12.7082 1.3945
-2.7828 12.4520 1.3760
-3.9953 15.2786 1.7022
-4.5442 15.1357 1.7022
-4.2209 12.4213 1.4119
-5.6199 14.7750 1.6996
-5.7887 13.7157 1.5989
-6.2850 13.5158 1.5989
-6.7753 13.2998 1.5989
-7.2592 13.0677 1.5989
-7.7362 12.8198 1.5989
-9.3128 8.3745 1.5989
-9.7093 8.1202 1.6122
-10.0184 7.7852 1.6122
-10.3170 7.4392 1.6122
-10.6046 7.0824 1.6122
-10.8808 6.7152 1.6122
-11.1452 6.3378 1.6122
-11.3976 5.9506 1.6122
-11.6374 5.5540 1.6122
-11.8643 5.1482 1.6122
-12.0780 4.7336 1.6122
-12.2781 4.3107 1.6122
-12.4642 3.8798 1.6122
-12.6360 3.4413 1.6122
-12.7932 2.9957 1.6122
-12.9355 2.5435 1.6122
-13.0625 2.0850 1.6122
-13.1739 1.6208 1.6122
-13.2694 1.1513 1.6122
-13.3488 0.6772 1.6122
-13.4117 0.1988 1.6122
-13.4581 -0.2832 1.6122
-13.4875 -0.7682 1.6122
-13.4998 -1.2557 1.6122
-13.4948 -1.7452 1.6122
-13.4722 -2.2358 1.6122
-13.4321 -2.7272 1.6122
-13.3741 -3.2185 1.6122
-13.2983 -3.7092 1.6122
-13.2044 -4.1985 1.6122
-13.0925 -4.6858 1.6122
-12.9625 -5.1705 1.6122
-12.8144 -5.6517 1.6122
-12.6482 -6.1288 1.6122
-12.4639 -6.6011 1.6122
-12.2617 -7.0678 1.6122
-12.0416 -7.5282 1.6122
-11.8038 -7.9815 1.6122
-11.5485 -8.4271 1.6122
-11.2758 -8.8642 1.6122
-10.9860 -9.2920 1.6122
-10.6794 -9.7098 1.6122
-10.3562 -10.1169 1.6122
-10.0170 -10.5125 1.6122
-7.0569 -7.9583 1.1775
-6.3907 -7.7492 1.1088
-7.0235 -9.1665 1.2714
-7.0040 -9.8529 1.3274
-8.0263 -12.1933 1.5989
-6.0973 -10.0273 1.2823
-7.0860 -12.6526 1.5809
-3.8834 -7.5568 0.9242
-3.5450 -7.5519 0.9056
-3.2183 -7.5472 0.8888
-2.9017 -7.5426 0.8739
-2.5942 -7.5382 0.8606
-2.2945 -7.5339 0.8488
-2.1863 -8.2247 0.9158
-1.9918 -8.7428 0.9637
-2.1426 -11.2505 1.2293
-1.7603 -11.4625 1.2435
-1.8481 -15.7818 1.7022
-1.2829 -15.8505 1.7022
-0.7150 -15.8967 1.7022
-0.0847 -9.2634 0.9904
0.2473 -9.2716 0.9912
0.5641 -9.0162 0.9653
0.8896 -9.0217 0.9685
1.2179 -9.0272 0.9733
1.5497 -9.0327 0.9794
1.9487 -9.3387 1.0198
3.5761 -14.5170 1.5991
4.0910 -14.3706 1.5991
4.5994 -14.2040 1.5991
5.1003 -14.0176 1.5991
5.5931 -13.8116 1.5991
6.0769 -13.5864 1.5991
6.1637 -12.5542 1.5046
6.1592 -11.4862 1.4042
6.2994 -10.8003 1.3492
6.1208 -9.6801 1.2379
6.0129 -8.7957 1.1537
7.0863 -9.6082 1.2953
7.6258 -9.6002 1.3330
7.5688 -8.8576 1.2695
8.7350 -9.5105 1.4102
9.3241 -9.4491 1.4532
5.1963 -4.9018 0.7840
5.1912 -4.5569 0.7600
5.1863 -4.2336 0.7386
5.1818 -3.9292 0.7195
5.3735 -3.7793 0.7289
5.7950 -3.7730 0.7695
6.2641 -3.7660 0.8158
6.7977 -3.7621 0.8699
7.0817 -3.5941 0.8920
7.7373 -3.5843 0.9609
8.2776 -3.4801 1.0152
8.2725 -3.1341 1.0035
8.2674 -2.7978 0.9935
8.2625 -2.4700 0.9850
3.0893 -0.8041 0.3659
8.2531 -1.8352 0.9725
6.7596 -1.2508 0.7935
5.1345 -0.7609 0.6013
5.1317 -0.5734 0.6003
5.1289 -0.3876 0.6001
5.1262 -0.2030 0.6008
5.1234 -0.0192 0.6022
5.1207 0.1645 0.6043
5.1179 0.3484 0.6073
6.9363 0.7227 0.8286
6.6925 0.9409 0.8059
6.5736 1.1659 0.7989
6.5845 1.4130 0.8088
6.5543 1.6544 0.8147
6.5503 1.9057 0.8251
6.4596 2.1334 0.8256
6.6642 2.4693 0.8655
7.3866 3.0425 0.9762
7.9015 3.5912 1.0641
7.8416 3.9092 1.0778
7.1675 3.9002 1.0070
6.5793 3.8922 0.9464
6.0603 3.8852 0.8940
5.5412 3.8397 0.8398
5.2942 3.9570 0.8258
6.4614 5.2009 1.0394
6.2419 5.4045 1.0375
5.7991 5.3970 0.9983
5.3902 5.3901 0.9631
5.3105 5.7060 0.9874
6.1727 7.1290 1.1976
5.7323 7.1216 1.1638
5.3173 7.1143 1.1333
6.3469 9.1601 1.4252
6.3301 9.8748 1.5033
6.3393 10.7173 1.5991
5.9390 10.9168 1.5991
5.5332 11.1025 1.5991
5.1222 11.2744 1.5991
4.7066 11.4324 1.5991
4.2867 11.5764 1.5991
3.8629 11.7063 1.5991
3.4357 11.8220 1.5991
3.0055 11.9236 1.5991
2.5728 12.0109 1.5991
2.2757 12.8629 1.7022
1.8109 12.9253 1.7022
1.3447 12.9725 1.7022
0.8776 13.0044 1.7022
0.4099 13.0211 1.7022
-0.0578 13.0225 1.7022
-0.5252 13.0086 1.7022
-0.9917 12.9795 1.7022
-1.4571 12.9351 1.7022
-1.9207 12.8757 1.7022
-2.3822 12.8011 1.7022
-2.8412 12.7115 1.7022
-3.2972 12.6069 1.7022
-3.7498 12.4874 1.7022
-4.1986 12.3531 1.7022
-4.6430 12.2041 1.7022
-5.0828 12.0405 1.7022
-5.5174 11.8624 1.7022
-5.5857 10.9621 1.5989
-5.9831 10.7679 1.5989
-6.3745 10.5606 1.5989
-7.8947 7.0966 1.5989
-8.1604 6.8221 1.5989
-8.4172 6.5382 1.5989
-8.6648 6.2451 1.5989
-8.9028 5.9432 1.5989
-9.1310 5.6326 1.5989
-9.3491 5.3137 1.5989
-9.6358 5.0281 1.6122
-9.8342 4.6906 1.6122
-10.0215 4.3457 1.6122
-10.1972 3.9937 1.6122
-10.3612 3.6349 1.6122
-10.5132 3.2696 1.6122
-10.6528 2.8983 1.6122
-10.7799 2.5214 1.6122
-10.8941 2.1392 1.6122
-10.9952 1.7521 1.6122
-11.0831 1.3606 1.6122
-11.1574 0.9651 1.6122
-11.2180 0.5661 1.6122
-11.2646 0.1640 1.6122
-11.2972 -0.2407 1.6122
-11.3154 -0.6476 1.6122
-11.3193 -1.0560 1.6122
-11.3085 -1.4655 1.6122
-11.2831 -1.8757 1.6122
-11.2430 -2.2858 1.6122
-11.1879 -2.6956 1.6122
-11.1180 -3.1042 1.6122
-11.0330 -3.5113 1.6122
-10.9331 -3.9162 1.6122
-10.8183 -4.3184 1.6122
-10.6884 -4.7173 1.6122
-10.5437 -5.1124 1.6122
-10.3841 -5.5029 1.6122
-10.2098 -5.8884 1.6122
-10.0209 -6.2682 1.6122
-9.8175 -6.6418 1.6122
-9.5998 -7.0086 1.6122
-9.2911 -7.3074 1.5989
-9.0474 -7.6558 1.5989
-8.7903 -7.9957 1.5989
-8.5200 -8.3266 1.5989
-6.2518 -6.5638 1.2136
-6.2234 -7.0211 1.2531
-7.6328 -9.2589 1.5989
-6.0638 -7.9171 1.3258
-5.9899 -8.4295 1.3718
-6.6392 -10.0898 1.5989
-6.2863 -10.3418 1.5989
-5.7943 -10.3499 1.5641
-3.8819 -7.5567 1.1182
-3.5437 -7.5518 1.0961
-3.2171 -7.5471 1.0762
-2.9006 -7.5425 1.0584
-2.5932 -7.5381 1.0426
-2.2936 -7.5338 1.0286
-2.1863 -8.2277 1.1106
-1.9385 -8.5120 1.1376
-2.1630 -11.3625 1.5057
-1.9857 -12.9357 1.7022
-1.5226 -13.0086 1.7022
-1.0567 -13.0634 1.7022
-0.5887 -13.1000 1.7022
-0.0833 -9.1405 1.1860
0.2442 -9.1456 1.1867
0.5641 -9.0144 1.1713
0.8894 -9.0199 1.1753
1.2175 -9.0254 1.1810
1.5492 -9.0309 1.1884
1.9118 -9.1629 1.2144
2.9464 -11.9628 1.5991
3.3710 -11.8435 1.5991
3.7903 -11.7079 1.5991
4.2038 -11.5560 1.5991
4.6108 -11.3883 1.5991
5.0106 -11.2050 1.5991
5.4026 -11.0065 1.5991
5.7861 -10.7931 1.5991
6.1333 -10.5182 1.5920
6.1209 -9.6827 1.4998
6.0117 -8.7962 1.3971
6.9926 -9.4840 1.5476
7.5250 -9.4760 1.5920
7.5681 -8.8595 1.5358
8.3083 -9.0489 1.6223
8.6098 -8.7282 1.6223
5.1963 -4.9036 0.9474
5.1912 -4.5586 0.9180
5.1864 -4.2353 0.8918
5.1818 -3.9309 0.8682
5.3712 -3.7793 0.8788
5.7925 -3.7730 0.9273
6.2611 -3.7660 0.9826
6.7978 -3.7641 1.0477
7.0778 -3.5942 1.0731
7.7328 -3.5844 1.1553
8.2777 -3.4824 1.2207
8.2725 -3.1364 1.2059
8.2675 -2.8001 1.1932
8.2626 -2.4723 1.1824
3.0876 -0.8045 0.4387
8.2531 -1.8374 1.1660
6.7597 -1.2526 0.9509
5.1345 -0.7623 0.7201
5.1317 -0.5748 0.7185
5.1289 -0.3890 0.7179
5.1262 -0.2044 0.7182
5.1234 -0.0205 0.7195
5.1207 0.1631 0.7216
5.1180 0.3470 0.7247
6.9975 0.7272 0.9970
6.6934 0.9392 0.9608
6.5745 1.1642 0.9519
6.5845 1.4112 0.9630
6.5808 1.6593 0.9735
6.5771 1.9116 0.9853
6.4593 2.1314 0.9814
6.6630 2.4669 1.0281
7.3106 3.0090 1.1473
7.9017 3.5889 1.2630
7.8469 3.9094 1.2794
7.1719 3.9003 1.1947
6.5831 3.8923 1.1222
6.0635 3.8852 1.0595
5.6006 3.8789 1.0049
5.3361 3.9864 0.9850
6.2770 5.0501 1.1943
6.2448 5.4046 1.2273
5.8017 5.3972 1.1803
5.3923 5.3899 1.1383
5.3186 5.7124 1.1679
6.0636 7.0003 1.3887
5.7347 7.1218 1.3739
5.3191 7.1141 1.3374
6.0391 8.7125 1.5991
5.7120 8.9074 1.5991
5.3792 9.0909 1.5991
5.0410 9.2628 1.5991
4.6979 9.4230 1.5991
4.3501 9.5714 1.5991
3.9981 9.7079 1.5991
3.6422 9.8324 1.5991
3.2829 9.9449 1.5991
2.9204 10.0452 1.5991
2.5552 10.1332 1.5991
2.3287 10.8672 1.7022
1.9354 10.9348 1.7022
1.5404 10.9893 1.7022
1.1440 11.0306 1.7022
0.7468 11.0588 1.7022
0.3490 11.0738 1.7022
-0.0489 11.0755 1.7022
-0.4465 11.0642 1.7022
-0.8434 11.0396 1.7022
-1.2393 11.0020 1.7022
-1.6337 10.9512 1.7022
-2.0263 10.8874 1.7022
-2.4167 10.8107 1.7022
-2.8044 10.7210 1.7022
-3.1892 10.6185 1.7022
-3.5705 10.5032 1.7022
-3.9481 10.3753 1.7022
-4.3215 10.2348 1.7022
-4.6903 10.0818 1.7022
-5.0542 9.9165 1.7022
-5.4128 9.7391 1.7022
-5.5398 9.1753 1.6355
-6.8455 6.1513 1.5989
-7.0741 5.9117 1.5989
-7.2948 5.6641 1.5989
-7.5073 5.4085 1.5989
-7.7114 5.1455 1.5989
-7.9067 4.8750 1.5989
-8.0930 4.5974 1.5989
-8.2701 4.3130 1.5989
-8.4376 4.0221 1.5989
-8.5954 3.7249 1.5989
-8.7432 3.4218 1.5989
-8.8807 3.1130 1.5989
-9.0077 2.7989 1.5989
-9.1240 2.4799 1.5989
-9.2294 2.1562 1.5989
-9.3237 1.8283 1.5989
-9.4066 1.4964 1.5989
-9.5566 1.1706 1.6122
-9.6168 0.8293 1.6122
-9.6652 0.4851 1.6122
-9.7015 0.1386 1.6122
-9.7255 -0.2099 1.6122
-9.7372 -0.5599 1.6122
-9.7365 -0.9110 1.6122
-9.7232 -1.2628 1.6122
-9.6973 -1.6147 1.6122
-9.6586 -1.9665 1.6122
-9.6073 -2.3175 1.6122
-9.5432 -2.6673 1.6122
-9.4663 -3.0155 1.6122
-9.2996 -3.3339 1.5989
-9.1980 -3.6744 1.5989
-9.0838 -4.0120 1.5989
-8.9570 -4.3459 1.5989
-8.8179 -4.6757 1.5989
-8.6663 -5.0010 1.5989
-8.5025 -5.3213 1.5989
-8.3266 -5.6361 1.5989
-8.1387 -5.9448 1.5989
-7.9392 -6.2471 1.5989
-7.7280 -6.5423 1.5989
-7.5056 -6.8302 1.5989
-7.2721 -7.1100 1.5989
-6.0229 -6.3261 1.3703
-6.7730 -7.6442 1.5989
-6.5080 -7.8976 1.5989
-6.2332 -8.1414 1.5989
-5.8192 -8.1924 1.5641
-5.6554 -8.5979 1.5989
-5.3533 -8.8101 1.5989
-5.2591 -9.3974 1.6675
-3.8805 -7.5566 1.3133
-3.5424 -7.5517 1.2877
-3.2158 -7.5470 1.2646
-2.8995 -7.5424 1.2440
-2.5922 -7.5380 1.2257
-2.2927 -7.5337 1.2095
-2.1862 -8.2307 1.3066
-1.9265 -8.4625 1.3303
-2.0776 -10.9183 1.7022
-1.6868 -10.9941 1.7022
-1.2932 -11.0547 1.7022
-0.8973 -11.1002 1.7022
-0.4997 -11.1303 1.7022
-0.0830 -9.1438 1.3965
0.2445 -9.1496 1.3975
0.6965 -11.1286 1.7022
1.0943 -11.0973 1.7022
1.2817 -9.5018 1.4636
1.5618 -9.1050 1.4104
1.9183 -9.1954 1.4345
2.6644 -10.8193 1.7022
2.8638 -10.0635 1.5991
3.2204 -9.9492 1.5991
3.5720 -9.8213 1.5991
3.9183 -9.6800 1.5991
4.2586 -9.5256 1.5991
4.5925 -9.3584 1.5991
4.9194 -9.1787 1.5991
5.2389 -8.9867 1.5991
5.5505 -8.7828 1.5991
5.8537 -8.5674 1.5991
6.1480 -8.3409 1.5991
6.4332 -8.1036 1.5991
6.7087 -7.8560 1.5991
7.0754 -7.7086 1.6223
7.3342 -7.4376 1.6223
5.1964 -4.9053 1.1118
5.1912 -4.5603 1.0770
5.1864 -4.2369 1.0459
5.1819 -3.9325 1.0179
5.3689 -3.7794 1.0295
5.7898 -3.7731 1.0859
6.2581 -3.7661 1.1502
6.7978 -3.7661 1.2266
7.0739 -3.5942 1.2552
7.7282 -3.5845 1.3508
8.2777 -3.4847 1.4275
8.2725 -3.1387 1.4097
8.2675 -2.8024 1.3942
8.2626 -2.4745 1.3810
3.0858 -0.8049 0.5119
8.2531 -1.8397 1.3607
6.7599 -1.2545 1.1092
5.1345 -0.7637 0.8397
5.1317 -0.5762 0.8375
5.1290 -0.3904 0.8364
5.1262 -0.2058 0.8364
5.1235 -0.0219 0.8375
5.1207 0.1617 0.8397
5.1180 0.3456 0.8429
6.9409 0.7194 1.1497
6.6943 0.9374 1.1167
6.5753 1.1625 1.1060
6.5846 1.4093 1.1182
6.5809 1.6574 1.1299
6.5771 1.9097 1.1432
6.4591 2.1294 1.1382
6.6618 2.4645 1.1917
7.3886 3.0388 1.3437
7.9019 3.5865 1.4631
7.8522 3.9095 1.4826
7.1764 3.9003 1.3838
6.5867 3.8923 1.2993
6.0666 3.8851 1.2262
5.6034 3.8788 1.1626
5.3431 3.9897 1.1401
6.0977 4.9036 1.3407
6.0937 5.2714 1.3835
5.8045 5.3974 1.3637
5.3943 5.3897 1.3146
5.3269 5.7189 1.3500
5.7962 6.6888 1.5317
5.7053 7.0826 1.5767
5.3210 7.1138 1.5428
5.2380 7.5539 1.5991
4.9555 7.7248 1.5991
4.6678 7.8857 1.5991
4.3753 8.0366 1.5991
4.0783 8.1773 1.5991
3.7772 8.3077 1.5991
3.4721 8.4278 1.5991
3.1636 8.5373 1.5991
2.8520 8.6363 1.5991
2.5375 8.7247 1.5991
2.3637 9.3698 1.7022
2.0240 9.4411 1.7022
1.6823 9.5008 1.7022
1.3391 9.5491 1.7022
0.9947 9.5858 1.7022
0.6495 9.6109 1.7022
0.3037 9.6244 1.7022
-0.0422 9.6264 1.7022
-0.3879 9.6167 1.7022
-0.7330 9.5956 1.7022
-1.0772 9.5628 1.7022
-1.4202 9.5186 1.7022
-1.7614 9.4630 1.7022
-2.1008 9.3959 1.7022
-2.4377 9.3175 1.7022
-2.7720 9.2278 1.7022
-3.1033 9.1269 1.7022
-3.4311 9.0149 1.7022
-3.7553 8.8919 1.7022
-4.0754 8.7580 1.7022
-4.3910 8.6133 1.7022
-4.7020 8.4579 1.7022
-5.0078 8.2921 1.7022
-6.0372 5.4229 1.5989
-6.2376 5.2106 1.5989
-6.4308 4.9912 1.5989
-6.6168 4.7649 1.5989
-6.7951 4.5320 1.5989
-6.9657 4.2927 1.5989
-7.1281 4.0472 1.5989
-7.2823 3.7958 1.5989
-7.4280 3.5387 1.5989
-7.5650 3.2762 1.5989
-7.6930 3.0086 1.5989
-7.8119 2.7362 1.5989
-7.9215 2.4592 1.5989
-8.0215 2.1780 1.5989
-8.1119 1.8929 1.5989
-8.1924 1.6042 1.5989
-8.2628 1.3122 1.5989
-8.3231 1.0173 1.5989
-8.3731 0.7197 1.5989
-8.4126 0.4199 1.5989
-8.4416 0.1183 1.5989
-8.4598 -0.1849 1.5989
-8.4674 -0.4892 1.5989
-8.4640 -0.7943 1.5989
-8.4498 -1.0997 1.5989
-8.4246 -1.4052 1.5989
-8.3884 -1.7102 1.5989
-8.3411 -2.0144 1.5989
-8.2828 -2.3174 1.5989
-8.2134 -2.6188 1.5989
-8.1330 -2.9181 1.5989
-8.0416 -3.2149 1.5989
-7.9393 -3.5089 1.5989
-7.8260 -3.7996 1.5989
-7.7020 -4.0865 1.5989
-7.5673 -4.3694 1.5989
-7.4220 -4.6476 1.5989
-7.2663 -4.9209 1.5989
-7.1002 -5.1888 1.5989
-6.9241 -5.4509 1.5989
-6.7380 -5.7068 1.5989
-6.5422 -5.9561 1.5989
-6.3370 -6.1984 1.5989
-6.1224 -6.4333 1.5989
-5.8064 -6.5560 1.5738
-5.6667 -6.8794 1.5989
-5.4261 -7.0899 1.5989
-5.2919 -7.4528 1.6343
-5.2386 -7.9672 1.7022
-4.9576 -8.1619 1.7022
-4.6690 -8.3461 1.7022
-4.3734 -8.5195 1.7022
-4.0710 -8.6819 1.7022
-3.7624 -8.8328 1.7022
-3.4479 -8.9721 1.7022
-3.1280 -9.0995 1.7022
-2.8032 -9.2148 1.7022
-2.2540 -8.4890 1.5508
-1.9414 -8.5317 1.5436
-1.8042 -9.4858 1.7022
-1.4647 -9.5506 1.7022
-1.1227 -9.6025 1.7022
-0.7789 -9.6412 1.7022
-0.4336 -9.6668 1.7022
-0.0849 -9.3823 1.6499
0.2588 -9.6785 1.7022
0.6049 -9.6644 1.7022
0.9503 -9.6371 1.7022
1.2944 -9.5966 1.7022
1.5982 -9.3185 1.6621
1.9766 -9.4763 1.7022
2.3136 -9.3967 1.7022
2.6473 -9.3043 1.7022
2.7967 -8.6421 1.5991
3.1024 -8.5318 1.5991
3.4034 -8.4099 1.5991
3.6994 -8.2767 1.5991
3.9899 -8.1324 1.5991
4.2745 -7.9773 1.5991
4.5527 -7.8116 1.5991
4.8242 -7.6356 1.5991
5.0885 -7.4497 1.5991
5.3454 -7.2540 1.5991
5.5943 -7.0490 1.5991
5.8350 -6.8350 1.5991
6.0672 -6.6124 1.5991
6.2906 -6.3815 1.5991
5.1964 -4.9071 1.2774
5.1913 -4.5620 1.2372
5.1864 -4.2386 1.2012
5.1819 -3.9342 1.1688
5.3666 -3.7794 1.1813
5.7872 -3.7731 1.2456
6.2551 -3.7661 1.3189
6.7802 -3.7583 1.4031
7.0700 -3.5943 1.4384
7.4479 -3.4566 1.4922
7.5512 -3.1810 1.4922
7.6440 -2.9024 1.4922
7.7264 -2.6211 1.4922
7.7982 -2.3376 1.4922
3.0841 -0.8053 0.5855
7.9102 -1.7654 1.4922
6.7601 -1.2563 1.2688
5.1346 -0.7651 0.9601
5.1318 -0.5776 0.9573
5.1290 -0.3918 0.9558
5.1262 -0.2072 0.9555
5.1235 -0.0233 0.9564
5.1207 0.1603 0.9586
5.1180 0.3442 0.9620
7.0022 0.7238 1.3233
6.6952 0.9357 1.2738
6.5762 1.1608 1.2612
6.5846 1.4075 1.2746
6.5809 1.6555 1.2875
6.5771 1.9078 1.3023
6.4588 2.1274 1.2960
6.6606 2.4620 1.3564
7.0331 2.8905 1.4557
7.7005 3.4927 1.6223
7.5540 3.7586 1.6223
7.1806 3.9002 1.5745
6.5903 3.8922 1.4778
6.0698 3.8851 1.3943
5.6061 3.8788 1.3216
5.3502 3.9930 1.2968
5.9132 4.7530 1.4765
5.9093 5.1096 1.5232
5.7450 5.3397 1.5321
5.3964 5.3895 1.4924
5.3352 5.7254 1.5340
5.3347 6.1538 1.5991
5.1021 6.3313 1.5991
4.8640 6.5004 1.5991
4.6206 6.6610 1.5991
4.3722 6.8129 1.5991
4.1191 6.9561 1.5991
3.8616 7.0904 1.5991
3.6001 7.2157 1.5991
3.3347 7.3319 1.5991
3.0659 7.4389 1.5991
2.7939 7.5366 1.5991
2.5410 7.6916 1.6131
0.8863 3.0462 0.6323
0.7763 3.0761 0.6328
0.6653 3.1019 0.6332
0.5534 3.1239 0.6337
0.4408 3.1418 0.6340
0.3276 3.1558 0.6344
0.2141 3.1657 0.6347
0.1002 3.1715 0.6349
-0.0138 3.1733 0.6351
-0.1279 3.1711 0.6353
-0.2417 3.1648 0.6354
-0.3554 3.1544 0.6355
-0.4685 3.1401 0.6356
-0.5811 3.1217 0.6356
-0.6930 3.0993 0.6355
-0.8041 3.0729 0.6355
-2.4492 8.1516 1.7022
-2.7417 8.0620 1.7022
-3.0312 7.9625 1.7022
-3.3174 7.8532 1.7022
-3.5998 7.7343 1.7022
-3.8783 7.6057 1.7022
-4.1525 7.4677 1.7022
-4.4221 7.3203 1.7022
-5.4792 4.9199 1.6240
-5.5729 4.6535 1.5989
-5.7446 4.4568 1.5989
-5.9097 4.2539 1.5989
-6.0680 4.0452 1.5989
-6.2191 3.8307 1.5989
-6.3630 3.6109 1.5989
-6.4994 3.3858 1.5989
-6.6281 3.1557 1.5989
-6.7490 2.9209 1.5989
-6.8618 2.6816 1.5989
-6.9664 2.4381 1.5989
-7.0625 2.1906 1.5989
-7.1502 1.9395 1.5989
-7.2291 1.6849 1.5989
-7.2991 1.4273 1.5989
-7.3602 1.1668 1.5989
-7.4122 0.9039 1.5989
-7.4549 0.6388 1.5989
-7.4883 0.3717 1.5989
-7.5122 0.1032 1.5989
-7.5267 -0.1666 1.5989
-7.5315 -0.4372 1.5989
-7.5267 -0.7084 1.5989
-7.5121 -0.9798 1.5989
-7.4878 -1.2511 1.5989
-7.4538 -1.5218 1.5989
-7.4099 -1.7917 1.5989
-7.3562 -2.0603 1.5989
-7.2928 -2.3274 1.5989
-7.2196 -2.5926 1.5989
-7.1367 -2.8554 1.5989
-7.0441 -3.1155 1.5989
-6.9420 -3.3726 1.5989
-6.8303 -3.6263 1.5989
-6.7092 -3.8762 1.5989
-6.5788 -4.1219 1.5989
-6.4392 -4.3631 1.5989
-6.2907 -4.5995 1.5989
-6.1332 -4.8306 1.5989
-5.9671 -5.0562 1.5989
-5.7924 -5.2758 1.5989
-5.6094 -5.4892 1.5989
-5.4184 -5.6959 1.5989
-5.3151 -6.0036 1.6282
-5.3032 -6.4407 1.6915
-5.1092 -6.6784 1.7022
-4.8741 -6.8670 1.7022
-4.6317 -7.0469 1.7022
-4.3825 -7.2179 1.7022
-4.1268 -7.3795 1.7022
-3.8648 -7.5317 1.7022
-3.5971 -7.6740 1.7022
-3.3239 -7.8063 1.7022
-3.0456 -7.9284 1.7022
-2.7627 -8.0399 1.7022
-2.4756 -8.1408 1.7022
-2.1846 -8.2309 1.7022
-1.8902 -8.3099 1.7022
-1.5928 -8.3778 1.7022
-1.2929 -8.4344 1.7022
-0.9909 -8.4796 1.7022
-0.6873 -8.5134 1.7022
-0.3826 -8.5356 1.7022
-0.0771 -8.5463 1.7022
0.2287 -8.5453 1.7022
0.5342 -8.5328 1.7022
0.8391 -8.5086 1.7022
1.1428 -8.4729 1.7022
1.4449 -8.4257 1.7022
1.7450 -8.3670 1.7022
2.0426 -8.2971 1.7022
2.3372 -8.2159 1.7022
2.6284 -8.1236 1.7022
2.7687 -7.6158 1.6163
3.0052 -7.4276 1.5991
3.2668 -7.3106 1.5991
3.5237 -7.1838 1.5991
3.7753 -7.0476 1.5991
4.0215 -6.9020 1.5991
4.2618 -6.7474 1.5991
4.4959 -6.5839 1.5991
4.7235 -6.4119 1.5991
4.9442 -6.2317 1.5991
5.1577 -6.0435 1.5991
5.3638 -5.8477 1.5991
5.5621 -5.6445 1.5991
5.1964 -4.9089 1.4445
5.1913 -4.5638 1.3988
5.1864 -4.2403 1.3577
5.1819 -3.9358 1.3209
5.3643 -3.7794 1.3341
5.7846 -3.7732 1.4065
6.2520 -3.7662 1.4889
6.3857 -3.5415 1.4922
6.4967 -3.3047 1.4922
6.5988 -3.0644 1.4922
6.6918 -2.8209 1.4922
6.7757 -2.5746 1.4922
6.8503 -2.3258 1.4922
6.9156 -2.0750 1.4922
3.0823 -0.8057 0.6597
7.0184 -1.5683 1.4922
6.7603 -1.2582 1.4297
5.1346 -0.7665 1.0816
5.1318 -0.5790 1.0782
5.1290 -0.3932 1.0762
5.1263 -0.2086 1.0756
5.1235 -0.0247 1.0763
5.1208 0.1589 1.0785
5.1180 0.3428 1.0821
6.8497 0.7061 1.4557
6.6961 0.9340 1.4323
6.5771 1.1591 1.4177
6.5846 1.4056 1.4323
6.5809 1.6536 1.4464
6.5458 1.8968 1.4557
6.4585 2.1253 1.4553
6.6594 2.4595 1.5225
6.9834 2.8679 1.6223
6.8626 3.1104 1.6223
6.7335 3.3481 1.6223
6.5021 3.5296 1.5991
6.3593 3.7536 1.5991
6.0729 3.8850 1.5640
5.6095 3.8790 1.4822
5.3574 3.9964 1.4552
5.7158 4.5921 1.5991
5.5379 4.7863 1.5991
5.3537 4.9738 1.5991
5.1634 5.1546 1.5991
4.9673 5.3285 1.5991
4.7657 5.4952 1.5991
4.5587 5.6546 1.5991
4.3466 5.8066 1.5991
4.1297 5.9510 1.5991
3.9083 6.0877 1.5991
3.6826 6.2166 1.5991
3.4529 6.3375 1.5991
3.2194 6.4503 1.5991
2.9825 6.5550 1.5991
2.7423 6.6514 1.5991
2.5490 6.8736 1.6309
0.8859 2.6805 0.6286
0.7889 2.7105 0.6290
0.6910 2.7371 0.6295
0.5922 2.7601 0.6299
0.4926 2.7796 0.6303
0.3924 2.7956 0.6306
0.2917 2.8080 0.6309
0.1906 2.8168 0.6312
0.0893 2.8220 0.6314
-0.0122 2.8235 0.6316
-0.1137 2.8215 0.6317
-0.2151 2.8159 0.6318
-0.3162 2.8066 0.6319
-0.4169 2.7938 0.6320
-0.5171 2.7774 0.6320
-0.6167 2.7574 0.6319
-0.7155 2.7339 0.6319
-0.8134 2.7069 0.6317
-2.4534 7.2128 1.7022
-2.7124 7.1234 1.7022
-2.9682 7.0251 1.7022
-3.2208 6.9182 1.7022
-3.4697 6.8027 1.7022
-3.7147 6.6786 1.7022
-3.9555 6.5462 1.7022
-5.1859 4.6547 1.7022
-5.3565 4.4710 1.7022
-5.4626 4.2362 1.6842
-5.4611 3.9292 1.6369
-5.4763 3.6490 1.5989
-5.6119 3.4550 1.5989
-5.7409 3.2561 1.5989
-5.8630 3.0525 1.5989
-5.9782 2.8445 1.5989
-6.0862 2.6323 1.5989
-6.1869 2.4161 1.5989
-6.2801 2.1961 1.5989
-6.3657 1.9727 1.5989
-6.4435 1.7460 1.5989
-6.5134 1.5163 1.5989
-6.5753 1.2839 1.5989
-6.6291 1.0491 1.5989
-6.6746 0.8121 1.5989
-6.7118 0.5732 1.5989
-6.7405 0.3328 1.5989
-6.7608 0.0910 1.5989
-6.7724 -0.1518 1.5989
-6.7754 -0.3952 1.5989
-6.7697 -0.6391 1.5989
-6.7553 -0.8830 1.5989
-6.7321 -1.1267 1.5989
-6.7001 -1.3699 1.5989
-6.6593 -1.6121 1.5989
-6.6097 -1.8532 1.5989
-6.5514 -2.0928 1.5989
-6.4843 -2.3305 1.5989
-6.4086 -2.5661 1.5989
-6.3242 -2.7991 1.5989
-6.2312 -3.0293 1.5989
-6.1298 -3.2564 1.5989
-6.0200 -3.4800 1.5989
-5.9018 -3.6998 1.5989
-5.7755 -3.9155 1.5989
-5.6412 -4.1268 1.5989
-5.4990 -4.3332 1.5989
-5.3491 -4.5347 1.5989
-5.3289 -4.8558 1.6412
-5.3216 -5.2098 1.6927
-5.1683 -5.4353 1.7022
-4.9778 -5.6250 1.7022
-4.7801 -5.8077 1.7022
-4.5755 -5.9832 1.7022
-4.3643 -6.1512 1.7022
-4.1467 -6.3114 1.7022
-3.9231 -6.4636 1.7022
-3.6936 -6.6075 1.7022
-3.4588 -6.7428 1.7022
-3.2188 -6.8694 1.7022
-2.9739 -6.9871 1.7022
-2.7247 -7.0955 1.7022
-2.4713 -7.1947 1.7022
-2.2142 -7.2843 1.7022
-1.9538 -7.3642 1.7022
-1.6903 -7.4343 1.7022
-1.4243 -7.4945 1.7022
-1.1560 -7.5447 1.7022
-0.8859 -7.5848 1.7022
-0.6144 -7.6146 1.7022
-0.3419 -7.6342 1.7022
-0.0687 -7.6435 1.7022
0.2047 -7.6425 1.7022
0.4778 -7.6312 1.7022
0.7504 -7.6095 1.7022
1.0220 -7.5776 1.7022
1.2921 -7.5355 1.7022
1.5604 -7.4832 1.7022
1.8266 -7.4208 1.7022
2.0901 -7.3485 1.7022
2.3506 -7.2663 1.7022
2.6077 -7.1744 1.7022
2.7518 -6.8026 1.6371
2.9366 -6.5731 1.6071
3.1519 -6.4274 1.5991
3.3773 -6.3061 1.5991
3.5978 -6.1764 1.5991
3.8131 -6.0386 1.5991
4.0230 -5.8930 1.5991
4.2270 -5.7398 1.5991
4.4250 -5.5791 1.5991
4.6167 -5.4114 1.5991
4.8018 -5.2367 1.5991
4.9800 -5.0555 1.5991
5.1512 -4.8680 1.5991
5.1913 -4.5656 1.5618
5.1865 -4.2421 1.5158
5.1819 -3.9375 1.4744
5.3619 -3.7795 1.4883
5.4998 -3.5891 1.4922
5.6161 -3.3848 1.4922
5.7245 -3.1766 1.4922
5.8251 -2.9648 1.4922
5.9177 -2.7498 1.4922
6.0022 -2.5320 1.4922
6.0786 -2.3115 1.4922
6.1467 -2.0887 1.4922
6.2065 -1.8639 1.4922
3.0805 -0.8061 0.7345
6.3012 -1.4098 1.4922
6.3360 -1.1810 1.4922
5.1346 -0.7679 1.2042
5.1318 -0.5804 1.2002
5.1290 -0.3946 1.1977
5.1263 -0.2100 1.1968
5.1235 -0.0261 1.1974
5.1208 0.1575 1.1996
5.1180 0.3413 1.2033
6.8659 0.7058 1.6223
6.6971 0.9322 1.5923
6.5781 1.1574 1.5758
6.4558 1.3762 1.5603
6.4152 1.6101 1.5664
6.4739 1.8740 1.5991
6.3907 2.1011 1.5991
6.2997 2.3247 1.5991
6.2010 2.5446 1.5991
6.0949 2.7605 1.5991
5.9813 2.9722 1.5991
5.8606 3.1794 1.5991
5.7330 3.3819 1.5991
5.5985 3.5795 1.5991
5.4574 3.7719 1.5991
5.3100 3.9591 1.5991
5.1563 4.1406 1.5991
4.9966 4.3164 1.5991
4.8312 4.4864 1.5991
4.6602 4.6502 1.5991
4.4838 4.8078 1.5991
4.3024 4.9590 1.5991
4.1161 5.1035 1.5991
3.9251 5.2415 1.5991
3.7297 5.3725 1.5991
3.5302 5.4966 1.5991
3.3267 5.6137 1.5991
3.1195 5.7235 1.5991
2.9089 5.8260 1.5991
2.6951 5.9212 1.5991
2.5551 6.1949 1.6486
0.8837 2.3819 0.6255
0.7974 2.4120 0.6260
0.7102 2.4391 0.6264
0.6221 2.4629 0.6268
0.5331 2.4837 0.6272
0.4435 2.5012 0.6275
0.3533 2.5156 0.6278
0.2626 2.5267 0.6281
0.1716 2.5346 0.6283
0.0804 2.5393 0.6285
-0.0109 2.5407 0.6287
-0.1023 2.5388 0.6288
-0.1935 2.5337 0.6289
-0.2845 2.5254 0.6290
-0.3752 2.5138 0.6290
-0.4653 2.4990 0.6290
-0.5550 2.4810 0.6290
-0.6439 2.4597 0.6289
-0.7320 2.4354 0.6288
-0.8192 2.4079 0.6287
-2.4519 6.4380 1.7022
-2.6831 6.3489 1.7022
-2.9112 6.2518 1.7022
-3.1360 6.1470 1.7022
-3.3573 6.0345 1.7022
-3.5747 5.9143 1.7022
-4.7227 4.2374 1.7022
-4.8776 4.0697 1.7022
-5.0267 3.8965 1.7022
-5.1699 3.7181 1.7022
-5.3069 3.5345 1.7022
-5.4377 3.3460 1.7022
-5.4455 3.0869 1.6665
-5.4460 2.8338 1.6322
-5.4500 2.5916 1.6021
-5.5366 2.3930 1.5989
-5.6446 2.2027 1.6038
-5.7114 1.9956 1.5989
-5.7884 1.7921 1.5989
-5.8583 1.5857 1.5989
-5.9210 1.3767 1.5989
-5.9763 1.1653 1.5989
-6.0243 0.9517 1.5989
-6.0647 0.7362 1.5989
-6.0975 0.5191 1.5989
-6.1226 0.3006 1.5989
-6.1400 0.0809 1.5989
-6.1496 -0.1395 1.5989
-6.1513 -0.3605 1.5989
-6.1451 -0.5819 1.5989
-6.1310 -0.8032 1.5989
-6.1089 -1.0242 1.5989
-6.0788 -1.2446 1.5989
-6.0408 -1.4642 1.5989
-5.9949 -1.6826 1.5989
-5.9410 -1.8996 1.5989
-5.8792 -2.1148 1.5989
-5.8096 -2.3280 1.5989
-5.7321 -2.5389 1.5989
-5.6469 -2.7471 1.5989
-5.5678 -2.9597 1.6028
-5.4537 -3.1545 1.5989
-5.3608 -3.3625 1.6034
-5.3488 -3.6281 1.6350
-5.3410 -3.9091 1.6718
-5.3002 -4.1786 1.7022
-5.1549 -4.3721 1.7022
-5.0025 -4.5604 1.7022
-4.8429 -4.7432 1.7022
-4.6766 -4.9203 1.7022
-4.5036 -5.0913 1.7022
-4.3242 -5.2559 1.7022
-4.1386 -5.4141 1.7022
-3.9471 -5.5654 1.7022
-3.7498 -5.7096 1.7022
-3.5472 -5.8466 1.7022
-3.3394 -5.9760 1.7022
-3.1267 -6.0978 1.7022
-2.9094 -6.2116 1.7022
-2.6879 -6.3174 1.7022
-2.4624 -6.4149 1.7022
-2.2332 -6.5040 1.7022
-2.0007 -6.5845 1.7022
-1.7652 -6.6563 1.7022
-1.5271 -6.7192 1.7022
-1.2866 -6.7732 1.7022
-1.0442 -6.8182 1.7022
-0.8001 -6.8541 1.7022
-0.5548 -6.8808 1.7022
-0.3086 -6.8983 1.7022
-0.0619 -6.9066 1.7022
0.1851 -6.9055 1.7022
0.4318 -6.8952 1.7022
0.6780 -6.8757 1.7022
0.9233 -6.8469 1.7022
1.1674 -6.8089 1.7022
1.4098 -6.7618 1.7022
1.6502 -6.7056 1.7022
1.8883 -6.6404 1.7022
2.1237 -6.5664 1.7022
2.3561 -6.4836 1.7022
2.5852 -6.3922 1.7022
2.7390 -6.1322 1.6589
2.8482 -5.8096 1.5991
3.0521 -5.7003 1.5991
3.2516 -5.5835 1.5991
3.4464 -5.4595 1.5991
3.6364 -5.3283 1.5991
3.8212 -5.1902 1.5991
4.0006 -5.0455 1.5991
4.1742 -4.8943 1.5991
4.3420 -4.7369 1.5991
4.5037 -4.5736 1.5991
4.6590 -4.4045 1.5991
4.8078 -4.2299 1.5991
4.9499 -4.0502 1.5991
5.0851 -3.8655 1.5991
5.2131 -3.6762 1.5991
5.3340 -3.4826 1.5991
5.3456 -3.2234 1.5692
5.3418 -2.9658 1.5381
5.3381 -2.7185 1.5103
5.3588 -2.4917 1.4922
5.4361 -2.2947 1.4922
5.5061 -2.0954 1.4922
5.5687 -1.8939 1.4922
5.6238 -1.6905 1.4922
3.0787 -0.8065 0.8100
5.7114 -1.2794 1.4922
5.7439 -1.0722 1.4922
5.1346 -0.7693 1.3282
5.1318 -0.5818 1.3235
5.1291 -0.3960 1.3205
5.1263 -0.2114 1.3193
5.1236 -0.0276 1.3198
5.1208 0.1560 1.3220
5.1181 0.3399 1.3259
6.1434 0.6298 1.5991
6.1062 0.8482 1.5991
6.0613 1.0647 1.5991
6.0089 1.2792 1.5991
5.9489 1.4913 1.5991
5.8815 1.7008 1.5991
5.8069 1.9074 1.5991
5.7251 2.1109 1.5991
5.6363 2.3111 1.5991
5.5406 2.5077 1.5991
5.4383 2.7006 1.5991
5.3293 2.8894 1.5991
5.2140 3.0740 1.5991
5.0924 3.2541 1.5991
4.9648 3.4297 1.5991
4.8313 3.6004 1.5991
4.6921 3.7661 1.5991
4.5474 3.9266 1.5991
4.3974 4.0817 1.5991
4.2423 4.2314 1.5991
4.0823 4.3753 1.5991
3.9175 4.5135 1.5991
3.7483 4.6457 1.5991
3.5748 4.7718 1.5991
3.3972 4.8916 1.5991
3.2158 5.0052 1.5991
3.0307 5.1123 1.5991
2.8422 5.2128 1.5991
2.6506 5.3066 1.5991
2.5634 5.6297 1.6690
0.8800 2.1327 0.6230
0.8027 2.1628 0.6235
0.7244 2.1902 0.6239
0.6451 2.2147 0.6242
0.5651 2.2364 0.6246
0.4843 2.2552 0.6249
0.4029 2.2712 0.6252
0.3210 2.2842 0.6255
0.2386 2.2943 0.6258
0.1560 2.3015 0.6260
0.0731 2.3057 0.6262
-0.0099 2.3069 0.6263
-0.0928 2.3053 0.6264
-0.1757 2.3006 0.6265
-0.2583 2.2930 0.6266
-0.3407 2.2825 0.6266
-0.4226 2.2690 0.6266
-0.5040 2.2526 0.6266
-0.5847 2.2333 0.6265
-0.6647 2.2111 0.6264
-0.7439 2.1862 0.6263
-0.8222 2.1583 0.6262
-2.4457 5.7856 1.7022
-2.6535 5.6969 1.7022
-2.8582 5.6011 1.7022
-3.0597 5.4982 1.7022
-3.2577 5.3883 1.7022
-4.3313 3.8847 1.7022
-4.4730 3.7306 1.7022
-4.6093 3.5714 1.7022
-4.7401 3.4074 1.7022
-4.8653 3.2388 1.7022
-4.9847 3.0657 1.7022
-5.0980 2.8884 1.7022
-5.2053 2.7069 1.7022
-5.3062 2.5216 1.7022
-5.4007 2.3326 1.7022
-5.4310 2.1177 1.6843
-5.4277 1.8949 1.6587
-5.4275 1.6788 1.6368
-5.4292 1.4681 1.6180
-5.4304 1.2611 1.6014
-5.4720 1.0654 1.5989
-5.5151 0.8697 1.5989
-5.5514 0.6723 1.5989
-5.5807 0.4735 1.5989
-5.6161 0.2741 1.6027
-5.6181 0.0725 1.5989
-5.6261 -0.1293 1.5989
-5.6268 -0.3314 1.5989
-5.6204 -0.5338 1.5989
-5.6067 -0.7361 1.5989
-5.5980 -0.9402 1.6024
-5.5575 -1.1395 1.5989
-5.5219 -1.3401 1.5989
-5.4792 -1.5395 1.5989
-5.4292 -1.7376 1.5989
-5.3825 -1.9378 1.6020
-5.3748 -2.1555 1.6192
-5.3665 -2.3787 1.6387
-5.3604 -2.6095 1.6618
-5.3568 -2.8494 1.6887
-5.3014 -3.0683 1.7022
-5.1958 -3.2609 1.7022
-5.0832 -3.4498 1.7022
-4.9636 -3.6347 1.7022
-4.8371 -3.8154 1.7022
-4.7040 -3.9915 1.7022
-4.5643 -4.1629 1.7022
-4.4182 -4.3292 1.7022
-4.2659 -4.4902 1.7022
-4.1077 -4.6456 1.7022
-3.9436 -4.7953 1.7022
-3.7740 -4.9390 1.7022
-3.5989 -5.0765 1.7022
-3.4188 -5.2075 1.7022
-3.2337 -5.3319 1.7022
-3.0440 -5.4495 1.7022
-2.8498 -5.5600 1.7022
-2.6516 -5.6633 1.7022
-2.4495 -5.7593 1.7022
-2.2438 -5.8477 1.7022
-2.0348 -5.9285 1.7022
-1.8229 -6.0015 1.7022
-1.6082 -6.0666 1.7022
-1.3911 -6.1236 1.7022
-1.1720 -6.1726 1.7022
-0.9511 -6.2133 1.7022
-0.7287 -6.2458 1.7022
-0.5052 -6.2699 1.7022
-0.2809 -6.2857 1.7022
-0.0562 -6.2931 1.7022
0.1688 -6.2920 1.7022
0.3935 -6.2826 1.7022
0.6178 -6.2648 1.7022
0.8412 -6.2385 1.7022
1.0636 -6.2040 1.7022
1.2844 -6.1611 1.7022
1.5034 -6.1101 1.7022
1.7203 -6.0509 1.7022
1.9348 -5.9836 1.7022
2.1466 -5.9084 1.7022
2.3554 -5.8253 1.7022
2.5608 -5.7346 1.7022
2.7306 -5.5711 1.6825
2.7812 -5.1957 1.5991
2.9631 -5.0896 1.5991
3.1409 -4.9768 1.5991
3.3142 -4.8576 1.5991
3.4829 -4.7322 1.5991
3.6467 -4.6006 1.5991
3.8053 -4.4632 1.5991
3.9586 -4.3201 1.5991
4.1064 -4.1715 1.5991
4.2484 -4.0178 1.5991
4.3845 -3.8590 1.5991
4.5145 -3.6955 1.5991
4.6383 -3.5274 1.5991
4.7556 -3.3551 1.5991
4.8664 -3.1788 1.5991
4.9706 -2.9988 1.5991
5.0679 -2.8153 1.5991
5.1583 -2.6285 1.5991
5.2418 -2.4388 1.5991
5.3181 -2.2465 1.5991
5.3278 -2.0290 1.5814
5.3245 -1.8124 1.5625
3.1706 -0.9540 0.9212
3.0769 -0.8069 0.8863
3.2401 -0.7267 0.9267
5.3123 -0.9932 1.5106
5.1346 -0.7708 1.4535
5.1318 -0.5833 1.4482
5.1291 -0.3975 1.4448
5.1263 -0.2129 1.4432
5.1236 -0.0290 1.4435
5.1208 0.1546 1.4457
5.1181 0.3384 1.4498
5.6190 0.5745 1.5991
5.5858 0.7743 1.5991
5.5455 0.9725 1.5991
5.4982 1.1688 1.5991
5.4441 1.3631 1.5991
5.3832 1.5550 1.5991
5.3156 1.7444 1.5991
5.2414 1.9309 1.5991
5.1608 2.1145 1.5991
5.0739 2.2948 1.5991
4.9808 2.4717 1.5991
4.8816 2.6450 1.5991
4.7766 2.8144 1.5991
4.6658 2.9798 1.5991
4.5494 3.1410 1.5991
4.4276 3.2978 1.5991
4.3005 3.4500 1.5991
4.1683 3.5975 1.5991
4.0313 3.7402 1.5991
3.8895 3.8777 1.5991
3.7431 4.0101 1.5991
3.5924 4.1372 1.5991
3.4376 4.2588 1.5991
3.2788 4.3749 1.5991
3.1162 4.4852 1.5991
2.9500 4.5897 1.5991
2.7804 4.6883 1.5991
2.6077 4.7809 1.5991
2.5706 5.1446 1.6902
0.8750 1.9210 0.6209
0.8053 1.9510 0.6213
0.7346 1.9786 0.6217
0.6629 2.0036 0.6221
0.5904 2.0261 0.6224
0.5172 2.0459 0.6228
0.4432 2.0632 0.6231
0.3687 2.0777 0.6233
0.2938 2.0897 0.6236
0.2184 2.0989 0.6238
0.1428 2.1054 0.6240
0.0670 2.1093 0.6242
-0.0090 2.1104 0.6243
-0.0849 2.1089 0.6244
-0.1607 2.1046 0.6245
-0.2363 2.0976 0.6246
-0.3116 2.0879 0.6246
-0.3866 2.0756 0.6246
-0.4611 2.0606 0.6246
-0.5350 2.0429 0.6245
-0.6082 2.0226 0.6244
-0.6806 1.9997 0.6243
-0.7522 1.9743 0.6242
-0.8229 1.9463 0.6240
-0.8925 1.9157 0.6238
-2.6231 5.1390 1.7022
-2.8079 5.0443 1.7022
-2.9894 4.9433 1.7022
-3.9959 3.5825 1.7022
-4.1263 3.4400 1.7022
-4.2517 3.2929 1.7022
-4.3720 3.1414 1.7022
-4.4871 2.9856 1.7022
-4.5968 2.8257 1.7022
-4.7009 2.6619 1.7022
-4.7993 2.4943 1.7022
-4.8919 2.3233 1.7022
-4.9786 2.1488 1.7022
-5.0591 1.9712 1.7022
-5.1335 1.7907 1.7022
-5.2015 1.6074 1.7022
-5.2631 1.4216 1.7022
-5.3181 1.2335 1.7022
-5.3666 1.0433 1.7022
-5.4083 0.8513 1.7022
-5.4091 0.6536 1.6915
-5.4062 0.4571 1.6819
-5.4033 0.2622 1.6745
-5.4004 0.0681 1.6693
-5.3975 -0.1256 1.6662
-5.3946 -0.3193 1.6653
-5.3917 -0.5136 1.6665
-5.3888 -0.7091 1.6699
-5.3858 -0.9061 1.6754
-5.3829 -1.1053 1.6832
-5.3799 -1.3072 1.6933
-5.3655 -1.5092 1.7022
-5.3159 -1.7030 1.7022
-5.2592 -1.8951 1.7022
-5.1956 -2.0853 1.7022
-5.1250 -2.2733 1.7022
-5.0476 -2.4589 1.7022
-4.9634 -2.6418 1.7022
-4.8725 -2.8217 1.7022
-4.7749 -2.9985 1.7022
-4.6709 -3.1718 1.7022
-4.5605 -3.3413 1.7022
-4.4438 -3.5070 1.7022
-4.3211 -3.6684 1.7022
-4.1923 -3.8254 1.7022
-4.0577 -3.9777 1.7022
-3.9175 -4.1252 1.7022
-3.7718 -4.2676 1.7022
-3.6208 -4.4047 1.7022
-3.4647 -4.5362 1.7022
-3.3038 -4.6620 1.7022
-3.1381 -4.7819 1.7022
-2.9680 -4.8957 1.7022
-2.7936 -5.0033 1.7022
-2.6153 -5.1043 1.7022
-2.4332 -5.1988 1.7022
-2.2476 -5.2865 1.7022
-2.0587 -5.3674 1.7022
-1.8668 -5.4412 1.7022
-1.6723 -5.5079 1.7022
-1.4752 -5.5673 1.7022
-1.2761 -5.6194 1.7022
-1.0750 -5.6641 1.7022
-0.8723 -5.7013 1.7022
-0.6683 -5.7309 1.7022
-0.4633 -5.7529 1.7022
-0.2575 -5.7672 1.7022
-0.0513 -5.7739 1.7022
0.1550 -5.7729 1.7022
0.3611 -5.7642 1.7022
0.5668 -5.7478 1.7022
0.7718 -5.7238 1.7022
0.9757 -5.6921 1.7022
1.1782 -5.6529 1.7022
1.3792 -5.6061 1.7022
1.5782 -5.5519 1.7022
1.7750 -5.4903 1.7022
1.9693 -5.4215 1.7022
2.1609 -5.3455 1.7022
2.3494 -5.2625 1.7022
2.5346 -5.1725 1.7022
2.7163 -5.0758 1.7022
2.7278 -4.6866 1.6043
2.8821 -4.5681 1.5991
3.0414 -4.4590 1.5991
3.1963 -4.3441 1.5991
3.3468 -4.2237 1.5991
3.4927 -4.0979 1.5991
3.6336 -3.9668 1.5991
3.7696 -3.8308 1.5991
3.9002 -3.6899 1.5991
4.0255 -3.5444 1.5991
4.1453 -3.3946 1.5991
4.2593 -3.2406 1.5991
4.3674 -3.0827 1.5991
4.4696 -2.9211 1.5991
4.5657 -2.7560 1.5991
4.6556 -2.5877 1.5991
4.7392 -2.4164 1.5991
4.8163 -2.2423 1.5991
4.8870 -2.0658 1.5991
4.9511 -1.8870 1.5991
5.0085 -1.7063 1.5991
2.9957 -0.9022 0.9468
2.9943 -0.7861 0.9382
3.2227 -0.7238 1.0025
5.1712 -0.9683 1.5991
5.1347 -0.7723 1.5805
5.1319 -0.5848 1.5745
5.1291 -0.3990 1.5706
5.1263 -0.2144 1.5687
5.1236 -0.0305 1.5689
5.1209 0.1531 1.5711
5.1181 0.3370 1.5753
5.1719 0.5272 1.5991
5.1419 0.7112 1.5991
5.1054 0.8938 1.5991
5.0625 1.0747 1.5991
5.0133 1.2537 1.5991
4.9577 1.4306 1.5991
4.8960 1.6052 1.5991
4.8283 1.7772 1.5991
4.7546 1.9465 1.5991
4.6750 2.1129 1.5991
4.5897 2.2761 1.5991
4.4988 2.4360 1.5991
4.4025 2.5924 1.5991
4.3008 2.7452 1.5991
4.1940 2.8940 1.5991
4.0821 3.0389 1.5991
3.9653 3.1795 1.5991
3.8438 3.3159 1.5991
3.7178 3.4477 1.5991
3.5873 3.5749 1.5991
3.4527 3.6973 1.5991
3.3139 3.8149 1.5991
3.1714 3.9273 1.5991
3.0251 4.0347 1.5991
2.8753 4.1368 1.5991
2.7221 4.2335 1.5991
2.5903 4.3660 1.6143
2.5618 4.6948 1.7022
0.8689 1.7384 0.6190
0.8058 1.7683 0.6194
0.7416 1.7960 0.6198
0.6765 1.8214 0.6202
0.6105 1.8444 0.6205
0.5437 1.8651 0.6209
0.4763 1.8834 0.6212
0.4082 1.8992 0.6214
0.3396 1.9126 0.6217
0.2706 1.9236 0.6219
0.2012 1.9321 0.6221
0.1315 1.9381 0.6223
0.0617 1.9417 0.6225
-0.0082 1.9427 0.6226
-0.0781 1.9413 0.6227
-0.1479 1.9373 0.6228
-0.2175 1.9309 0.6228
-0.2869 1.9219 0.6229
-0.3559 1.9106 0.6229
-0.4245 1.8967 0.6228
-0.4925 1.8805 0.6228
-0.5599 1.8618 0.6227
-0.6266 1.8407 0.6226
-0.6925 1.8172 0.6225
-0.7576 1.7914 0.6223
-0.8217 1.7633 0.6222
-0.8847 1.7329 0.6220
-2.5918 4.6549 1.7022
-2.7593 4.5614 1.7022
-3.7050 3.3203 1.7022
-3.8256 3.1880 1.7022
-3.9416 3.0514 1.7022
-4.0529 2.9107 1.7022
-4.1592 2.7661 1.7022
-4.2606 2.6177 1.7022
-4.3567 2.4656 1.7022
-4.4476 2.3102 1.7022
-4.5330 2.1514 1.7022
-4.6129 1.9896 1.7022
-4.6872 1.8249 1.7022
-4.7556 1.6575 1.7022
-4.8182 1.4875 1.7022
-4.8748 1.3153 1.7022
-4.9254 1.1410 1.7022
-4.9697 0.9647 1.7022
-5.0079 0.7868 1.7022
-5.0398 0.6075 1.7022
-5.0653 0.4268 1.7022
-5.0844 0.2452 1.7022
-5.0970 0.0628 1.7022
-5.1031 -0.1202 1.7022
-5.1027 -0.3035 1.7022
-5.0957 -0.4870 1.7022
-5.0822 -0.6702 1.7022
-5.0620 -0.8532 1.7022
-5.0353 -1.0355 1.7022
-5.0020 -1.2170 1.7022
-4.9622 -1.3973 1.7022
-4.9158 -1.5764 1.7022
-4.8629 -1.7539 1.7022
-4.8036 -1.9296 1.7022
-4.7379 -2.1032 1.7022
-4.6658 -2.2745 1.7022
-4.5875 -2.4433 1.7022
-4.5030 -2.6094 1.7022
-4.4125 -2.7725 1.7022
-4.3160 -2.9323 1.7022
-4.2135 -3.0887 1.7022
-4.1054 -3.2415 1.7022
-3.9916 -3.3903 1.7022
-3.8723 -3.5351 1.7022
-3.7477 -3.6755 1.7022
-3.6178 -3.8114 1.7022
-3.4830 -3.9426 1.7022
-3.3433 -4.0688 1.7022
-3.1989 -4.1900 1.7022
-3.0501 -4.3058 1.7022
-2.8969 -4.4162 1.7022
-2.7397 -4.5210 1.7022
-2.5786 -4.6199 1.7022
-2.4138 -4.7129 1.7022
-2.2456 -4.7999 1.7022
-2.0742 -4.8806 1.7022
-1.8997 -4.9549 1.7022
-1.7226 -5.0228 1.7022
-1.5430 -5.0841 1.7022
-1.3611 -5.1388 1.7022
-1.1773 -5.1866 1.7022
-0.9917 -5.2277 1.7022
-0.8047 -5.2618 1.7022
-0.6164 -5.2890 1.7022
-0.4273 -5.3092 1.7022
-0.2374 -5.3224 1.7022
-0.0472 -5.3284 1.7022
0.1431 -5.3275 1.7022
0.3333 -5.3194 1.7022
0.5231 -5.3043 1.7022
0.7122 -5.2821 1.7022
0.9003 -5.2529 1.7022
1.0872 -5.2168 1.7022
1.2726 -5.1737 1.7022
1.4562 -5.1238 1.7022
1.6378 -5.0671 1.7022
1.8171 -5.0037 1.7022
1.9939 -4.9337 1.7022
2.1680 -4.8573 1.7022
2.3389 -4.7744 1.7022
2.5067 -4.6854 1.7022
2.6709 -4.5902 1.7022
2.7156 -4.3053 1.6325
2.8070 -4.1167 1.5991
2.9502 -4.0109 1.5991
3.0893 -3.9000 1.5991
3.2241 -3.7840 1.5991
3.3544 -3.6633 1.5991
3.4801 -3.5380 1.5991
3.6010 -3.4082 1.5991
3.7170 -3.2741 1.5991
3.8278 -3.1360 1.5991
3.9334 -2.9940 1.5991
4.0336 -2.8484 1.5991
4.1283 -2.6994 1.5991
4.2175 -2.5471 1.5991
4.3008 -2.3918 1.5991
4.3784 -2.2338 1.5991
4.4501 -2.0732 1.5991
4.5158 -1.9103 1.5991
4.5754 -1.7452 1.5991
4.6290 -1.5783 1.5991
2.9924 -0.9021 1.0233
2.9911 -0.7861 1.0139
3.2054 -0.7208 1.0785
4.7813 -0.8967 1.5991
4.8037 -0.7239 1.5991
4.8199 -0.5506 1.5991
4.8298 -0.3771 1.5991
4.8334 -0.2035 1.5991
4.8308 -0.0302 1.5991
4.8219 0.1428 1.5991
4.8069 0.3150 1.5991
4.7858 0.4865 1.5991
4.7585 0.6568 1.5991
4.7253 0.8258 1.5991
4.6860 0.9933 1.5991
4.6409 1.1591 1.5991
4.5900 1.3230 1.5991
4.5333 1.4848 1.5991
4.4710 1.6442 1.5991
4.4032 1.8012 1.5991
4.3299 1.9555 1.5991
4.2513 2.1068 1.5991
4.1675 2.2552 1.5991
4.0786 2.4003 1.5991
3.9848 2.5420 1.5991
3.8861 2.6802 1.5991
3.7828 2.8146 1.5991
3.6749 2.9452 1.5991
3.5626 3.0718 1.5991
3.4461 3.1942 1.5991
3.3254 3.3124 1.5991
3.2008 3.4261 1.5991
3.0725 3.5353 1.5991
2.9405 3.6399 1.5991
2.8050 3.7397 1.5991
2.6663 3.8346 1.5991
2.5894 4.0255 1.6402
2.5331 4.2679 1.7022
0.8619 1.5788 0.6174
0.8044 1.6086 0.6178
0.7460 1.6364 0.6182
0.6865 1.6620 0.6186
0.6263 1.6855 0.6189
0.5652 1.7068 0.6192
0.5034 1.7259 0.6195
0.4409 1.7428 0.6198
0.3779 1.7575 0.6201
0.3144 1.7699 0.6203
0.2505 1.7801 0.6205
0.1863 1.7880 0.6207
0.1218 1.7935 0.6209
0.0572 1.7968 0.6210
-0.0075 1.7978 0.6211
-0.0722 1.7964 0.6212
-0.1369 1.7927 0.6213
-0.2013 1.7868 0.6213
-0.2655 1.7785 0.6214
-0.3294 1.7680 0.6214
-0.3929 1.7551 0.6213
-0.4558 1.7401 0.6213
-0.5182 1.7227 0.6212
-0.5799 1.7032 0.6211
-0.6410 1.6815 0.6210
-0.7012 1.6576 0.6209
-0.7605 1.6315 0.6207
-0.8188 1.6034 0.6205
-0.8762 1.5732 0.6203
-2.5594 4.2299 1.7022
-3.4500 3.0905 1.7022
-3.5621 2.9671 1.7022
-3.6699 2.8398 1.7022
-3.7732 2.7086 1.7022
-3.8720 2.5738 1.7022
-3.9661 2.4354 1.7022
-4.0553 2.2938 1.7022
-4.1396 2.1489 1.7022
-4.2189 2.0010 1.7022
-4.2929 1.8502 1.7022
-4.3616 1.6968 1.7022
-4.4250 1.5409 1.7022
-4.4829 1.3827 1.7022
-4.5352 1.2223 1.7022
-4.5818 1.0600 1.7022
-4.6227 0.8960 1.7022
-4.6578 0.7305 1.7022
-4.6871 0.5636 1.7022
-4.7104 0.3956 1.7022
-4.7277 0.2266 1.7022
-4.7390 0.0570 1.7022
-4.7443 -0.1132 1.7022
-4.7435 -0.2836 1.7022
-4.7366 -0.4541 1.7022
-4.7236 -0.6244 1.7022
-4.7044 -0.7943 1.7022
-4.6792 -0.9637 1.7022
-4.6478 -1.1322 1.7022
-4.6104 -1.2997 1.7022
-4.5669 -1.4660 1.7022
-4.5174 -1.6307 1.7022
-4.4619 -1.7938 1.7022
-4.4004 -1.9549 1.7022
-4.3331 -2.1138 1.7022
-4.2600 -2.2704 1.7022
-4.1812 -2.4244 1.7022
-4.0968 -2.5757 1.7022
-4.0068 -2.7239 1.7022
-3.9114 -2.8688 1.7022
-3.8107 -3.0104 1.7022
-3.7048 -3.1483 1.7022
-3.5938 -3.2824 1.7022
-3.4779 -3.4125 1.7022
-3.3572 -3.5384 1.7022
-3.2318 -3.6598 1.7022
-3.1020 -3.7767 1.7022
-2.9678 -3.8889 1.7022
-2.8295 -3.9961 1.7022
-2.6873 -4.0983 1.7022
-2.5413 -4.1952 1.7022
-2.3917 -4.2868 1.7022
-2.2387 -4.3728 1.7022
-2.0826 -4.4532 1.7022
-1.9235 -4.5278 1.7022
-1.7617 -4.5966 1.7022
-1.5973 -4.6594 1.7022
-1.4307 -4.7161 1.7022
-1.2620 -4.7666 1.7022
-1.0915 -4.8108 1.7022
-0.9194 -4.8487 1.7022
-0.7459 -4.8803 1.7022
-0.5714 -4.9053 1.7022
-0.3960 -4.9240 1.7022
-0.2200 -4.9361 1.7022
-0.0436 -4.9417 1.7022
0.1329 -4.9407 1.7022
0.3092 -4.9332 1.7022
0.4851 -4.9192 1.7022
0.6604 -4.8986 1.7022
0.8348 -4.8716 1.7022
1.0081 -4.8381 1.7022
1.1800 -4.7982 1.7022
1.3503 -4.7520 1.7022
1.5187 -4.6995 1.7022
1.6850 -4.6409 1.7022
1.8490 -4.5761 1.7022
