ply
format ascii 1.0
element vertex 2167
property float32 x
property float32 y
property float32 z
end_header
-5.2809 -12.1002 1.7325
-4.8397 -12.2754 1.7325
-4.3922 -12.4332 1.7325
-3.9393 -12.5734 1.7325
-3.4816 -12.6959 1.7325
-2.9799 -12.6308 1.7095
-2.4029 -12.1204 1.6294
-1.9632 -12.1848 1.6294
-1.5219 -12.2323 1.6294
-1.0796 -12.2626 1.6294
-0.6370 -12.2759 1.6294
-0.1948 -12.2723 1.6294
0.2463 -12.2517 1.6294
0.6856 -12.2143 1.6294
1.1225 -12.1602 1.6294
1.5563 -12.0897 1.6294
1.9863 -12.0029 1.6294
2.4120 -11.9000 1.6294
2.8327 -11.7813 1.6294
3.3044 -11.8502 1.6578
3.6438 -11.4572 1.6237
3.9685 -11.0812 1.5932
4.1673 -10.4371 1.5246
4.4598 -10.0985 1.5012
4.7425 -9.7712 1.4805
5.0165 -9.4539 1.4624
5.2830 -9.1454 1.4468
5.5429 -8.8444 1.4334
5.7971 -8.5500 1.4223
6.0465 -8.2613 1.4132
6.2917 -7.9773 1.4062
6.5336 -7.6973 1.4011
6.7728 -7.4203 1.3979
7.0100 -7.1457 1.3965
7.2458 -6.8727 1.3970
7.4808 -6.6006 1.3994
7.7156 -6.3287 1.4035
7.9509 -6.0563 1.4096
8.1872 -5.7827 1.4175
8.4253 -5.5071 1.4272
8.6656 -5.2288 1.4390
8.9089 -4.9471 1.4528
9.1560 -4.6611 1.4686
9.4074 -4.3699 1.4867
9.6641 -4.0727 1.5070
9.9269 -3.7684 1.5298
10.1967 -3.4560 1.5552
10.4745 -3.1344 1.5834
10.7615 -2.8021 1.6145
10.9285 -2.4289 1.6294
10.9821 -2.0286 1.6294
11.0216 -1.6277 1.6294
11.0471 -1.2267 1.6294
11.0587 -0.8259 1.6294
11.0563 -0.4259 1.6294
11.0402 -0.0272 1.6294
11.0105 0.3699 1.6294
10.9671 0.7649 1.6294
10.9104 1.1573 1.6294
10.8404 1.5467 1.6294
10.7572 1.9328 1.6294
10.6611 2.3151 1.6294
10.5522 2.6931 1.6294
10.6367 3.1272 1.6616
10.9482 3.6525 1.7325
10.7929 4.0386 1.7325
10.6248 4.4186 1.7325
10.4442 4.7922 1.7325
10.2513 5.1590 1.7325
10.0464 5.5185 1.7325
9.8297 5.8705 1.7325
9.6016 6.2146 1.7325
9.3622 6.5504 1.7325
9.1119 6.8777 1.7325
8.8510 7.1961 1.7325
8.5737 7.5001 1.7313
8.2926 7.7996 1.7313
8.0017 8.0893 1.7313
7.7014 8.3690 1.7313
7.3920 8.6383 1.7313
7.0739 8.8970 1.7313
6.7473 9.1448 1.7313
6.4127 9.3815 1.7313
6.0703 9.6068 1.7313
5.7205 9.8205 1.7313
5.3637 10.0224 1.7313
5.0002 10.2123 1.7313
4.6304 10.3899 1.7313
4.2548 10.5551 1.7313
3.8735 10.7076 1.7313
2.3824 7.4111 1.1828
2.0042 7.1041 1.1207
-5.5392 8.6231 1.7325
-5.8587 8.4358 1.7325
-6.1721 8.2369 1.7325
-6.0934 7.5491 1.6294
-6.3754 7.3408 1.6294
-6.6505 7.1223 1.6294
-6.9183 6.8936 1.6293
-7.1784 6.6550 1.6293
-7.4304 6.4069 1.6293
-7.6740 6.1493 1.6293
-7.9088 5.8826 1.6293
-8.1344 5.6070 1.6293
-8.3505 5.3229 1.6293
-8.5567 5.0306 1.6292
-8.7655 4.7372 1.6316
-8.9513 4.4290 1.6316
-9.1263 4.1135 1.6316
-9.2901 3.7912 1.6316
-9.4424 3.4624 1.6316
-9.5829 3.1275 1.6316
-9.7114 2.7870 1.6316
-9.8276 2.4412 1.6316
-9.9313 2.0907 1.6316
-10.0223 1.7358 1.6316
-10.1003 1.3771 1.6316
-10.1651 1.0150 1.6316
-9.3429 0.5944 1.4921
-8.2955 -0.3687 1.3154
-8.2911 -0.6680 1.3151
-8.5805 -1.0030 1.3633
-8.8935 -1.3654 1.4173
-9.2341 -1.7598 1.4781
-9.6071 -2.1916 1.5468
-10.0184 -2.6678 1.6247
-9.9596 -3.0397 1.6292
-9.8589 -3.4011 1.6293
-9.7445 -3.7589 1.6293
-9.6165 -4.1126 1.6293
-9.4749 -4.4616 1.6293
-9.3200 -4.8054 1.6293
-9.1520 -5.1434 1.6293
-8.9709 -5.4751 1.6293
-8.7772 -5.8000 1.6294
-8.5710 -6.1175 1.6294
-8.3526 -6.4271 1.6294
-8.6361 -7.1540 1.7325
-7.5084 -6.6893 1.5525
-7.2773 -6.9685 1.5546
-7.8294 -8.0564 1.7325
-7.5379 -8.3360 1.7325
-7.2356 -8.6044 1.7325
-6.1227 -7.8364 1.5322
-6.6012 -9.1054 1.7325
-6.2699 -9.3373 1.7325
-5.9300 -9.5563 1.7325
-5.5819 -9.7620 1.7325
-5.2263 -9.9543 1.7325
-4.8635 -10.1326 1.7325
-4.4944 -10.2968 1.7325
-4.1193 -10.4467 1.7325
-3.7390 -10.5820 1.7325
-3.3539 -10.7025 1.7325
-2.9648 -10.8082 1.7325
-2.5722 -10.8988 1.7325
-2.1768 -10.9742 1.7325
-1.7790 -11.0344 1.7325
-1.3362 -10.7306 1.6779
-0.9210 -10.4480 1.6294
-0.5441 -10.4615 1.6294
-0.1674 -10.4607 1.6294
0.2086 -10.4456 1.6294
0.5832 -10.4163 1.6294
0.9560 -10.3728 1.6294
1.3262 -10.3154 1.6294
1.6936 -10.2442 1.6294
2.0574 -10.1593 1.6294
2.4171 -10.0609 1.6294
2.7724 -9.9493 1.6294
3.1226 -9.8247 1.6294
3.4672 -9.6873 1.6294
3.8060 -9.5375 1.6294
4.1382 -9.3754 1.6294
4.4635 -9.2014 1.6294
4.7816 -9.0159 1.6294
5.0920 -8.8191 1.6294
5.3942 -8.6114 1.6294
5.6880 -8.3932 1.6294
5.9730 -8.1648 1.6294
6.2488 -7.9267 1.6294
6.5152 -7.6791 1.6294
6.7713 -7.4221 1.6293
7.0085 -7.1475 1.6271
4.6454 -4.4083 1.0434
7.4792 -6.6024 1.6292
7.6948 -6.3147 1.6294
7.8985 -6.0194 1.6294
8.0911 -5.7177 1.6294
8.2723 -5.4100 1.6294
8.4420 -5.0967 1.6294
8.6000 -4.7782 1.6294
8.7462 -4.4551 1.6294
8.8805 -4.1277 1.6294
9.0028 -3.7965 1.6294
9.1130 -3.4619 1.6294
9.2112 -3.1244 1.6294
9.2971 -2.7844 1.6294
9.3709 -2.4423 1.6294
9.4324 -2.0986 1.6294
9.4818 -1.7537 1.6294
9.5190 -1.4079 1.6294
9.5440 -1.0618 1.6294
9.5569 -0.7158 1.6294
9.5577 -0.3702 1.6294
9.5466 -0.0254 1.6294
9.5235 0.3181 1.6294
9.4887 0.6600 1.6294
9.4421 0.9998 1.6294
9.3839 1.3372 1.6294
9.3924 1.6859 1.6431
9.7619 2.1181 1.7227
9.7193 2.4789 1.7325
9.6095 2.8236 1.7325
9.4881 3.1638 1.7325
9.3553 3.4992 1.7325
9.2113 3.8294 1.7325
9.0563 4.1540 1.7325
8.8906 4.4729 1.7325
8.7142 4.7855 1.7325
8.5275 5.0916 1.7325
8.3307 5.3909 1.7325
8.1240 5.6830 1.7325
7.9076 5.9678 1.7325
7.6766 6.2404 1.7313
7.4419 6.5092 1.7313
7.1984 6.7698 1.7313
6.9464 7.0218 1.7313
6.6860 7.2650 1.7313
6.4177 7.4992 1.7313
6.1416 7.7241 1.7313
5.8581 7.9394 1.7313
5.5676 8.1451 1.7313
5.2702 8.3407 1.7313
4.9664 8.5262 1.7313
4.6564 8.7013 1.7313
4.3406 8.8658 1.7313
4.0193 9.0197 1.7313
3.6929 9.1625 1.7313
3.3616 9.2943 1.7313
2.3824 7.4125 1.3631
2.0039 7.1053 1.2916
-4.8710 7.5792 1.7325
-5.1506 7.4127 1.7325
-5.1019 6.8054 1.6294
-5.3541 6.6300 1.6294
-5.6004 6.4454 1.6294
-5.8404 6.2517 1.6294
-6.0739 6.0494 1.6293
-6.3005 5.8384 1.6293
-6.5199 5.6190 1.6293
-6.7317 5.3916 1.6293
-6.9357 5.1562 1.6293
-7.1316 4.9132 1.6293
-7.3189 4.6629 1.6293
-7.4975 4.4054 1.6292
-7.6671 4.1412 1.6292
-7.8388 3.8762 1.6316
-7.9897 3.5989 1.6316
-8.1308 3.3158 1.6316
-8.2617 3.0272 1.6316
-8.3823 2.7335 1.6316
-8.4923 2.4350 1.6316
-8.5916 2.1321 1.6316
-8.6798 1.8251 1.6316
-8.7569 1.5146 1.6316
-8.8227 1.2009 1.6316
-8.8769 0.8844 1.6316
-8.9195 0.5656 1.6316
-8.9504 0.2448 1.6316
-8.9694 -0.0774 1.6316
-8.2937 -0.3702 1.5075
-8.2926 -0.6697 1.5081
-8.5821 -1.0048 1.5637
-8.8952 -1.3673 1.6261
-8.8712 -1.6922 1.6292
-8.8180 -2.0131 1.6293
-8.7527 -2.3323 1.6293
-8.6753 -2.6492 1.6293
-8.5860 -2.9634 1.6293
-8.4848 -3.2744 1.6293
-8.3719 -3.5816 1.6293
-8.2473 -3.8848 1.6293
-8.1112 -4.1833 1.6293
-7.9637 -4.4768 1.6293
-7.8051 -4.7647 1.6294
-7.6356 -5.0467 1.6294
-7.4554 -5.3222 1.6294
-7.7242 -5.9446 1.7325
-7.5106 -6.2225 1.7325
-7.2863 -6.4922 1.7325
-7.0519 -6.7534 1.7325
-6.8076 -7.0055 1.7325
-6.5538 -7.2482 1.7325
-6.2908 -7.4812 1.7325
-6.0191 -7.7040 1.7325
-5.7390 -7.9164 1.7325
-5.4511 -8.1179 1.7325
-5.1556 -8.3083 1.7325
-4.8532 -8.4873 1.7325
-4.5442 -8.6545 1.7325
-4.2290 -8.8099 1.7325
-3.9083 -8.9531 1.7325
-3.5825 -9.0840 1.7325
-3.2521 -9.2023 1.7325
-2.9176 -9.3078 1.7325
-2.5795 -9.4006 1.7325
-2.2383 -9.4803 1.7325
-1.8946 -9.5471 1.7325
-1.5489 -9.6006 1.7325
-1.2016 -9.6411 1.7325
-0.8534 -9.6683 1.7325
-0.5048 -9.6823 1.7325
-0.1510 -9.3614 1.6749
0.1804 -9.0953 1.6294
0.5066 -9.0715 1.6294
0.8313 -9.0354 1.6294
1.1540 -8.9872 1.6294
1.4743 -8.9270 1.6294
1.7916 -8.8549 1.6294
2.1056 -8.7711 1.6294
2.4158 -8.6758 1.6294
2.7217 -8.5692 1.6294
3.0230 -8.4514 1.6294
3.3193 -8.3228 1.6294
3.6101 -8.1834 1.6294
3.8950 -8.0336 1.6294
4.1737 -7.8738 1.6294
4.4459 -7.7039 1.6294
4.7111 -7.5246 1.6294
4.9691 -7.3359 1.6294
5.2196 -7.1383 1.6294
5.4622 -6.9321 1.6294
5.6966 -6.7175 1.6294
5.9226 -6.4950 1.6294
6.1400 -6.2648 1.6294
4.6399 -4.4052 1.1909
6.5478 -5.7830 1.6294
6.7378 -5.5321 1.6294
6.9182 -5.2750 1.6294
7.0889 -5.0121 1.6294
7.2498 -4.7438 1.6294
7.4006 -4.4704 1.6294
7.5412 -4.1924 1.6294
7.6715 -3.9100 1.6294
7.7915 -3.6238 1.6294
7.9010 -3.3341 1.6294
7.9999 -3.0412 1.6294
8.0882 -2.7456 1.6294
8.1658 -2.4476 1.6294
8.2328 -2.1477 1.6294
8.2890 -1.8461 1.6294
8.3344 -1.5434 1.6294
8.3691 -1.2397 1.6294
8.3932 -0.9356 1.6294
8.4065 -0.6314 1.6294
8.4092 -0.3274 1.6294
8.4012 -0.0241 1.6294
8.3828 0.2783 1.6294
8.4361 0.5851 1.6454
8.7252 0.9222 1.7099
8.7878 1.2506 1.7325
8.7242 1.5644 1.7325
8.6499 1.8753 1.7325
8.5650 2.1830 1.7325
8.4696 2.4872 1.7325
8.3640 2.7876 1.7325
8.2482 3.0837 1.7325
8.1224 3.3754 1.7325
7.9868 3.6622 1.7325
7.8416 3.9439 1.7325
7.6870 4.2202 1.7325
7.5231 4.4908 1.7325
7.3502 4.7554 1.7325
7.1685 5.0137 1.7325
6.9733 5.2618 1.7313
6.7748 5.5065 1.7313
6.5681 5.7442 1.7313
6.3536 5.9746 1.7313
6.1314 6.1974 1.7313
5.9018 6.4124 1.7313
5.6650 6.6194 1.7313
5.4215 6.8181 1.7313
5.1712 7.0084 1.7313
4.9147 7.1899 1.7313
4.6522 7.3627 1.7313
4.3839 7.5264 1.7313
4.1101 7.6808 1.7313
3.8312 7.8259 1.7313
3.5473 7.9614 1.7313
3.2590 8.0872 1.7313
2.9664 8.2030 1.7313
2.6699 8.3089 1.7313
0.8611 3.0541 0.6291
-4.3429 6.7542 1.7325
-4.5913 6.6044 1.7325
-4.5762 6.1013 1.6399
-4.7706 5.9046 1.6294
-4.9889 5.7390 1.6294
-5.2017 5.5654 1.6293
-5.4085 5.3840 1.6293
-5.6090 5.1951 1.6293
-5.8030 4.9987 1.6293
-5.9902 4.7953 1.6293
-6.1704 4.5849 1.6293
-6.3432 4.3678 1.6293
-6.5084 4.1442 1.6293
-6.6657 3.9145 1.6293
-6.8149 3.6788 1.6292
-6.9557 3.4374 1.6292
-7.0880 3.1907 1.6292
-7.2221 2.9433 1.6316
-7.3368 2.6864 1.6316
-7.4422 2.4250 1.6316
-7.5382 2.1595 1.6316
-7.6247 1.8903 1.6316
-7.7013 1.6176 1.6316
-7.7681 1.3418 1.6316
-7.8247 1.0633 1.6316
-7.8712 0.7825 1.6316
-7.9074 0.4997 1.6316
-7.9332 0.2154 1.6316
-7.9369 -0.0701 1.6292
-7.9416 -0.3561 1.6292
-7.9358 -0.6424 1.6292
-7.9193 -0.9287 1.6293
-7.8922 -1.2146 1.6293
-7.8544 -1.4996 1.6293
-7.8059 -1.7835 1.6293
-7.7469 -2.0656 1.6293
-7.6772 -2.3457 1.6293
-7.5971 -2.6233 1.6293
-7.5065 -2.8980 1.6293
-7.4055 -3.1694 1.6293
-7.2944 -3.4371 1.6293
-7.1732 -3.7006 1.6294
-7.0420 -3.9596 1.6294
-6.9010 -4.2138 1.6294
-6.7505 -4.4626 1.6294
-6.9822 -4.9853 1.7262
-6.8276 -5.2554 1.7325
-6.6383 -5.5006 1.7325
-6.4397 -5.7386 1.7325
-6.2322 -5.9690 1.7325
-6.0160 -6.1915 1.7325
-5.7915 -6.4057 1.7325
-5.5590 -6.6113 1.7325
-5.3189 -6.8080 1.7325
-5.0714 -6.9955 1.7325
-4.8169 -7.1735 1.7325
-4.5560 -7.3418 1.7325
-4.2888 -7.5000 1.7325
-4.0159 -7.6479 1.7325
-3.7376 -7.7854 1.7325
-3.4544 -7.9123 1.7325
-3.1667 -8.0282 1.7325
-2.8749 -8.1332 1.7325
-2.5794 -8.2271 1.7325
-2.2808 -8.3096 1.7325
-1.9794 -8.3808 1.7325
-1.6758 -8.4405 1.7325
-1.3704 -8.4887 1.7325
-1.0635 -8.5253 1.7325
-0.7558 -8.5504 1.7325
-0.4475 -8.5638 1.7325
-0.1393 -8.5656 1.7325
0.1685 -8.5559 1.7325
0.4753 -8.5346 1.7325
0.7629 -8.3057 1.6925
1.0271 -8.0090 1.6405
1.3038 -7.9026 1.6294
1.5849 -7.8401 1.6294
1.8632 -7.7673 1.6294
2.1382 -7.6843 1.6294
2.4095 -7.5913 1.6294
2.6769 -7.4883 1.6294
2.9399 -7.3758 1.6294
3.1982 -7.2537 1.6294
3.4513 -7.1224 1.6294
3.6992 -6.9821 1.6294
3.9413 -6.8330 1.6294
4.1774 -6.6754 1.6294
4.4071 -6.5094 1.6294
4.6303 -6.3355 1.6294
4.8466 -6.1538 1.6294
5.0558 -5.9647 1.6294
5.2576 -5.7684 1.6294
5.4518 -5.5652 1.6294
4.6343 -4.4020 1.3393
4.7846 -4.2278 1.3403
5.9867 -4.9178 1.6294
6.1484 -4.6903 1.6294
6.3015 -4.4577 1.6294
6.4459 -4.2200 1.6294
6.5815 -3.9778 1.6294
6.7080 -3.7313 1.6294
6.8255 -3.4809 1.6294
6.9338 -3.2269 1.6294
7.0327 -2.9697 1.6294
7.1223 -2.7095 1.6294
7.2024 -2.4468 1.6294
7.2731 -2.1819 1.6294
7.3342 -1.9151 1.6294
7.3857 -1.6467 1.6294
7.4277 -1.3772 1.6294
7.4601 -1.1068 1.6294
7.4901 -0.8366 1.6309
7.4962 -0.5646 1.6294
7.6709 -0.3003 1.6665
7.9084 -0.0243 1.7194
7.9522 0.2625 1.7325
7.9261 0.5482 1.7325
7.8900 0.8325 1.7325
7.8442 1.1149 1.7325
7.7886 1.3952 1.7325
7.7233 1.6731 1.7325
7.6486 1.9481 1.7325
7.5644 2.2201 1.7325
7.4710 2.4887 1.7325
7.3685 2.7536 1.7325
7.2570 3.0146 1.7325
7.1366 3.2713 1.7325
7.0075 3.5234 1.7325
6.8700 3.7707 1.7325
6.7241 4.0129 1.7325
6.5701 4.2498 1.7325
6.4037 4.4780 1.7313
6.2341 4.7032 1.7313
6.0570 4.9223 1.7313
5.8725 5.1352 1.7313
5.6809 5.3414 1.7313
5.4824 5.5409 1.7313
5.2772 5.7334 1.7313
5.0657 5.9187 1.7313
4.8479 6.0965 1.7313
4.6242 6.2668 1.7313
4.3948 6.4293 1.7313
4.1599 6.5838 1.7313
3.9199 6.7301 1.7313
3.6750 6.8681 1.7313
3.4255 6.9977 1.7313
3.1715 7.1187 1.7313
2.9135 7.2309 1.7313
2.6517 7.3342 1.7313
0.8636 2.6883 0.6265
0.7661 2.7178 0.6262
-3.9147 6.0851 1.7325
-4.1378 5.9492 1.7325
-4.0971 5.4598 1.6294
-4.2979 5.3170 1.6294
-4.4939 5.1670 1.6294
-4.6847 5.0098 1.6294
-4.8700 4.8456 1.6293
-5.0497 4.6747 1.6293
-5.2234 4.4973 1.6293
-5.3910 4.3134 1.6293
-5.5521 4.1233 1.6293
-5.7065 3.9273 1.6293
-5.8541 3.7256 1.6293
-5.9945 3.5183 1.6293
-6.1276 3.3058 1.6293
-6.2531 3.0883 1.6293
-6.3708 2.8660 1.6292
-6.4806 2.6392 1.6292
-6.5823 2.4083 1.6292
-6.6757 2.1735 1.6292
-6.7607 1.9351 1.6292
-6.8370 1.6933 1.6292
-6.9045 1.4486 1.6292
-6.9631 1.2011 1.6292
-7.0127 0.9514 1.6292
-7.0533 0.6996 1.6292
-7.0845 0.4462 1.6292
-7.1065 0.1914 1.6292
-7.1191 -0.0644 1.6293
-7.1223 -0.3207 1.6293
-7.1160 -0.5774 1.6293
-7.1002 -0.8340 1.6293
-7.0748 -1.0901 1.6293
-7.0400 -1.3454 1.6293
-6.9956 -1.5996 1.6293
-6.9418 -1.8521 1.6293
-6.8785 -2.1028 1.6293
-6.8059 -2.3512 1.6293
-6.7240 -2.5970 1.6293
-6.6329 -2.8398 1.6293
-6.5326 -3.0792 1.6294
-6.4234 -3.3148 1.6294
-6.3054 -3.5464 1.6294
-6.1787 -3.7736 1.6294
-6.2399 -4.1259 1.6824
-6.2731 -4.4798 1.7325
-6.1117 -4.7051 1.7325
-5.9419 -4.9242 1.7325
-5.7639 -5.1370 1.7325
-5.5779 -5.3429 1.7325
-5.3843 -5.5418 1.7325
-5.1832 -5.7333 1.7325
-4.9750 -5.9171 1.7325
-4.7601 -6.0930 1.7325
-4.5385 -6.2607 1.7325
-4.3109 -6.4199 1.7325
-4.0774 -6.5705 1.7325
-3.8384 -6.7121 1.7325
-3.5943 -6.8446 1.7325
-3.3454 -6.9678 1.7325
-3.0921 -7.0815 1.7325
-2.8347 -7.1856 1.7325
-2.5737 -7.2798 1.7325
-2.3094 -7.3642 1.7325
-2.0423 -7.4385 1.7325
-1.7727 -7.5027 1.7325
-1.5011 -7.5567 1.7325
-1.2277 -7.6004 1.7325
-0.9532 -7.6338 1.7325
-0.6777 -7.6569 1.7325
-0.4018 -7.6697 1.7325
-0.1258 -7.6721 1.7325
0.1499 -7.6642 1.7325
0.4247 -7.6460 1.7325
0.6985 -7.6177 1.7325
0.9708 -7.5791 1.7325
1.2411 -7.5305 1.7325
1.5045 -7.4491 1.7271
1.7245 -7.1949 1.6836
1.9343 -6.9565 1.6452
2.1593 -6.8073 1.6294
2.4048 -6.7313 1.6331
2.6355 -6.6161 1.6294
2.8676 -6.5077 1.6294
3.0952 -6.3909 1.6294
3.3181 -6.2661 1.6294
3.5359 -6.1333 1.6294
3.7484 -5.9928 1.6294
3.9553 -5.8449 1.6294
4.1563 -5.6897 1.6294
4.3513 -5.5276 1.6294
4.5400 -5.3587 1.6294
4.7220 -5.1833 1.6294
4.8974 -5.0017 1.6294
4.6286 -4.3988 1.4888
4.7789 -4.2248 1.4897
5.3808 -4.4223 1.6294
5.5272 -4.2187 1.6294
5.6659 -4.0101 1.6294
5.7968 -3.7971 1.6294
5.9198 -3.5799 1.6294
6.0348 -3.3587 1.6294
6.1415 -3.1340 1.6294
6.2400 -2.9059 1.6294
6.3302 -2.6748 1.6294
6.4119 -2.4411 1.6294
6.4852 -2.2049 1.6294
6.5499 -1.9666 1.6294
6.6061 -1.7266 1.6294
6.6640 -1.4874 1.6319
6.8371 -1.2693 1.6646
7.0304 -1.0446 1.7040
7.1711 -0.8026 1.7325
7.1849 -0.5428 1.7325
7.1895 -0.2830 1.7325
7.1850 -0.0235 1.7325
7.1715 0.2352 1.7325
7.1488 0.4930 1.7325
7.1173 0.7496 1.7325
7.0768 1.0045 1.7325
7.0275 1.2576 1.7325
6.9695 1.5085 1.7325
6.9028 1.7570 1.7325
6.8276 2.0027 1.7325
6.7440 2.2454 1.7325
6.6520 2.4848 1.7325
6.5519 2.7207 1.7325
6.4438 2.9527 1.7325
6.3278 3.1807 1.7325
6.2041 3.4043 1.7325
6.0728 3.6233 1.7325
5.9300 3.8349 1.7313
5.7841 4.0439 1.7313
5.6312 4.2476 1.7313
5.4715 4.4459 1.7313
5.3050 4.6384 1.7313
5.1321 4.8249 1.7313
4.9530 5.0053 1.7313
4.7677 5.1794 1.7313
4.5766 5.3469 1.7313
4.3799 5.5078 1.7313
4.1778 5.6617 1.7313
3.9705 5.8085 1.7313
3.7583 5.9481 1.7313
3.5414 6.0803 1.7313
3.3200 6.2050 1.7313
3.0944 6.3220 1.7313
2.8649 6.4311 1.7313
2.6317 6.5323 1.7313
0.8638 2.3895 0.6244
0.7770 2.4192 0.6241
0.6892 2.4457 0.6239
-3.5601 5.5312 1.7325
-3.7624 5.4069 1.7325
-3.7249 4.9614 1.6294
-3.9069 4.8309 1.6294
-4.0844 4.6939 1.6294
-4.2572 4.5504 1.6294
-4.4250 4.4007 1.6294
-4.5875 4.2448 1.6293
-4.7447 4.0830 1.6293
-4.8961 3.9155 1.6293
-5.0417 3.7424 1.6293
-5.1812 3.5639 1.6293
-5.3143 3.3802 1.6293
-5.4409 3.1916 1.6293
-5.5608 2.9983 1.6293
-5.6738 2.8005 1.6292
-5.7798 2.5984 1.6292
-5.8786 2.3924 1.6292
-5.9700 2.1826 1.6292
-6.0539 1.9694 1.6292
-6.1300 1.7530 1.6293
-6.1983 1.5336 1.6293
-6.2586 1.3115 1.6293
-6.3109 1.0871 1.6293
-6.3550 0.8607 1.6293
-6.3908 0.6325 1.6293
-6.4183 0.4028 1.6293
-6.4373 0.1720 1.6293
-6.4479 -0.0596 1.6293
-6.4499 -0.2918 1.6293
-6.4434 -0.5241 1.6293
-6.4283 -0.7563 1.6293
-6.4047 -0.9880 1.6293
-6.3724 -1.2190 1.6293
-6.3315 -1.4489 1.6293
-6.2822 -1.6772 1.6293
-6.2243 -1.9039 1.6293
-6.1580 -2.1284 1.6293
-6.0833 -2.3505 1.6293
-6.0003 -2.5699 1.6294
-5.9092 -2.7862 1.6294
-5.8099 -2.9991 1.6294
-5.7377 -3.2280 1.6394
-5.6819 -3.4710 1.6568
-5.8109 -3.8430 1.7325
-5.6724 -4.0516 1.7325
-5.5262 -4.2551 1.7325
-5.3725 -4.4530 1.7325
-5.2113 -4.6451 1.7325
-5.0430 -4.8311 1.7325
-4.8678 -5.0107 1.7325
-4.6860 -5.1836 1.7325
-4.4977 -5.3497 1.7325
-4.3033 -5.5086 1.7325
-4.1031 -5.6601 1.7325
-3.8973 -5.8040 1.7325
-3.6863 -5.9401 1.7325
-3.4703 -6.0681 1.7325
-3.2497 -6.1880 1.7325
-3.0248 -6.2995 1.7325
-2.7958 -6.4024 1.7325
-2.5633 -6.4967 1.7325
-2.3275 -6.5821 1.7325
-2.0887 -6.6587 1.7325
-1.8473 -6.7261 1.7325
-1.6037 -6.7846 1.7325
-1.3581 -6.8338 1.7325
-1.1111 -6.8737 1.7325
-0.8629 -6.9044 1.7325
-0.6138 -6.9258 1.7325
-0.3643 -6.9379 1.7325
-0.1147 -6.9407 1.7325
0.1346 -6.9341 1.7325
0.3833 -6.9184 1.7325
0.6310 -6.8934 1.7325
0.8774 -6.8592 1.7325
1.1221 -6.8160 1.7325
1.3649 -6.7637 1.7325
1.6052 -6.7026 1.7325
1.8429 -6.6327 1.7325
2.0776 -6.5542 1.7325
2.3089 -6.4672 1.7325
2.5048 -6.2918 1.7107
2.6810 -6.0876 1.6826
2.8512 -5.8902 1.6575
3.0199 -5.7060 1.6375
3.2028 -5.5583 1.6294
3.3958 -5.4318 1.6294
3.5838 -5.2985 1.6294
3.7665 -5.1586 1.6294
3.9438 -5.0124 1.6294
4.1154 -4.8599 1.6294
4.2812 -4.7016 1.6294
4.4408 -4.5376 1.6294
4.5942 -4.3681 1.6294
4.7411 -4.1935 1.6294
4.8814 -4.0139 1.6294
5.0150 -3.8297 1.6294
5.1416 -3.6410 1.6294
5.2612 -3.4482 1.6294
5.3737 -3.2515 1.6294
5.4788 -3.0511 1.6294
5.5766 -2.8474 1.6294
5.6709 -2.6426 1.6305
5.8147 -2.4587 1.6478
5.9716 -2.2751 1.6705
6.1335 -2.0870 1.6962
6.3001 -1.8933 1.7248
6.3833 -1.6700 1.7325
6.4301 -1.4368 1.7325
6.4686 -1.2024 1.7325
6.4987 -0.9671 1.7325
6.5204 -0.7312 1.7325
6.5338 -0.4950 1.7325
6.5388 -0.2588 1.7325
6.5355 -0.0228 1.7325
6.5239 0.2127 1.7325
6.5041 0.4473 1.7325
6.4761 0.6808 1.7325
6.4399 0.9129 1.7325
6.3957 1.1433 1.7325
6.3435 1.3719 1.7325
6.2834 1.5982 1.7325
6.2155 1.8221 1.7325
6.1399 2.0432 1.7325
6.0567 2.2614 1.7325
5.9660 2.4764 1.7325
5.8680 2.6879 1.7325
5.7628 2.8957 1.7325
5.6504 3.0996 1.7325
5.5312 3.2994 1.7325
5.4014 3.4923 1.7313
5.2688 3.6829 1.7313
5.1297 3.8687 1.7313
4.9844 4.0494 1.7313
4.8329 4.2250 1.7313
4.6755 4.3951 1.7313
4.5124 4.5597 1.7313
4.3437 4.7184 1.7313
4.1696 4.8712 1.7313
3.9904 5.0178 1.7313
3.8063 5.1581 1.7313
3.6174 5.2919 1.7313
3.4240 5.4191 1.7313
3.2263 5.5396 1.7313
3.0245 5.6531 1.7313
2.8189 5.7596 1.7313
2.6097 5.8590 1.7313
0.8621 2.1402 0.6226
0.7843 2.1699 0.6224
0.7054 2.1969 0.6222
0.6257 2.2210 0.6219
-3.2613 5.0644 1.7325
-3.4463 4.9500 1.7325
-3.4114 4.5417 1.6294
-3.5777 4.4217 1.6294
-3.7398 4.2958 1.6294
-3.8975 4.1639 1.6294
-4.0506 4.0264 1.6294
-4.1989 3.8833 1.6293
-4.3422 3.7348 1.6293
-4.4802 3.5810 1.6293
-4.6128 3.4222 1.6293
-4.7398 3.2585 1.6293
-4.8609 3.0901 1.6293
-4.9761 2.9173 1.6293
-5.0851 2.7401 1.6292
-5.1878 2.5590 1.6292
-5.2841 2.3740 1.6292
-5.3737 2.1854 1.6292
-5.4566 1.9934 1.6292
-5.5326 1.7984 1.6293
-5.6015 1.6004 1.6293
-5.6632 1.3998 1.6293
-5.7177 1.1968 1.6293
-5.7647 0.9917 1.6293
-5.8043 0.7848 1.6293
-5.8363 0.5763 1.6293
-5.8608 0.3666 1.6293
-5.8775 0.1558 1.6293
-5.8865 -0.0556 1.6293
-5.8878 -0.2675 1.6293
-5.8812 -0.4795 1.6293
-5.8669 -0.6914 1.6293
-5.8447 -0.9028 1.6293
-5.8147 -1.1134 1.6293
-5.7769 -1.3230 1.6293
-5.7313 -1.5312 1.6293
-5.6780 -1.7378 1.6293
-5.6171 -1.9424 1.6294
-5.5485 -2.1449 1.6294
-5.4725 -2.3447 1.6294
-5.3890 -2.5418 1.6294
-5.3423 -2.7585 1.6430
-5.2484 -2.9535 1.6445
-5.4172 -3.3101 1.7325
-5.2981 -3.5046 1.7325
-5.1716 -3.6946 1.7325
-5.0381 -3.8799 1.7325
-4.8978 -4.0601 1.7325
-4.7507 -4.2351 1.7325
-4.5972 -4.4045 1.7325
-4.4374 -4.5680 1.7325
-4.2715 -4.7256 1.7325
-4.0999 -4.8768 1.7325
-3.9227 -5.0216 1.7325
-3.7402 -5.1596 1.7325
-3.5527 -5.2907 1.7325
-3.3603 -5.4148 1.7325
-3.1635 -5.5315 1.7325
-2.9625 -5.6408 1.7325
-2.7575 -5.7425 1.7325
-2.5490 -5.8364 1.7325
-2.3371 -5.9225 1.7325
-2.1223 -6.0005 1.7325
-1.9047 -6.0705 1.7325
-1.6847 -6.1323 1.7325
-1.4627 -6.1858 1.7325
-1.2390 -6.2309 1.7325
-1.0138 -6.2677 1.7325
-0.7875 -6.2960 1.7325
-0.5605 -6.3159 1.7325
-0.3331 -6.3274 1.7325
-0.1055 -6.3303 1.7325
0.1219 -6.3249 1.7325
0.3487 -6.3110 1.7325
0.5747 -6.2887 1.7325
0.7994 -6.2580 1.7325
1.0228 -6.2191 1.7325
1.2443 -6.1721 1.7325
1.4637 -6.1169 1.7325
1.6808 -6.0537 1.7325
1.8951 -5.9826 1.7325
2.1065 -5.9038 1.7325
2.3146 -5.8174 1.7325
2.5191 -5.7234 1.7325
2.7199 -5.6221 1.7325
2.9166 -5.5137 1.7325
3.1089 -5.3983 1.7325
3.2967 -5.2761 1.7325
3.4796 -5.1472 1.7325
3.6351 -4.9811 1.7218
3.7828 -4.8101 1.7110
3.9285 -4.6415 1.7026
4.0725 -4.4747 1.6965
4.2153 -4.3093 1.6926
4.3573 -4.1450 1.6910
4.4988 -3.9812 1.6916
4.6402 -3.8175 1.6943
4.7818 -3.6535 1.6993
4.9241 -3.4888 1.7066
5.0673 -3.3229 1.7161
5.2120 -3.1554 1.7279
5.3286 -2.9692 1.7325
5.4244 -2.7715 1.7325
5.5129 -2.5706 1.7325
5.5941 -2.3670 1.7325
5.6678 -2.1610 1.7325
5.7341 -1.9526 1.7325
5.7928 -1.7423 1.7325
5.8439 -1.5304 1.7325
5.8874 -1.3170 1.7325
5.9233 -1.1025 1.7325
5.9515 -0.8871 1.7325
5.9721 -0.6711 1.7325
5.9849 -0.4547 1.7325
5.9901 -0.2383 1.7325
5.9877 -0.0221 1.7325
5.9777 0.1936 1.7325
5.9601 0.4087 1.7325
5.9350 0.6227 1.7325
5.9023 0.8355 1.7325
5.8623 1.0469 1.7325
5.8149 1.2565 1.7325
5.7603 1.4641 1.7325
5.6985 1.6695 1.7325
5.6296 1.8724 1.7325
5.5537 2.0727 1.7325
5.4709 2.2700 1.7325
5.3813 2.4641 1.7325
5.2851 2.6549 1.7325
5.1824 2.8421 1.7325
5.0732 3.0254 1.7325
4.9578 3.2048 1.7325
4.8363 3.3799 1.7325
4.7088 3.5506 1.7325
4.5755 3.7168 1.7325
4.4366 3.8780 1.7325
4.2922 4.0344 1.7325
4.1425 4.1855 1.7325
3.9877 4.3314 1.7325
3.8279 4.4717 1.7325
3.6634 4.6064 1.7325
3.4944 4.7353 1.7325
3.3209 4.8582 1.7325
3.1433 4.9750 1.7325
2.9618 5.0856 1.7325
2.7765 5.1898 1.7325
2.5876 5.2875 1.7325
0.8588 1.9282 0.6211
0.7886 1.9580 0.6209
0.7174 1.9852 0.6207
0.6452 2.0099 0.6205
0.5722 2.0319 0.6203
-3.0060 4.6655 1.7325
-3.1761 4.5597 1.7325
-3.2564 4.3331 1.6878
-3.2965 4.0722 1.6294
-3.4455 3.9557 1.6294
-3.5904 3.8339 1.6294
-3.7310 3.7068 1.6293
-3.8671 3.5746 1.6293
-3.9986 3.4375 1.6293
-4.1253 3.2956 1.6293
-4.2469 3.1491 1.6293
-4.3634 2.9981 1.6293
-4.4744 2.8428 1.6293
-4.5799 2.6834 1.6292
-4.6798 2.5202 1.6292
-4.7738 2.3532 1.6292
-4.8619 2.1828 1.6292
-4.9438 2.0091 1.6292
-5.0196 1.8324 1.6293
-5.0889 1.6528 1.6293
-5.1518 1.4705 1.6293
-5.2080 1.2859 1.6293
-5.2575 1.0992 1.6293
-5.3003 0.9105 1.6293
-5.3361 0.7202 1.6293
-5.3651 0.5285 1.6293
-5.3870 0.3357 1.6293
-5.4019 0.1420 1.6293
-5.4097 -0.0523 1.6293
-5.4103 -0.2470 1.6293
-5.4038 -0.4417 1.6293
-5.3901 -0.6363 1.6293
-5.3693 -0.8304 1.6293
-5.3413 -1.0238 1.6293
-5.3062 -1.2162 1.6293
-5.2639 -1.4073 1.6294
-5.2146 -1.5969 1.6294
-5.1583 -1.7847 1.6294
-5.0950 -1.9704 1.6294
-5.0249 -2.1538 1.6294
-4.9479 -2.3346 1.6294
-4.8927 -2.5271 1.6389
-5.0760 -2.8572 1.7325
-4.9731 -3.0395 1.7325
-4.8635 -3.2179 1.7325
-4.7473 -3.3921 1.7325
-4.6246 -3.5620 1.7325
-4.4956 -3.7273 1.7325
-4.3605 -3.8877 1.7325
-4.2195 -4.0431 1.7325
-4.0728 -4.1931 1.7325
-3.9205 -4.3375 1.7325
-3.7630 -4.4763 1.7325
-3.6003 -4.6090 1.7325
-3.4328 -4.7357 1.7325
-3.2607 -4.8560 1.7325
-3.0843 -4.9698 1.7325
-2.9037 -5.0769 1.7325
-2.7192 -5.1773 1.7325
-2.5312 -5.2707 1.7325
-2.3399 -5.3570 1.7325
-2.1455 -5.4361 1.7325
-1.9484 -5.5078 1.7325
-1.7488 -5.5722 1.7325
-1.5469 -5.6291 1.7325
-1.3433 -5.6784 1.7325
-1.1380 -5.7201 1.7325
-0.9313 -5.7541 1.7325
-0.7237 -5.7804 1.7325
-0.5154 -5.7990 1.7325
-0.3066 -5.8098 1.7325
-0.0977 -5.8128 1.7325
0.1110 -5.8082 1.7325
0.3193 -5.7958 1.7325
0.5268 -5.7757 1.7325
0.7333 -5.7480 1.7325
0.9385 -5.7127 1.7325
1.1420 -5.6699 1.7325
1.3436 -5.6197 1.7325
1.5431 -5.5621 1.7325
1.7402 -5.4973 1.7325
1.9345 -5.4253 1.7325
2.1259 -5.3464 1.7325
2.3141 -5.2606 1.7325
2.4988 -5.1680 1.7325
2.6798 -5.0688 1.7325
2.8569 -4.9632 1.7325
3.0297 -4.8513 1.7325
3.1983 -4.7334 1.7325
3.3622 -4.6095 1.7325
3.5213 -4.4798 1.7325
3.6754 -4.3446 1.7325
3.8244 -4.2041 1.7325
3.9679 -4.0585 1.7325
4.1060 -3.9079 1.7325
4.2383 -3.7526 1.7325
4.3648 -3.5928 1.7325
4.4853 -3.4288 1.7325
4.5997 -3.2607 1.7325
4.7078 -3.0889 1.7325
4.8096 -2.9135 1.7325
4.9048 -2.7347 1.7325
4.9935 -2.5529 1.7325
5.0755 -2.3682 1.7325
5.1508 -2.1810 1.7325
5.2192 -1.9914 1.7325
5.2808 -1.7997 1.7325
5.3354 -1.6062 1.7325
5.3830 -1.4111 1.7325
5.4236 -1.2146 1.7325
5.4572 -1.0171 1.7325
5.4837 -0.8186 1.7325
5.5032 -0.6196 1.7325
5.5155 -0.4203 1.7325
5.5208 -0.2209 1.7325
5.5191 -0.0216 1.7325
5.5103 0.1773 1.7325
5.4945 0.3756 1.7325
5.4717 0.5730 1.7325
5.4421 0.7693 1.7325
5.4056 0.9643 1.7325
5.3623 1.1577 1.7325
5.3123 1.3492 1.7325
5.2556 1.5388 1.7325
5.1924 1.7261 1.7325
5.1226 1.9109 1.7325
5.0465 2.0931 1.7325
4.9642 2.2723 1.7325
4.8757 2.4484 1.7325
4.7811 2.6213 1.7325
4.6806 2.7906 1.7325
4.5743 2.9562 1.7325
4.4623 3.1179 1.7325
4.3448 3.2756 1.7325
4.2220 3.4290 1.7325
4.0939 3.5780 1.7325
3.9607 3.7223 1.7325
3.8226 3.8619 1.7325
3.6798 3.9966 1.7325
3.5324 4.1262 1.7325
3.3806 4.2505 1.7325
3.2246 4.3695 1.7325
3.0645 4.4830 1.7325
2.9005 4.5908 1.7325
2.7329 4.6928 1.7325
2.5619 4.7890 1.7325
0.8541 1.7454 0.6198
0.7905 1.7751 0.6196
0.7259 1.8025 0.6195
0.6603 1.8276 0.6193
0.5939 1.8503 0.6191
0.5267 1.8706 0.6189
-2.7850 4.3203 1.7325
-2.9423 4.2219 1.7325
-3.0962 4.1179 1.7325
-3.1059 3.8348 1.6575
-3.1909 3.6616 1.6293
-3.3248 3.5485 1.6293
-3.4547 3.4305 1.6293
-3.5804 3.3079 1.6293
-3.7018 3.1807 1.6293
-3.8187 3.0491 1.6293
-3.9309 2.9132 1.6293
-4.0383 2.7732 1.6293
-4.1407 2.6293 1.6292
-4.2379 2.4816 1.6292
-4.3299 2.3303 1.6292
-4.4166 2.1757 1.6292
-4.4976 2.0179 1.6292
-4.5730 1.8571 1.6293
-4.6426 1.6934 1.6293
-4.7064 1.5272 1.6293
-4.7641 1.3586 1.6293
-4.8156 1.1878 1.6293
-4.8610 1.0150 1.6293
-4.9001 0.8406 1.6293
-4.9328 0.6646 1.6293
-4.9592 0.4874 1.6293
-4.9790 0.3092 1.6293
-4.9923 0.1302 1.6293
-4.9991 -0.0494 1.6293
-4.9994 -0.2292 1.6293
-4.9930 -0.4091 1.6293
-4.9800 -0.5888 1.6293
-4.9604 -0.7681 1.6293
-4.9342 -0.9467 1.6293
-4.9014 -1.1243 1.6294
-4.8621 -1.3007 1.6294
-4.8162 -1.4757 1.6294
-4.7639 -1.6491 1.6294
-4.7052 -1.8205 1.6294
-4.6402 -1.9897 1.6294
-4.5911 -2.1670 1.6373
-4.7756 -2.4674 1.7325
-4.6868 -2.6388 1.7325
-4.5916 -2.8070 1.7325
-4.4902 -2.9715 1.7325
-4.3827 -3.1323 1.7325
-4.2694 -3.2890 1.7325
-4.1502 -3.4414 1.7325
-4.0254 -3.5894 1.7325
-3.8952 -3.7327 1.7325
-3.7597 -3.8711 1.7325
-3.6191 -4.0044 1.7325
-3.4736 -4.1323 1.7325
-3.3235 -4.2548 1.7325
-3.1689 -4.3717 1.7325
-3.0101 -4.4827 1.7325
-2.8472 -4.5877 1.7325
-2.6806 -4.6866 1.7325
-2.5104 -4.7793 1.7325
-2.3369 -4.8655 1.7325
-2.1603 -4.9453 1.7325
-1.9810 -5.0184 1.7325
-1.7991 -5.0847 1.7325
-1.6149 -5.1443 1.7325
-1.4287 -5.1969 1.7325
-1.2407 -5.2426 1.7325
-1.0512 -5.2812 1.7325
-0.8605 -5.3128 1.7325
-0.6689 -5.3374 1.7325
-0.4766 -5.3547 1.7325
-0.2838 -5.3650 1.7325
-0.0910 -5.3681 1.7325
0.1018 -5.3640 1.7325
0.2941 -5.3529 1.7325
0.4857 -5.3347 1.7325
0.6765 -5.3094 1.7325
0.8660 -5.2772 1.7325
1.0540 -5.2380 1.7325
1.2403 -5.1920 1.7325
1.4247 -5.1391 1.7325
1.6068 -5.0796 1.7325
1.7865 -5.0136 1.7325
1.9635 -4.9410 1.7325
2.1375 -4.8621 1.7325
2.3084 -4.7769 1.7325
2.4759 -4.6857 1.7325
2.6397 -4.5885 1.7325
2.7997 -4.4854 1.7325
2.9558 -4.3768 1.7325
3.1076 -4.2626 1.7325
3.2550 -4.1431 1.7325
3.3978 -4.0185 1.7325
3.5358 -3.8889 1.7325
3.6689 -3.7545 1.7325
3.7969 -3.6156 1.7325
3.9197 -3.4723 1.7325
4.0371 -3.3248 1.7325
4.1489 -3.1733 1.7325
4.2551 -3.0181 1.7325
4.3556 -2.8594 1.7325
4.4501 -2.6973 1.7325
4.5387 -2.5321 1.7325
4.6212 -2.3640 1.7325
4.6975 -2.1933 1.7325
4.7676 -2.0202 1.7325
4.8314 -1.8448 1.7325
4.8888 -1.6675 1.7325
4.9398 -1.4884 1.7325
4.9844 -1.3079 1.7325
5.0224 -1.1260 1.7325
5.0539 -0.9431 1.7325
5.0788 -0.7594 1.7325
5.0973 -0.5751 1.7325
5.1091 -0.3905 1.7325
5.1144 -0.2057 1.7325
5.1132 -0.0211 1.7325
5.1054 0.1632 1.7325
5.0911 0.3470 1.7325
5.0704 0.5300 1.7325
5.0433 0.7119 1.7325
5.0097 0.8927 1.7325
4.9699 1.0720 1.7325
4.9238 1.2497 1.7325
4.8716 1.4255 1.7325
4.8132 1.5992 1.7325
4.7488 1.7706 1.7325
4.6785 1.9396 1.7325
4.6023 2.1059 1.7325
4.5205 2.2693 1.7325
4.4329 2.4297 1.7325
4.3399 2.5868 1.7325
4.2415 2.7405 1.7325
4.1378 2.8906 1.7325
4.0289 3.0369 1.7325
3.9151 3.1793 1.7325
3.7964 3.3175 1.7325
3.6729 3.4515 1.7325
3.5449 3.5810 1.7325
3.4125 3.7060 1.7325
3.2758 3.8262 1.7325
3.1350 3.9416 1.7325
2.9903 4.0520 1.7325
2.8418 4.1572 1.7325
2.6898 4.2573 1.7325
2.5343 4.3519 1.7325
0.8482 1.5857 0.6186
0.7904 1.6153 0.6185
0.7315 1.6428 0.6184
0.6717 1.6682 0.6182
0.6109 1.6914 0.6181
0.5494 1.7124 0.6179
0.4872 1.7312 0.6177
-2.5917 4.0183 1.7325
-2.7379 3.9265 1.7325
-2.8808 3.8294 1.7325
-3.0204 3.7272 1.7325
-3.0452 3.4926 1.6715
-3.0927 3.2991 1.6293
-3.2133 3.1891 1.6293
-3.3299 3.0748 1.6293
-3.4425 2.9563 1.6293
-3.5509 2.8337 1.6293
-3.6549 2.7072 1.6293
-3.7545 2.5768 1.6292
-3.8494 2.4428 1.6292
-3.9395 2.3054 1.6292
-4.0247 2.1647 1.6292
-4.1048 2.0208 1.6292
-4.1799 1.8740 1.6293
-4.2496 1.7245 1.6293
-4.3139 1.5723 1.6293
-4.3728 1.4177 1.6293
-4.4261 1.2610 1.6293
-4.4736 1.1023 1.6293
-4.5154 0.9417 1.6293
-4.5514 0.7796 1.6293
-4.5814 0.6162 1.6293
-4.6055 0.4516 1.6293
-4.6236 0.2861 1.6293
-4.6357 0.1198 1.6293
-4.6417 -0.0468 1.6293
-4.6416 -0.2138 1.6293
-4.6353 -0.3808 1.6293
-4.6230 -0.5476 1.6294
-4.6045 -0.7139 1.6294
-4.5799 -0.8796 1.6294
-4.5492 -1.0444 1.6294
-4.5125 -1.2081 1.6294
-4.4697 -1.3704 1.6294
-4.4209 -1.5311 1.6294
-4.3662 -1.6901 1.6294
-4.3267 -1.8560 1.6373
-4.5076 -2.1282 1.7325
-4.4309 -2.2901 1.7325
-4.3484 -2.4490 1.7325
-4.2599 -2.6049 1.7325
-4.1658 -2.7574 1.7325
-4.0660 -2.9064 1.7325
-3.9607 -3.0517 1.7325
-3.8500 -3.1930 1.7325
-3.7342 -3.3302 1.7325
-3.6133 -3.4630 1.7325
-3.4876 -3.5913 1.7325
-3.3572 -3.7149 1.7325
-3.2223 -3.8335 1.7325
-3.0830 -3.9471 1.7325
-2.9396 -4.0554 1.7325
-2.7923 -4.1584 1.7325
-2.6413 -4.2558 1.7325
-2.4867 -4.3476 1.7325
-2.3289 -4.4335 1.7325
-2.1680 -4.5135 1.7325
-2.0043 -4.5875 1.7325
-1.8380 -4.6554 1.7325
-1.6693 -4.7171 1.7325
-1.4985 -4.7724 1.7325
-1.3258 -4.8213 1.7325
-1.1515 -4.8638 1.7325
-0.9758 -4.8999 1.7325
-0.7989 -4.9293 1.7325
-0.6212 -4.9522 1.7325
-0.4428 -4.9686 1.7325
-0.2640 -4.9783 1.7325
-0.0851 -4.9814 1.7325
0.0937 -4.9779 1.7325
0.2721 -4.9678 1.7325
0.4500 -4.9511 1.7325
0.6270 -4.9279 1.7325
0.8029 -4.8983 1.7325
0.9775 -4.8622 1.7325
1.1504 -4.8198 1.7325
1.3216 -4.7710 1.7325
1.4908 -4.7161 1.7325
1.6576 -4.6551 1.7325
1.8220 -4.5880 1.7325
1.9838 -4.5151 1.7325
2.1425 -4.4363 1.7325
2.2982 -4.3519 1.7325
2.4505 -4.2619 1.7325
2.5993 -4.1666 1.7325
2.7445 -4.0660 1.7325
2.8856 -3.9602 1.7325
3.0228 -3.8495 1.7325
3.1557 -3.7341 1.7325
3.2842 -3.6140 1.7325
3.4081 -3.4894 1.7325
3.5273 -3.3606 1.7325
3.6417 -3.2277 1.7325
3.7511 -3.0909 1.7325
3.8553 -2.9504 1.7325
3.9543 -2.8063 1.7325
4.0480 -2.6590 1.7325
4.1362 -2.5085 1.7325
4.2189 -2.3552 1.7325
4.2959 -2.1991 1.7325
4.3672 -2.0405 1.7325
4.4328 -1.8796 1.7325
4.4924 -1.7167 1.7325
4.5462 -1.5519 1.7325
4.5940 -1.3855 1.7325
4.6357 -1.2176 1.7325
4.6714 -1.0485 1.7325
4.7011 -0.8785 1.7325
4.7247 -0.7076 1.7325
4.7421 -0.5362 1.7325
4.7535 -0.3644 1.7325
4.7587 -0.1925 1.7325
4.7578 -0.0207 1.7325
4.7509 0.1509 1.7325
4.7379 0.3219 1.7325
4.7189 0.4923 1.7325
4.6939 0.6617 1.7325
4.6630 0.8300 1.7325
4.6262 0.9970 1.7325
4.5835 1.1624 1.7325
4.5351 1.3262 1.7325
4.4810 1.4880 1.7325
4.4212 1.6477 1.7325
4.3559 1.8051 1.7325
4.2852 1.9601 1.7325
4.2091 2.1124 1.7325
4.1277 2.2618 1.7325
4.0412 2.4082 1.7325
3.9497 2.5514 1.7325
3.8532 2.6913 1.7325
3.7519 2.8276 1.7325
3.6460 2.9603 1.7325
3.5355 3.0891 1.7325
3.4206 3.2139 1.7325
3.3014 3.3347 1.7325
3.1781 3.4511 1.7325
3.0508 3.5631 1.7325
2.9196 3.6707 1.7325
2.7848 3.7735 1.7325
2.6465 3.8716 1.7325
0.8929 1.4134 0.6176
0.8413 1.4447 0.6175
0.7885 1.4741 0.6175
0.7347 1.5016 0.6174
0.6799 1.5272 0.6173
0.6243 1.5508 0.6172
0.5678 1.5724 0.6170
0.5107 1.5919 0.6168
0.4528 1.6094 0.6167
-0.8492 1.3159 0.6077
-0.8963 1.2848 0.6072
-2.6907 3.5748 1.7325
-2.8208 3.4792 1.7325
-2.9476 3.3788 1.7325
-2.9913 3.1893 1.6877
-3.0002 2.9762 1.6293
-3.1089 2.8693 1.6293
-3.2138 2.7584 1.6293
-3.3148 2.6438 1.6293
-3.4116 2.5255 1.6292
-3.5043 2.4037 1.6292
-3.5926 2.2786 1.6292
-3.6764 2.1502 1.6292
-3.7557 2.0187 1.6292
-3.8302 1.8844 1.6293
-3.8999 1.7473 1.6293
-3.9647 1.6076 1.6293
-4.0245 1.4656 1.6293
-4.0791 1.3214 1.6293
-4.1284 1.1751 1.6293
-4.1725 1.0270 1.6293
-4.2112 0.8772 1.6293
-4.2445 0.7260 1.6293
-4.2722 0.5736 1.6293
-4.2944 0.4201 1.6293
-4.3111 0.2657 1.6293
-4.3220 0.1108 1.6294
-4.3273 -0.0446 1.6294
-4.3270 -0.2002 1.6294
-4.3209 -0.3559 1.6294
-4.3091 -0.5113 1.6294
-4.2917 -0.6663 1.6294
-4.2685 -0.8206 1.6294
-4.2397 -0.9742 1.6294
-4.2053 -1.1266 1.6294
-4.1652 -1.2778 1.6294
-4.1196 -1.4275 1.6294
-4.1315 -1.5999 1.6546
-4.2657 -1.8306 1.7325
-4.1998 -1.9837 1.7325
-4.1283 -2.1343 1.7325
-4.0512 -2.2823 1.7325
-3.9687 -2.4274 1.7325
-3.8809 -2.5694 1.7325
-3.7878 -2.7081 1.7325
-3.6896 -2.8434 1.7325
-3.5865 -2.9750 1.7325
-3.4786 -3.1027 1.7325
-3.3659 -3.2263 1.7325
-3.2488 -3.3457 1.7325
-3.1273 -3.4608 1.7325
-3.0016 -3.5712 1.7325
-2.8719 -3.6770 1.7325
-2.7383 -3.7779 1.7325
-2.6011 -3.8737 1.7325
-2.4605 -3.9645 1.7325
-2.3166 -4.0499 1.7325
-2.1696 -4.1300 1.7325
-2.0198 -4.2046 1.7325
-1.8674 -4.2735 1.7325
-1.7125 -4.3368 1.7325
-1.5554 -4.3943 1.7325
-1.3964 -4.4459 1.7325
-1.2356 -4.4916 1.7325
-1.0732 -4.5313 1.7325
-0.9096 -4.5650 1.7325
-0.7449 -4.5926 1.7325
-0.5793 -4.6141 1.7325
-0.4132 -4.6294 1.7325
-0.2467 -4.6386 1.7325
-0.0800 -4.6417 1.7325
0.0866 -4.6386 1.7325
0.2529 -4.6294 1.7325
0.4186 -4.6141 1.7325
0.5835 -4.5927 1.7325
0.7475 -4.5653 1.7325
0.9102 -4.5319 1.7325
1.0714 -4.4926 1.7325
1.2310 -4.4475 1.7325
1.3888 -4.3965 1.7325
1.5444 -4.3399 1.7325
1.6977 -4.2776 1.7325
1.8485 -4.2099 1.7325
1.9967 -4.1367 1.7325
2.1419 -4.0583 1.7325
2.2841 -3.9746 1.7325
2.4230 -3.8860 1.7325
2.5584 -3.7924 1.7325
2.6903 -3.6941 1.7325
2.8184 -3.5911 1.7325
2.9425 -3.4837 1.7325
3.0626 -3.3719 1.7325
3.1784 -3.2559 1.7325
3.2898 -3.1360 1.7325
3.3967 -3.0122 1.7325
3.4990 -2.8848 1.7325
3.5966 -2.7539 1.7325
3.6892 -2.6197 1.7325
3.7769 -2.4824 1.7325
3.8595 -2.3421 1.7325
3.9369 -2.1991 1.7325
4.0091 -2.0536 1.7325
4.0759 -1.9057 1.7325
4.1374 -1.7557 1.7325
4.1934 -1.6037 1.7325
4.2438 -1.4499 1.7325
4.2887 -1.2946 1.7325
4.3280 -1.1380 1.7325
4.3616 -0.9801 1.7325
4.3896 -0.8214 1.7325
4.4119 -0.6619 1.7325
4.4284 -0.5018 1.7325
4.4393 -0.3414 1.7325
4.4445 -0.1808 1.7325
4.4440 -0.0203 1.7325
4.4377 0.1400 1.7325
4.4258 0.2998 1.7325
4.4083 0.4589 1.7325
4.3852 0.6173 1.7325
4.3565 0.7746 1.7325
4.3223 0.9306 1.7325
4.2826 1.0853 1.7325
4.2375 1.2384 1.7325
4.1871 1.3897 1.7325
4.1315 1.5390 1.7325
4.0706 1.6862 1.7325
4.0046 1.8311 1.7325
3.9336 1.9734 1.7325
3.8577 2.1132 1.7325
3.7770 2.2501 1.7325
3.6915 2.3841 1.7325
3.6014 2.5148 1.7325
3.5068 2.6424 1.7325
3.4078 2.7665 1.7325
3.3046 2.8870 1.7325
3.1972 3.0037 1.7325
3.0858 3.1166 1.7325
2.9706 3.2255 1.7325
2.8516 3.3303 1.7325
2.7290 3.4309 1.7325
2.6030 3.5270 1.7325
0.8805 1.2880 0.6166
0.8333 1.3189 0.6166
0.7850 1.3482 0.6166
0.7358 1.3756 0.6165
0.6855 1.4013 0.6164
0.6345 1.4252 0.6163
0.5825 1.4472 0.6162
0.5298 1.4674 0.6161
0.4765 1.4856 0.6159
0.4224 1.5020 0.6157
-0.7955 1.2320 0.6074
-0.8396 1.2029 0.6069
-0.8827 1.1721 0.6065
-2.6432 3.2584 1.7325
-2.7618 3.1642 1.7325
-2.8770 3.0658 1.7325
-2.9432 2.9180 1.7060
-2.9235 2.6967 1.6355
-3.0104 2.5825 1.6292
-3.1048 2.4750 1.6292
-3.1953 2.3640 1.6292
-3.2819 2.2499 1.6292
-3.3644 2.1325 1.6292
-3.4427 2.0122 1.6292
-3.5167 1.8890 1.6293
-3.5862 1.7631 1.6293
-3.6513 1.6347 1.6293
-3.7117 1.5039 1.6293
-3.7673 1.3708 1.6293
-3.8182 1.2358 1.6293
-3.8642 1.0988 1.6293
-3.9052 0.9601 1.6293
-3.9412 0.8199 1.6294
-3.9721 0.6784 1.6294
-3.9978 0.5357 1.6294
-4.0184 0.3921 1.6294
-4.0337 0.2477 1.6294
-4.0437 0.1027 1.6294
-4.0485 -0.0427 1.6294
-4.0479 -0.1882 1.6294
-4.0420 -0.3338 1.6294
-4.0308 -0.4791 1.6294
-4.0143 -0.6240 1.6294
-3.9925 -0.7684 1.6294
-3.9654 -0.9119 1.6294
-3.9329 -1.0544 1.6294
-3.8953 -1.1957 1.6294
-3.9591 -1.3726 1.6745
-4.0452 -1.5673 1.7325
-3.9888 -1.7124 1.7325
-3.9271 -1.8555 1.7325
-3.8601 -1.9963 1.7325
-3.7880 -2.1346 1.7325
-3.7107 -2.2702 1.7325
-3.6285 -2.4029 1.7325
-3.5414 -2.5325 1.7325
-3.4496 -2.6589 1.7325
-3.3531 -2.7818 1.7325
-3.2522 -2.9011 1.7325
-3.1469 -3.0166 1.7325
-3.0373 -3.1282 1.7325
-2.9237 -3.2357 1.7325
-2.8062 -3.3389 1.7325
-2.6849 -3.4377 1.7325
-2.5601 -3.5320 1.7325
-2.4319 -3.6216 1.7325
-2.3004 -3.7064 1.7325
-2.1659 -3.7863 1.7325
-2.0285 -3.8612 1.7325
-1.8885 -3.9309 1.7325
-1.7461 -3.9954 1.7325
-1.6013 -4.0546 1.7325
-1.4545 -4.1084 1.7325
-1.3059 -4.1567 1.7325
-1.1556 -4.1995 1.7325
-1.0039 -4.2367 1.7325
-0.8509 -4.2683 1.7325
-0.6970 -4.2942 1.7325
-0.5422 -4.3144 1.7325
-0.3869 -4.3289 1.7325
-0.2312 -4.3377 1.7325
-0.0754 -4.3407 1.7325
0.0803 -4.3379 1.7325
0.2358 -4.3295 1.7325
0.3907 -4.3154 1.7325
0.5450 -4.2956 1.7325
0.6983 -4.2701 1.7325
0.8505 -4.2391 1.7325
1.0014 -4.2025 1.7325
1.1507 -4.1605 1.7325
1.2982 -4.1130 1.7325
1.4439 -4.0603 1.7325
1.5874 -4.0023 1.7325
1.7286 -3.9391 1.7325
1.8673 -3.8709 1.7325
2.0032 -3.7977 1.7325
2.1364 -3.7197 1.7325
2.2665 -3.6370 1.7325
2.3933 -3.5496 1.7325
2.5169 -3.4578 1.7325
2.6369 -3.3616 1.7325
2.7532 -3.2613 1.7325
2.8658 -3.1568 1.7325
2.9743 -3.0485 1.7325
3.0788 -2.9364 1.7325
3.1791 -2.8208 1.7325
3.2751 -2.7016 1.7325
3.3666 -2.5792 1.7325
3.4535 -2.4537 1.7325
3.5359 -2.3253 1.7325
3.6134 -2.1941 1.7325
3.6862 -2.0604 1.7325
3.7540 -1.9242 1.7325
3.8168 -1.7858 1.7325
3.8746 -1.6454 1.7325
3.9273 -1.5031 1.7325
3.9748 -1.3592 1.7325
4.0171 -1.2138 1.7325
4.0541 -1.0671 1.7325
4.0859 -0.9193 1.7325
4.1123 -0.7706 1.7325
4.1334 -0.6211 1.7325
4.1492 -0.4712 1.7325
4.1596 -0.3209 1.7325
4.1646 -0.1704 1.7325
4.1643 -0.0200 1.7325
4.1587 0.1303 1.7325
4.1478 0.2800 1.7325
4.1315 0.4293 1.7325
4.1100 0.5777 1.7325
4.0833 0.7252 1.7325
4.0514 0.8715 1.7325
4.0144 1.0165 1.7325
3.9723 1.1601 1.7325
3.9252 1.3020 1.7325
3.8732 1.4421 1.7325
3.8162 1.5801 1.7325
3.7545 1.7160 1.7325
3.6880 1.8496 1.7325
3.6169 1.9807 1.7325
3.5413 2.1092 1.7325
3.4612 2.2348 1.7325
3.3768 2.3575 1.7325
3.2882 2.4772 1.7325
3.1954 2.5936 1.7325
3.0986 2.7066 1.7325
2.9980 2.8162 1.7325
2.8936 2.9221 1.7325
2.7855 3.0243 1.7325
2.6739 3.1226 1.7325
2.5590 3.2169 1.7325
0.8675 1.1754 0.6158
0.8244 1.2060 0.6158
0.7802 1.2350 0.6157
0.7350 1.2623 0.6157
0.6889 1.2881 0.6156
0.6419 1.3121 0.6155
0.5940 1.3345 0.6155
0.5453 1.3551 0.6153
0.4960 1.3740 0.6152
0.4460 1.3911 0.6151
0.3954 1.4064 0.6149
-0.7474 1.1569 0.6071
-0.7888 1.1294 0.6067
-0.8293 1.1005 0.6063
-0.8687 1.0702 0.6058
-2.5953 2.9718 1.7325
-2.7034 2.8792 1.7325
-2.8082 2.7827 1.7325
-2.8997 2.6733 1.7266
-2.8736 2.4638 1.6554
-2.9166 2.3237 1.6292
-3.0015 2.2194 1.6292
-3.0827 2.1121 1.6292
-3.1600 2.0018 1.6292
-3.2333 1.8886 1.6293
-3.3026 1.7729 1.6293
-3.3677 1.6546 1.6293
-3.4286 1.5339 1.6293
-3.4851 1.4110 1.6293
-3.5372 1.2860 1.6293
-3.5848 1.1591 1.6293
-3.6277 1.0305 1.6293
-3.6661 0.9003 1.6293
-3.6996 0.7687 1.6294
-3.7284 0.6358 1.6294
-3.7524 0.5019 1.6294
-3.7715 0.3671 1.6294
-3.7856 0.2315 1.6294
-3.7949 0.0955 1.6294
-3.7992 -0.0409 1.6294
-3.7985 -0.1775 1.6294
-3.7928 -0.3140 1.6294
-3.7821 -0.4504 1.6294
-3.7720 -0.5871 1.6318
-3.7458 -0.7217 1.6294
-3.7202 -0.8562 1.6294
-3.7312 -1.0010 1.6477
-3.8170 -1.1724 1.7020
-3.8425 -1.3329 1.7325
-3.7946 -1.4708 1.7325
-3.7416 -1.6070 1.7325
-3.6836 -1.7411 1.7325
-3.6206 -1.8731 1.7325
-3.5528 -2.0027 1.7325
-3.4803 -2.1298 1.7325
-3.4032 -2.2542 1.7325
-3.3214 -2.3757 1.7325
-3.2353 -2.4941 1.7325
-3.1447 -2.6093 1.7325
-3.0500 -2.7212 1.7325
-2.9512 -2.8294 1.7325
-2.8485 -2.9340 1.7325
-2.7419 -3.0348 1.7325
-2.6317 -3.1316 1.7325
-2.5180 -3.2242 1.7325
-2.4010 -3.3126 1.7325
-2.2808 -3.3966 1.7325
-2.1575 -3.4761 1.7325
-2.0314 -3.5510 1.7325
-1.9026 -3.6213 1.7325
-1.7714 -3.6867 1.7325
-1.6378 -3.7471 1.7325
-1.5021 -3.8027 1.7325
-1.3645 -3.8532 1.7325
-1.2251 -3.8986 1.7325
-1.0842 -3.9387 1.7325
-0.9420 -3.9737 1.7325
-0.7985 -4.0034 1.7325
-0.6542 -4.0278 1.7325
-0.5091 -4.0468 1.7325
-0.3635 -4.0605 1.7325
-0.2175 -4.0689 1.7325
-0.0714 -4.0718 1.7325
0.0747 -4.0694 1.7325
0.2205 -4.0616 1.7325
0.3659 -4.0485 1.7325
0.5106 -4.0301 1.7325
0.6544 -4.0064 1.7325
0.7972 -3.9774 1.7325
0.9387 -3.9433 1.7325
1.0789 -3.9040 1.7325
1.2173 -3.8597 1.7325
1.3540 -3.8104 1.7325
1.4888 -3.7561 1.7325
1.6213 -3.6970 1.7325
1.7515 -3.6332 1.7325
1.8792 -3.5647 1.7325
2.0042 -3.4916 1.7325
2.1265 -3.4142 1.7325
2.2456 -3.3324 1.7325
2.3617 -3.2464 1.7325
2.4745 -3.1563 1.7325
2.5838 -3.0623 1.7325
2.6896 -2.9644 1.7325
2.7917 -2.8629 1.7325
2.8899 -2.7578 1.7325
2.9843 -2.6493 1.7325
3.0745 -2.5376 1.7325
3.1606 -2.4228 1.7325
3.2425 -2.3051 1.7325
3.3200 -2.1846 1.7325
3.3930 -2.0616 1.7325
3.4615 -1.9360 1.7325
3.5254 -1.8083 1.7325
3.5846 -1.6784 1.7325
3.6391 -1.5465 1.7325
3.6888 -1.4130 1.7325
3.7336 -1.2778 1.7325
3.7735 -1.1413 1.7325
3.8085 -1.0035 1.7325
3.8386 -0.8647 1.7325
3.8636 -0.7250 1.7325
3.8836 -0.5846 1.7325
3.8986 -0.4437 1.7325
3.9086 -0.3025 1.7325
3.9135 -0.1610 1.7325
3.9134 -0.0197 1.7325
3.9083 0.1215 1.7325
3.8982 0.2623 1.7325
3.8831 0.4026 1.7325
3.8631 0.5422 1.7325
3.8381 0.6808 1.7325
3.8083 0.8184 1.7325
3.7736 0.9548 1.7325
3.7342 1.0898 1.7325
3.6900 1.2233 1.7325
3.6412 1.3550 1.7325
3.5877 1.4849 1.7325
3.5298 1.6127 1.7325
3.4674 1.7383 1.7325
3.4006 1.8617 1.7325
3.3296 1.9825 1.7325
3.2544 2.1007 1.7325
3.1751 2.2162 1.7325
3.0918 2.3287 1.7325
3.0046 2.4383 1.7325
2.9136 2.5446 1.7325
2.8190 2.6477 1.7325
2.7208 2.7473 1.7325
2.6192 2.8434 1.7325
0.8924 1.0421 0.6150
0.8541 1.0736 0.6150
0.8146 1.1038 0.6150
0.7742 1.1325 0.6150
0.7327 1.1597 0.6149
0.6902 1.1854 0.6149
0.6469 1.2096 0.6148
0.6027 1.2322 0.6148
0.5577 1.2532 0.6147
0.5120 1.2726 0.6146
0.4657 1.2903 0.6145
0.4187 1.3064 0.6143
0.3713 1.3207 0.6142
-0.7040 1.0891 0.6068
-0.7430 1.0632 0.6064
-0.7811 1.0360 0.6061
-0.8181 1.0075 0.6057
-0.8542 0.9776 0.6052
-0.8891 0.9464 0.6048
-2.6453 2.6198 1.7325
-2.7407 2.5252 1.7325
-2.8326 2.4272 1.7325
-2.8340 2.2566 1.6809
-2.8670 2.1187 1.6524
-2.9031 1.9878 1.6292
-2.9757 1.8838 1.6293
-3.0446 1.7773 1.6293
-3.1308 1.6795 1.6403
-3.1708 1.5567 1.6293
-3.2280 1.4431 1.6293
-3.2810 1.3273 1.6293
-3.3298 1.2096 1.6293
-3.3744 1.0901 1.6293
-3.4147 0.9690 1.6293
-3.4506 0.8464 1.6294
-3.4820 0.7225 1.6294
-3.5090 0.5975 1.6294
-3.5313 0.4714 1.6294
-3.5491 0.3445 1.6294
-3.5623 0.2170 1.6294
-3.5709 0.0890 1.6294
-3.5748 -0.0393 1.6294
-3.5888 -0.1685 1.6362
-3.5684 -0.2962 1.6294
-3.5582 -0.4245 1.6294
-3.5471 -0.5529 1.6311
-3.5883 -0.6920 1.6592
-3.6380 -0.8381 1.6938
-3.6903 -0.9908 1.7325
-3.6548 -1.1233 1.7325
-3.6143 -1.2544 1.7325
-3.5691 -1.3841 1.7325
-3.5192 -1.5121 1.7325
-3.4645 -1.6382 1.7325
-3.4052 -1.7622 1.7325
-3.3414 -1.8841 1.7325
-3.2732 -2.0035 1.7325
-3.2005 -2.1204 1.7325
-3.1236 -2.2346 1.7325
-3.0425 -2.3460 1.7325
-2.9574 -2.4543 1.7325
-2.8683 -2.5594 1.7325
-2.7754 -2.6612 1.7325
-2.6787 -2.7595 1.7325
-2.5786 -2.8542 1.7325
-2.4749 -2.9451 1.7325
-2.3680 -3.0322 1.7325
-2.2580 -3.1153 1.7325
-2.1449 -3.1943 1.7325
-2.0290 -3.2691 1.7325
-1.9105 -3.3395 1.7325
-1.7894 -3.4055 1.7325
-1.6660 -3.4670 1.7325
-1.5404 -3.5240 1.7325
-1.4129 -3.5762 1.7325
-1.2835 -3.6237 1.7325
-1.1525 -3.6664 1.7325
-1.0200 -3.7043 1.7325
-0.8863 -3.7372 1.7325
-0.7515 -3.7652 1.7325
-0.6157 -3.7882 1.7325
-0.4793 -3.8062 1.7325
-0.3424 -3.8192 1.7325
-0.2051 -3.8271 1.7325
-0.0677 -3.8300 1.7325
0.0697 -3.8279 1.7325
0.2068 -3.8207 1.7325
0.3435 -3.8084 1.7325
0.4796 -3.7912 1.7325
0.6149 -3.7691 1.7325
0.7492 -3.7420 1.7325
0.8824 -3.7100 1.7325
1.0142 -3.6732 1.7325
1.1445 -3.6317 1.7325
1.2732 -3.5854 1.7325
1.4000 -3.5345 1.7325
1.5247 -3.4791 1.7325
1.6473 -3.4192 1.7325
1.7676 -3.3549 1.7325
1.8853 -3.2863 1.7325
2.0003 -3.2136 1.7325
2.1126 -3.1367 1.7325
2.2219 -3.0559 1.7325
2.3282 -2.9713 1.7325
2.4312 -2.8830 1.7325
2.5309 -2.7910 1.7325
2.6271 -2.6956 1.7325
2.7197 -2.5968 1.7325
2.8087 -2.4948 1.7325
2.8938 -2.3898 1.7325
2.9750 -2.2818 1.7325
3.0522 -2.1711 1.7325
3.1253 -2.0578 1.7325
3.1942 -1.9420 1.7325
3.2589 -1.8239 1.7325
3.3192 -1.7037 1.7325
3.3751 -1.5814 1.7325
3.4266 -1.4574 1.7325
3.4736 -1.3316 1.7325
3.5160 -1.2044 1.7325
3.5537 -1.0759 1.7325
3.5869 -0.9461 1.7325
3.6153 -0.8154 1.7325
3.6391 -0.6838 1.7325
3.6581 -0.5516 1.7325
3.6724 -0.4189 1.7325
3.6820 -0.2858 1.7325
3.6868 -0.1526 1.7325
3.6868 -0.0194 1.7325
3.6821 0.1136 1.7325
3.6728 0.2463 1.7325
3.6587 0.3785 1.7325
3.6399 0.5101 1.7325
3.6166 0.6408 1.7325
3.5886 0.7705 1.7325
3.5560 0.8990 1.7325
3.5189 1.0263 1.7325
3.4774 1.1521 1.7325
3.4315 1.2763 1.7325
3.3812 1.3988 1.7325
3.3267 1.5193 1.7325
3.2679 1.6378 1.7325
3.2051 1.7541 1.7325
3.1382 1.8680 1.7325
3.0674 1.9795 1.7325
2.9926 2.0884 1.7325
2.9141 2.1946 1.7325
2.8320 2.2978 1.7325
2.7463 2.3981 1.7325
2.6571 2.4953 1.7325
2.5645 2.5893 1.7325
0.8752 0.9501 0.6142
0.8402 0.9811 0.6142
0.8041 1.0108 0.6143
0.7670 1.0392 0.6143
0.7288 1.0662 0.6143
0.6898 1.0918 0.6142
0.6498 1.1160 0.6142
0.6090 1.1388 0.6141
0.5674 1.1601 0.6141
0.5250 1.1799 0.6140
0.4820 1.1981 0.6139
0.4384 1.2148 0.6138
0.3941 1.2299 0.6137
0.3494 1.2435 0.6135
-0.6646 1.0275 0.6066
-0.7014 1.0031 0.6062
-0.7374 0.9775 0.6059
-0.7723 0.9505 0.6055
-0.8063 0.9223 0.6051
-0.8393 0.8929 0.6047
-0.8712 0.8623 0.6043
-0.9020 0.8306 0.6039
-2.6740 2.2900 1.7325
-2.7574 2.1942 1.7325
-2.8373 2.0955 1.7325
-2.8726 1.9657 1.7081
-2.8922 1.8298 1.6778
-2.9207 1.7038 1.6561
-2.9485 1.5806 1.6370
-2.9922 1.4680 1.6293
-3.0460 1.3607 1.6293
-3.0959 1.2514 1.6293
-3.1418 1.1403 1.6293
-3.1838 1.0276 1.6293
-3.2324 0.9163 1.6348
-3.2553 0.7976 1.6294
-3.2848 0.6807 1.6294
-3.3101 0.5627 1.6294
-3.3311 0.4438 1.6294
-3.3721 0.3265 1.6413
-3.3600 0.2038 1.6294
-3.3679 0.0831 1.6294
-3.3714 -0.0379 1.6294
-3.3749 -0.1592 1.6315
-3.4144 -0.2842 1.6532
-3.4541 -0.4128 1.6772
-3.5113 -0.5481 1.7123
-3.5330 -0.6821 1.7325
-3.5086 -0.8090 1.7325
-3.4796 -0.9349 1.7325
-3.4460 -1.0598 1.7325
-3.4078 -1.1834 1.7325
-3.3650 -1.3056 1.7325
-3.3179 -1.4262 1.7325
-3.2663 -1.5450 1.7325
-3.2103 -1.6619 1.7325
-3.1501 -1.7767 1.7325
-3.0857 -1.8893 1.7325
-3.0172 -1.9994 1.7325
-2.9446 -2.1071 1.7325
-2.8681 -2.2119 1.7325
-2.7879 -2.3140 1.7325
-2.7039 -2.4130 1.7325
-2.6163 -2.5089 1.7325
-2.5252 -2.6015 1.7325
-2.4307 -2.6908 1.7325
-2.3330 -2.7765 1.7325
-2.2323 -2.8585 1.7325
-2.1285 -2.9368 1.7325
-2.0220 -3.0113 1.7325
-1.9128 -3.0817 1.7325
-1.8011 -3.1481 1.7325
-1.6870 -3.2104 1.7325
-1.5707 -3.2684 1.7325
-1.4524 -3.3220 1.7325
-1.3322 -3.3713 1.7325
-1.2102 -3.4161 1.7325
-1.0868 -3.4564 1.7325
-0.9619 -3.4921 1.7325
-0.8359 -3.5232 1.7325
-0.7089 -3.5497 1.7325
-0.5810 -3.5714 1.7325
-0.4524 -3.5885 1.7325
-0.3233 -3.6008 1.7325
-0.1939 -3.6083 1.7325
-0.0644 -3.6111 1.7325
0.0651 -3.6092 1.7325
0.1944 -3.6025 1.7325
0.3232 -3.5911 1.7325
0.4516 -3.5750 1.7325
0.5791 -3.5542 1.7325
0.7058 -3.5288 1.7325
0.8314 -3.4988 1.7325
0.9557 -3.4642 1.7325
1.0786 -3.4251 1.7325
1.2000 -3.3816 1.7325
1.3196 -3.3338 1.7325
1.4373 -3.2817 1.7325
1.5529 -3.2253 1.7325
1.6664 -3.1648 1.7325
1.7775 -3.1002 1.7325
1.8861 -3.0318 1.7325
1.9920 -2.9594 1.7325
2.0953 -2.8834 1.7325
2.1956 -2.8036 1.7325
2.2928 -2.7204 1.7325
2.3870 -2.6338 1.7325
2.4779 -2.5439 1.7325
2.5654 -2.4508 1.7325
2.6494 -2.3547 1.7325
2.7298 -2.2557 1.7325
2.8065 -2.1539 1.7325
2.8795 -2.0496 1.7325
2.9487 -1.9427 1.7325
3.0138 -1.8335 1.7325
