ply
format ascii 1.0
element vertex 2171
property float32 x
property float32 y
property float32 z
end_header
2.9071 1.7882 0.5746
2.8846 1.9197 0.5861
2.8613 2.0555 0.5987
2.8372 2.1961 0.6126
2.8121 2.3421 0.6280
2.7860 2.4944 0.6449
2.7587 2.6537 0.6635
2.7300 2.8209 0.6840
2.6998 2.9971 0.7066
2.6678 3.1836 0.7315
2.6339 3.3819 0.7589
2.5976 3.5935 0.7894
2.5586 3.8206 0.8231
2.5167 4.0654 0.8606
2.4711 4.3310 0.9025
4.3285 8.2604 1.6974
4.0075 8.3632 1.6974
3.6847 8.4540 1.6974
3.3606 8.5327 1.6974
3.0357 8.5995 1.6974
2.7103 8.6544 1.6974
0.8408 3.0660 0.5983
0.7302 3.0936 0.6015
0.6187 3.1173 0.6048
0.5064 3.1370 0.6080
0.3935 3.1527 0.6112
0.2801 3.1644 0.6143
0.1663 3.1721 0.6175
0.0523 3.1757 0.6207
-0.0617 3.1752 0.6238
-0.1757 3.1707 0.6269
-0.2894 3.1621 0.6300
-0.4028 3.1495 0.6330
-0.5157 3.1328 0.6360
-0.6279 3.1122 0.6390
-0.7394 3.0875 0.6419
-0.8499 3.0589 0.6448
-2.5144 7.9321 1.6974
-2.7862 7.8035 1.6974
-3.0525 7.6666 1.6974
-3.3132 7.5217 1.6974
-3.3509 6.9209 1.5941
-3.5844 6.7706 1.5941
-3.6432 6.3203 1.5235
-4.0338 6.4497 1.5941
-4.2494 6.2795 1.5941
-4.4587 6.1031 1.5941
-4.6616 5.9207 1.5941
-4.8580 5.7326 1.5941
-5.0477 5.5389 1.5941
-5.2307 5.3398 1.5941
-5.4069 5.1357 1.5941
-5.5761 4.9265 1.5941
-5.7382 4.7126 1.5941
-5.8933 4.4942 1.5941
-6.0410 4.2715 1.5941
-5.1567 3.3740 1.3298
-6.3146 3.8138 1.5941
-6.4402 3.5793 1.5941
-6.5582 3.3412 1.5941
-6.6687 3.0998 1.5941
-6.7732 2.8561 1.5945
-6.8682 2.6086 1.5945
-6.9554 2.3584 1.5945
-7.0348 2.1057 1.5945
-7.1062 1.8506 1.5945
-7.1695 1.5933 1.5945
-7.2249 1.3342 1.5945
-7.2721 1.0733 1.5945
-7.3112 0.8109 1.5945
-7.3422 0.5472 1.5945
-7.3648 0.2824 1.5945
-7.3792 0.0167 1.5945
-7.3853 -0.2498 1.5945
-7.3830 -0.5167 1.5945
-7.3723 -0.7839 1.5945
-7.3531 -1.0511 1.5945
-7.3256 -1.3182 1.5945
-7.2895 -1.5849 1.5945
-7.2449 -1.8509 1.5945
-4.8923 -1.4396 1.0847
-4.8504 -1.6193 1.0847
-4.8026 -1.7981 1.0847
-4.7490 -1.9758 1.0847
-4.7379 -2.1746 1.0959
-6.7977 -3.4214 1.5945
-6.6932 -3.6766 1.5945
-6.5801 -3.9292 1.5945
-6.4584 -4.1790 1.5945
-6.3282 -4.4257 1.5945
-6.1896 -4.6691 1.5945
-6.0424 -4.9089 1.5945
-5.8869 -5.1448 1.5945
-5.7229 -5.3766 1.5945
-5.5507 -5.6038 1.5945
-5.3702 -5.8264 1.5945
-5.1816 -6.0438 1.5945
-4.9836 -6.2543 1.5941
-4.7789 -6.4608 1.5941
-4.5664 -6.6613 1.5941
-4.3462 -6.8555 1.5941
-4.1184 -7.0432 1.5941
-3.8831 -7.2240 1.5941
-3.6404 -7.3976 1.5941
-3.3907 -7.5637 1.5941
-3.1340 -7.7220 1.5941
-2.8706 -7.8721 1.5941
-2.6007 -8.0138 1.5941
-2.3245 -8.1467 1.5941
-2.0423 -8.2706 1.5941
-1.7543 -8.3850 1.5941
-1.4608 -8.4898 1.5941
-1.1622 -8.5846 1.5941
-0.8588 -8.6690 1.5941
-0.5508 -8.7430 1.5941
-0.2542 -9.3764 1.6974
0.0821 -9.4317 1.6974
0.4220 -9.4750 1.6974
0.7650 -9.5058 1.6974
1.1107 -9.5241 1.6974
1.4586 -9.5295 1.6974
1.8082 -9.5219 1.6974
2.1590 -9.5010 1.6974
2.5104 -9.4667 1.6974
2.8618 -9.4189 1.6974
3.2128 -9.3573 1.6974
3.5628 -9.2820 1.6974
3.9110 -9.1928 1.6974
4.2570 -9.0897 1.6974
4.6001 -8.9727 1.6974
4.9396 -8.8418 1.6974
5.2750 -8.6970 1.6974
5.6056 -8.5384 1.6974
5.9308 -8.3662 1.6974
4.1774 -5.4678 1.1345
4.2103 -5.1209 1.0891
4.1411 -4.6850 1.0236
4.0792 -4.2957 0.9665
4.0235 -3.9448 0.9164
3.9729 -3.6262 0.8723
3.9266 -3.3350 0.8331
3.8841 -3.0670 0.7983
3.8447 -2.8191 0.7672
4.0145 -2.7288 0.7794
3.0120 1.1766 0.6083
2.9919 1.2937 0.6153
2.9715 1.4128 0.6233
2.9506 1.5344 0.6323
2.9293 1.6588 0.6425
2.9074 1.7865 0.6539
2.8849 1.9179 0.6665
2.8616 2.0535 0.6805
2.8375 2.1940 0.6959
2.8125 2.3399 0.7129
2.7864 2.4920 0.7317
2.7592 2.6511 0.7524
2.7305 2.8181 0.7751
2.7003 2.9942 0.8002
2.6684 3.1804 0.8279
2.6345 3.3784 0.8584
2.5982 3.5897 0.8922
2.5593 3.8165 0.9298
2.5174 4.0610 0.9715
2.4720 4.3261 1.0182
3.8409 7.3184 1.6974
3.5586 7.4141 1.6974
3.2743 7.4992 1.6974
2.9886 7.5736 1.6974
2.7017 7.6376 1.6974
0.8476 2.7003 0.5959
0.7501 2.7284 0.5988
0.6517 2.7530 0.6017
0.5524 2.7741 0.6045
0.4525 2.7916 0.6074
0.3520 2.8056 0.6102
0.2511 2.8159 0.6131
0.1498 2.8227 0.6159
0.0484 2.8259 0.6187
-0.0532 2.8255 0.6215
-0.1546 2.8214 0.6242
-0.2558 2.8137 0.6270
-0.3567 2.8025 0.6297
-0.4572 2.7876 0.6324
-0.5570 2.7692 0.6350
-0.6562 2.7472 0.6376
-0.7545 2.7217 0.6401
-0.8519 2.6927 0.6426
-2.4949 6.9995 1.6974
-2.7350 6.8795 1.6974
-2.9701 6.7522 1.6974
-3.2000 6.6177 1.6974
-3.2163 6.0823 1.5941
-3.4221 5.9432 1.5941
-3.6226 5.7979 1.5941
-3.8177 5.6467 1.5941
-4.0072 5.4897 1.5941
-4.1909 5.3272 1.5941
-4.3689 5.1593 1.5941
-4.5409 4.9862 1.5941
-4.7068 4.8081 1.5941
-4.8666 4.6253 1.5941
-5.0201 4.4378 1.5941
-5.1672 4.2459 1.5941
-5.3078 4.0498 1.5941
-5.4419 3.8497 1.5941
-5.1561 3.3752 1.4758
-5.6901 3.4380 1.5941
-5.8040 3.2269 1.5941
-5.9111 3.0125 1.5941
-6.0112 2.7950 1.5941
-6.1043 2.5746 1.5941
-6.1903 2.3515 1.5941
-6.2691 2.1259 1.5941
-6.3408 1.8980 1.5941
-6.4051 1.6679 1.5941
-6.4639 1.4363 1.5945
-6.5137 1.2025 1.5945
-6.5560 0.9671 1.5945
-6.5908 0.7303 1.5945
-6.6181 0.4924 1.5945
-6.6379 0.2535 1.5945
-6.6501 0.0138 1.5945
-6.6547 -0.2264 1.5945
-6.6517 -0.4670 1.5945
-6.6409 -0.7078 1.5945
-6.6225 -0.9485 1.5945
-4.5251 -0.8156 1.0939
-4.4643 -0.9721 1.0847
-4.4359 -1.1349 1.0847
-4.4023 -1.2970 1.0847
-4.4107 -1.4743 1.0965
-4.5015 -1.6873 1.1305
-4.6103 -1.9203 1.1712
-4.7280 -2.1725 1.2168
-6.1077 -3.0775 1.5945
-6.0117 -3.3058 1.5945
-5.9079 -3.5316 1.5945
-5.7965 -3.7547 1.5945
-5.6774 -3.9749 1.5945
-5.5507 -4.1918 1.5945
-5.4164 -4.4052 1.5945
-5.2732 -4.6137 1.5941
-5.1240 -4.8194 1.5941
-4.9675 -5.0208 1.5941
-4.8036 -5.2178 1.5941
-4.6325 -5.4099 1.5941
-4.4543 -5.5971 1.5941
-4.2691 -5.7789 1.5941
-4.0770 -5.9552 1.5941
-3.8781 -6.1256 1.5941
-3.6726 -6.2900 1.5941
-3.4606 -6.4479 1.5941
-3.2423 -6.5992 1.5941
-3.0178 -6.7436 1.5941
-2.7874 -6.8808 1.5941
-2.5513 -7.0106 1.5941
-2.3096 -7.1326 1.5941
-2.0625 -7.2466 1.5941
-1.8104 -7.3524 1.5941
-1.5535 -7.4497 1.5941
-1.2920 -7.5382 1.5941
-1.0263 -7.6177 1.5941
-0.7566 -7.6880 1.5941
-0.5145 -8.2506 1.6974
-0.2199 -8.3050 1.6974
0.0779 -8.3489 1.6974
0.3786 -8.3820 1.6974
0.6816 -8.4041 1.6974
0.9866 -8.4151 1.6974
1.2931 -8.4147 1.6974
1.6008 -8.4029 1.6974
1.9092 -8.3794 1.6974
2.2177 -8.3442 1.6974
2.5260 -8.2972 1.6974
2.8335 -8.2382 1.6974
3.1398 -8.1672 1.6974
3.4442 -8.0842 1.6974
3.7464 -7.9891 1.6974
4.0457 -7.8821 1.6974
4.3417 -7.7630 1.6974
4.6337 -7.6320 1.6974
4.9214 -7.4892 1.6974
4.0869 -5.7601 1.3330
4.1312 -5.4029 1.2793
4.2096 -5.1162 1.2422
4.1405 -4.6811 1.1681
4.0788 -4.2923 1.1035
4.0231 -3.9419 1.0468
3.9726 -3.6238 0.9967
3.9264 -3.3329 0.9523
3.8839 -3.0653 0.9128
3.8445 -2.8176 0.8775
4.0147 -2.7277 0.8919
3.0122 1.1753 0.6840
2.9921 1.2923 0.6916
2.9717 1.4114 0.7003
2.9509 1.5328 0.7102
2.9296 1.6572 0.7213
2.9077 1.7847 0.7337
2.8852 1.9160 0.7476
2.8619 2.0515 0.7629
2.8379 2.1918 0.7799
2.8129 2.3376 0.7986
2.7869 2.4896 0.8192
2.7596 2.6485 0.8419
2.7310 2.8153 0.8670
2.7009 2.9912 0.8946
2.6690 3.1772 0.9250
2.6350 3.3749 0.9587
2.5989 3.5860 0.9959
2.5600 3.8123 1.0373
2.5182 4.0565 1.0833
2.4728 4.3212 1.1347
3.4497 6.5626 1.6974
3.1980 6.6517 1.6974
2.9443 6.7314 1.6974
2.6891 6.8016 1.6974
0.8514 2.4017 0.5940
0.7646 2.4301 0.5966
0.6768 2.4554 0.5992
0.5882 2.4775 0.6017
0.4989 2.4965 0.6043
0.4089 2.5122 0.6069
0.3184 2.5248 0.6094
0.2276 2.5341 0.6120
0.1364 2.5402 0.6145
0.0451 2.5430 0.6171
-0.0462 2.5426 0.6196
-0.1375 2.5390 0.6221
-0.2286 2.5320 0.6245
-0.3194 2.5218 0.6270
-0.4098 2.5085 0.6294
-0.4997 2.4918 0.6318
-0.5889 2.4720 0.6341
-0.6774 2.4490 0.6364
-0.7651 2.4229 0.6386
-0.8517 2.3936 0.6408
-2.4742 6.2332 1.6974
-2.6882 6.1198 1.6974
-2.8975 5.9998 1.6974
-3.0859 5.8425 1.6885
-3.1010 5.3914 1.5941
-3.2839 5.2610 1.5941
-3.4618 5.1251 1.5941
-3.6347 4.9838 1.5941
-3.8025 4.8374 1.5941
-3.9651 4.6860 1.5941
-4.1222 4.5297 1.5941
-4.2738 4.3687 1.5941
-4.4199 4.2033 1.5941
-4.5602 4.0336 1.5941
-4.6947 3.8598 1.5941
-4.8233 3.6820 1.5941
-4.9459 3.5005 1.5941
-5.0625 3.3153 1.5941
-5.1729 3.1267 1.5941
-5.2770 2.9349 1.5941
-5.3749 2.7401 1.5941
-5.4663 2.5424 1.5941
-5.5513 2.3419 1.5941
-5.6298 2.1390 1.5941
-5.7017 1.9337 1.5941
-5.7670 1.7263 1.5941
-5.8256 1.5169 1.5941
-5.8775 1.3057 1.5941
-5.9226 1.0929 1.5941
-5.9608 0.8787 1.5941
-5.9922 0.6633 1.5941
-6.0166 0.4468 1.5941
-6.0341 0.2295 1.5941
-6.0447 0.0115 1.5941
-6.0482 -0.2070 1.5941
-6.0447 -0.4258 1.5941
-6.0357 -0.6448 1.5945
-6.0180 -0.8635 1.5945
-4.5077 -0.8138 1.1993
-4.2608 -0.9292 1.1397
-4.2182 -1.0807 1.1357
-4.3069 -1.2706 1.1687
-4.4014 -1.4730 1.2052
-4.5035 -1.6901 1.2461
-4.8238 -2.0116 1.3505
-5.6193 -2.5849 1.5941
-5.5377 -2.7935 1.5941
-5.4491 -2.9998 1.5941
-5.3534 -3.2038 1.5941
-5.2508 -3.4051 1.5941
-5.1413 -3.6035 1.5941
-5.0248 -3.7988 1.5941
-4.9015 -3.9909 1.5941
-4.7714 -4.1794 1.5941
-4.6347 -4.3641 1.5941
-4.4913 -4.5448 1.5941
-4.3413 -4.7212 1.5941
-4.1849 -4.8932 1.5941
-4.0222 -5.0604 1.5941
-3.8531 -5.2227 1.5941
-3.6780 -5.3797 1.5941
-3.4969 -5.5314 1.5941
-3.3099 -5.6773 1.5941
-3.1173 -5.8173 1.5941
-2.9190 -5.9511 1.5941
-2.7154 -6.0786 1.5941
-2.5066 -6.1994 1.5941
-2.2928 -6.3133 1.5941
-2.0742 -6.4202 1.5941
-1.8510 -6.5197 1.5941
-1.6234 -6.6117 1.5941
-1.3917 -6.6959 1.5941
-1.1561 -6.7721 1.5941
-0.9170 -6.8402 1.5941
-0.7182 -7.3468 1.6974
-0.4567 -7.4012 1.6974
-0.1924 -7.4464 1.6974
0.0746 -7.4820 1.6974
0.3438 -7.5079 1.6974
0.6149 -7.5240 1.6974
0.8875 -7.5302 1.6974
1.1612 -7.5262 1.6974
1.4357 -7.5120 1.6974
1.7105 -7.4874 1.6974
1.9853 -7.4524 1.6974
2.2595 -7.4070 1.6974
2.5328 -7.3509 1.6974
2.8048 -7.2843 1.6974
3.0749 -7.2071 1.6974
3.3428 -7.1192 1.6974
3.6080 -7.0209 1.6974
3.8700 -6.9120 1.6974
4.1283 -6.7926 1.6974
4.3825 -6.6629 1.6974
4.6322 -6.5230 1.6974
4.1340 -5.4022 1.4388
4.2090 -5.1115 1.3965
4.1400 -4.6771 1.3137
4.0783 -4.2890 1.2415
4.0227 -3.9391 1.1781
3.9723 -3.6214 1.1221
3.8582 -3.2732 1.0539
3.8836 -3.0635 1.0283
3.8443 -2.8161 0.9888
4.0149 -2.7266 1.0053
3.0124 1.1740 0.7604
2.9924 1.2909 0.7686
2.9720 1.4099 0.7780
2.9511 1.5313 0.7887
2.9299 1.6555 0.8008
2.9080 1.7829 0.8143
2.8855 1.9141 0.8294
2.8623 2.0495 0.8461
2.8383 2.1897 0.8646
2.8133 2.3353 0.8850
2.7873 2.4871 0.9075
2.7600 2.6459 0.9323
2.7315 2.8125 0.9597
2.7014 2.9881 0.9898
2.6695 3.1740 1.0231
2.6123 3.3415 1.0504
2.5194 3.4717 1.0666
2.5608 3.8082 1.1457
2.5190 4.0519 1.1960
2.4737 4.3162 1.2522
3.1285 5.9422 1.6974
2.9017 6.0253 1.6974
0.9294 2.1211 0.5902
0.8526 2.1524 0.5925
0.7748 2.1810 0.5948
0.6959 2.2068 0.5972
0.6162 2.2298 0.5995
0.5358 2.2499 0.6018
0.4546 2.2671 0.6042
0.3729 2.2814 0.6065
0.2907 2.2928 0.6088
0.2082 2.3013 0.6111
0.1254 2.3068 0.6134
0.0425 2.3094 0.6157
-0.0405 2.3089 0.6180
-0.1234 2.3056 0.6203
-0.2061 2.2993 0.6225
-0.2886 2.2900 0.6247
-0.3707 2.2778 0.6269
-0.4523 2.2627 0.6291
-0.5334 2.2447 0.6312
-0.6138 2.2238 0.6333
-0.6933 2.2000 0.6353
-0.7720 2.1734 0.6373
-0.8497 2.1440 0.6393
-2.4522 5.5905 1.6974
-2.6442 5.4822 1.6974
-2.8319 5.3680 1.6974
-2.9664 5.1630 1.6699
-2.9997 4.8106 1.5941
-3.1631 4.6873 1.5941
-3.3220 4.5590 1.5941
-3.4763 4.4260 1.5941
-3.6257 4.2882 1.5941
-3.7702 4.1459 1.5941
-3.9097 3.9992 1.5941
-4.0440 3.8484 1.5941
-4.1732 3.6935 1.5941
-4.2969 3.5347 1.5941
-4.4153 3.3723 1.5941
-4.5282 3.2063 1.5941
-4.6354 3.0370 1.5941
-4.7370 2.8645 1.5941
-4.8329 2.6889 1.5941
-4.9229 2.5105 1.5941
-5.0070 2.3294 1.5941
-5.0851 2.1458 1.5941
-5.1573 1.9598 1.5941
-5.2233 1.7717 1.5941
-5.2832 1.5815 1.5941
-5.3369 1.3896 1.5941
-5.3844 1.1960 1.5941
-5.4256 1.0009 1.5941
-5.4605 0.8045 1.5941
-5.4890 0.6070 1.5941
-5.5111 0.4085 1.5941
-5.5268 0.2093 1.5941
-5.5360 0.0095 1.5941
-5.5387 -0.1907 1.5941
-5.5349 -0.3911 1.5941
-5.5246 -0.5916 1.5941
-5.5077 -0.7919 1.5941
-5.4843 -0.9918 1.5941
-4.2589 -0.9302 1.2448
-4.2190 -1.0824 1.2414
-5.3746 -1.5877 1.5941
-5.3249 -1.7843 1.5941
-5.2687 -1.9797 1.5941
-4.8211 -2.0128 1.4763
-5.1367 -2.3657 1.5941
-5.0610 -2.5559 1.5941
-4.9787 -2.7440 1.5941
-4.8901 -2.9297 1.5941
-4.7951 -3.1130 1.5941
-4.6937 -3.2935 1.5941
-4.5861 -3.4710 1.5941
-4.4722 -3.6454 1.5941
-4.3521 -3.8164 1.5941
-4.2260 -3.9839 1.5941
-4.0939 -4.1475 1.5941
-3.9558 -4.3072 1.5941
-3.8119 -4.4626 1.5941
-3.6623 -4.6135 1.5941
-3.5071 -4.7599 1.5941
-3.3464 -4.9013 1.5941
-3.1803 -5.0376 1.5941
-3.0089 -5.1687 1.5941
-2.8325 -5.2942 1.5941
-2.6511 -5.4140 1.5941
-2.4650 -5.5278 1.5941
-2.2743 -5.6355 1.5941
-2.0791 -5.7369 1.5941
-1.8797 -5.8317 1.5941
-1.6764 -5.9198 1.5941
-1.4692 -6.0009 1.5941
-1.2584 -6.0749 1.5941
-1.0443 -6.1416 1.5941
-0.8807 -6.6024 1.6974
-0.6463 -6.6574 1.6974
-0.4093 -6.7040 1.6974
-0.1698 -6.7421 1.6974
0.0719 -6.7716 1.6974
0.3154 -6.7924 1.6974
0.5603 -6.8042 1.6974
0.8065 -6.8070 1.6974
1.0535 -6.8007 1.6974
1.3010 -6.7852 1.6974
1.5486 -6.7604 1.6974
1.7959 -6.7262 1.6974
2.0427 -6.6826 1.6974
2.2884 -6.6296 1.6974
2.5327 -6.5671 1.6974
2.7752 -6.4951 1.6974
3.0155 -6.4137 1.6974
3.2532 -6.3229 1.6974
3.4880 -6.2228 1.6974
3.7193 -6.1133 1.6974
3.9468 -5.9948 1.6974
4.1701 -5.8671 1.6974
4.2265 -5.5185 1.6346
4.6026 -5.5851 1.6974
4.8109 -5.4311 1.6974
4.0779 -4.2855 1.3806
4.0224 -3.9362 1.3105
3.9719 -3.6189 1.2486
3.7051 -3.1416 1.1265
3.7866 -2.9854 1.1162
3.8442 -2.8146 1.1010
4.0151 -2.7255 1.1197
3.0126 1.1727 0.8375
2.9926 1.2895 0.8464
2.9722 1.4084 0.8565
2.9514 1.5297 0.8681
2.9301 1.6538 0.8812
2.9083 1.7812 0.8958
2.8858 1.9122 0.9121
2.8627 2.0475 0.9302
2.8386 2.1875 0.9502
2.8137 2.3330 0.9723
2.7877 2.4847 0.9967
2.7605 2.6432 1.0236
2.7320 2.8097 1.0533
2.7019 2.9851 1.0860
2.6701 3.1707 1.1221
2.5606 3.2712 1.1287
2.4625 3.3888 1.1423
2.4432 3.6283 1.1973
2.5198 4.0473 1.3099
2.4745 4.3111 1.3709
2.8599 5.4232 1.6974
0.9211 1.9094 0.5892
0.8519 1.9406 0.5913
0.7816 1.9693 0.5934
0.7104 1.9954 0.5955
0.6382 2.0190 0.5976
0.5653 2.0400 0.5997
0.4916 2.0585 0.6019
0.4174 2.0742 0.6040
0.3426 2.0873 0.6062
0.2674 2.0977 0.6083
0.1919 2.1055 0.6104
0.1162 2.1105 0.6125
0.0403 2.1128 0.6146
-0.0357 2.1125 0.6167
-0.1115 2.1094 0.6188
-0.1872 2.1036 0.6208
-0.2627 2.0951 0.6228
-0.3378 2.0839 0.6248
-0.4125 2.0701 0.6268
-0.4867 2.0535 0.6288
-0.5602 2.0344 0.6307
-0.6330 2.0126 0.6325
-0.7050 1.9883 0.6344
-0.7761 1.9613 0.6362
-0.8462 1.9319 0.6379
-2.4287 5.0420 1.6974
-2.6019 4.9379 1.6974
-2.7712 4.8284 1.6974
-2.8682 4.6045 1.6581
-2.9086 4.3143 1.5941
-3.0555 4.1970 1.5941
-3.1980 4.0751 1.5941
-3.3362 3.9489 1.5941
-3.4698 3.8184 1.5941
-3.5989 3.6838 1.5941
-3.7232 3.5453 1.5941
-3.8426 3.4030 1.5941
-3.9572 3.2571 1.5941
-4.0667 3.1077 1.5941
-4.1712 2.9550 1.5941
-4.2704 2.7991 1.5941
-4.3644 2.6402 1.5941
-4.4531 2.4785 1.5941
-4.5364 2.3141 1.5941
-4.6141 2.1473 1.5941
-4.6864 1.9780 1.5941
-4.7531 1.8066 1.5941
-4.8141 1.6331 1.5941
-4.8694 1.4577 1.5941
-4.9189 1.2807 1.5941
-4.9627 1.1021 1.5941
-5.0006 0.9222 1.5941
-5.0326 0.7410 1.5941
-5.0586 0.5588 1.5941
-5.0788 0.3758 1.5941
-5.0929 0.1921 1.5941
-5.1011 0.0078 1.5941
-5.1032 -0.1768 1.5941
-5.0992 -0.3615 1.5941
-5.0892 -0.5463 1.5941
-5.0731 -0.7308 1.5941
-5.0509 -0.9150 1.5941
-4.6419 -1.0154 1.4733
-4.3971 -1.1297 1.4052
-4.9479 -1.4636 1.5941
-4.9014 -1.6445 1.5941
-4.8488 -1.8241 1.5941
-4.7902 -2.0023 1.5941
-4.7255 -2.1788 1.5941
-4.6549 -2.3535 1.5941
-4.5783 -2.5261 1.5941
-4.4958 -2.6965 1.5941
-4.4074 -2.8645 1.5941
-4.3132 -3.0299 1.5941
-4.2133 -3.1925 1.5941
-4.1076 -3.3520 1.5941
-3.9962 -3.5084 1.5941
-3.8794 -3.6614 1.5941
-3.7570 -3.8107 1.5941
-3.6292 -3.9563 1.5941
-3.4961 -4.0979 1.5941
-3.3578 -4.2354 1.5941
-3.2144 -4.3684 1.5941
-3.0660 -4.4968 1.5941
-2.9128 -4.6205 1.5941
-2.7548 -4.7393 1.5941
-2.5922 -4.8529 1.5941
-2.4252 -4.9611 1.5941
-2.2540 -5.0638 1.5941
-2.0786 -5.1608 1.5941
-1.8993 -5.2519 1.5941
-1.7163 -5.3370 1.5941
-1.5297 -5.4157 1.5941
-1.3397 -5.4881 1.5941
-1.1466 -5.5540 1.5941
-1.0101 -5.9646 1.6940
-0.8005 -6.0322 1.6974
-0.5862 -6.0803 1.6974
-0.3696 -6.1208 1.6974
-0.1509 -6.1535 1.6974
0.0696 -6.1783 1.6974
0.2916 -6.1952 1.6974
0.5149 -6.2039 1.6974
0.7391 -6.2044 1.6974
0.9638 -6.1966 1.6974
1.1889 -6.1805 1.6974
1.4140 -6.1559 1.6974
1.6386 -6.1228 1.6974
1.8626 -6.0812 1.6974
2.0855 -6.0311 1.6974
2.3070 -5.9724 1.6974
2.5268 -5.9052 1.6974
2.7444 -5.8295 1.6974
2.9596 -5.7453 1.6974
3.1720 -5.6528 1.6974
3.3812 -5.5519 1.6974
3.5869 -5.4428 1.6974
3.7887 -5.3255 1.6974
3.9862 -5.2003 1.6974
4.1791 -5.0673 1.6974
4.3671 -4.9265 1.6974
4.5498 -4.7782 1.6974
4.7269 -4.6227 1.6974
3.9716 -3.6164 1.3763
3.6499 -3.0930 1.2236
3.7346 -2.9429 1.2141
3.8440 -2.8131 1.2144
4.0153 -2.7243 1.2353
3.0129 1.1713 0.9156
2.9929 1.2881 0.9251
2.9725 1.4069 0.9360
2.9517 1.5281 0.9484
2.9304 1.6521 0.9624
2.9086 1.7794 0.9782
2.8862 1.9103 0.9957
2.8630 2.0454 1.0152
2.8390 2.1854 1.0368
2.8141 2.3307 1.0606
2.7881 2.4822 1.0870
2.7610 2.6406 1.1160
2.7324 2.8068 1.1480
2.7024 2.9820 1.1833
2.6681 3.1644 1.2211
2.5313 3.2295 1.2147
2.4325 3.3429 1.2280
2.3894 3.5434 1.2739
3.0023 4.8153 1.6974
2.8182 4.9023 1.6974
0.9121 1.7269 0.5883
0.8495 1.7579 0.5902
0.7857 1.7866 0.5922
0.7210 1.8130 0.5941
0.6554 1.8371 0.5960
0.5890 1.8588 0.5980
0.5218 1.8781 0.6000
0.4540 1.8951 0.6019
0.3856 1.9096 0.6039
0.3168 1.9217 0.6059
0.2475 1.9313 0.6078
0.1780 1.9384 0.6098
0.1082 1.9430 0.6117
0.0384 1.9451 0.6137
-0.0315 1.9448 0.6156
-0.1014 1.9419 0.6175
-0.1711 1.9366 0.6194
-0.2406 1.9287 0.6212
-0.3098 1.9184 0.6231
-0.3785 1.9057 0.6249
-0.4468 1.8904 0.6267
-0.5145 1.8728 0.6284
-0.5815 1.8527 0.6302
-0.6478 1.8303 0.6318
-0.7133 1.8055 0.6335
-0.7778 1.7784 0.6351
-0.8413 1.7489 0.6367
-2.4037 4.5672 1.6974
-2.5607 4.4667 1.6974
-2.7139 4.3612 1.6974
-2.7859 4.1363 1.6516
-2.8254 3.8844 1.5941
-2.9578 3.7721 1.5941
-3.0861 3.6557 1.5941
-3.2103 3.5354 1.5941
-3.3302 3.4112 1.5941
-3.4457 3.2832 1.5941
-3.5568 3.1518 1.5941
-3.6633 3.0169 1.5941
-3.7651 2.8787 1.5941
-3.8622 2.7375 1.5941
-3.9545 2.5932 1.5941
-4.0419 2.4462 1.5941
-4.1244 2.2964 1.5941
-4.2017 2.1442 1.5941
-4.2740 1.9896 1.5941
-4.3411 1.8327 1.5941
-4.4031 1.6738 1.5941
-4.4597 1.5130 1.5941
-4.5110 1.3505 1.5941
-4.5569 1.1864 1.5941
-4.5974 1.0208 1.5941
-4.6325 0.8540 1.5941
-4.6620 0.6860 1.5941
-4.6860 0.5171 1.5941
-4.7045 0.3474 1.5941
-4.7174 0.1771 1.5941
-4.7246 0.0064 1.5941
-4.7263 -0.1647 1.5941
-4.7223 -0.3359 1.5941
-4.7126 -0.5071 1.5941
-4.6972 -0.6780 1.5941
-4.6762 -0.8486 1.5941
-4.6396 -1.0164 1.5907
-4.3948 -1.1307 1.5174
-4.5791 -1.3563 1.5941
-4.5354 -1.5237 1.5941
-4.4861 -1.6898 1.5941
-4.4312 -1.8545 1.5941
-4.3707 -2.0176 1.5941
-4.3046 -2.1789 1.5941
-4.2330 -2.3383 1.5941
-4.1559 -2.4955 1.5941
-4.0734 -2.6504 1.5941
-3.9855 -2.8028 1.5941
-3.8923 -2.9526 1.5941
-3.7938 -3.0995 1.5941
-3.6901 -3.2434 1.5941
-3.5813 -3.3840 1.5941
-3.4674 -3.5213 1.5941
-3.3486 -3.6549 1.5941
-3.2249 -3.7848 1.5941
-3.0964 -3.9108 1.5941
-2.9633 -4.0326 1.5941
-2.8256 -4.1501 1.5941
-2.6835 -4.2632 1.5941
-2.5372 -4.3716 1.5941
-2.3866 -4.4752 1.5941
-2.2321 -4.5738 1.5941
-2.0736 -4.6672 1.5941
-1.9115 -4.7553 1.5941
-1.7458 -4.8379 1.5941
-1.5768 -4.9148 1.5941
-1.4046 -4.9860 1.5941
-1.2294 -5.0512 1.5941
-1.1101 -5.3958 1.6832
-0.9271 -5.4976 1.6974
-0.7323 -5.5471 1.6974
-0.5351 -5.5897 1.6974
-0.3359 -5.6253 1.6974
-0.1349 -5.6538 1.6974
0.0676 -5.6750 1.6974
0.2715 -5.6888 1.6974
0.4763 -5.6952 1.6974
0.6819 -5.6940 1.6974
0.8879 -5.6853 1.6974
1.0941 -5.6689 1.6974
1.3001 -5.6448 1.6974
1.5057 -5.6130 1.6974
1.7105 -5.5733 1.6974
1.9143 -5.5260 1.6974
2.1167 -5.4708 1.6974
2.3174 -5.4079 1.6974
2.5161 -5.3373 1.6974
2.7124 -5.2590 1.6974
2.9061 -5.1731 1.6974
3.0968 -5.0796 1.6974
3.2842 -4.9787 1.6974
3.4680 -4.8705 1.6974
3.6479 -4.7550 1.6974
3.8235 -4.6324 1.6974
3.9946 -4.5029 1.6974
4.1608 -4.3667 1.6974
4.3219 -4.2239 1.6974
4.4776 -4.0746 1.6974
3.6296 -3.0741 1.3314
3.7139 -2.9249 1.3212
3.8438 -2.8115 1.3290
4.0155 -2.7232 1.3522
3.0131 1.1700 0.9947
2.9931 1.2867 1.0048
2.9727 1.4054 1.0164
2.9520 1.5265 1.0297
2.9307 1.6504 1.0448
2.9089 1.7775 1.0616
2.8865 1.9083 1.0804
2.8634 2.0434 1.1013
2.8394 2.1831 1.1245
2.8145 2.3283 1.1501
2.7885 2.4796 1.1783
2.7614 2.6378 1.2095
2.7330 2.8039 1.2438
2.7030 2.9789 1.2818
2.6544 3.1440 1.3153
2.5182 3.2086 1.3080
2.4202 3.3215 1.3221
2.3789 3.5229 1.3720
2.7763 4.4463 1.6974
0.9025 1.5675 0.5876
0.8455 1.5982 0.5894
0.7875 1.6269 0.5911
0.7286 1.6534 0.5929
0.6686 1.6779 0.5947
0.6079 1.7002 0.5965
0.5464 1.7203 0.5983
0.4842 1.7382 0.6002
0.4215 1.7539 0.6020
0.3582 1.7673 0.6038
0.2944 1.7785 0.6056
0.2304 1.7874 0.6074
0.1660 1.7939 0.6092
0.1014 1.7982 0.6110
0.0367 1.8002 0.6128
-0.0280 1.7999 0.6146
-0.0927 1.7972 0.6164
-0.1572 1.7923 0.6181
-0.2215 1.7850 0.6199
-0.2855 1.7754 0.6216
-0.3492 1.7636 0.6232
-0.4124 1.7495 0.6249
-0.4750 1.7331 0.6265
-0.5371 1.7146 0.6281
-0.5984 1.6938 0.6297
-0.6590 1.6708 0.6312
-0.7187 1.6457 0.6327
-0.7775 1.6184 0.6341
-0.8353 1.5891 0.6356
-2.3771 4.1512 1.6974
-2.5199 4.0538 1.6974
-2.6591 3.9518 1.6974
-2.7157 3.7371 1.6496
-2.7480 3.5075 1.5941
-2.8736 3.4067 1.5974
-2.9836 3.2881 1.5941
-3.0955 3.1729 1.5941
-3.2033 3.0542 1.5941
-3.3069 2.9322 1.5941
-3.4063 2.8069 1.5941
-3.5014 2.6785 1.5941
-3.5920 2.5472 1.5941
-3.6782 2.4131 1.5941
-3.7598 2.2764 1.5941
-3.8367 2.1371 1.5941
-3.9089 1.9954 1.5941
-3.9764 1.8515 1.5941
-4.0390 1.7056 1.5941
-4.0967 1.5577 1.5941
-4.1495 1.4080 1.5941
-4.1973 1.2566 1.5941
-4.2401 1.1038 1.5941
-4.2778 0.9497 1.5941
-4.3103 0.7943 1.5941
-4.3378 0.6379 1.5941
-4.3600 0.4806 1.5941
-4.3770 0.3226 1.5941
-4.3888 0.1641 1.5941
-4.3953 0.0051 1.5941
-4.3966 -0.1542 1.5941
-4.3925 -0.3135 1.5941
-4.3832 -0.4728 1.5941
-4.3686 -0.6318 1.5941
-4.3486 -0.7905 1.5941
-4.3234 -0.9487 1.5941
-4.2928 -1.1061 1.5941
-4.2570 -1.2627 1.5941
-4.2158 -1.4182 1.5941
-4.1694 -1.5725 1.5941
-4.1178 -1.7255 1.5941
-4.0610 -1.8769 1.5941
-3.9990 -2.0266 1.5941
-3.9318 -2.1744 1.5941
-3.8596 -2.3202 1.5941
-3.7823 -2.4638 1.5941
-3.7000 -2.6051 1.5941
-3.6127 -2.7437 1.5941
-3.5206 -2.8797 1.5941
-3.4237 -3.0128 1.5941
-3.3219 -3.1428 1.5941
-3.2156 -3.2696 1.5941
-3.1047 -3.3930 1.5941
-2.9893 -3.5128 1.5941
-2.8695 -3.6289 1.5941
-2.7454 -3.7412 1.5941
-2.6171 -3.8494 1.5941
-2.4848 -3.9533 1.5941
-2.3486 -4.0529 1.5941
-2.2085 -4.1480 1.5941
-2.0648 -4.2384 1.5941
-1.9176 -4.3239 1.5941
-1.7670 -4.4045 1.5941
-1.6131 -4.4799 1.5941
-1.4668 -4.5828 1.6056
-1.2965 -4.6148 1.5941
-1.1938 -4.9198 1.6780
-1.0319 -5.0337 1.6974
-0.8539 -5.0845 1.6974
-0.6735 -5.1291 1.6974
-0.4911 -5.1672 1.6974
-0.3069 -5.1988 1.6974
-0.1211 -5.2238 1.6974
0.0660 -5.2421 1.6974
0.2542 -5.2536 1.6974
0.4432 -5.2582 1.6974
0.6328 -5.2558 1.6974
0.8228 -5.2465 1.6974
1.0128 -5.2301 1.6974
1.2026 -5.2067 1.6974
1.3918 -5.1761 1.6974
1.5803 -5.1384 1.6974
1.7678 -5.0936 1.6974
1.9539 -5.0417 1.6974
2.1383 -4.9826 1.6974
2.3209 -4.9165 1.6974
2.5012 -4.8434 1.6974
2.6790 -4.7634 1.6974
2.8540 -4.6764 1.6974
3.0260 -4.5827 1.6974
3.1945 -4.4822 1.6974
3.3595 -4.3753 1.6974
3.5205 -4.2618 1.6974
3.6772 -4.1420 1.6974
3.8295 -4.0162 1.6974
3.9771 -3.8843 1.6974
4.1196 -3.7466 1.6974
3.6442 -3.0846 1.4531
3.7242 -2.9315 1.4404
3.8989 -2.8504 1.4658
4.6349 -3.1418 1.6974
2.9630 1.1491 1.0568
2.9933 1.2852 1.0856
2.9730 1.4038 1.0980
2.9523 1.5248 1.1122
2.9310 1.6486 1.1282
2.9093 1.7757 1.1462
2.8868 1.9064 1.1663
2.8637 2.0413 1.1886
2.8398 2.1809 1.2133
2.8149 2.3259 1.2407
2.7890 2.4771 1.2709
2.7619 2.6351 1.3042
2.7335 2.8010 1.3410
3.3215 3.6559 1.6974
2.6610 3.1477 1.4206
2.5218 3.2089 1.4108
2.4262 3.3252 1.4272
2.4368 3.6034 1.5129
0.8922 1.4267 0.5871
0.8403 1.4572 0.5887
0.7874 1.4858 0.5903
0.7334 1.5124 0.5919
0.6786 1.5371 0.5936
0.6229 1.5599 0.5953
0.5664 1.5806 0.5969
0.5092 1.5993 0.5986
0.4514 1.6160 0.6003
0.3931 1.6305 0.6020
0.3342 1.6430 0.6037
0.2749 1.6534 0.6054
0.2153 1.6616 0.6071
0.1555 1.6678 0.6088
0.0954 1.6717 0.6105
0.0353 1.6736 0.6121
-0.0249 1.6732 0.6138
-0.0850 1.6708 0.6154
-0.1450 1.6662 0.6170
-0.2048 1.6594 0.6186
-0.2644 1.6505 0.6202
-0.3235 1.6395 0.6218
-0.3823 1.6264 0.6233
-0.4406 1.6111 0.6248
-0.4982 1.5939 0.6263
-0.5553 1.5745 0.6278
-0.6116 1.5531 0.6292
-0.6671 1.5298 0.6306
-0.7217 1.5044 0.6319
-0.7755 1.4771 0.6332
-0.8282 1.4480 0.6345
-0.8798 1.4169 0.6357
-2.4793 3.6882 1.6974
-2.6060 3.5893 1.6974
-2.6550 3.3919 1.6514
-2.6751 3.1740 1.5941
-2.7836 3.0701 1.5941
-2.8884 2.9628 1.5941
-2.9894 2.8522 1.5941
-3.0864 2.7384 1.5941
-3.1795 2.6215 1.5941
-3.2686 2.5018 1.5941
-3.3535 2.3793 1.5941
-3.4342 2.2541 1.5941
-3.5106 2.1264 1.5941
-3.5827 1.9964 1.5941
-3.6503 1.8641 1.5941
-3.7135 1.7296 1.5941
-3.7721 1.5933 1.5941
-3.8261 1.4551 1.5941
-3.8755 1.3152 1.5941
-3.9202 1.1737 1.5941
-3.9602 1.0309 1.5941
-3.9954 0.8868 1.5941
-4.0258 0.7416 1.5941
-4.0513 0.5954 1.5941
-4.0720 0.4484 1.5941
-4.0877 0.3007 1.5941
-4.0986 0.1525 1.5941
-4.1045 0.0040 1.5941
-4.1055 -0.1449 1.5941
-4.1015 -0.2937 1.5941
-4.0925 -0.4425 1.5941
-4.0785 -0.5911 1.5941
-4.0595 -0.7393 1.5941
-4.0356 -0.8869 1.5941
-4.0067 -1.0339 1.5941
-3.9728 -1.1800 1.5941
-3.9340 -1.3251 1.5941
-3.8903 -1.4691 1.5941
-3.8416 -1.6117 1.5941
-3.7881 -1.7529 1.5941
-3.7298 -1.8924 1.5941
-3.6666 -2.0302 1.5941
-3.5987 -2.1659 1.5941
-3.5260 -2.2996 1.5941
-3.4487 -2.4310 1.5941
-3.3669 -2.5600 1.5941
-3.2804 -2.6864 1.5941
-3.1895 -2.8101 1.5941
-3.0941 -2.9308 1.5941
-2.9945 -3.0485 1.5941
-2.8905 -3.1630 1.5941
-2.7825 -3.2741 1.5941
-2.6703 -3.3817 1.5941
-2.5543 -3.4856 1.5941
-2.4343 -3.5857 1.5941
-2.3107 -3.6818 1.5941
-2.1834 -3.7738 1.5941
-2.0526 -3.8615 1.5941
-1.9184 -3.9449 1.5941
-1.7810 -4.0236 1.5941
-1.6406 -4.0977 1.5941
-1.4972 -4.1670 1.5941
-1.3510 -4.2314 1.5941
-1.2650 -4.5147 1.6774
-1.1191 -4.6262 1.6974
-0.9556 -4.6781 1.6974
-0.7900 -4.7243 1.6974
-0.6223 -4.7647 1.6974
-0.4528 -4.7991 1.6974
-0.2816 -4.8274 1.6974
-0.1091 -4.8496 1.6974
0.0645 -4.8655 1.6974
0.2391 -4.8751 1.6974
0.4144 -4.8783 1.6974
0.5902 -4.8752 1.6974
0.7662 -4.8655 1.6974
0.9422 -4.8493 1.6974
1.1179 -4.8266 1.6974
1.2931 -4.7973 1.6974
1.4675 -4.7614 1.6974
1.6408 -4.7189 1.6974
1.8128 -4.6699 1.6974
1.9833 -4.6144 1.6974
2.1519 -4.5524 1.6974
2.3184 -4.4839 1.6974
2.4826 -4.4090 1.6974
2.6441 -4.3279 1.6974
2.8028 -4.2404 1.6974
2.9583 -4.1469 1.6974
3.1104 -4.0473 1.6974
3.2588 -3.9418 1.6974
3.4033 -3.8306 1.6974
3.5437 -3.7137 1.6974
3.6796 -3.5913 1.6974
3.8109 -3.4636 1.6974
3.9374 -3.3308 1.6974
3.7963 -2.9865 1.5876
4.1749 -3.0506 1.6974
4.2856 -2.9036 1.6974
2.8939 1.1209 1.1103
2.9217 1.2529 1.1395
2.9733 1.4023 1.1808
2.9525 1.5232 1.1958
2.9313 1.6469 1.2129
2.9096 1.7738 1.2320
2.8872 1.9043 1.2534
2.8641 2.0391 1.2772
2.8402 2.1786 1.3035
2.8153 2.3235 1.3327
2.7894 2.4745 1.3649
3.3482 3.1906 1.6974
3.2236 3.2990 1.6974
3.0953 3.4026 1.6974
2.7044 3.1948 1.5489
2.5510 3.2416 1.5307
2.4649 3.3734 1.5548
0.8813 1.3013 0.5866
0.8339 1.3315 0.5881
0.7855 1.3599 0.5896
0.7360 1.3866 0.5911
0.6857 1.4115 0.5926
0.6345 1.4345 0.5942
0.5825 1.4558 0.5958
0.5298 1.4751 0.5973
0.4764 1.4926 0.5989
0.4224 1.5081 0.6005
0.3680 1.5217 0.6021
0.3130 1.5334 0.6036
0.2577 1.5431 0.6052
0.2021 1.5508 0.6068
0.1462 1.5565 0.6084
0.0902 1.5602 0.6099
0.0340 1.5619 0.6115
-0.0221 1.5616 0.6130
-0.0783 1.5592 0.6146
-0.1343 1.5549 0.6161
-0.1901 1.5486 0.6176
-0.2457 1.5403 0.6190
-0.3009 1.5300 0.6205
-0.3558 1.5178 0.6219
-0.4101 1.5035 0.6233
-0.4640 1.4874 0.6247
-0.5172 1.4693 0.6261
-0.5698 1.4494 0.6274
-0.6216 1.4276 0.6287
-0.6726 1.4039 0.6300
-0.7227 1.3784 0.6312
-0.7719 1.3511 0.6324
-0.8201 1.3221 0.6335
-0.8672 1.2914 0.6346
-2.4384 3.3617 1.6974
-2.5540 3.2656 1.6974
-2.6019 3.0897 1.6565
-2.6057 2.8762 1.5941
-2.7042 2.7758 1.5941
-2.7990 2.6724 1.5941
-2.8902 2.5659 1.5941
-2.9777 2.4566 1.5941
-3.0614 2.3445 1.5941
-3.1412 2.2298 1.5941
-3.2170 2.1125 1.5941
-3.2888 1.9929 1.5941
-3.3565 1.8711 1.5941
-3.4200 1.7471 1.5941
-3.4793 1.6211 1.5941
-3.5344 1.4933 1.5941
-3.5851 1.3637 1.5941
-3.6315 1.2325 1.5941
-3.6734 1.0999 1.5941
-3.7109 0.9660 1.5941
-3.7439 0.8308 1.5941
-3.7723 0.6946 1.5941
-3.7962 0.5576 1.5941
-3.8155 0.4197 1.5941
-3.8302 0.2812 1.5941
-3.8402 0.1423 1.5941
-3.8456 0.0030 1.5941
-3.8463 -0.1366 1.5941
-3.8424 -0.2761 1.5941
-3.8337 -0.4156 1.5941
-3.8203 -0.5548 1.5941
-3.8023 -0.6937 1.5941
-3.7796 -0.8320 1.5941
-3.7522 -0.9697 1.5941
-3.7202 -1.1065 1.5941
-3.6835 -1.2424 1.5941
-3.6421 -1.3772 1.5941
-3.5962 -1.5106 1.5941
-3.5457 -1.6427 1.5941
-3.4906 -1.7732 1.5941
-3.4311 -1.9020 1.5941
-3.3670 -2.0289 1.5941
-3.2986 -2.1538 1.5941
-3.2258 -2.2766 1.5941
-3.1487 -2.3970 1.5941
-3.0673 -2.5150 1.5941
-2.9818 -2.6303 1.5941
-2.8922 -2.7429 1.5941
-2.7985 -2.8526 1.5941
-2.7008 -2.9592 1.5941
-2.5994 -3.0627 1.5941
-2.4941 -3.1628 1.5941
-2.3851 -3.2594 1.5941
-2.2726 -3.3524 1.5941
-2.1566 -3.4417 1.5941
-2.0373 -3.5271 1.5941
-1.9148 -3.6084 1.5941
-1.7891 -3.6856 1.5941
-1.6605 -3.7585 1.5941
-1.5290 -3.8270 1.5941
-1.3948 -3.8910 1.5941
-1.3265 -4.1649 1.6807
-1.1915 -4.2643 1.6974
-1.0411 -4.3173 1.6974
-0.8884 -4.3649 1.6974
-0.7337 -4.4072 1.6974
-0.5772 -4.4440 1.6974
-0.4190 -4.4752 1.6974
-0.2594 -4.5008 1.6974
-0.0986 -4.5206 1.6974
0.0632 -4.5345 1.6974
0.2259 -4.5426 1.6974
0.3892 -4.5448 1.6974
0.5528 -4.5410 1.6974
0.7166 -4.5312 1.6974
0.8803 -4.5153 1.6974
1.0437 -4.4933 1.6974
1.2065 -4.4653 1.6974
1.3686 -4.4311 1.6974
1.5296 -4.3909 1.6974
1.6894 -4.3446 1.6974
1.8476 -4.2922 1.6974
2.0041 -4.2338 1.6974
2.1586 -4.1695 1.6974
2.3109 -4.0993 1.6974
2.4607 -4.0233 1.6974
2.6078 -3.9415 1.6974
2.7519 -3.8540 1.6974
2.8929 -3.7610 1.6974
3.0304 -3.6625 1.6974
3.1642 -3.5587 1.6974
3.2942 -3.4498 1.6974
3.4201 -3.3358 1.6974
3.5417 -3.2169 1.6974
3.6588 -3.0933 1.6974
3.7712 -2.9652 1.6974
3.8787 -2.8327 1.6974
3.9811 -2.6960 1.6974
2.8477 1.1016 1.1705
2.8663 1.2276 1.1976
2.9736 1.4007 1.2648
2.9528 1.5215 1.2808
2.9316 1.6451 1.2989
2.9099 1.7719 1.3192
2.8875 1.9023 1.3419
2.8644 2.0369 1.3672
3.4559 2.6478 1.6974
3.3513 2.7625 1.6974
3.2428 2.8731 1.6974
3.1304 2.9793 1.6974
3.0145 3.0811 1.6974
2.8951 3.1784 1.6974
2.7725 3.2710 1.6974
0.9121 1.1574 0.5849
0.8698 1.1887 0.5862
0.8265 1.2185 0.5876
0.7821 1.2468 0.5890
0.7367 1.2734 0.5904
0.6904 1.2984 0.5918
0.6432 1.3217 0.5933
0.5953 1.3433 0.5947
0.5466 1.3632 0.5962
0.4972 1.3813 0.5977
0.4472 1.3976 0.5991
0.3967 1.4122 0.6006
0.3457 1.4249 0.6021
0.2942 1.4358 0.6036
0.2424 1.4449 0.6050
0.1903 1.4521 0.6065
0.1380 1.4575 0.6080
0.0855 1.4609 0.6095
0.0329 1.4625 0.6109
-0.0197 1.4622 0.6124
-0.0723 1.4600 0.6138
-0.1247 1.4560 0.6152
-0.1770 1.4501 0.6166
-0.2291 1.4423 0.6180
-0.2808 1.4326 0.6194
-0.3322 1.4212 0.6207
-0.3831 1.4078 0.6220
-0.4335 1.3927 0.6233
-0.4833 1.3758 0.6246
-0.5325 1.3571 0.6258
-0.5811 1.3366 0.6270
-0.6288 1.3145 0.6282
-0.6758 1.2906 0.6294
-0.7219 1.2651 0.6305
-0.7670 1.2379 0.6316
-0.8111 1.2091 0.6326
-0.8542 1.1788 0.6336
-2.3971 3.0679 1.6974
-2.5027 2.9744 1.6974
-2.5549 2.8222 1.6648
-2.5391 2.6083 1.5941
-2.6284 2.5113 1.5941
-2.7143 2.4114 1.5941
-2.7968 2.3087 1.5941
-2.8756 2.2035 1.5941
-2.9507 2.0957 1.5941
-3.0222 1.9856 1.5941
-3.0898 1.8732 1.5941
-3.1536 1.7587 1.5941
-3.2134 1.6421 1.5941
-3.2693 1.5237 1.5941
-3.3211 1.4035 1.5941
-3.3689 1.2817 1.5941
-3.4125 1.1584 1.5941
-3.4520 1.0336 1.5941
-3.4872 0.9077 1.5941
-3.5182 0.7806 1.5941
-3.5449 0.6525 1.5941
-3.5673 0.5236 1.5941
-3.5854 0.3940 1.5941
-3.5991 0.2637 1.5941
-3.6084 0.1330 1.5941
-3.6134 0.0021 1.5941
-3.6139 -0.1291 1.5941
-3.6100 -0.2603 1.5941
-3.6017 -0.3914 1.5941
-3.5889 -0.5223 1.5941
-3.5717 -0.6528 1.5941
-3.5502 -0.7828 1.5941
-3.5241 -0.9121 1.5941
-3.4937 -1.0407 1.5941
-3.4590 -1.1683 1.5941
-3.4198 -1.2948 1.5941
-3.3763 -1.4201 1.5941
-3.3286 -1.5441 1.5941
-3.2765 -1.6665 1.5941
-3.2202 -1.7873 1.5941
-3.1597 -1.9063 1.5941
-3.0951 -2.0234 1.5941
-3.0264 -2.1384 1.5941
-2.9536 -2.2512 1.5941
-2.8769 -2.3617 1.5941
-2.7962 -2.4697 1.5941
-2.7117 -2.5750 1.5941
-2.6234 -2.6776 1.5941
-2.5315 -2.7773 1.5941
-2.4359 -2.8740 1.5941
-2.3368 -2.9675 1.5941
-2.2343 -3.0577 1.5941
-2.1284 -3.1444 1.5941
-2.0194 -3.2276 1.5941
-1.9072 -3.3072 1.5941
-1.7920 -3.3829 1.5941
-1.6739 -3.4547 1.5941
-1.5531 -3.5225 1.5941
-1.4364 -3.6028 1.6016
-1.3802 -3.8591 1.6876
-1.2517 -3.9400 1.6974
-1.1128 -3.9938 1.6974
-0.9717 -4.0427 1.6974
-0.8287 -4.0867 1.6974
-0.6837 -4.1255 1.6974
-0.5371 -4.1593 1.6974
-0.3891 -4.1878 1.6974
-0.2397 -4.2110 1.6974
-0.0892 -4.2288 1.6974
0.0621 -4.2412 1.6974
0.2142 -4.2480 1.6974
0.3668 -4.2494 1.6974
0.5197 -4.2451 1.6974
0.6727 -4.2352 1.6974
0.8255 -4.2197 1.6974
0.9780 -4.1985 1.6974
1.1300 -4.1716 1.6974
1.2812 -4.1391 1.6974
1.4313 -4.1009 1.6974
1.5803 -4.0571 1.6974
1.7278 -4.0076 1.6974
1.8737 -3.9526 1.6974
2.0176 -3.8920 1.6974
2.1594 -3.8260 1.6974
2.2989 -3.7545 1.6974
2.4358 -3.6777 1.6974
2.5700 -3.5957 1.6974
2.7011 -3.5086 1.6974
2.8291 -3.4164 1.6974
2.9536 -3.3192 1.6974
3.0745 -3.2173 1.6974
3.1916 -3.1107 1.6974
3.3047 -2.9996 1.6974
3.4135 -2.8842 1.6974
3.5180 -2.7645 1.6974
3.6179 -2.6408 1.6974
3.7131 -2.5133 1.6974
2.8174 1.0884 1.2366
2.8336 1.2120 1.2640
2.9738 1.3990 1.3504
2.9531 1.5197 1.3673
3.5896 2.0118 1.6974
3.5086 2.1338 1.6974
3.4232 2.2525 1.6974
3.3336 2.3677 1.6974
3.2400 2.4793 1.6974
3.1424 2.5871 1.6974
3.0412 2.6911 1.6974
2.9363 2.7910 1.6974
2.8280 2.8868 1.6974
2.7165 2.9784 1.6974
0.8963 1.0560 0.5847
0.8577 1.0869 0.5860
0.8180 1.1163 0.5872
0.7773 1.1443 0.5885
0.7356 1.1708 0.5898
0.6930 1.1958 0.5912
0.6495 1.2193 0.5925
0.6052 1.2412 0.5938
0.5602 1.2615 0.5952
0.5144 1.2802 0.5966
0.4681 1.2972 0.5979
0.4211 1.3126 0.5993
0.3736 1.3262 0.6007
0.3257 1.3382 0.6021
0.2774 1.3485 0.6035
0.2287 1.3570 0.6049
0.1797 1.3637 0.6063
0.1306 1.3687 0.6077
0.0813 1.3720 0.6090
0.0319 1.3735 0.6104
-0.0175 1.3732 0.6118
-0.0669 1.3712 0.6131
-0.1162 1.3674 0.6144
-0.1653 1.3618 0.6158
-0.2142 1.3545 0.6171
-0.2628 1.3454 0.6183
-0.3110 1.3346 0.6196
-0.3588 1.3221 0.6208
-0.4062 1.3079 0.6221
-0.4530 1.2920 0.6233
-0.4992 1.2744 0.6244
-0.5448 1.2552 0.6256
-0.5897 1.2344 0.6267
-0.6337 1.2119 0.6277
-0.6770 1.1879 0.6288
-0.7194 1.1624 0.6298
-0.7608 1.1354 0.6308
-0.8013 1.1069 0.6317
-0.8407 1.0770 0.6326
-0.8791 1.0456 0.6335
-2.4518 2.7105 1.6974
-2.5129 2.5834 1.6760
-2.4877 2.3784 1.6026
-2.5556 2.2719 1.5941
-2.6576 2.1952 1.6087
-2.7079 2.0762 1.5941
-2.7788 1.9747 1.5941
-2.8463 1.8710 1.5941
-2.9101 1.7651 1.5941
-2.9704 1.6572 1.5941
-3.0269 1.5474 1.5941
-3.0796 1.4358 1.5941
-3.1285 1.3225 1.5941
-3.1736 1.2076 1.5941
-3.2148 1.0914 1.5941
-3.2520 0.9738 1.5941
-3.2852 0.8550 1.5941
-3.3144 0.7352 1.5941
-3.3396 0.6145 1.5941
-3.3607 0.4929 1.5941
-3.3776 0.3707 1.5941
-3.3905 0.2479 1.5941
-3.3992 0.1247 1.5941
-3.4037 0.0013 1.5941
-3.4041 -0.1224 1.5941
-3.4002 -0.2461 1.5941
-3.3922 -0.3696 1.5941
-3.3800 -0.4930 1.5941
-3.3636 -0.6159 1.5941
-3.3431 -0.7384 1.5941
-3.3184 -0.8602 1.5941
-3.2895 -0.9813 1.5941
-3.2565 -1.1014 1.5941
-3.2194 -1.2206 1.5941
-3.1782 -1.3385 1.5941
-3.1329 -1.4551 1.5941
-3.0836 -1.5703 1.5941
-3.0302 -1.6839 1.5941
-2.9730 -1.7959 1.5941
-2.9119 -1.9059 1.5941
-2.8468 -2.0140 1.5941
-2.7780 -2.1200 1.5941
-2.7055 -2.2238 1.5941
-2.6292 -2.3251 1.5941
-2.5494 -2.4240 1.5941
-2.4660 -2.5202 1.5941
-2.3792 -2.6137 1.5941
-2.2890 -2.7043 1.5941
-2.1954 -2.7919 1.5941
-2.0987 -2.8764 1.5941
-1.9989 -2.9576 1.5941
-1.8961 -3.0354 1.5941
-1.7903 -3.1098 1.5941
-1.6818 -3.1805 1.5941
-1.5706 -3.2475 1.5941
-1.4763 -3.3550 1.6154
-1.4275 -3.5883 1.6974
-1.3014 -3.6471 1.6974
-1.1729 -3.7016 1.6974
-1.0423 -3.7515 1.6974
-0.9096 -3.7969 1.6974
-0.7752 -3.8376 1.6974
-0.6390 -3.8735 1.6974
-0.5013 -3.9046 1.6974
-0.3623 -3.9307 1.6974
-0.2221 -3.9519 1.6974
-0.0809 -3.9680 1.6974
0.0611 -3.9790 1.6974
0.2037 -3.9849 1.6974
0.3468 -3.9856 1.6974
0.4901 -3.9810 1.6974
0.6335 -3.9711 1.6974
0.7766 -3.9560 1.6974
0.9195 -3.9356 1.6974
1.0617 -3.9099 1.6974
1.2033 -3.8789 1.6974
1.3438 -3.8426 1.6974
1.4831 -3.8010 1.6974
1.6211 -3.7542 1.6974
1.7575 -3.7022 1.6974
1.8920 -3.6450 1.6974
2.0246 -3.5827 1.6974
2.1549 -3.5155 1.6974
2.2829 -3.4432 1.6974
2.4082 -3.3661 1.6974
2.5307 -3.2841 1.6974
2.6502 -3.1976 1.6974
2.7664 -3.1064 1.6974
2.8793 -3.0108 1.6974
2.9886 -2.9108 1.6974
3.0941 -2.8067 1.6974
3.1957 -2.6985 1.6974
3.2932 -2.5864 1.6974
3.3865 -2.4705 1.6974
3.4753 -2.3511 1.6974
2.8013 1.0807 1.3090
2.8198 1.2046 1.3390
3.5118 1.6500 1.6974
3.4446 1.7705 1.6974
3.3732 1.8882 1.6974
3.2974 2.0029 1.6974
3.2176 2.1146 1.6974
3.1339 2.2230 1.6974
3.0462 2.3281 1.6974
2.9550 2.4297 1.6974
2.8602 2.5277 1.6974
2.7620 2.6219 1.6974
0.9146 0.9323 0.5835
0.8804 0.9639 0.5846
0.8450 0.9942 0.5858
0.8087 1.0233 0.5869
0.7713 1.0510 0.5881
0.7329 1.0773 0.5893
0.6937 1.1023 0.5906
0.6536 1.1259 0.5918
0.6126 1.1480 0.5931
0.5709 1.1686 0.5943
0.5285 1.1877 0.5956
0.4854 1.2053 0.5969
0.4417 1.2213 0.5982
0.3975 1.2358 0.5995
0.3528 1.2487 0.6008
0.3076 1.2600 0.6021
0.2621 1.2696 0.6034
0.2163 1.2776 0.6048
0.1702 1.2840 0.6061
0.1239 1.2887 0.6074
0.0775 1.2918 0.6087
0.0310 1.2932 0.6099
-0.0156 1.2929 0.6112
-0.0621 1.2910 0.6125
-0.1084 1.2874 0.6137
-0.1547 1.2822 0.6150
-0.2007 1.2752 0.6162
-0.2465 1.2667 0.6174
-0.2919 1.2565 0.6186
-0.3370 1.2448 0.6198
-0.3815 1.2314 0.6209
-0.4256 1.2164 0.6220
-0.4692 1.1998 0.6231
-0.5121 1.1817 0.6242
-0.5543 1.1621 0.6253
-0.5958 1.1410 0.6263
-0.6366 1.1184 0.6273
-0.6765 1.0943 0.6282
-0.7155 1.0689 0.6291
-0.7536 1.0420 0.6300
-0.7907 1.0138 0.6309
-0.8268 0.9843 0.6317
-0.8618 0.9535 0.6325
-2.4010 2.4703 1.6974
-2.4751 2.3681 1.6899
-2.4483 2.1779 1.6184
-2.4852 2.0541 1.5941
-2.5556 1.9606 1.5941
-2.6227 1.8648 1.5941
-2.6866 1.7669 1.5941
-2.7470 1.6669 1.5941
-2.8040 1.5650 1.5941
-2.8574 1.4613 1.5941
-2.9073 1.3559 1.5941
-2.9536 1.2489 1.5941
-2.9962 1.1404 1.5941
-3.0351 1.0305 1.5941
-3.0703 0.9194 1.5941
-3.1017 0.8072 1.5941
-3.1293 0.6940 1.5941
-3.1530 0.5799 1.5941
-3.1729 0.4651 1.5941
-3.1889 0.3496 1.5941
-3.2009 0.2336 1.5941
-3.2091 0.1172 1.5941
-3.2133 0.0005 1.5941
-3.2135 -0.1163 1.5941
-3.2098 -0.2331 1.5941
-3.2021 -0.3498 1.5941
-3.1904 -0.4663 1.5941
-3.1748 -0.5825 1.5941
-3.1552 -0.6981 1.5941
-3.1316 -0.8131 1.5941
-3.1042 -0.9274 1.5941
-3.0728 -1.0408 1.5941
-3.0375 -1.1532 1.5941
-2.9984 -1.2645 1.5941
-2.9554 -1.3745 1.5941
-2.9086 -1.4831 1.5941
-2.8580 -1.5903 1.5941
-2.8037 -1.6957 1.5941
-2.7457 -1.7995 1.5941
-2.6841 -1.9013 1.5941
-2.6189 -2.0012 1.5941
-2.5502 -2.0988 1.5941
-2.4780 -2.1943 1.5941
-2.4024 -2.2873 1.5941
-2.3235 -2.3778 1.5941
-2.2414 -2.4657 1.5941
-2.1560 -2.5509 1.5941
-2.0676 -2.6332 1.5941
-1.9761 -2.7125 1.5941
-1.8818 -2.7887 1.5941
-1.7846 -2.8617 1.5941
-1.6848 -2.9314 1.5941
-1.5823 -2.9977 1.5941
-1.5116 -3.1314 1.6311
-1.4587 -3.3217 1.6974
-1.3420 -3.3807 1.6974
-1.2230 -3.4357 1.6974
-1.1018 -3.4865 1.6974
-0.9787 -3.5330 1.6974
-0.8537 -3.5752 1.6974
-0.7270 -3.6131 1.6974
-0.5987 -3.6464 1.6974
-0.4691 -3.6751 1.6974
-0.3382 -3.6993 1.6974
-0.2062 -3.7187 1.6974
-0.0734 -3.7333 1.6974
0.0602 -3.7432 1.6974
0.1943 -3.7482 1.6974
0.3288 -3.7483 1.6974
0.4635 -3.7435 1.6974
0.5982 -3.7338 1.6974
0.7327 -3.7191 1.6974
0.8669 -3.6994 1.6974
1.0005 -3.6748 1.6974
1.1333 -3.6452 1.6974
1.2652 -3.6107 1.6974
1.3960 -3.5712 1.6974
1.5254 -3.5268 1.6974
1.6533 -3.4776 1.6974
1.7795 -3.4235 1.6974
1.9037 -3.3647 1.6974
2.0259 -3.3012 1.6974
2.1458 -3.2330 1.6974
2.2632 -3.1603 1.6974
2.3780 -3.0831 1.6974
2.4899 -3.0016 1.6974
2.5988 -2.9158 1.6974
2.7045 -2.8258 1.6974
2.8069 -2.7318 1.6974
2.9057 -2.6339 1.6974
3.0008 -2.5323 1.6974
3.0921 -2.4270 1.6974
3.1794 -2.3182 1.6974
3.2625 -2.2061 1.6974
2.8013 1.0793 1.3900
2.8296 1.2071 1.4267
3.3077 1.5521 1.6974
3.2448 1.6656 1.6974
3.1778 1.7766 1.6974
3.1069 1.8848 1.6974
3.0320 1.9901 1.6974
2.9534 2.0924 1.6974
2.8713 2.1916 1.6974
2.7856 2.2875 1.6974
2.6966 2.3800 1.6974
0.8953 0.8488 0.5835
0.8641 0.8797 0.5845
0.8318 0.9095 0.5856
0.7985 0.9381 0.5867
0.7642 0.9655 0.5878
0.7289 0.9917 0.5889
0.6927 1.0166 0.5901
0.6556 1.0402 0.5912
0.6178 1.0624 0.5924
0.5791 1.0832 0.5936
0.5398 1.1027 0.5948
0.4997 1.1208 0.5960
0.4591 1.1374 0.5972
0.4178 1.1525 0.5985
0.3761 1.1662 0.5997
0.3339 1.1783 0.6009
0.2913 1.1889 0.6022
0.2483 1.1981 0.6034
0.2051 1.2056 0.6046
0.1616 1.2116 0.6059
0.1179 1.2161 0.6071
0.0741 1.2190 0.6083
0.0302 1.2203 0.6095
-0.0138 1.2200 0.6107
-0.0577 1.2182 0.6119
-0.1014 1.2148 0.6131
-0.1451 1.2099 0.6143
-0.1885 1.2034 0.6154
-0.2317 1.1953 0.6166
-0.2746 1.1857 0.6177
-0.3171 1.1746 0.6188
-0.3592 1.1619 0.6199
-0.4008 1.1478 0.6209
-0.4419 1.1321 0.6220
-0.4824 1.1151 0.6230
-0.5223 1.0965 0.6240
-0.5614 1.0766 0.6249
-0.5999 1.0553 0.6259
-0.6375 1.0326 0.6268
-0.6743 1.0085 0.6276
-0.7103 0.9832 0.6285
-0.7453 0.9566 0.6293
-0.7794 0.9287 0.6300
-0.8124 0.8997 0.6308
-0.8444 0.8694 0.6315
-0.8753 0.8381 0.6321
-2.4277 2.1611 1.6974
-2.4115 1.9945 1.6360
-2.4166 1.8550 1.5941
-2.4802 1.7645 1.5941
-2.5407 1.6718 1.5941
-2.5980 1.5772 1.5941
-2.6520 1.4808 1.5941
-2.7027 1.3827 1.5941
-2.7500 1.2829 1.5941
-2.7938 1.1816 1.5941
-2.8342 1.0789 1.5941
-2.8711 0.9750 1.5941
-2.9044 0.8698 1.5941
-2.9341 0.7636 1.5941
-2.9602 0.6564 1.5941
-2.9826 0.5484 1.5941
-3.0014 0.4396 1.5941
-3.0165 0.3303 1.5941
-3.0279 0.2205 1.5941
-3.0355 0.1103 1.5941
-3.0394 -0.0002 1.5941
-3.0395 -0.1107 1.5941
-3.0358 -0.2213 1.5941
-3.0284 -0.3318 1.5941
-3.0173 -0.4420 1.5941
-3.0023 -0.5519 1.5941
-2.9836 -0.6613 1.5941
-2.9612 -0.7701 1.5941
-2.9350 -0.8782 1.5941
-2.9052 -0.9855 1.5941
-2.8716 -1.0917 1.5941
-2.8344 -1.1970 1.5941
-2.7935 -1.3009 1.5941
-2.7490 -1.4036 1.5941
-2.7010 -1.5048 1.5941
-2.6494 -1.6045 1.5941
-2.5944 -1.7025 1.5941
-2.5359 -1.7986 1.5941
-2.4740 -1.8928 1.5941
-2.4088 -1.9850 1.5941
-2.3403 -2.0751 1.5941
-2.2686 -2.1628 1.5941
-2.1938 -2.2481 1.5941
-2.1159 -2.3310 1.5941
-2.0351 -2.4112 1.5941
-1.9513 -2.4887 1.5941
-1.8647 -2.5634 1.5941
-1.7753 -2.6351 1.5941
-1.6834 -2.7038 1.5941
-1.5888 -2.7693 1.5941
-1.5436 -2.9298 1.6494
-1.4828 -3.0778 1.6974
-1.3747 -3.1369 1.6974
-1.2643 -3.1922 1.6974
-1.1518 -3.2437 1.6974
-1.0373 -3.2913 1.6974
-0.9210 -3.3348 1.6974
-0.8029 -3.3742 1.6974
-0.6833 -3.4095 1.6974
-0.5622 -3.4405 1.6974
-0.4398 -3.4672 1.6974
-0.3163 -3.4895 1.6974
-0.1919 -3.5074 1.6974
-0.0666 -3.5208 1.6974
0.0594 -3.5297 1.6974
0.1858 -3.5340 1.6974
0.3126 -3.5337 1.6974
0.4395 -3.5287 1.6974
0.5664 -3.5191 1.6974
0.6930 -3.5049 1.6974
0.8193 -3.4860 1.6974
0.9451 -3.4624 1.6974
1.0701 -3.4341 1.6974
1.1942 -3.4012 1.6974
1.3172 -3.3637 1.6974
1.4389 -3.3215 1.6974
1.5592 -3.2748 1.6974
1.6778 -3.2236 1.6974
1.7947 -3.1679 1.6974
1.9095 -3.1078 1.6974
2.0222 -3.0434 1.6974
2.1325 -2.9747 1.6974
2.2403 -2.9019 1.6974
2.3454 -2.8249 1.6974
2.4477 -2.7440 1.6974
2.5470 -2.6592 1.6974
2.6431 -2.5706 1.6974
2.7359 -2.4783 1.6974
2.8252 -2.3825 1.6974
2.9109 -2.2834 1.6974
2.9928 -2.1809 1.6974
3.0709 -2.0754 1.6974
2.8261 1.0873 1.4857
2.9048 1.2375 1.5516
3.1225 1.4633 1.6974
3.0635 1.5704 1.6974
3.0005 1.6753 1.6974
2.9338 1.7775 1.6974
2.8635 1.8770 1.6974
2.7896 1.9738 1.6974
2.7123 2.0676 1.6974
0.9033 0.7408 0.5826
0.8760 0.7721 0.5836
0.8475 0.8024 0.5845
0.8181 0.8317 0.5855
0.7875 0.8599 0.5865
0.7560 0.8869 0.5876
0.7235 0.9128 0.5886
0.6902 0.9376 0.5897
0.6560 0.9611 0.5908
0.6209 0.9834 0.5919
0.5851 1.0045 0.5930
0.5485 1.0242 0.5941
0.5113 1.0426 0.5952
0.4735 1.0597 0.5964
0.4350 1.0754 0.5975
0.3960 1.0897 0.5987
0.3566 1.1026 0.5998
0.3167 1.1141 0.6010
0.2764 1.1242 0.6022
0.2357 1.1328 0.6034
0.1948 1.1399 0.6045
0.1537 1.1456 0.6057
0.1124 1.1498 0.6068
0.0709 1.1525 0.6080
0.0294 1.1538 0.6092
-0.0121 1.1535 0.6103
-0.0536 1.1518 0.6114
-0.0951 1.1486 0.6125
-0.1363 1.1439 0.6137
-0.1774 1.1378 0.6147
-0.2183 1.1301 0.6158
-0.2588 1.1210 0.6169
-0.2990 1.1105 0.6179
-0.3388 1.0985 0.6189
-0.3781 1.0852 0.6199
-0.4170 1.0704 0.6209
-0.4553 1.0542 0.6219
-0.4930 1.0367 0.6228
-0.5300 1.0178 0.6237
-0.5664 0.9976 0.6246
-0.6020 0.9762 0.6255
-0.6368 0.9534 0.6263
-0.6708 0.9295 0.6271
-0.7039 0.9043 0.6278
-0.7361 0.8779 0.6286
-0.7674 0.8505 0.6292
-0.7976 0.8219 0.6299
-0.8268 0.7922 0.6305
-0.8549 0.7616 0.6311
-0.8819 0.7299 0.6317
-2.3801 1.8282 1.6576
-2.3649 1.6834 1.6046
-2.4069 1.5846 1.5941
-2.4613 1.4950 1.5941
-2.5217 1.4087 1.5999
-2.5606 1.3105 1.5941
-2.6055 1.2160 1.5941
-2.6472 1.1199 1.5941
-2.6855 1.0225 1.5941
-2.7205 0.9239 1.5941
-2.7521 0.8242 1.5941
-2.7803 0.7235 1.5941
-2.8050 0.6218 1.5941
-2.8263 0.5194 1.5941
-2.8440 0.4163 1.5941
-2.8583 0.3126 1.5941
-2.8690 0.2085 1.5941
-2.8762 0.1040 1.5941
-2.8798 -0.0008 1.5941
-2.8798 -0.1056 1.5941
-2.8763 -0.2105 1.5941
-2.8692 -0.3152 1.5941
-2.8585 -0.4197 1.5941
-2.8442 -0.5239 1.5941
-2.8263 -0.6275 1.5941
-2.8049 -0.7307 1.5941
-2.7800 -0.8331 1.5941
-2.7515 -0.9347 1.5941
-2.7195 -1.0354 1.5941
-2.6840 -1.1350 1.5941
-2.6451 -1.2335 1.5941
-2.6028 -1.3307 1.5941
-2.5571 -1.4266 1.5941
-2.5081 -1.5209 1.5941
-2.4557 -1.6136 1.5941
-2.4001 -1.7046 1.5941
-2.3413 -1.7937 1.5941
-2.2793 -1.8808 1.5941
-2.2142 -1.9659 1.5941
-2.1462 -2.0489 1.5941
-2.0751 -2.1295 1.5941
-2.0012 -2.2077 1.5941
-1.9244 -2.2835 1.5941
-1.8561 -2.3709 1.6038
-1.7628 -2.4271 1.5941
-1.6780 -2.4947 1.5941
-1.6108 -2.5917 1.6142
-1.5752 -2.7504 1.6727
-1.5006 -2.8534 1.6974
-1.4004 -2.9125 1.6974
-1.2979 -2.9681 1.6974
-1.1934 -3.0201 1.6974
-1.0869 -3.0685 1.6974
-0.9785 -3.1131 1.6974
-0.8684 -3.1540 1.6974
-0.7566 -3.1909 1.6974
-0.6434 -3.2239 1.6974
-0.5289 -3.2528 1.6974
-0.4132 -3.2777 1.6974
-0.2964 -3.2984 1.6974
-0.1788 -3.3150 1.6974
-0.0604 -3.3272 1.6974
0.0586 -3.3352 1.6974
0.1781 -3.3389 1.6974
0.2978 -3.3383 1.6974
0.4176 -3.3333 1.6974
0.5374 -3.3238 1.6974
0.6569 -3.3100 1.6974
0.7761 -3.2918 1.6974
0.8947 -3.2692 1.6974
1.0127 -3.2422 1.6974
1.1297 -3.2108 1.6974
1.2457 -3.1751 1.6974
1.3604 -3.1350 1.6974
1.4738 -3.0907 1.6974
1.5856 -3.0421 1.6974
1.6957 -2.9893 1.6974
1.8039 -2.9324 1.6974
1.9100 -2.8714 1.6974
2.0139 -2.8064 1.6974
2.1154 -2.7374 1.6974
2.2144 -2.6647 1.6974
2.3107 -2.5882 1.6974
2.4041 -2.5080 1.6974
2.4946 -2.4243 1.6974
2.5819 -2.3372 1.6974
2.6660 -2.2468 1.6974
2.7467 -2.1532 1.6974
2.8238 -2.0566 1.6974
2.8972 -1.9570 1.6974
3.0534 1.1731 1.6974
3.0054 1.2786 1.6974
2.9535 1.3822 1.6974
2.8980 1.4836 1.6974
2.8387 1.5828 1.6974
2.7759 1.6796 1.6974
2.7096 1.7738 1.6974
0.9051 0.6396 0.5820
0.8814 0.6710 0.5828
0.8566 0.7016 0.5837
0.8307 0.7312 0.5846
0.8038 0.7599 0.5855
0.7758 0.7876 0.5864
0.7469 0.8143 0.5874
0.7171 0.8400 0.5884
0.6863 0.8645 0.5893
0.6547 0.8880 0.5904
0.6223 0.9103 0.5914
0.5891 0.9314 0.5924
0.5551 0.9513 0.5935
0.5205 0.9700 0.5945
0.4853 0.9875 0.5956
0.4494 1.0036 0.5967
0.4130 1.0185 0.5978
0.3760 1.0321 0.5989
0.3386 1.0443 0.6000
0.3008 1.0552 0.6011
0.2627 1.0647 0.6022
0.2242 1.0729 0.6033
0.1854 1.0796 0.6044
0.1464 1.0850 0.6055
0.1073 1.0890 0.6066
0.0680 1.0916 0.6077
0.0287 1.0928 0.6088
-0.0106 1.0926 0.6099
-0.0500 1.0909 0.6110
-0.0892 1.0879 0.6120
-0.1283 1.0834 0.6131
-0.1672 1.0776 0.6141
-0.2059 1.0704 0.6151
-0.2443 1.0617 0.6161
-0.2824 1.0518 0.6171
-0.3201 1.0404 0.6181
-0.3574 1.0277 0.6190
-0.3942 1.0137 0.6200
-0.4304 0.9984 0.6209
-0.4661 0.9818 0.6217
-0.5012 0.9639 0.6226
-0.5357 0.9448 0.6234
-0.5694 0.9245 0.6242
-0.6024 0.9029 0.6250
-0.6346 0.8802 0.6258
-0.6659 0.8564 0.6265
-0.6964 0.8314 0.6272
-0.7260 0.8054 0.6278
-0.7547 0.7783 0.6285
-0.7823 0.7502 0.6291
-0.8089 0.7211 0.6296
-0.8345 0.6911 0.6301
-0.8590 0.6602 0.6306
-0.8824 0.6285 0.6311
-2.3329 1.5367 1.6286
-2.3352 1.4191 1.5941
-2.3840 1.3324 1.5941
-2.4297 1.2440 1.5941
-2.4780 1.1568 1.5977
-2.5120 1.0630 1.5941
-2.5484 0.9706 1.5941
-2.5816 0.8769 1.5941
-2.6117 0.7822 1.5941
-2.6384 0.6865 1.5941
-2.6619 0.5900 1.5941
-2.6821 0.4927 1.5941
-2.6989 0.3948 1.5941
-2.7125 0.2963 1.5941
-2.7226 0.1974 1.5941
-2.7293 0.0981 1.5941
-2.7327 -0.0013 1.5941
-2.7327 -0.1009 1.5941
-2.7292 -0.2005 1.5941
-2.7224 -0.2999 1.5941
-2.7121 -0.3991 1.5941
-2.6984 -0.4980 1.5941
-2.6813 -0.5965 1.5941
-2.6609 -0.6943 1.5941
-2.6371 -0.7916 1.5941
-2.6099 -0.8880 1.5941
-2.5794 -0.9835 1.5941
-2.5456 -1.0780 1.5941
-2.5085 -1.1715 1.5941
