ply
format ascii 1.0
element vertex 2061
property float32 x
property float32 y
property float32 z
end_header
-9.7919 4.0257 -1.1091
-9.7738 3.6140 -1.0929
-9.7563 3.2146 -1.0787
-9.7392 2.8259 -1.0662
-9.7225 2.4466 -1.0554
-9.7062 2.0753 -1.0462
-9.6902 1.7108 -1.0386
-9.6744 1.3522 -1.0324
-9.6588 0.9982 -1.0276
-9.5746 0.6434 -1.0170
-9.6282 0.3006 -1.0223
-9.6130 -0.0450 -1.0216
-9.5978 -0.3896 -1.0222
-9.5827 -0.7341 -1.0242
-9.5675 -1.0794 -1.0276
-9.5523 -1.4265 -1.0322
-9.5369 -1.7761 -1.0383
-9.5214 -2.1294 -1.0458
-9.5057 -2.4871 -1.0547
-9.4897 -2.8505 -1.0651
-9.4734 -3.2205 -1.0771
-9.4568 -3.5984 -1.0908
-9.4398 -3.9854 -1.1062
-9.4223 -4.3828 -1.1234
-9.4043 -4.7922 -1.1427
-9.3857 -5.2152 -1.1640
-9.3665 -5.6537 -1.1877
-9.3464 -6.1097 -1.2138
-9.3255 -6.5855 -1.2427
-9.3036 -7.0838 -1.2746
-9.2806 -7.6077 -1.3097
-9.2563 -8.1604 -1.3485
-9.2305 -8.7462 -1.3913
-9.1723 -9.3382 -1.4340
-9.1192 -9.9765 -1.4825
14.3968 -46.4155 -5.4275
15.1543 -43.2985 -5.1230
16.9708 -43.4217 -5.2057
17.8278 -41.1880 -5.0106
10.6915 -11.9069 -1.7800
11.0838 -11.4861 -1.7743
11.4710 -11.0634 -1.7703
11.8574 -10.6415 -1.7685
12.2441 -10.2192 -1.7689
12.6321 -9.7956 -1.7715
13.0223 -9.3694 -1.7764
13.4159 -8.9397 -1.7835
13.8139 -8.5051 -1.7929
14.2174 -8.0645 -1.8048
14.6280 -7.6168 -1.8192
39.3472 -12.1955 -4.5187
39.1734 -10.6164 -4.4467
39.0142 -9.0836 -4.3834
38.6057 -7.5390 -4.2989
11.5478 -1.8275 -1.2761
11.5914 -1.4101 -1.2729
11.6499 -0.9945 -1.2729
11.6938 -0.5765 -1.2729
11.7229 -0.1566 -1.2729
11.7371 0.2646 -1.2729
11.7363 0.6866 -1.2729
11.5665 1.0943 -1.2561
11.6897 1.5309 -1.2729
11.6438 1.9522 -1.2729
11.5828 2.3722 -1.2729
11.5066 2.7903 -1.2729
11.4155 3.2061 -1.2729
11.3094 3.6188 -1.2729
11.2889 4.0643 -1.2843
11.2688 4.5202 -1.2978
42.6955 24.7317 -5.2441
41.3728 25.9915 -5.1856
40.9854 27.8477 -5.2517
32.1146 23.5478 -4.2149
31.2757 24.7059 -4.2128
17.3915 14.7818 -2.4093
16.1603 14.7661 -2.3077
14.9459 14.6743 -2.2052
13.8654 14.6269 -2.1192
12.8976 14.6227 -2.0476
11.9264 14.5416 -1.9727
11.0783 14.5417 -1.9152
10.8944 15.4179 -1.9756
10.7368 16.4142 -2.0502
10.9227 18.0828 -2.2058
10.8591 19.5279 -2.3306
10.7878 21.1522 -2.4741
10.5116 22.5770 -2.5925
13.7605 32.5594 -3.6762
12.3483 32.4141 -3.6042
11.0427 32.4399 -3.5576
10.6085 35.2636 -3.8200
10.4124 39.7255 -4.2568
-10.1168 12.6013 -1.6715
-9.9984 10.0244 -1.4674
-10.0151 9.3454 -1.4208
-9.9296 8.6204 -1.3650
-9.9686 8.0457 -1.3309
-9.9425 7.4519 -1.2921
-9.9179 6.8920 -1.2571
-9.8946 6.3619 -1.2256
-9.8725 5.8581 -1.1972
-9.8513 5.3774 -1.1717
-9.8311 4.9171 -1.1488
-9.8117 4.4748 -1.1283
-9.7929 4.0485 -1.1100
-9.7748 3.6361 -1.0938
-9.7572 3.2361 -1.0794
-9.7401 2.8468 -1.0668
-9.7234 2.4670 -1.0560
-9.7071 2.0953 -1.0467
-9.6910 1.7305 -1.0390
-9.6753 1.3716 -1.0327
-9.6597 1.0174 -1.0279
-9.5702 0.6618 -1.0165
-9.6290 0.3194 -1.0223
-9.6138 -0.0262 -1.0216
-9.5987 -0.3709 -1.0222
-9.5835 -0.7154 -1.0241
-9.5684 -1.0606 -1.0273
-9.5531 -1.4075 -1.0319
-9.5377 -1.7570 -1.0379
-9.5222 -2.1101 -1.0453
-9.5065 -2.4676 -1.0541
-9.4906 -2.8306 -1.0645
-9.4743 -3.2002 -1.0764
-9.4577 -3.5776 -1.0900
-9.4407 -3.9641 -1.1053
-9.4233 -4.3609 -1.1224
-9.4053 -4.7696 -1.1416
-10.2131 14.7160 -1.4440
-10.2148 13.6460 -1.3751
-10.1340 12.5714 -1.3036
-10.1284 11.6808 -1.2491
-10.0909 10.8271 -1.1968
-10.0564 10.0423 -1.1502
-10.0245 9.3166 -1.1087
-9.9366 8.5916 -1.0653
-9.9671 8.0115 -1.0382
-9.9411 7.4196 -1.0082
-9.9166 6.8615 -0.9813
-9.8933 6.3330 -0.9571
-9.8713 5.8305 -0.9353
-9.8502 5.3510 -0.9157
-9.8300 4.8917 -0.8982
-9.8106 4.4503 -0.8825
-9.7919 4.0248 -0.8685
-9.7738 3.6132 -0.8562
-9.7562 3.2138 -0.8453
-9.7391 2.8251 -0.8358
-9.7225 2.4457 -0.8276
-9.7061 2.0744 -0.8207
-9.6901 1.7100 -0.8150
-9.6744 1.3513 -0.8104
-9.6588 0.9973 -0.8070
-9.5748 0.6425 -0.7989
-9.6281 0.2997 -0.8034
-9.6130 -0.0459 -0.8031
-9.5978 -0.3905 -0.8040
-9.5827 -0.7350 -0.8058
-9.5675 -1.0804 -0.8088
-9.5522 -1.4274 -0.8127
-9.5369 -1.7771 -0.8178
-9.5213 -2.1303 -0.8240
-9.5056 -2.4881 -0.8314
-9.4896 -2.8515 -0.8399
-9.4734 -3.2215 -0.8497
-9.4568 -3.5994 -0.8608
-9.4398 -3.9864 -0.8733
-9.4223 -4.3839 -0.8872
-9.4043 -4.7933 -0.9028
-9.3857 -5.2163 -0.9200
-9.3664 -5.6548 -0.9390
-9.3464 -6.1109 -0.9600
-9.3255 -6.5868 -0.9832
-9.3035 -7.0851 -1.0088
-9.2805 -7.6090 -1.0369
-9.2562 -8.1618 -1.0680
-9.2305 -8.7476 -1.1023
-9.2031 -9.3711 -1.1402
-9.1738 -10.0378 -1.1823
-9.1423 -10.7543 -1.2290
-9.1082 -11.5285 -1.2812
-9.0712 -12.3698 -1.3395
-9.0308 -13.2899 -1.4050
-8.9325 -14.2176 -1.4701
-8.8704 -15.3128 -1.5514
8.4858 -36.4146 -3.3253
14.3834 -46.3727 -4.3180
15.1381 -43.2531 -4.0752
16.1265 -41.2627 -3.9391
17.8271 -41.1880 -3.9897
19.5145 -40.9842 -4.0341
12.1854 -15.7067 -1.7615
12.5528 -15.0334 -1.7343
10.6910 -11.9074 -1.4160
11.0833 -11.4867 -1.4112
11.4704 -11.0640 -1.4078
11.8568 -10.6421 -1.4061
12.2435 -10.2199 -1.4061
12.6314 -9.7963 -1.4079
13.0217 -9.3702 -1.4115
13.4152 -8.9404 -1.4168
13.8131 -8.5059 -1.4240
14.2166 -8.0653 -1.4330
14.6279 -7.6180 -1.4441
37.9128 -13.2636 -3.4978
37.3184 -11.5700 -3.3974
37.6123 -10.1967 -3.3835
37.4789 -8.7295 -3.3360
37.2105 -7.2699 -3.2816
11.6960 -1.8520 -1.0233
12.6882 -1.5447 -1.1027
12.6451 -1.0806 -1.0931
12.6250 -0.6236 -1.0869
12.6278 -0.1699 -1.0840
12.5677 0.2821 -1.0772
12.5479 0.7328 -1.0751
11.5666 1.0932 -0.9920
12.5092 1.6370 -1.0753
12.4892 2.0927 -1.0774
12.5078 2.5604 -1.0843
12.4340 3.0139 -1.0846
12.4665 3.4999 -1.0957
12.3923 3.9640 -1.0990
12.4238 4.4715 -1.1133
12.3392 4.9481 -1.1189
11.8177 5.2387 -1.0860
32.4399 23.7818 -3.3433
31.5927 24.9518 -3.3404
17.3948 14.7820 -1.8909
16.1191 14.7259 -1.8055
14.9485 14.6745 -1.7295
13.8678 14.6270 -1.6614
12.8646 14.5829 -1.6004
11.9284 14.5417 -1.5455
11.0784 14.5395 -1.4998
10.8950 15.4164 -1.5466
10.7369 16.4118 -1.6045
10.9069 18.0538 -1.7232
10.0347 18.0425 -1.6844
9.3445 18.3195 -1.6757
9.3347 20.0461 -1.7996
13.7628 32.5595 -2.8733
12.3827 32.4988 -2.8237
11.0447 32.4400 -2.7793
10.6088 35.2579 -2.9831
10.4127 39.7188 -3.3235
-10.2097 14.7726 -1.4476
-10.2174 13.7052 -1.3790
-10.1110 12.5931 -1.3037
-10.1305 11.7294 -1.2521
-10.0928 10.8716 -1.1995
-10.0582 10.0834 -1.1526
-10.0262 9.3547 -1.1109
-9.9298 8.6197 -1.0663
-9.9686 8.0448 -1.0399
-9.9425 7.4509 -1.0098
-9.9179 6.8911 -0.9827
-9.8946 6.3610 -0.9583
-9.8724 5.8572 -0.9364
-9.8513 5.3765 -0.9167
-9.8311 4.9162 -0.8991
-9.8116 4.4739 -0.8833
-9.7929 4.0476 -0.8693
-9.7748 3.6352 -0.8568
-9.7572 3.2352 -0.8458
-9.7401 2.8459 -0.8363
-9.7234 2.4661 -0.8280
-9.7070 2.0944 -0.8210
-9.6910 1.7296 -0.8153
-9.6752 1.3707 -0.8106
-9.6596 1.0165 -0.8071
-9.5704 0.6610 -0.7986
-9.6290 0.3185 -0.8034
-9.6138 -0.0271 -0.8031
-9.5986 -0.3718 -0.8039
-9.5835 -0.7163 -0.8057
-9.5683 -1.0615 -0.8086
-9.5531 -1.4085 -0.8125
-9.5377 -1.7580 -0.8175
-9.5222 -2.1110 -0.8237
-9.5065 -2.4685 -0.8309
-9.4905 -2.8316 -0.8394
-9.4743 -3.2012 -0.8491
-9.4577 -3.5786 -0.8602
-9.4407 -3.9651 -0.8726
-9.4232 -4.3619 -0.8864
-9.4053 -4.7707 -0.9019
-10.5781 23.2299 -1.4752
-10.5429 21.1099 -1.3644
-10.4583 19.1860 -1.2642
-10.3853 17.5251 -1.1794
-10.3215 16.0731 -1.1067
-10.2651 14.7900 -1.0439
-10.2147 13.6450 -0.9893
-10.1345 12.5711 -0.9381
-10.1284 11.6798 -0.8992
-10.0908 10.8261 -0.8618
-10.0563 10.0413 -0.8286
-10.0244 9.3156 -0.7990
-9.9368 8.5908 -0.7680
-9.9671 8.0105 -0.7487
-9.9411 7.4187 -0.7275
-9.9165 6.8606 -0.7083
-9.8933 6.3320 -0.6912
-9.8712 5.8296 -0.6758
-9.8501 5.3501 -0.6620
-9.8299 4.8908 -0.6497
-9.8105 4.4495 -0.6387
-9.7918 4.0239 -0.6289
-9.7737 3.6123 -0.6203
-9.7562 3.2129 -0.6128
-9.7391 2.8242 -0.6062
-9.7224 2.4448 -0.6007
-9.7061 2.0735 -0.5960
-9.6901 1.7091 -0.5922
-9.6743 1.3504 -0.5893
-9.6588 0.9964 -0.5872
-9.5751 0.6417 -0.5817
-9.6281 0.2988 -0.5853
-9.6129 -0.0468 -0.5855
-9.5978 -0.3914 -0.5865
-9.5826 -0.7359 -0.5882
-9.5674 -1.0813 -0.5908
-9.5522 -1.4283 -0.5941
-9.5368 -1.7780 -0.5982
-9.5213 -2.1313 -0.6031
-9.5056 -2.4891 -0.6089
-9.4896 -2.8525 -0.6156
-9.4733 -3.2225 -0.6231
-9.4567 -3.6004 -0.6317
-9.4397 -3.9875 -0.6413
-9.4222 -4.3849 -0.6519
-9.4042 -4.7944 -0.6638
-9.3856 -5.2175 -0.6768
-9.3664 -5.6560 -0.6913
-9.3463 -6.1121 -0.7072
-9.3254 -6.5880 -0.7247
-9.3035 -7.0864 -0.7440
-9.2805 -7.6103 -0.7652
-9.2562 -8.1632 -0.7885
-9.2304 -8.7490 -0.8143
-9.2030 -9.3726 -0.8428
-9.1737 -10.0394 -0.8744
-9.1422 -10.7560 -0.9094
-9.1082 -11.5302 -0.9484
-9.0712 -12.3717 -0.9921
-9.0307 -13.2919 -1.0411
-8.9862 -14.3052 -1.0964
-8.8699 -15.3143 -1.1506
-8.8814 -16.6880 -1.2310
-8.8189 -18.1094 -1.3138
-8.7476 -19.7323 -1.4099
-8.6381 -21.5407 -1.5182
5.9676 -37.6617 -2.5265
7.3729 -37.7163 -2.5468
14.2960 -46.0916 -3.1985
14.2521 -40.7223 -2.8592
16.1260 -41.2628 -2.9353
17.8264 -41.1880 -2.9728
19.5741 -41.1112 -3.0150
11.8694 -15.3005 -1.2772
12.2735 -14.7000 -1.2619
10.6911 -11.9085 -1.0535
11.0828 -11.4872 -1.0496
11.4699 -11.0646 -1.0467
11.8563 -10.6427 -1.0452
12.2429 -10.2205 -1.0448
12.6308 -9.7970 -1.0458
13.0210 -9.3709 -1.0480
13.4145 -8.9412 -1.0516
13.8124 -8.5067 -1.0565
14.2158 -8.0662 -1.0628
14.6270 -7.6189 -1.0705
36.5593 -14.2859 -2.5339
36.4225 -12.7455 -2.4863
36.2951 -11.2559 -2.4436
36.1761 -9.8106 -2.4054
36.0659 -8.4037 -2.3715
35.9629 -7.0293 -2.3417
11.6961 -1.8531 -0.7551
12.6883 -1.5458 -0.8133
12.6711 -1.0840 -0.8073
12.6499 -0.6260 -0.8022
12.6278 -0.1711 -0.7980
12.6079 0.2818 -0.7950
12.5880 0.7340 -0.7930
11.5666 1.0921 -0.7289
12.5826 1.6454 -0.7943
12.5624 2.1038 -0.7953
12.5078 2.5591 -0.7952
12.4873 3.0256 -0.7983
12.4665 3.4986 -0.8025
12.4454 3.9797 -0.8078
12.4238 4.4702 -0.8143
12.3392 4.9468 -0.8178
11.6592 5.6761 -0.7938
41.6961 26.1838 -2.9921
32.7705 24.0196 -2.4574
31.8685 25.1650 -2.4502
17.3980 14.7821 -1.3743
16.1220 14.7260 -1.3115
14.9511 14.6746 -1.2554
13.8702 14.6271 -1.2053
12.8667 14.5830 -1.1603
11.9304 14.5418 -1.1199
11.0785 14.5374 -1.0860
10.9268 15.4590 -1.1225
10.7009 16.3542 -1.1566
10.6842 17.6824 -1.2203
9.8385 17.6869 -1.1932
9.1286 17.8933 -1.1822
8.7347 18.7544 -1.2155
13.7652 32.5596 -2.0734
12.3849 32.4989 -2.0367
11.0467 32.4401 -2.0038
10.6090 35.2522 -2.1496
9.6450 36.7831 -2.2174
8.4444 37.6644 -2.2479
-10.5847 23.3652 -1.4825
-10.5479 21.2234 -1.3704
-10.4626 19.2833 -1.2693
-10.3890 17.6097 -1.1836
-10.3247 16.1474 -1.1104
-10.2680 14.8559 -1.0471
-10.2173 13.7041 -0.9921
-10.1111 12.5923 -0.9382
-10.1305 11.7284 -0.9013
-10.0928 10.8706 -0.8637
-10.0581 10.0823 -0.8303
-10.0261 9.3537 -0.8005
-9.9300 8.6189 -0.7687
-9.9685 8.0438 -0.7500
-9.9424 7.4500 -0.7286
-9.9178 6.8901 -0.7093
-9.8945 6.3601 -0.6921
-9.8724 5.8563 -0.6766
-9.8513 5.3756 -0.6627
-9.8310 4.9153 -0.6503
-9.8116 4.4730 -0.6392
-9.7928 4.0467 -0.6294
-9.7747 3.6343 -0.6207
-9.7571 3.2343 -0.6131
-9.7400 2.8451 -0.6066
-9.7233 2.4652 -0.6010
-9.7070 2.0935 -0.5963
-9.6910 1.7288 -0.5924
-9.6752 1.3698 -0.5894
-9.6596 1.0156 -0.5873
-9.5706 0.6601 -0.5814
-9.6289 0.3176 -0.5853
-9.6137 -0.0280 -0.5855
-9.5986 -0.3727 -0.5864
-9.5834 -0.7172 -0.5881
-9.5683 -1.0625 -0.5906
-9.5530 -1.4094 -0.5939
-9.5377 -1.7589 -0.5979
-9.5221 -2.1120 -0.6028
-9.5064 -2.4695 -0.6086
-9.4905 -2.8326 -0.6152
-9.4742 -3.2022 -0.6227
-9.4576 -3.5797 -0.6312
-9.4406 -3.9662 -0.6407
-9.4232 -4.3630 -0.6513
-9.4052 -4.7718 -0.6631
-10.7610 26.0726 -0.9930
-10.6422 23.3698 -0.9046
-10.5428 21.1088 -0.8318
-10.4583 19.1849 -0.7710
-10.3852 17.5240 -0.7196
-10.3214 16.0720 -0.6755
-10.2650 14.7889 -0.6376
-10.2147 13.6439 -0.6045
-10.1350 12.5707 -0.5737
-10.1283 11.6787 -0.5502
-10.0908 10.8250 -0.5277
-10.0563 10.0403 -0.5078
-10.0244 9.3146 -0.4901
-9.9370 8.5900 -0.4715
-9.9670 8.0096 -0.4601
-9.9410 7.4177 -0.4475
-9.9165 6.8596 -0.4361
-9.8933 6.3311 -0.4260
-9.8712 5.8287 -0.4170
-9.8501 5.3491 -0.4090
-9.8299 4.8899 -0.4018
-9.8105 4.4486 -0.3955
-9.7918 4.0230 -0.3899
-9.7737 3.6114 -0.3851
-9.7562 3.2120 -0.3809
-9.7391 2.8233 -0.3773
-9.7224 2.4440 -0.3744
-9.7061 2.0727 -0.3720
-9.6901 1.7082 -0.3701
-9.6743 1.3495 -0.3688
-9.6587 0.9956 -0.3680
-9.5753 0.6408 -0.3650
-9.6281 0.2979 -0.3678
-9.6129 -0.0477 -0.3685
-9.5977 -0.3923 -0.3696
-9.5826 -0.7368 -0.3713
-9.5674 -1.0822 -0.3734
-9.5521 -1.4293 -0.3760
-9.5368 -1.7790 -0.3792
-9.5213 -2.1322 -0.3828
-9.5055 -2.4900 -0.3870
-9.4896 -2.8535 -0.3918
-9.4733 -3.2235 -0.3972
-9.4567 -3.6015 -0.4032
-9.4397 -3.9885 -0.4099
-9.4222 -4.3860 -0.4173
-9.4042 -4.7955 -0.4254
-9.3856 -5.2186 -0.4344
-9.3663 -5.6572 -0.4442
-9.3463 -6.1133 -0.4550
-9.3253 -6.5892 -0.4669
-9.3034 -7.0877 -0.4799
-9.2804 -7.6116 -0.4942
-9.2561 -8.1645 -0.5099
-9.2303 -8.7505 -0.5271
-9.2029 -9.3741 -0.5462
-9.1736 -10.0410 -0.5673
-9.1421 -10.7576 -0.5906
-9.1081 -11.5320 -0.6166
-9.0711 -12.3735 -0.6457
-9.0306 -13.2939 -0.6782
-8.9861 -14.3073 -0.7149
-8.8694 -15.3158 -0.7509
-8.8813 -16.6904 -0.8042
-8.8188 -18.1120 -0.8589
-8.7475 -19.7353 -0.9225
-8.6650 -21.6114 -0.9972
-8.5683 -23.8108 -1.0861
-8.4531 -26.4321 -1.1934
-8.3130 -29.6187 -1.3255
-8.0901 -33.3872 -1.4828
5.5533 -35.0445 -1.5494
7.1256 -36.4501 -1.6223
8.7841 -37.6933 -1.6909
12.9711 -41.8206 -1.9130
14.4664 -41.3357 -1.9130
16.1255 -41.2628 -1.9346
17.8258 -41.1880 -1.9590
19.5732 -41.1112 -1.9864
12.1963 -15.7231 -0.8629
10.6927 -11.9113 -0.6921
11.0823 -11.4878 -0.6891
11.4694 -11.0651 -0.6868
11.8557 -10.6433 -0.6853
12.2423 -10.2212 -0.6846
12.6302 -9.7976 -0.6847
13.0203 -9.3716 -0.6857
13.4138 -8.9419 -0.6875
13.8117 -8.5075 -0.6901
14.2151 -8.0670 -0.6936
14.6262 -7.6198 -0.6980
35.2732 -15.2675 -1.6179
35.1575 -13.7412 -1.5843
35.0495 -12.2681 -1.5540
34.9478 -10.8412 -1.5266
34.8518 -9.4546 -1.5019
26.3990 -6.1535 -1.1237
27.6279 -5.4026 -1.1632
11.6961 -1.8541 -0.4877
12.6883 -1.5470 -0.5246
12.6747 -1.0854 -0.5203
12.6537 -0.6273 -0.5163
12.6279 -0.1722 -0.5128
12.6080 0.2806 -0.5103
12.5881 0.7328 -0.5083
11.5667 1.0910 -0.4666
12.5826 1.6442 -0.5077
12.5625 2.1025 -0.5077
12.5079 2.5579 -0.5069
12.4874 3.0243 -0.5082
12.4666 3.4973 -0.5101
12.4454 3.9784 -0.5128
12.4239 4.4689 -0.5162
12.3393 4.9454 -0.5177
11.4944 6.1141 -0.5011
43.1137 24.9578 -1.9101
42.0692 26.4128 -1.8973
31.5941 24.9439 -1.5202
17.4013 14.7823 -0.8591
16.1249 14.7262 -0.8186
14.9537 14.6747 -0.7826
13.8726 14.6272 -0.7503
12.8689 14.5831 -0.7214
11.9324 14.5419 -0.6953
11.0786 14.5352 -0.6733
11.0316 15.6047 -0.7018
10.9800 16.7780 -0.7340
10.9230 18.0748 -0.7707
10.7624 19.3448 -0.8054
10.7882 21.1429 -0.8611
10.7072 22.9859 -0.9174
13.7675 32.5597 -1.2755
12.4065 32.5502 -1.2537
11.0487 32.4402 -1.2304
10.6093 35.2466 -1.3184
10.4133 39.7055 -1.4671
9.6822 43.1759 -1.5781
-11.3060 39.0497 -1.4298
-11.0985 33.7495 -1.2497
-10.9148 29.5706 -1.1091
-10.7682 26.2349 -0.9983
-10.6481 23.5042 -0.9089
-10.5478 21.2223 -0.8354
-10.4625 19.2822 -0.7741
-10.3890 17.6086 -0.7221
-10.3247 16.1464 -0.6778
-10.2679 14.8548 -0.6395
-10.2173 13.7030 -0.6062
-10.1113 12.5916 -0.5737
-10.1305 11.7274 -0.5515
-10.0928 10.8696 -0.5289
-10.0581 10.0813 -0.5088
-10.0261 9.3527 -0.4910
-9.9302 8.6181 -0.4719
-9.9685 8.0428 -0.4608
-9.9424 7.4490 -0.4481
-9.9178 6.8892 -0.4367
-9.8945 6.3592 -0.4266
-9.8723 5.8554 -0.4175
-9.8512 5.3747 -0.4094
-9.8310 4.9144 -0.4022
-9.8115 4.4721 -0.3958
-9.7928 4.0458 -0.3902
-9.7747 3.6334 -0.3853
-9.7571 3.2334 -0.3811
-9.7400 2.8442 -0.3775
-9.7233 2.4644 -0.3745
-9.7070 2.0927 -0.3721
-9.6909 1.7279 -0.3702
-9.6751 1.3689 -0.3688
-9.6596 1.0147 -0.3680
-9.5708 0.6593 -0.3648
-9.6289 0.3167 -0.3678
-9.6137 -0.0289 -0.3684
-9.5985 -0.3736 -0.3695
-9.5834 -0.7181 -0.3712
-9.5682 -1.0634 -0.3733
-9.5530 -1.4103 -0.3759
-9.5376 -1.7599 -0.3790
-9.5221 -2.1129 -0.3826
-9.5064 -2.4705 -0.3868
-9.4904 -2.8335 -0.3916
-9.4742 -3.2032 -0.3969
-9.4576 -3.5807 -0.4029
-9.4406 -3.9672 -0.4095
-9.4232 -4.3641 -0.4169
-9.4052 -4.7729 -0.4250
-10.7610 26.0716 -0.3574
-10.6422 23.3687 -0.3259
-10.5428 21.1077 -0.3001
-10.4582 19.1838 -0.2786
-10.3852 17.5229 -0.2605
-10.3214 16.0709 -0.2451
-10.2650 14.7878 -0.2319
-10.2147 13.6428 -0.2204
-10.1355 12.5704 -0.2098
-10.1283 11.6777 -0.2018
-10.0907 10.8240 -0.1942
-10.0563 10.0393 -0.1876
-10.0244 9.3137 -0.1817
-9.9372 8.5893 -0.1755
-9.9670 8.0086 -0.1719
-9.9410 7.4168 -0.1679
-9.9164 6.8587 -0.1644
-9.8932 6.3302 -0.1613
-9.8711 5.8277 -0.1587
-9.8501 5.3482 -0.1563
-9.8299 4.8890 -0.1544
-9.8105 4.4477 -0.1527
-9.7918 4.0221 -0.1513
-9.7737 3.6105 -0.1502
-9.7561 3.2111 -0.1494
-9.7390 2.8224 -0.1488
-9.7224 2.4431 -0.1484
-9.7060 2.0718 -0.1483
-9.6900 1.7073 -0.1483
-9.6742 1.3487 -0.1486
-9.6587 0.9947 -0.1491
-9.5755 0.6399 -0.1488
-9.6280 0.2970 -0.1507
-9.6128 -0.0486 -0.1518
-9.5977 -0.3932 -0.1531
-9.5825 -0.7377 -0.1546
-9.5674 -1.0831 -0.1564
-9.5521 -1.4302 -0.1583
-9.5367 -1.7799 -0.1605
-9.5212 -2.1332 -0.1629
-9.5055 -2.4910 -0.1656
-9.4895 -2.8544 -0.1685
-9.4732 -3.2245 -0.1717
-9.4566 -3.6025 -0.1751
-9.4396 -3.9895 -0.1789
-9.4221 -4.3871 -0.1830
-9.4041 -4.7966 -0.1875
-9.3855 -5.2197 -0.1923
-9.3663 -5.6583 -0.1976
-9.3462 -6.1144 -0.2033
-9.3253 -6.5904 -0.2095
-9.3034 -7.0889 -0.2163
-9.2803 -7.6129 -0.2236
-9.2560 -8.1659 -0.2317
-9.2303 -8.7519 -0.2405
-9.2029 -9.3756 -0.2501
-9.1735 -10.0425 -0.2607
-9.1420 -10.7593 -0.2724
-9.1080 -11.5337 -0.2854
-9.0710 -12.3754 -0.2998
-9.0305 -13.2958 -0.3160
-8.9860 -14.3094 -0.3341
-8.8689 -15.3173 -0.3519
-8.8812 -16.6928 -0.3780
-8.8187 -18.1147 -0.4048
-8.7473 -19.7382 -0.4359
-8.6649 -21.6147 -0.4724
-8.5682 -23.8145 -0.5157
-8.4529 -26.4362 -0.5679
-8.3128 -29.6236 -0.6320
-8.1383 -33.5930 -0.7127
-7.9144 -38.6876 -0.8170
-7.6156 -45.4851 -0.9573
-4.0431 -42.8384 -0.8982
7.2573 -37.1223 -0.7995
14.3584 -46.2939 -1.0249
14.4661 -41.3357 -0.9257
16.1251 -41.2628 -0.9358
17.8251 -41.1881 -0.9472
19.5724 -41.1113 -0.9598
22.1471 -42.5171 -1.0091
12.1693 -15.6895 -0.4134
10.6931 -11.9128 -0.3313
11.0818 -11.4883 -0.3292
11.4689 -11.0657 -0.3275
11.8552 -10.6439 -0.3261
12.2417 -10.2218 -0.3251
12.6295 -9.7983 -0.3244
13.0197 -9.3723 -0.3240
13.4131 -8.9427 -0.3240
13.8109 -8.5083 -0.3244
14.2143 -8.0679 -0.3251
14.6254 -7.6207 -0.3262
34.3283 -16.3484 -0.7478
34.2624 -14.8330 -0.7299
34.1988 -13.3696 -0.7134
34.1371 -11.9518 -0.6982
34.0772 -10.5742 -0.6843
34.0187 -9.2316 -0.6714
26.3914 -6.1541 -0.5126
27.6269 -5.4049 -0.5286
11.6962 -1.8552 -0.2207
12.6884 -1.5481 -0.2365
12.6784 -1.0869 -0.2336
12.6575 -0.6286 -0.2308
12.6279 -0.1734 -0.2282
12.6080 0.2795 -0.2260
12.5882 0.7316 -0.2241
11.5667 1.0899 -0.2047
12.5827 1.6430 -0.2217
12.5626 2.1013 -0.2206
12.5079 2.5567 -0.2192
12.4874 3.0231 -0.2186
12.4666 3.4961 -0.2183
12.4455 3.9771 -0.2183
12.4239 4.4676 -0.2186
12.3393 4.9441 -0.2181
13.9206 7.4030 -0.2515
13.9094 8.0502 -0.2540
17.4045 14.7824 -0.3445
16.1278 14.7263 -0.3265
14.9564 14.6748 -0.3104
13.8749 14.6273 -0.2960
12.8711 14.5832 -0.2831
11.9344 14.5420 -0.2714
11.0788 14.5331 -0.2614
11.0317 15.6024 -0.2711
10.9801 16.7756 -0.2821
10.9231 18.0721 -0.2947
10.7625 19.3419 -0.3065
10.7883 21.1398 -0.3262
10.7073 22.9825 -0.3459
13.7698 32.5598 -0.4789
12.3569 32.4144 -0.4667
11.0506 32.4403 -0.4581
10.6095 35.2409 -0.4889
8.9087 33.9618 -0.4636
8.6693 38.6512 -0.5201
-11.6561 46.4362 -0.6051
-11.3360 39.1530 -0.5151
-11.0984 33.7488 -0.4492
-10.9147 29.5697 -0.3988
-10.7681 26.2339 -0.3593
-10.6481 23.5032 -0.3274
-10.5478 21.2212 -0.3014
-10.4625 19.2811 -0.2797
-10.3889 17.6074 -0.2614
-10.3246 16.1453 -0.2459
-10.2679 14.8538 -0.2326
-10.2173 13.7020 -0.2210
-10.1115 12.5908 -0.2098
-10.1304 11.7263 -0.2023
-10.0927 10.8686 -0.1946
-10.0581 10.0803 -0.1879
-10.0260 9.3517 -0.1820
-9.9304 8.6173 -0.1756
-9.9685 8.0419 -0.1722
-9.9424 7.4481 -0.1681
-9.9177 6.8882 -0.1646
-9.8944 6.3582 -0.1615
-9.8723 5.8544 -0.1588
-9.8512 5.3738 -0.1565
-9.8309 4.9135 -0.1545
-9.8115 4.4713 -0.1528
-9.7928 4.0449 -0.1514
-9.7746 3.6326 -0.1503
-9.7571 3.2326 -0.1494
-9.7399 2.8433 -0.1488
-9.7233 2.4635 -0.1484
-9.7069 2.0918 -0.1483
-9.6909 1.7270 -0.1483
-9.6751 1.3680 -0.1486
-9.6595 1.0138 -0.1491
-9.5710 0.6584 -0.1486
-9.6289 0.3159 -0.1507
-9.6137 -0.0298 -0.1518
-9.5985 -0.3745 -0.1531
-9.5834 -0.7190 -0.1546
-9.5682 -1.0643 -0.1563
-9.5529 -1.4112 -0.1582
-9.5376 -1.7608 -0.1604
-9.5221 -2.1139 -0.1628
-9.5063 -2.4714 -0.1654
-9.4904 -2.8345 -0.1683
-9.4741 -3.2042 -0.1715
-9.4575 -3.5817 -0.1749
-9.4406 -3.9682 -0.1787
-9.4231 -4.3651 -0.1828
-9.4051 -4.7739 -0.1872
-10.7609 26.0706 0.2778
-10.6421 23.3677 0.2524
-10.5427 21.1066 0.2313
-10.4582 19.1827 0.2134
-10.3852 17.5218 0.1982
-10.3213 16.0698 0.1850
-10.2649 14.7867 0.1735
-10.2146 13.6418 0.1634
-10.1360 12.5701 0.1538
-10.1282 11.6767 0.1463
-10.0907 10.8230 0.1390
-10.0562 10.0383 0.1325
-10.0243 9.3127 0.1265
-9.9376 8.5888 0.1203
-9.9670 8.0077 0.1160
-9.9409 7.4158 0.1114
-9.9164 6.8578 0.1071
-9.8932 6.3293 0.1032
-9.8711 5.8268 0.0995
-9.8500 5.3473 0.0961
-9.8298 4.8881 0.0929
-9.8104 4.4468 0.0899
-9.7917 4.0212 0.0871
-9.7736 3.6096 0.0844
-9.7561 3.2102 0.0819
-9.7390 2.8216 0.0796
-9.7223 2.4422 0.0773
-9.7060 2.0709 0.0752
-9.6900 1.7065 0.0732
-9.6742 1.3478 0.0714
-9.6587 0.9938 0.0696
-9.5757 0.6391 0.0674
-9.6280 0.2961 0.0662
-9.6128 -0.0495 0.0647
-9.5976 -0.3941 0.0632
-9.5825 -0.7386 0.0618
-9.5673 -1.0840 0.0605
-9.5521 -1.4311 0.0592
-9.5367 -1.7808 0.0580
-9.5212 -2.1341 0.0568
-9.5054 -2.4920 0.0557
-9.4895 -2.8554 0.0547
-9.4732 -3.2255 0.0537
-9.4566 -3.6035 0.0528
-9.4396 -3.9906 0.0519
-9.4221 -4.3881 0.0511
-9.4041 -4.7976 0.0503
-9.3855 -5.2208 0.0495
-9.3662 -5.6594 0.0489
-9.3462 -6.1156 0.0482
-9.3252 -6.5917 0.0477
-9.3033 -7.0902 0.0472
-9.2803 -7.6142 0.0467
-9.2560 -8.1672 0.0463
-9.2302 -8.7533 0.0460
-9.2028 -9.3771 0.0458
-9.1735 -10.0441 0.0456
-9.1420 -10.7609 0.0456
-9.1079 -11.5354 0.0456
-9.0709 -12.3772 0.0457
-9.0305 -13.2978 0.0460
-8.9859 -14.3115 0.0465
-8.8684 -15.3189 0.0467
-8.8811 -16.6953 0.0479
-8.8186 -18.1174 0.0490
-8.7472 -19.7411 0.0503
-8.6647 -21.6180 0.0521
-8.5680 -23.8181 0.0543
-8.4527 -26.4404 0.0572
-8.3126 -29.6284 0.0610
-8.1381 -33.5988 0.0658
-7.9141 -38.6946 0.0724
-7.6152 -45.4940 0.0815
7.2305 -36.9840 0.0523
9.2007 -39.4796 0.0559
10.5146 -38.7669 0.0553
11.9772 -38.6168 0.0557
13.4817 -38.5237 0.0566
15.0552 -38.5264 0.0579
16.7453 -38.6944 0.0598
18.2784 -38.3950 0.0614
19.9828 -38.3640 0.0637
21.6890 -38.2257 0.0663
23.5491 -38.2383 0.0695
25.4839 -38.2356 0.0733
12.1688 -15.6901 0.0338
10.6926 -11.9133 0.0293
11.0813 -11.4889 0.0303
11.4683 -11.0663 0.0315
11.8546 -10.6445 0.0327
12.2411 -10.2225 0.0341
12.6289 -9.7990 0.0356
13.0190 -9.3730 0.0373
13.4124 -8.9435 0.0390
13.8102 -8.5091 0.0409
14.2135 -8.0687 0.0430
14.6246 -7.6216 0.0452
34.3629 -16.3679 0.1087
34.5816 -14.9743 0.1120
34.2318 -13.3855 0.1137
34.1694 -11.9661 0.1165
34.4289 -10.6864 0.1206
34.0498 -9.2430 0.1226
26.3837 -6.1547 0.0978
27.6258 -5.4072 0.1054
11.6962 -1.8562 0.0460
12.6884 -1.5493 0.0514
12.6791 -1.0881 0.0530
12.6589 -0.6299 0.0546
12.6280 -0.1746 0.0563
12.6081 0.2783 0.0580
12.5882 0.7305 0.0599
11.5668 1.0888 0.0569
12.5483 1.6373 0.0639
12.5283 2.0943 0.0661
12.5080 2.5554 0.0684
12.4875 3.0218 0.0708
11.4902 3.2210 0.0675
11.4707 3.6644 0.0700
12.4240 4.4663 0.0788
12.3394 4.9427 0.0813
11.3978 5.0474 0.0781
15.5061 7.5435 0.1107
13.8496 7.3636 0.1030
13.4936 7.8079 0.1047
21.0434 14.2840 0.1783
20.9952 15.3801 0.1862
20.9446 16.5300 0.1946
17.4077 14.7825 0.1698
16.1307 14.7264 0.1654
14.9590 14.6749 0.1615
13.8773 14.6274 0.1580
12.8732 14.5833 0.1550
11.9363 14.5421 0.1522
11.0789 14.5310 0.1501
11.0318 15.6000 0.1593
10.9802 16.7731 0.1694
10.9232 18.0695 0.1808
10.7627 19.3391 0.1919
10.7884 21.1367 0.2083
10.7075 22.9791 0.2251
11.0630 26.1550 0.2549
11.5240 30.2246 0.2933
10.2790 30.1699 0.2918
9.0582 30.0824 0.2902
7.8880 30.0648 0.2896
6.7335 30.0140 0.2888
5.6143 30.0347 0.2890
-0.7601 24.8590 0.2429
-4.5009 43.8195 0.4329
-5.4962 39.5017 0.3928
-11.6561 46.4367 0.4732
-11.3360 39.1528 0.4029
-11.0984 33.7481 0.3510
-10.9147 29.5688 0.3110
-10.7681 26.2330 0.2794
-10.6480 23.5021 0.2536
-10.5477 21.2202 0.2323
-10.4624 19.2800 0.2143
-10.3889 17.6064 0.1990
-10.3246 16.1442 0.1857
-10.2678 14.8527 0.1741
-10.2172 13.7009 0.1639
-10.1117 12.5901 0.1539
-10.1304 11.7253 0.1467
-10.0927 10.8676 0.1394
-10.0580 10.0793 0.1328
-10.0260 9.3508 0.1268
-9.9306 8.6166 0.1205
-9.9684 8.0409 0.1163
-9.9423 7.4471 0.1116
-9.9177 6.8873 0.1073
-9.8944 6.3573 0.1034
-9.8723 5.8535 0.0997
-9.8511 5.3729 0.0963
-9.8309 4.9126 0.0930
-9.8115 4.4704 0.0900
-9.7927 4.0440 0.0872
-9.7746 3.6317 0.0846
-9.7570 3.2317 0.0821
-9.7399 2.8424 0.0797
-9.7232 2.4626 0.0775
-9.7069 2.0909 0.0754
-9.6908 1.7261 0.0734
-9.6751 1.3672 0.0715
-9.6595 1.0130 0.0697
-9.5712 0.6575 0.0674
-9.6288 0.3150 0.0663
-9.6136 -0.0307 0.0648
-9.5985 -0.3754 0.0633
-9.5833 -0.7199 0.0619
-9.5682 -1.0652 0.0605
-9.5529 -1.4122 0.0593
-9.5375 -1.7617 0.0580
-9.5220 -2.1148 0.0569
-9.5063 -2.4724 0.0558
-9.4903 -2.8355 0.0547
-9.4741 -3.2052 0.0538
-9.4575 -3.5827 0.0528
-9.4405 -3.9693 0.0519
-9.4231 -4.3662 0.0511
-9.4051 -4.7750 0.0503
-10.7609 26.0696 0.9133
-10.6421 23.3666 0.8309
-10.5427 21.1055 0.7628
-10.4581 19.1816 0.7057
-10.3851 17.5207 0.6571
-10.3213 16.0687 0.6153
-10.2649 14.7856 0.5791
-10.2146 13.6407 0.5473
-10.1366 12.5697 0.5176
-10.1282 11.6757 0.4945
-10.0907 10.8220 0.4724
-10.0562 10.0373 0.4526
-10.0243 9.3117 0.4347
-9.9383 8.5884 0.4163
-9.9669 8.0067 0.4040
-9.9409 7.4149 0.3908
-9.9164 6.8568 0.3787
-9.8931 6.3283 0.3678
-9.8710 5.8259 0.3577
-9.8500 5.3464 0.3486
-9.8298 4.8872 0.3402
-9.8104 4.4459 0.3325
-9.7917 4.0203 0.3255
-9.7736 3.6087 0.3191
-9.7560 3.2094 0.3133
-9.7390 2.8207 0.3080
-9.7223 2.4413 0.3032
-9.7060 2.0700 0.2988
-9.6899 1.7056 0.2949
-9.6742 1.3469 0.2914
-9.6586 0.9929 0.2883
-9.5759 0.6382 0.2836
-9.6279 0.2952 0.2832
-9.6128 -0.0504 0.2812
-9.5976 -0.3950 0.2796
-9.5825 -0.7395 0.2783
-9.5673 -1.0849 0.2774
-9.5520 -1.4320 0.2768
-9.5367 -1.7818 0.2765
-9.5211 -2.1351 0.2766
-9.5054 -2.4929 0.2771
-9.4894 -2.8564 0.2779
-9.4732 -3.2265 0.2792
-9.4565 -3.6045 0.2808
-9.4395 -3.9916 0.2828
-9.4220 -4.3892 0.2852
-9.4040 -4.7987 0.2881
-9.3854 -5.2219 0.2915
-9.3662 -5.6606 0.2954
-9.3461 -6.1168 0.2999
-9.3252 -6.5929 0.3049
-9.3033 -7.0914 0.3107
-9.2802 -7.6155 0.3172
-9.2559 -8.1686 0.3244
-9.2302 -8.7547 0.3326
-9.2027 -9.3786 0.3418
-9.1734 -10.0456 0.3521
-9.1419 -10.7625 0.3637
-9.1078 -11.5372 0.3767
-9.0708 -12.3790 0.3914
-9.0304 -13.2997 0.4081
-8.9858 -14.3136 0.4272
-8.8679 -15.3204 0.4455
-8.8810 -16.6977 0.4739
-8.8185 -18.1200 0.5029
-8.7471 -19.7441 0.5368
-8.6646 -21.6212 0.5768
-8.5678 -23.8218 0.6246
-8.4525 -26.4446 0.6826
-8.3124 -29.6333 0.7542
-8.1378 -33.6045 0.8447
-7.9138 -38.7017 0.9622
-3.5996 -21.5096 0.5298
-2.8055 -21.4716 0.5247
-2.0215 -21.4342 0.5205
0.5579 -11.2559 0.2705
0.9741 -11.3777 0.2737
1.3999 -11.4840 0.2770
7.1528 -36.5851 0.8914
9.1864 -39.4179 0.9675
10.5340 -38.8386 0.9618
11.9917 -38.6641 0.9676
13.5147 -38.6189 0.9783
15.0698 -38.5647 0.9906
16.7010 -38.5934 1.0069
18.2679 -38.3746 1.0187
16.0167 -30.7513 0.8321
17.4012 -30.6703 0.8475
18.8559 -30.6196 0.8657
25.4885 -38.2451 1.1085
12.1683 -15.6906 0.4810
17.5308 -21.0035 0.6645
10.6910 -11.9125 0.3898
7.2261 -7.4926 0.2542
6.8519 -6.6123 0.2333
6.7722 -6.0815 0.2237
6.7642 -5.6494 0.2174
6.7768 -5.2589 0.2124
6.7846 -4.8852 0.2077
6.7749 -4.5182 0.2032
6.7593 -4.1653 0.1989
6.7444 -3.8292 0.1951
6.7301 -3.5080 0.1918
6.7165 -3.1999 0.1888
6.7036 -2.9033 0.1863
6.7099 -2.6243 0.1846
6.8447 -2.3976 0.1867
7.8684 -2.4430 0.2131
8.8411 -2.4008 0.2382
10.1732 -2.3741 0.2730
11.8831 -2.3269 0.3181
11.6963 -1.8573 0.3127
12.6885 -1.5504 0.3394
11.6867 -1.0040 0.3131
12.6522 -0.6307 0.3399
12.6280 -0.1757 0.3408
12.6081 0.2771 0.3421
12.5883 0.7293 0.3440
11.5668 1.0877 0.3187
12.5484 1.6361 0.3490
12.5283 2.0931 0.3522
12.5080 2.5542 0.3560
12.4875 3.0206 0.3602
11.4952 3.2213 0.3365
11.4707 3.6632 0.3413
12.4241 4.4649 0.3762
12.3395 4.9414 0.3807
12.3149 5.4522 0.3878
15.0162 7.3034 0.4834
13.8155 7.3438 0.4553
13.4761 7.7961 0.4553
13.4887 8.4636 0.4680
17.5530 11.9125 0.6266
16.2033 11.8675 0.5961
14.9257 11.7775 0.5670
13.8139 11.7287 0.5430
12.8005 11.6841 0.5217
11.8706 11.6432 0.5027
11.0456 11.6408 0.4873
10.2464 11.6056 0.4721
9.5006 11.5728 0.4585
8.7748 11.5071 0.4449
8.1429 11.5131 0.4353
7.5201 11.4858 0.4253
10.9234 18.0669 0.6565
10.7628 19.3363 0.6905
10.7886 21.1336 0.7429
10.7885 23.1492 0.8022
11.0439 26.1055 0.8930
11.5260 30.2247 1.0221
10.2809 30.1700 1.0099
9.0599 30.0825 0.9981
7.8895 30.0648 0.9899
6.7349 30.0141 0.9819
5.6146 30.0291 0.9773
3.8124 49.3193 1.5912
0.4247 10.2904 0.3318
0.0550 10.2741 0.3314
-0.3134 10.2580 0.3315
-0.6815 10.2418 0.3319
-4.0796 39.7240 1.2922
-5.4957 39.5021 1.2914
-8.5093 48.3715 1.5912
-10.2363 48.0181 1.5912
-11.3203 39.0983 1.3194
-11.0984 33.7475 1.1514
-10.9147 29.5679 1.0212
-10.7680 26.2320 0.9183
-10.6480 23.5011 0.8350
-10.5477 21.2191 0.7662
-10.4624 19.2789 0.7086
-10.3888 17.6053 0.6596
-10.3246 16.1431 0.6175
-10.2678 14.8516 0.5809
-10.2172 13.6998 0.5489
-10.1119 12.5893 0.5177
-10.1303 11.7243 0.4958
-10.0926 10.8665 0.4735
-10.0580 10.0783 0.4536
-10.0259 9.3498 0.4357
-9.9307 8.6158 0.4167
-9.9684 8.0400 0.4048
-9.9423 7.4462 0.3915
-9.9177 6.8864 0.3794
-9.8944 6.3564 0.3683
-9.8722 5.8526 0.3583
-9.8511 5.3720 0.3491
-9.8309 4.9117 0.3406
-9.8114 4.4695 0.3329
-9.7927 4.0431 0.3259
-9.7746 3.6308 0.3195
-9.7570 3.2308 0.3136
-9.7399 2.8416 0.3083
-9.7232 2.4618 0.3034
-9.7068 2.0901 0.2990
-9.6908 1.7253 0.2951
-9.6750 1.3663 0.2916
-9.6595 1.0121 0.2885
-9.5714 0.6567 0.2836
-9.6288 0.3141 0.2833
-9.6136 -0.0316 0.2813
-9.5984 -0.3763 0.2797
-9.5833 -0.7208 0.2784
-9.5681 -1.0661 0.2774
-9.5529 -1.4131 0.2768
-9.5375 -1.7627 0.2765
-9.5220 -2.1157 0.2766
-9.5063 -2.4733 0.2771
-9.4903 -2.8365 0.2779
-9.4740 -3.2062 0.2791
-9.4575 -3.5837 0.2807
-9.4405 -3.9703 0.2826
-9.4230 -4.3673 0.2851
-9.4050 -4.7761 0.2879
-9.5502 20.9684 1.2655
-9.0386 18.0937 1.1103
-10.4581 19.1805 1.1986
-10.3851 17.5196 1.1166
-10.3212 16.0677 1.0462
-10.2648 14.7845 0.9852
-10.2145 13.6396 0.9318
-10.1371 12.5694 0.8820
-10.1281 11.6746 0.8432
-10.0906 10.8210 0.8062
-10.0561 10.0363 0.7731
-10.0242 9.3107 0.7434
-9.9389 8.5880 0.7127
-9.9669 8.0058 0.6925
-9.9409 7.4140 0.6706
-9.9163 6.8559 0.6507
-9.8931 6.3274 0.6327
-9.8710 5.8250 0.6163
-9.8499 5.3455 0.6014
-9.8297 4.8863 0.5878
-9.8103 4.4450 0.5755
-9.7916 4.0195 0.5643
-9.7736 3.6079 0.5542
-9.7560 3.2085 0.5450
-9.7389 2.8198 0.5367
-9.7222 2.4405 0.5293
-9.7059 2.0692 0.5227
-9.6899 1.7047 0.5169
-9.6741 1.3460 0.5117
-9.6586 0.9921 0.5073
-9.5761 0.6374 0.5001
-9.6279 0.2944 0.5005
-9.6127 -0.0512 0.4981
-9.5976 -0.3959 0.4963
-9.5824 -0.7405 0.4951
-9.5672 -1.0858 0.4946
-9.5520 -1.4330 0.4947
-9.5366 -1.7827 0.4954
-9.5211 -2.1360 0.4968
-9.5054 -2.4939 0.4988
-9.4894 -2.8574 0.5015
-9.4731 -3.2275 0.5049
-9.4565 -3.6055 0.5090
-9.4395 -3.9926 0.5139
-9.4220 -4.3902 0.5197
-9.4040 -4.7998 0.5263
-9.3854 -5.2230 0.5338
-9.3661 -5.6617 0.5423
-9.3461 -6.1180 0.5518
-9.3251 -6.5941 0.5625
-9.3032 -7.0927 0.5745
-9.2802 -7.6168 0.5879
-9.2559 -8.1700 0.6029
-9.2301 -8.7561 0.6196
-9.2027 -9.3800 0.6381
-9.1733 -10.0472 0.6589
-9.1418 -10.7642 0.6822
-9.1078 -11.5389 0.7083
-9.0708 -12.3809 0.7376
-9.0303 -13.3017 0.7708
-4.1928 -6.6798 0.3772
-3.8597 -6.6692 0.3677
-3.5412 -6.6590 0.3591
-3.2355 -6.6493 0.3513
-2.9412 -6.6399 0.3443
-2.6568 -6.6308 0.3380
-2.3813 -6.6220 0.3323
-2.2145 -6.9295 0.3429
-2.1866 -7.7965 0.3810
-2.1515 -8.8862 0.4295
-2.1059 -10.3011 0.4932
-3.5994 -21.5137 1.0217
-2.8052 -21.4757 1.0132
-2.0212 -21.4382 1.0061
-2.1085 -36.2405 1.6943
-0.8077 -36.3287 1.6943
0.4967 -36.3662 1.6943
0.5499 -11.0905 0.5169
0.9494 -11.0866 0.5176
1.3511 -11.0827 0.5191
5.7072 -36.0061 1.6943
6.9164 -35.3745 1.6747
8.1101 -34.7989 1.6598
9.3453 -34.4556 1.6583
10.6511 -34.3420 1.6702
11.9951 -34.2773 1.6872
9.9344 -25.4237 1.2685
14.4724 -33.4447 1.6943
15.6547 -32.8867 1.6943
15.9554 -30.6350 1.6078
17.9477 -31.6352 1.6943
19.0546 -30.9440 1.6943
20.1327 -30.2108 1.6943
21.1806 -29.4369 1.6943
12.1678 -15.6911 0.9288
17.5312 -21.0057 1.2815
10.6882 -11.9104 0.7506
7.4066 -7.6804 0.5012
6.9304 -6.6888 0.4532
6.8011 -6.1081 0.4308
6.8236 -5.6996 0.4198
6.8023 -5.2793 0.4073
6.8450 -4.9293 0.3998
6.8367 -4.5600 0.3903
6.7862 -4.1825 0.3795
6.8059 -3.8648 0.3734
6.7915 -3.5406 0.3662
6.7778 -3.2296 0.3599
6.7303 -2.9155 0.3524
6.7632 -2.6458 0.3498
6.8747 -2.4088 0.3518
8.0370 -2.4960 0.4075
9.0284 -2.4524 0.4542
10.1732 -2.3750 0.5086
11.8787 -2.3271 0.5910
11.6820 -1.8561 0.5791
11.6631 -1.4262 0.5769
11.6444 -1.0014 0.5755
11.6259 -0.5806 0.5749
11.6075 -0.1626 0.5750
11.5892 0.2537 0.5759
11.5710 0.6692 0.5776
11.5527 1.0853 0.5800
11.5343 1.5028 0.5831
11.5159 1.9228 0.5871
11.4972 2.3466 0.5919
11.4784 2.7753 0.5974
11.4593 3.2100 0.6039
11.4399 3.6521 0.6112
11.4201 4.1029 0.6195
11.3998 4.5638 0.6287
16.2864 7.2086 0.9146
11.3911 5.5390 0.6524
13.7045 7.2831 0.8017
13.6765 7.9103 0.8185
13.6506 8.5634 0.8372
17.5531 11.9102 1.1051
16.2065 11.8677 1.0494
14.9286 11.7777 0.9961
13.8165 11.7288 0.9519
12.8028 11.6842 0.9128
11.8727 11.6433 0.8779
11.0475 11.6408 0.8494
10.2481 11.6057 0.8215
9.5022 11.5729 0.7964
8.7762 11.5072 0.7714
8.1443 11.5132 0.7534
7.5213 11.4858 0.7351
10.9235 18.0642 1.1327
10.2238 18.3651 1.1301
9.3302 18.2739 1.1053
9.1647 19.6619 1.1708
8.9183 21.0775 1.2374
8.4190 22.0733 1.2795
7.2190 21.1811 1.2139
6.5259 21.6647 1.2293
5.8503 22.2894 1.2538
2.8886 12.8704 0.7187
2.4351 13.0211 0.7227
2.4095 16.0532 0.8866
3.2838 28.9160 1.5912
2.2416 28.9865 1.5912
0.4251 10.2919 0.5643
0.0553 10.2756 0.5634
-0.3132 10.2594 0.5631
-0.6814 10.2433 0.5636
-3.1510 30.6871 1.6943
-4.2487 30.5418 1.6943
-5.3406 30.3603 1.6943
-6.4256 30.1429 1.6943
-7.0687 28.1612 1.5963
-7.4015 25.5635 1.4632
-9.0416 27.4928 1.5910
-10.0245 27.1558 1.5910
-10.9959 26.7863 1.5910
-9.5006 20.9679 1.2644
-9.0420 18.1892 1.1151
-10.4623 19.2778 1.2034
-10.3888 17.6042 1.1208
-10.3245 16.1420 1.0498
-10.2677 14.8505 0.9883
-10.2171 13.6988 0.9345
-10.1121 12.5885 0.8820
-10.1303 11.7232 0.8454
-10.0926 10.8655 0.8081
-10.0579 10.0773 0.7748
-10.0259 9.3488 0.7449
-9.9309 8.6151 0.7133
-9.9683 8.0390 0.6937
-9.9422 7.4453 0.6717
-9.9176 6.8854 0.6518
-9.8943 6.3555 0.6336
-9.8722 5.8517 0.6172
-9.8511 5.3711 0.6022
-9.8308 4.9108 0.5886
-9.8114 4.4686 0.5762
-9.7926 4.0422 0.5649
-9.7745 3.6299 0.5547
-9.7569 3.2299 0.5455
-9.7398 2.8407 0.5372
-9.7231 2.4609 0.5297
-9.7068 2.0892 0.5230
-9.6908 1.7244 0.5172
-9.6750 1.3654 0.5120
-9.6594 1.0112 0.5076
-9.5716 0.6558 0.5000
-9.6287 0.3132 0.5007
-9.6135 -0.0325 0.4982
-9.5984 -0.3772 0.4964
-9.5832 -0.7217 0.4952
-9.5681 -1.0670 0.4946
-9.5528 -1.4140 0.4946
-9.5375 -1.7636 0.4953
-9.5219 -2.1167 0.4967
-9.5062 -2.4743 0.4987
-9.4903 -2.8374 0.5013
-9.4740 -3.2072 0.5047
-9.4574 -3.5847 0.5088
-9.4404 -3.9713 0.5137
-9.4230 -4.3683 0.5193
-9.4050 -4.7772 0.5259
-7.8267 18.9599 1.5910
-8.5046 18.6720 1.5910
-9.1367 18.2891 1.5848
-9.8300 18.0277 1.5910
-9.1211 15.3864 1.3853
-8.8797 13.8227 1.2717
-8.7995 12.6732 1.1935
-9.2483 12.3486 1.1926
-8.7913 10.8998 1.0816
-9.1845 10.5860 1.0816
-10.0906 10.8199 1.1408
-10.0561 10.0353 1.0944
-10.0242 9.3097 1.0528
-9.9395 8.5876 1.0098
-9.9668 8.0048 0.9816
-9.9408 7.4130 0.9510
-9.9163 6.8550 0.9234
-9.8931 6.3265 0.8983
-9.8710 5.8241 0.8755
-9.8499 5.3446 0.8548
-9.8297 4.8854 0.8361
-9.8103 4.4441 0.8191
-9.7916 4.0186 0.8037
-9.7735 3.6070 0.7897
-9.7560 3.2076 0.7772
-9.7389 2.8189 0.7660
-9.7222 2.4396 0.7560
-9.7059 2.0683 0.7471
-9.6899 1.7039 0.7393
-9.6741 1.3452 0.7326
-9.6585 0.9912 0.7269
-9.5763 0.6365 0.7171
-9.6279 0.2935 0.7183
-9.6127 -0.0521 0.7154
-9.5975 -0.3968 0.7135
-9.5824 -0.7414 0.7124
-9.5672 -1.0868 0.7123
-9.5519 -1.4339 0.7131
-9.5366 -1.7836 0.7147
-9.5210 -2.1370 0.7174
-9.5053 -2.4949 0.7210
-9.4893 -2.8584 0.7255
-9.4731 -3.2285 0.7312
-9.4565 -3.6066 0.7378
-9.4394 -3.9937 0.7457
-9.4220 -4.3913 0.7547
-9.4040 -4.8009 0.7650
-9.3853 -5.2242 0.7766
-9.3661 -5.6629 0.7897
-9.3460 -6.1192 0.8044
-9.3251 -6.5953 0.8208
-9.3032 -7.0940 0.8390
-9.2801 -7.6182 0.8594
-9.2558 -8.1713 0.8820
-9.2300 -8.7576 0.9072
-9.2026 -9.3815 0.9352
-9.1733 -10.0488 0.9665
-9.1418 -10.7658 1.0014
-9.1077 -11.5406 1.0406
-9.0707 -12.3827 1.0846
-9.0302 -13.3036 1.1342
-4.1906 -6.6774 0.5552
-3.8577 -6.6668 0.5416
-3.5394 -6.6568 0.5293
-3.2339 -6.6471 0.5182
-2.9397 -6.6377 0.5082
-2.6555 -6.6287 0.4992
-2.3801 -6.6199 0.4912
-2.2145 -6.9307 0.5074
-2.1866 -7.7980 0.5641
-2.1515 -8.8880 0.6363
-2.1059 -10.3033 0.7309
-4.0253 -24.0652 1.6943
-3.1622 -24.2157 1.6943
-2.1311 -22.6125 1.5745
-1.4199 -24.4182 1.6943
-0.5434 -24.4698 1.6943
0.1643 -12.0070 0.8308
0.5501 -11.0903 0.7678
0.9496 -11.0864 0.7691
1.3512 -11.0825 0.7714
3.8404 -24.2269 1.6943
4.4214 -22.6130 1.5912
5.2304 -22.4421 1.5911
6.0322 -22.2405 1.5911
6.8258 -22.0085 1.5911
7.6099 -21.7465 1.5910
13.6885 -35.0321 2.5979
9.3694 -21.6527 1.6300
10.1091 -21.2375 1.6256
10.8278 -20.7908 1.6208
10.4797 -18.4730 1.4693
10.7489 -17.4569 1.4191
11.0051 -16.5151 1.3746
11.2364 -15.6176 1.3336
11.5024 -14.8342 1.3022
12.2830 -14.7186 1.3311
10.6877 -11.9109 1.1122
7.4076 -7.6822 0.7425
6.9306 -6.6896 0.6709
6.8012 -6.1088 0.6374
6.8236 -5.7003 0.6207
6.8023 -5.2799 0.6019
6.8450 -4.9299 0.5905
6.8367 -4.5606 0.5761
6.7862 -4.1831 0.5596
6.8059 -3.8654 0.5503
6.7915 -3.5412 0.5394
6.7778 -3.2303 0.5296
6.7303 -2.9161 0.5182
6.7630 -2.6463 0.5140
6.8740 -2.4091 0.5164
8.0350 -2.4961 0.5976
9.0259 -2.4525 0.6655
10.1733 -2.3759 0.7448
11.8743 -2.3273 0.8643
11.6820 -1.8571 0.8465
11.6631 -1.4272 0.8425
11.6444 -1.0025 0.8397
11.6259 -0.5817 0.8380
11.6076 -0.1637 0.8374
11.5893 0.2526 0.8380
11.5710 0.6682 0.8396
11.5527 1.0842 0.8423
11.5344 1.5017 0.8461
11.5159 1.9217 0.8510
11.4973 2.3455 0.8571
11.4785 2.7741 0.8644
11.4593 3.2088 0.8729
11.4399 3.6509 0.8827
11.4201 4.1017 0.8938
11.3998 4.5626 0.9063
11.3805 5.0359 0.9205
11.3912 5.5377 0.9387
14.7633 7.8440 1.2416
14.4380 8.3490 1.2411
14.0231 8.7953 1.2342
13.7367 9.3188 1.2401
13.3618 9.7827 1.2396
13.0172 10.2679 1.2434
12.6677 10.7516 1.2484
12.8051 11.6843 1.3048
11.8748 11.6434 1.2541
11.0494 11.6409 1.2124
10.2498 11.6058 1.1717
9.5038 11.5730 1.1351
8.7777 11.5073 1.0988
8.1456 11.5133 1.0724
7.5226 11.4859 1.0457
8.9547 14.8060 1.3198
8.9066 15.9965 1.3985
7.3176 14.3298 1.2307
6.8401 14.6723 1.2398
6.6044 15.6063 1.2995
5.8166 15.2477 1.2530
5.8438 17.1431 1.3922
5.4771 18.1796 1.4610
5.2452 19.9802 1.5912
2.8553 12.7193 1.0051
2.3673 12.6552 0.9936
2.3180 15.4396 1.2059
2.3236 20.4541 1.5912
0.6913 8.9359 0.6933
0.3687 8.9203 0.6910
0.0481 8.9049 0.6896
-0.2712 8.8895 0.6891
-0.5902 8.8742 0.6894
-2.2315 21.7354 1.6943
-3.0094 21.6350 1.6943
-3.7833 21.5084 1.6943
-4.5523 21.3556 1.6943
-5.3155 21.1768 1.6943
-6.0722 20.9722 1.6943
-6.7172 20.4246 1.6684
-7.1019 19.2383 1.5910
-7.7896 18.9749 1.5910
-8.4680 18.6882 1.5910
-9.1353 18.3761 1.5908
-9.7946 18.0464 1.5910
-9.0816 15.3882 1.3839
-8.8020 12.7298 1.1972
-9.2120 12.3502 1.1910
-8.7696 10.9165 1.0816
-9.1634 10.6034 1.0816
-10.0925 10.8645 1.1435
-10.0579 10.0763 1.0968
-10.0259 9.3478 1.0549
-9.9311 8.6143 1.0107
-9.9683 8.0380 0.9833
-9.9422 7.4443 0.9526
-9.9176 6.8845 0.9248
-9.8943 6.3545 0.8996
-9.8721 5.8508 0.8767
-9.8510 5.3702 0.8559
-9.8308 4.9099 0.8370
-9.8113 4.4677 0.8199
-9.7926 4.0413 0.8045
-9.7745 3.6290 0.7905
-9.7569 3.2290 0.7779
-9.7398 2.8398 0.7666
-9.7231 2.4600 0.7565
-9.7068 2.0883 0.7476
-9.6907 1.7235 0.7397
-9.6749 1.3645 0.7329
-9.6594 1.0103 0.7272
-9.5718 0.6550 0.7169
-9.6287 0.3123 0.7185
-9.6135 -0.0334 0.7156
-9.5984 -0.3781 0.7136
-9.5832 -0.7226 0.7125
-9.5680 -1.0679 0.7123
-9.5528 -1.4149 0.7130
-9.5374 -1.7645 0.7146
-9.5219 -2.1176 0.7172
-9.5062 -2.4753 0.7207
-9.4902 -2.8384 0.7253
-9.4740 -3.2082 0.7308
-9.4574 -3.5858 0.7375
-9.4404 -3.9724 0.7452
-9.4229 -4.3694 0.7542
-9.4049 -4.7783 0.7644
-6.4479 15.6193 1.6943
-6.5791 14.4438 1.5910
-7.0953 14.2022 1.5910
-7.6031 13.9429 1.5910
-8.1018 13.6662 1.5910
-8.5910 13.3723 1.5910
-9.0699 13.0617 1.5910
-9.5381 12.7346 1.5910
-9.9951 12.3913 1.5910
-10.0183 9.9966 1.4115
-9.9654 9.2542 1.3552
-9.9401 8.5872 1.3079
-9.9668 8.0038 1.2716
-9.9408 7.4121 1.2324
-9.9162 6.8540 1.1969
-9.8930 6.3256 1.1647
-9.8709 5.8232 1.1356
-9.8499 5.3437 1.1091
-9.8297 4.8845 1.0851
-9.8103 4.4432 1.0634
-9.7916 4.0177 1.0438
-9.7735 3.6061 1.0261
-9.7559 3.2067 1.0102
-9.7388 2.8181 0.9960
-9.7222 2.4387 0.9834
-9.7058 2.0674 0.9722
-9.6898 1.7030 0.9625
-9.6741 1.3443 0.9542
-9.6585 0.9903 0.9471
-9.5765 0.6356 0.9349
-9.6278 0.2926 0.9368
-9.6126 -0.0530 0.9335
-9.5975 -0.3977 0.9314
-9.5823 -0.7423 0.9305
-9.5672 -1.0877 0.9307
-9.5519 -1.4348 0.9322
-9.5365 -1.7846 0.9348
-9.5210 -2.1379 0.9387
-9.5053 -2.4958 0.9439
-9.4893 -2.8593 0.9504
-9.4730 -3.2295 0.9582
-9.4564 -3.6076 0.9674
-9.4394 -3.9947 0.9782
-9.4219 -4.3924 0.9905
-9.4039 -4.8020 1.0045
-9.3853 -5.2253 1.0202
-9.3660 -5.6641 1.0379
-9.3460 -6.1204 1.0577
-9.3250 -6.5966 1.0798
-9.3031 -7.0953 1.1044
-9.2801 -7.6195 1.1317
-9.2557 -8.1727 1.1620
-9.2300 -8.7590 1.1958
-9.2025 -9.3830 1.2333
-9.1732 -10.0503 1.2751
-9.1284 -10.7518 1.3199
-9.0533 -11.4735 1.3658
-4.1885 -6.6750 0.7336
-3.8558 -6.6645 0.7160
-3.5376 -6.6545 0.7000
-3.2323 -6.6448 0.6855
-2.9382 -6.6355 0.6725
-2.6542 -6.6265 0.6609
-2.3789 -6.6178 0.6504
-2.2145 -6.9320 0.6724
-2.1866 -7.7995 0.7478
-2.1515 -8.8898 0.8437
-2.1059 -10.3056 0.9695
-3.0339 -18.1428 1.6943
-2.3828 -18.2522 1.6943
-1.7275 -18.3372 1.6943
-1.0692 -18.3978 1.6943
-0.4088 -18.4336 1.6943
0.1601 -11.6784 1.0728
0.5503 -11.0901 1.0195
0.9498 -11.0862 1.0213
1.3514 -11.0822 1.0244
1.8437 -11.6304 1.0803
3.3290 -17.0250 1.5912
3.3744 -14.4784 1.3635
3.7964 -13.9971 1.3301
5.1389 -16.5697 1.5911
5.7294 -16.3730 1.5911
6.3120 -16.1543 1.5911
6.8858 -15.9139 1.5910
7.5254 -15.8104 1.6071
8.0851 -15.5252 1.6071
8.6335 -15.2193 1.6071
9.1698 -14.8932 1.6071
9.5823 -14.3809 1.5887
3.3825 -4.7017 0.5328
3.6359 -4.6894 0.5462
10.0807 -12.0805 1.4491
10.4370 -11.6325 1.4405
7.4087 -7.6840 0.9846
6.9308 -6.6905 0.8893
6.8012 -6.1095 0.8447
6.8236 -5.7009 0.8223
6.8023 -5.2805 0.7972
6.8450 -4.9306 0.7817
6.8367 -4.5613 0.7624
6.7862 -4.1838 0.7404
6.8059 -3.8660 0.7278
6.7916 -3.5418 0.7130
6.7778 -3.2309 0.6998
6.7303 -2.9167 0.6845
6.7629 -2.6469 0.6786
6.8733 -2.4095 0.6815
8.0329 -2.4962 0.7882
9.0233 -2.4527 0.8774
10.1733 -2.3768 0.9817
11.8698 -2.3275 1.1382
11.6821 -1.8582 1.1148
11.6632 -1.4283 1.1090
11.6445 -1.0035 1.1048
11.6260 -0.5827 1.1020
11.6076 -0.1648 1.1007
11.5893 0.2515 1.1009
11.5711 0.6671 1.1024
11.5528 1.0831 1.1054
11.5344 1.5005 1.1099
11.5160 1.9206 1.1158
11.4973 2.3444 1.1233
11.4785 2.7730 1.1322
11.4594 3.2077 1.1428
11.4400 3.6497 1.1550
11.4202 4.1004 1.1690
11.3999 4.5613 1.1848
11.3806 5.0346 1.2027
11.3598 5.5211 1.2226
11.7086 6.2196 1.2854
11.5315 6.6668 1.2934
11.3424 7.1125 1.3020
11.1412 7.5566 1.3112
10.9342 8.0038 1.3217
10.7329 8.4645 1.3353
10.5198 8.9270 1.3497
10.2942 9.3915 1.3651
10.0556 9.8580 1.3814
9.8038 10.3269 1.3988
9.8604 11.1629 1.4650
9.5054 11.5730 1.4750
3.2653 4.2800 0.5309
8.1469 11.5133 1.3926
7.5238 11.4859 1.3573
7.7291 12.7776 1.4779
6.9394 12.4614 1.4131
6.7639 13.2434 1.4749
6.1081 13.0999 1.4350
6.3032 14.8921 1.6071
5.7687 15.1196 1.6098
5.1574 15.1269 1.5912
4.6072 15.2894 1.5912
4.0522 15.4326 1.5912
2.6827 11.9477 1.2221
2.3714 12.6742 1.2877
2.1094 14.0468 1.4195
1.7967 15.8111 1.5912
0.6919 8.9397 0.8971
0.3691 8.9241 0.8941
0.0484 8.9086 0.8921
-0.2711 8.8933 0.8914
-0.5902 8.8779 0.8917
-1.7259 16.8135 1.6943
-2.3279 16.7370 1.6943
-2.9268 16.6398 1.6943
-3.5219 16.5222 1.6943
-4.1125 16.3841 1.6943
-4.6980 16.2259 1.6943
-5.2777 16.0476 1.6943
-5.8511 15.8494 1.6943
-6.4173 15.6317 1.6943
-6.5508 14.4564 1.5910
-7.0674 14.2158 1.5910
-7.5757 13.9575 1.5910
-8.0749 13.6817 1.5910
-8.5646 13.3888 1.5910
-9.0441 13.0790 1.5910
-9.5129 12.7528 1.5910
-9.9705 12.4104 1.5910
-10.0270 10.0445 1.4155
-9.9668 9.2918 1.3580
-9.9313 8.6135 1.3090
-9.9682 8.0371 1.2739
-9.9421 7.4433 1.2344
-9.9175 6.8836 1.1987
-9.8942 6.3536 1.1664
-9.8721 5.8499 1.1371
-9.8510 5.3692 1.1105
-9.8307 4.9090 1.0864
-9.8113 4.4668 1.0646
-9.7926 4.0405 1.0448
-9.7744 3.6281 1.0270
-9.7569 3.2281 1.0110
-9.7398 2.8389 0.9967
-9.7231 2.4591 0.9840
-9.7067 2.0874 0.9728
-9.6907 1.7226 0.9630
-9.6749 1.3637 0.9546
-9.6593 1.0095 0.9475
-9.5720 0.6541 0.9346
-9.6287 0.3114 0.9371
-9.6135 -0.0343 0.9337
-9.5983 -0.3790 0.9315
-9.5832 -0.7235 0.9305
-9.5680 -1.0689 0.9307
-9.5527 -1.4159 0.9321
-9.5374 -1.7655 0.9347
-9.5219 -2.1186 0.9385
-9.5061 -2.4762 0.9436
-9.4902 -2.8394 0.9500
-9.4739 -3.2092 0.9577
-9.4573 -3.5868 0.9669
-9.4403 -3.9734 0.9775
-9.4229 -4.3704 0.9898
-9.4049 -4.7794 1.0037
-5.2534 12.7253 1.6943
-5.7079 12.5307 1.6943
-6.1555 12.3205 1.6943
-6.3336 11.6141 1.6270
-6.5996 11.1315 1.5910
-6.9975 10.8913 1.5910
-7.3869 10.6373 1.5910
-7.7675 10.3698 1.5910
-8.1388 10.0892 1.5910
-8.5002 9.7956 1.5910
-8.8514 9.4895 1.5910
-9.1920 9.1712 1.5910
-9.5215 8.8410 1.5910
-9.8395 8.4994 1.5910
-10.1457 8.1465 1.5910
-9.8130 5.7881 1.3886
-9.7920 5.3114 1.3565
-9.7969 4.8673 1.3308
-9.8102 4.4423 1.3089
-9.7915 4.0168 1.2850
-9.7734 3.6052 1.2635
-9.7559 3.2058 1.2443
-9.7388 2.8172 1.2271
-9.7221 2.4378 1.2118
-9.7058 2.0665 1.1984
-9.6898 1.7021 1.1867
-9.6740 1.3434 1.1767
-9.6585 0.9894 1.1684
-9.5767 0.6348 1.1536
-9.6278 0.2917 1.1563
-9.6126 -0.0539 1.1526
-9.5974 -0.3986 1.1503
-9.5823 -0.7432 1.1495
-9.5671 -1.0886 1.1501
-9.5519 -1.4357 1.1522
-9.5365 -1.7855 1.1559
-9.5210 -2.1389 1.1611
-9.5052 -2.4968 1.1678
-9.4892 -2.8603 1.1762
-9.4730 -3.2305 1.1862
-9.4564 -3.6086 1.1980
-9.4393 -3.9958 1.2117
-9.4219 -4.3934 1.2273
-9.4039 -4.8031 1.2450
-9.3852 -5.2264 1.2650
-9.3660 -5.6652 1.2873
-9.3459 -6.1216 1.3122
-9.2878 -6.5715 1.3347
-9.2478 -7.0544 1.3628
-9.2264 -7.5768 1.3971
-9.2077 -10.0897 1.5910
-8.8496 -10.4251 1.5910
-8.4799 -10.7486 1.5912
-8.0974 -11.0576 1.5912
-7.7035 -11.3526 1.5912
-4.1863 -6.6726 0.9127
-3.8538 -6.6622 0.8909
-3.5358 -6.6522 0.8712
-3.2307 -6.6426 0.8534
-2.9368 -6.6333 0.8375
-2.6529 -6.6244 0.8231
-2.3778 -6.6157 0.8102
-2.2145 -6.9333 0.8382
-2.1866 -7.8010 0.9324
-2.1515 -8.8916 1.0521
-2.1059 -10.3078 1.2092
-1.8055 -10.7995 1.2578
-1.9098 -14.6335 1.6943
-1.3844 -14.6999 1.6943
-0.8566 -14.7468 1.6943
-0.3273 -14.7740 1.6943
0.1599 -11.6498 1.3353
0.5506 -11.0898 1.2722
0.9499 -11.0859 1.2745
1.3515 -11.0820 1.2785
1.8364 -11.5834 1.3429
2.8401 -14.5241 1.6943
3.1550 -13.5369 1.5912
3.6386 -13.4152 1.5912
4.1172 -13.2756 1.5912
4.5904 -13.1183 1.5911
5.0573 -12.9435 1.5911
5.5173 -12.7515 1.5911
5.9697 -12.5425 1.5911
6.4140 -12.3169 1.5911
6.9193 -12.1982 1.6073
7.2198 -11.7269 1.5789
3.2597 -4.8924 0.6743
3.2926 -4.5771 0.6470
3.4571 -4.4592 0.6478
3.4776 -4.1678 0.6235
8.5427 -9.5221 1.4703
7.4098 -7.6859 1.2278
6.9310 -6.6913 1.1087
6.8013 -6.1103 1.0529
6.8236 -5.7016 1.0248
6.8023 -5.2812 0.9933
6.8450 -4.9312 0.9738
6.8368 -4.5619 0.9496
6.7863 -4.1844 0.9219
6.8060 -3.8667 0.9060
6.7916 -3.5425 0.8875
6.7779 -3.2315 0.8708
6.7304 -2.9173 0.8516
6.7628 -2.6474 0.8440
6.8726 -2.4098 0.8473
8.0309 -2.4963 0.9795
9.0208 -2.4528 1.0900
10.1734 -2.3777 1.2196
10.2593 -2.0126 1.2219
11.6219 -1.8497 1.3770
10.8728 -1.3325 1.2833
10.2759 -0.8866 1.2098
11.6260 -0.5838 1.3671
11.3125 -0.1616 1.3304
10.2080 0.2205 1.2022
11.5711 0.6660 1.3664
11.5528 1.0819 1.3697
11.5345 1.4994 1.3748
10.1216 1.6870 1.2144
11.2204 2.2868 1.3570
10.9933 2.6546 1.3420
10.0556 2.8137 1.2407
10.6999 3.4125 1.3361
10.6741 3.8314 1.3510
10.0527 4.0212 1.2915
9.9950 4.4205 1.3053
10.5717 5.1368 1.4056
10.6166 5.6383 1.4394
9.7958 5.6621 1.3565
9.9391 6.2313 1.4081
9.7776 6.6305 1.4198
9.6060 7.0303 1.4324
9.4239 7.4308 1.4458
9.2311 7.8321 1.4602
9.0273 8.2343 1.4755
8.8106 8.6360 1.4915
8.5731 9.0290 1.5068
8.3235 9.4215 1.5231
3.2724 3.9836 0.6253
3.0630 4.0142 0.6130
3.0051 4.2462 0.6322
2.9121 4.4449 0.6464
2.6976 4.4590 0.6346
6.4165 11.5204 1.6071
