ply
format ascii 1.0
element vertex 2177
property float32 x
property float32 y
property float32 z
end_header
4.5769 7.3910 1.7003
4.3032 7.5412 1.7003
4.0249 7.6818 1.7003
3.7422 7.8125 1.7003
3.4555 7.9333 1.7003
3.1651 8.0441 1.7003
2.8714 8.1448 1.7003
2.5747 8.2352 1.7003
0.8377 3.0613 0.6260
0.7272 3.0894 0.6264
0.6157 3.1135 0.6269
0.5035 3.1336 0.6273
0.3906 3.1498 0.6277
0.2772 3.1620 0.6281
0.1635 3.1700 0.6284
0.0495 3.1741 0.6287
-0.0646 3.1741 0.6289
-5.1174 5.1520 1.5970
-5.3044 4.9697 1.5970
-5.4851 4.7810 1.5970
-5.6594 4.5858 1.5970
-5.8270 4.3846 1.5970
-5.9878 4.1774 1.5970
-6.1414 3.9645 1.5970
-6.2877 3.7462 1.5970
-6.4266 3.5226 1.5970
-6.5577 3.2941 1.5970
-6.6810 3.0608 1.5970
-6.8526 2.8464 1.6103
-6.9605 2.6024 1.6103
-7.0599 2.3544 1.6103
-7.0354 2.0689 1.5843
-6.9826 1.7838 1.5546
-7.0350 1.5305 1.5506
-7.1956 1.2969 1.5721
-7.4252 1.0648 1.6103
-7.4709 0.7990 1.6103
-7.5073 0.5314 1.6103
-7.5343 0.2622 1.6103
-7.5517 -0.0083 1.6103
-7.5596 -0.2796 1.6103
-7.5577 -0.5515 1.6103
-7.5462 -0.8236 1.6103
-7.5250 -1.0956 1.6103
-7.4940 -1.3671 1.6103
-7.4533 -1.6377 1.6103
-7.4028 -1.9073 1.6103
-7.3425 -2.1752 1.6103
-7.2725 -2.4413 1.6103
-7.1929 -2.7051 1.6103
-7.1037 -2.9663 1.6103
-7.0049 -3.2245 1.6103
-6.8966 -3.4794 1.6103
-6.7790 -3.7306 1.6103
-6.6522 -3.9778 1.6103
-6.5162 -4.2206 1.6103
-6.3712 -4.4586 1.6103
-6.2174 -4.6915 1.6103
-6.0550 -4.9190 1.6103
-5.8841 -5.1408 1.6103
-5.7049 -5.3564 1.6103
-5.5176 -5.5656 1.6103
-5.3226 -5.7680 1.6103
-5.1199 -5.9634 1.6103
-4.8694 -6.1008 1.5970
-4.6541 -6.2797 1.5971
-4.4321 -6.4507 1.5971
-4.2036 -6.6136 1.5971
-3.9690 -6.7681 1.5971
-3.7285 -6.9139 1.5971
-3.4825 -7.0508 1.5971
-3.2313 -7.1786 1.5971
-2.9753 -7.2970 1.5971
-2.7148 -7.4059 1.5971
-2.4502 -7.5052 1.5971
-2.1819 -7.5945 1.5971
-1.9102 -7.6738 1.5972
-1.6355 -7.7429 1.5972
-1.3583 -7.8017 1.5972
-1.0789 -7.8501 1.5972
-0.8008 -7.9181 1.6033
-0.5388 -8.2778 1.6704
-0.2467 -8.4438 1.7003
0.0557 -8.4502 1.7003
0.3581 -8.4452 1.7003
0.6602 -8.4289 1.7003
0.9616 -8.4011 1.7003
1.2617 -8.3621 1.7003
1.5601 -8.3118 1.7003
1.8564 -8.2503 1.7003
2.1502 -8.1777 1.7003
2.4411 -8.0941 1.7003
2.7285 -7.9997 1.7003
3.0121 -7.8945 1.7003
3.2914 -7.7788 1.7003
3.5662 -7.6527 1.7003
3.8358 -7.5165 1.7003
4.1001 -7.3703 1.7003
4.3585 -7.2143 1.7003
4.6107 -7.0489 1.7003
4.8565 -6.8743 1.7003
5.0953 -6.6907 1.7003
5.3269 -6.4985 1.7003
5.5510 -6.2979 1.7003
3.7058 -3.9127 1.0925
3.7949 -3.7298 1.0798
3.9523 -3.6157 1.0882
4.1185 -3.5053 1.1000
4.0758 -3.2246 1.0583
4.0362 -2.9647 1.0210
3.9993 -2.7227 0.9876
3.9649 -2.4963 0.9577
3.9325 -2.2835 0.9307
3.9019 -2.0826 0.9065
3.8729 -1.8921 0.8847
3.8453 -1.7109 0.8651
3.8189 -1.5378 0.8475
3.7937 -1.3719 0.8318
3.7694 -1.2123 0.8177
3.7967 -1.0726 0.8160
4.1623 -1.0164 0.8876
4.5972 -0.9495 0.9741
7.5760 -1.2836 1.5972
7.6043 -1.0096 1.5972
7.6226 -0.7352 1.5972
7.6310 -0.4608 1.5972
7.6294 -0.1867 1.5972
7.6179 0.0867 1.5972
7.5966 0.3591 1.5972
7.5656 0.6300 1.5972
7.5249 0.8992 1.5972
7.4747 1.1664 1.5972
7.4150 1.4311 1.5972
7.3461 1.6931 1.5972
7.2679 1.9520 1.5972
7.1807 2.2076 1.5972
7.0847 2.4594 1.5972
6.9799 2.7073 1.5972
6.8666 2.9509 1.5972
6.7450 3.1900 1.5972
6.6151 3.4242 1.5972
6.4774 3.6533 1.5972
6.3318 3.8770 1.5972
5.6408 3.7386 1.4581
6.0183 4.3075 1.5972
5.8508 4.5137 1.5972
5.6765 4.7137 1.5972
5.4955 4.9071 1.5972
5.3081 5.0939 1.5972
5.1321 5.2917 1.6026
5.0630 5.6102 1.6452
4.9986 5.9554 1.6950
4.7903 6.1423 1.7003
4.5610 6.3025 1.7003
4.3265 6.4544 1.7003
4.0872 6.5979 1.7003
3.8433 6.7329 1.7003
3.5951 6.8593 1.7003
3.3431 6.9769 1.7003
3.0873 7.0856 1.7003
2.8282 7.1853 1.7003
2.5661 7.2759 1.7003
0.8431 2.6956 0.6229
0.7457 2.7241 0.6234
0.6473 2.7491 0.6238
0.5481 2.7705 0.6242
0.4483 2.7885 0.6246
0.3478 2.8028 0.6250
0.2469 2.8136 0.6253
0.1456 2.8208 0.6256
0.0442 2.8244 0.6258
-0.0573 2.8243 0.6261
-4.6197 4.6496 1.5970
-4.7880 4.4847 1.5970
-4.9507 4.3138 1.5970
-5.1075 4.1373 1.5970
-5.2582 3.9552 1.5970
-5.4026 3.7679 1.5970
-5.5406 3.5754 1.5970
-5.6720 3.3780 1.5970
-5.7965 3.1759 1.5970
-5.9141 2.9694 1.5970
-6.0245 2.7586 1.5970
-6.1276 2.5438 1.5970
-6.2232 2.3253 1.5970
-6.3112 2.1033 1.5970
-6.3915 1.8780 1.5970
-6.4639 1.6497 1.5970
-6.5825 1.4305 1.6103
-6.6393 1.1951 1.6103
-6.6878 0.9575 1.6103
-6.7280 0.7180 1.6103
-6.7597 0.4769 1.6103
-6.7829 0.2345 1.6103
-6.7975 -0.0090 1.6103
-6.8034 -0.2532 1.6103
-6.8006 -0.4978 1.6103
-6.7891 -0.7426 1.6103
-6.7689 -0.9871 1.6103
-6.7399 -1.2311 1.6103
-6.7021 -1.4743 1.6103
-6.6556 -1.7164 1.6103
-6.6003 -1.9570 1.6103
-6.5363 -2.1958 1.6103
-6.4636 -2.4325 1.6103
-6.3823 -2.6668 1.6103
-6.2925 -2.8983 1.6103
-6.1942 -3.1268 1.6103
-6.0876 -3.3519 1.6103
-5.9727 -3.5733 1.6103
-5.8496 -3.7906 1.6103
-5.7186 -4.0037 1.6103
-5.5796 -4.2121 1.6103
-5.4330 -4.4156 1.6103
-5.2354 -4.5759 1.5970
-5.0752 -4.7670 1.5970
-4.9078 -4.9524 1.5970
-4.7337 -5.1318 1.5971
-4.5528 -5.3048 1.5971
-4.3654 -5.4713 1.5971
-4.1719 -5.6309 1.5971
-3.9723 -5.7835 1.5971
-3.7670 -5.9287 1.5971
-3.5563 -6.0665 1.5971
-3.3404 -6.1964 1.5971
-3.1197 -6.3184 1.5971
-2.8943 -6.4322 1.5971
-2.6647 -6.5376 1.5971
-2.4312 -6.6346 1.5971
-2.1940 -6.7228 1.5972
-1.9535 -6.8022 1.5972
-1.7101 -6.8727 1.5972
-1.4641 -6.9340 1.5972
-1.2158 -6.9862 1.5972
-0.9661 -7.0328 1.5980
-0.7324 -7.2466 1.6388
-0.4906 -7.5441 1.7003
-0.2205 -7.5596 1.7003
0.0501 -7.5650 1.7003
0.3208 -7.5604 1.7003
0.5912 -7.5456 1.7003
0.8609 -7.5206 1.7003
1.1295 -7.4856 1.7003
1.3966 -7.4406 1.7003
1.6618 -7.3856 1.7003
1.9248 -7.3207 1.7003
2.1851 -7.2460 1.7003
2.4424 -7.1616 1.7003
2.6963 -7.0677 1.7003
2.9464 -6.9644 1.7003
3.1925 -6.8519 1.7003
3.4340 -6.7302 1.7003
3.6708 -6.5997 1.7003
3.9024 -6.4606 1.7003
4.1285 -6.3129 1.7003
4.3488 -6.1570 1.7003
4.5630 -5.9931 1.7003
4.7709 -5.8215 1.7003
4.9720 -5.6424 1.7003
3.6718 -3.8778 1.2085
3.7631 -3.6996 1.1953
3.9177 -3.5850 1.2040
4.1187 -3.5065 1.2276
4.0760 -3.2258 1.1809
4.0364 -2.9658 1.1392
3.9995 -2.7238 1.1018
3.9650 -2.4974 1.0683
3.9326 -2.2845 1.0381
3.9021 -2.0836 1.0110
3.5040 -1.7127 0.8925
3.5562 -1.5831 0.8920
3.7160 -1.4972 0.9193
3.7938 -1.3728 0.9270
3.7695 -1.2132 0.9112
3.7930 -1.0724 0.9083
4.1578 -1.0163 0.9878
4.5918 -0.9494 1.0837
6.8031 -1.1542 1.5972
6.8296 -0.9083 1.5972
6.8472 -0.6620 1.5972
6.8559 -0.4156 1.5972
6.8556 -0.1694 1.5972
6.8464 0.0763 1.5972
6.8285 0.3212 1.5972
6.8017 0.5648 1.5972
6.7663 0.8070 1.5972
6.7223 1.0474 1.5972
6.6698 1.2857 1.5972
6.6088 1.5216 1.5972
6.5396 1.7548 1.5972
6.4623 1.9851 1.5972
6.3769 2.2121 1.5972
6.2836 2.4356 1.5972
6.1826 2.6553 1.5972
6.0741 2.8710 1.5972
5.9581 3.0824 1.5972
5.8349 3.2892 1.5972
5.7047 3.4913 1.5972
5.5676 3.6884 1.5972
5.4239 3.8803 1.5972
5.3450 4.1217 1.6188
5.2886 4.3898 1.6507
5.2361 4.6736 1.6879
5.0955 4.8879 1.7003
4.9104 5.0612 1.7003
4.7196 5.2277 1.7003
4.5234 5.3872 1.7003
4.3219 5.5397 1.7003
4.1155 5.6848 1.7003
3.9043 5.8225 1.7003
3.6888 5.9527 1.7003
3.4690 6.0752 1.7003
3.2454 6.1898 1.7003
3.0182 6.2966 1.7003
2.7875 6.3953 1.7003
2.5538 6.4859 1.7003
0.8457 2.3970 0.6205
0.7590 2.4257 0.6209
0.6713 2.4513 0.6213
0.5828 2.4738 0.6217
0.4935 2.4931 0.6221
0.4036 2.5093 0.6224
0.3132 2.5222 0.6227
0.2223 2.5319 0.6230
0.1312 2.5383 0.6233
0.0399 2.5415 0.6235
-0.0515 2.5415 0.6237
-4.2061 4.2322 1.5970
-4.3591 4.0817 1.5970
-4.5068 3.9259 1.5970
-4.6492 3.7649 1.5970
-4.7860 3.5988 1.5970
-4.9170 3.4280 1.5970
-5.0421 3.2525 1.5970
-5.1612 3.0725 1.5970
-5.2740 2.8883 1.5970
-5.3803 2.7001 1.5970
-5.4802 2.5081 1.5970
-5.5734 2.3124 1.5970
-5.6597 2.1134 1.5970
-5.7391 1.9113 1.5970
-5.8114 1.7062 1.5970
-5.8765 1.4984 1.5970
-5.9344 1.2882 1.5970
-5.9848 1.0759 1.5970
-6.0278 0.8616 1.5970
-6.0632 0.6457 1.5970
-6.0909 0.4283 1.5970
-6.1110 0.2098 1.5970
-6.1233 -0.0096 1.5970
-6.1787 -0.2314 1.6103
-6.1754 -0.4535 1.6103
-6.1641 -0.6757 1.6103
-6.1449 -0.8976 1.6103
-6.1177 -1.1190 1.6103
-6.0825 -1.3395 1.6103
-6.0394 -1.5590 1.6103
-5.9884 -1.7771 1.6103
-5.9295 -1.9935 1.6103
-5.8628 -2.2079 1.6103
-5.7882 -2.4201 1.6103
-5.6590 -2.6081 1.5970
-5.5698 -2.8132 1.5970
-5.4732 -3.0152 1.5970
-5.3692 -3.2138 1.5970
-5.2578 -3.4088 1.5970
-5.1394 -3.5998 1.5970
-5.0139 -3.7866 1.5970
-4.8815 -3.9690 1.5970
-4.7423 -4.1466 1.5970
-4.5966 -4.3192 1.5970
-4.4445 -4.4866 1.5970
-4.2862 -4.6485 1.5970
-4.1219 -4.8046 1.5970
-3.9518 -4.9548 1.5970
-3.7763 -5.0989 1.5971
-3.5953 -5.2364 1.5971
-3.4091 -5.3673 1.5971
-3.2181 -5.4914 1.5971
-3.0224 -5.6085 1.5971
-2.8224 -5.7183 1.5971
-2.6183 -5.8208 1.5971
-2.4104 -5.9157 1.5972
-2.1989 -6.0029 1.5972
-1.9842 -6.0823 1.5972
-1.7666 -6.1537 1.5972
-1.5463 -6.2170 1.5972
-1.3237 -6.2722 1.5972
-1.0991 -6.3190 1.5972
-0.8851 -6.4467 1.6196
-0.6868 -6.7997 1.7003
-0.4433 -6.8226 1.7003
-0.1991 -6.8364 1.7003
0.0456 -6.8412 1.7003
0.2903 -6.8367 1.7003
0.5348 -6.8232 1.7003
0.7786 -6.8006 1.7003
1.0214 -6.7689 1.7003
1.2628 -6.7282 1.7003
1.5026 -6.6785 1.7003
1.7404 -6.6199 1.7003
1.9758 -6.5524 1.7003
2.2084 -6.4763 1.7003
2.4380 -6.3916 1.7003
2.6643 -6.2984 1.7003
2.8868 -6.1968 1.7003
3.1053 -6.0871 1.7003
3.3196 -5.9694 1.7003
3.5292 -5.8438 1.7003
3.7338 -5.7106 1.7003
3.9333 -5.5700 1.7003
4.1274 -5.4221 1.7003
4.3156 -5.2672 1.7003
4.4979 -5.1056 1.7003
3.6682 -3.8750 1.3344
3.7567 -3.6942 1.3188
3.9123 -3.5811 1.3287
4.1999 -3.5767 1.3833
4.0762 -3.2270 1.3049
4.0366 -2.9670 1.2587
3.9997 -2.7249 1.2173
3.9652 -2.4984 1.1801
3.9328 -2.2856 1.1466
3.3999 -1.8162 0.9728
3.3964 -1.6610 0.9553
3.4492 -1.5363 0.9552
3.5570 -1.4340 0.9714
3.7940 -1.3737 1.0233
3.7697 -1.2141 1.0057
3.7893 -1.0722 1.0014
4.1534 -1.0161 1.0887
4.5864 -0.9493 1.1942
6.3037 -1.0709 1.6325
6.2639 -0.8345 1.6157
6.2244 -0.6032 1.6012
6.2176 -0.3783 1.5972
6.2182 -0.1551 1.5972
6.2108 0.0678 1.5972
6.1954 0.2899 1.5972
6.1720 0.5110 1.5972
6.1610 0.7333 1.6025
6.1205 0.9521 1.6022
6.0548 1.1656 1.5972
6.0003 1.3800 1.5972
5.9383 1.5919 1.5972
5.8689 1.8013 1.5972
5.7921 2.0077 1.5972
5.7082 2.2110 1.5972
5.6606 2.4296 1.6096
5.6156 2.6527 1.6251
5.5694 2.8797 1.6429
5.5252 3.1130 1.6640
5.4808 3.3526 1.6881
5.3885 3.5680 1.7003
5.2500 3.7542 1.7003
5.1053 3.9351 1.7003
4.9544 4.1107 1.7003
4.7977 4.2806 1.7003
4.6353 4.4447 1.7003
4.4674 4.6028 1.7003
4.2943 4.7548 1.7003
4.1162 4.9005 1.7003
3.9332 5.0397 1.7003
3.7457 5.1722 1.7003
3.5539 5.2981 1.7003
3.3580 5.4170 1.7003
3.1583 5.5290 1.7003
2.9550 5.6338 1.7003
2.7483 5.7315 1.7003
2.5385 5.8218 1.7003
0.8460 2.1477 0.6185
0.7682 2.1766 0.6189
0.6895 2.2027 0.6193
0.6098 2.2260 0.6196
0.5294 2.2464 0.6200
0.4483 2.2640 0.6203
0.3667 2.2786 0.6206
0.2845 2.2903 0.6209
0.2020 2.2991 0.6212
0.1193 2.3050 0.6214
0.0363 2.3079 0.6216
-0.0467 2.3078 0.6218
-3.8568 3.8797 1.5970
-3.9968 3.7414 1.5970
-4.1320 3.5983 1.5970
-4.2622 3.4504 1.5970
-4.3873 3.2979 1.5970
-4.5071 3.1410 1.5970
-4.6214 2.9799 1.5970
-4.7301 2.8148 1.5970
-4.8331 2.6457 1.5970
-4.9301 2.4730 1.5970
-5.0212 2.2968 1.5970
-5.1061 2.1174 1.5970
-5.1847 1.9348 1.5970
-5.2569 1.7495 1.5970
-5.3226 1.5614 1.5970
-5.3817 1.3710 1.5970
-5.4341 1.1784 1.5970
-5.4797 0.9838 1.5970
-5.5185 0.7875 1.5970
-5.5503 0.5897 1.5970
-5.5751 0.3907 1.5970
-5.5928 0.1907 1.5970
-5.6035 -0.0101 1.5970
-5.6070 -0.2114 1.5970
-5.6033 -0.4129 1.5970
-5.5924 -0.6144 1.5970
-5.5743 -0.8156 1.5970
-5.5490 -1.0163 1.5970
-5.5164 -1.2163 1.5970
-5.4767 -1.4152 1.5970
-5.4298 -1.6128 1.5970
-5.3758 -1.8088 1.5970
-5.3146 -2.0030 1.5970
-5.2464 -2.1951 1.5970
-5.1713 -2.3848 1.5970
-5.0892 -2.5719 1.5970
-5.0004 -2.7562 1.5970
-4.9047 -2.9373 1.5970
-4.8025 -3.1151 1.5970
-4.6938 -3.2892 1.5970
-4.5786 -3.4595 1.5970
-4.4572 -3.6256 1.5970
-4.3297 -3.7874 1.5970
-4.1963 -3.9446 1.5970
-4.0570 -4.0970 1.5970
-3.9121 -4.2444 1.5970
-3.7618 -4.3864 1.5970
-3.6062 -4.5231 1.5970
-3.4455 -4.6540 1.5970
-3.2801 -4.7791 1.5970
-3.1101 -4.8984 1.5971
-2.9356 -5.0111 1.5971
-2.7568 -5.1175 1.5971
-2.5742 -5.2173 1.5971
-2.3878 -5.3104 1.5972
-2.1980 -5.3966 1.5972
-2.0051 -5.4758 1.5972
-1.8091 -5.5478 1.5972
-1.6106 -5.6126 1.5972
-1.4097 -5.6700 1.5972
-1.2079 -5.7261 1.5989
-1.0081 -5.7985 1.6072
-0.8468 -6.1714 1.7003
-0.6258 -6.2003 1.7003
-0.4038 -6.2210 1.7003
-0.1812 -6.2334 1.7003
0.0418 -6.2375 1.7003
0.2649 -6.2334 1.7003
0.4877 -6.2210 1.7003
0.7099 -6.2003 1.7003
0.9313 -6.1714 1.7003
1.1514 -6.1342 1.7003
1.3699 -6.0890 1.7003
1.5866 -6.0356 1.7003
1.8012 -5.9742 1.7003
2.0133 -5.9049 1.7003
2.2227 -5.8278 1.7003
2.4290 -5.7430 1.7003
2.6319 -5.6506 1.7003
2.8312 -5.5507 1.7003
3.0266 -5.4436 1.7003
3.2179 -5.3294 1.7003
3.4046 -5.2082 1.7003
3.5867 -5.0802 1.7003
3.7638 -4.9456 1.7003
3.9357 -4.8047 1.7003
4.1022 -4.6576 1.7003
3.7055 -3.9155 1.4779
3.7809 -3.7191 1.4551
3.9442 -3.6113 1.4685
4.7095 -4.0120 1.7003
4.8457 -3.8374 1.7003
4.9753 -3.6582 1.7003
5.0980 -3.4744 1.7003
3.9654 -2.4995 1.2932
3.4225 -1.9898 1.0933
3.3218 -1.7753 1.0413
3.3307 -1.6296 1.0262
3.3831 -1.5076 1.0262
3.4790 -1.4033 1.0406
3.6655 -1.3281 1.0828
3.7698 -1.2150 1.1013
3.7855 -1.0720 1.0953
4.1489 -1.0160 1.1906
5.0661 -1.0498 1.4440
5.9982 -1.0204 1.7003
6.0231 -0.8038 1.7003
6.0401 -0.5868 1.7003
6.0493 -0.3695 1.7003
6.0506 -0.1523 1.7003
6.0440 0.0645 1.7003
6.0297 0.2807 1.7003
6.0076 0.4960 1.7003
5.9705 0.7092 1.6982
5.9312 0.9212 1.6976
5.8920 1.1328 1.6992
5.8433 1.3424 1.7003
5.7836 1.5490 1.7003
5.7166 1.7531 1.7003
5.6425 1.9543 1.7003
5.5614 2.1526 1.7003
5.4734 2.3477 1.7003
5.3786 2.5392 1.7003
5.2772 2.7270 1.7003
5.1693 2.9110 1.7003
5.0552 3.0907 1.7003
4.9348 3.2661 1.7003
4.8086 3.4369 1.7003
4.6765 3.6030 1.7003
4.5387 3.7642 1.7003
4.3956 3.9202 1.7003
4.2472 4.0709 1.7003
4.0938 4.2162 1.7003
3.9355 4.3559 1.7003
3.7726 4.4897 1.7003
3.6052 4.6177 1.7003
3.4337 4.7396 1.7003
3.2581 4.8554 1.7003
3.0788 4.9648 1.7003
2.8959 5.0678 1.7003
2.7096 5.1643 1.7003
2.5203 5.2541 1.7003
0.8444 1.9359 0.6167
0.7743 1.9649 0.6171
0.7031 1.9913 0.6175
0.6310 2.0152 0.6179
0.5582 2.0365 0.6182
0.4846 2.0552 0.6185
0.4104 2.0712 0.6188
0.3356 2.0846 0.6191
0.2605 2.0953 0.6194
0.1850 2.1034 0.6196
0.1092 2.1087 0.6198
0.0333 2.1114 0.6200
-0.0426 2.1113 0.6202
-3.5575 3.5776 1.5970
-3.6864 3.4499 1.5970
-3.8109 3.3177 1.5970
-3.9308 3.1811 1.5970
-4.0459 3.0402 1.5970
-4.1561 2.8954 1.5970
-4.2612 2.7466 1.5970
-4.3612 2.5941 1.5970
-4.4558 2.4381 1.5970
-4.5449 2.2787 1.5970
-4.6285 2.1161 1.5970
-4.7064 1.9505 1.5970
-4.7784 1.7821 1.5970
-4.8446 1.6111 1.5970
-4.9047 1.4377 1.5970
-4.9588 1.2621 1.5970
-5.0066 1.0845 1.5970
-5.0482 0.9051 1.5970
-5.0834 0.7242 1.5970
-5.1122 0.5420 1.5970
-5.1346 0.3586 1.5970
-5.1504 0.1744 1.5970
-5.1597 -0.0105 1.5970
-5.1625 -0.1958 1.5970
-5.1585 -0.3813 1.5970
-5.1480 -0.5668 1.5970
-5.1308 -0.7520 1.5970
-5.1070 -0.9367 1.5970
-5.0766 -1.1206 1.5970
-5.0395 -1.3035 1.5970
-4.9959 -1.4852 1.5970
-4.9456 -1.6654 1.5970
-4.8889 -1.8438 1.5970
-4.8257 -2.0204 1.5970
-4.7561 -2.1947 1.5970
-4.6802 -2.3666 1.5970
-4.5980 -2.5358 1.5970
-4.5096 -2.7021 1.5970
-4.4152 -2.8653 1.5970
-4.3148 -3.0251 1.5970
-4.2086 -3.1813 1.5970
-4.0966 -3.3337 1.5970
-3.9791 -3.4821 1.5970
-3.8561 -3.6263 1.5970
-3.7278 -3.7660 1.5970
-3.5943 -3.9011 1.5970
-3.4559 -4.0313 1.5970
-3.3127 -4.1565 1.5970
-3.1649 -4.2764 1.5970
-3.0126 -4.3910 1.5970
-2.8561 -4.5000 1.5970
-2.6956 -4.6033 1.5970
-2.5313 -4.7006 1.5970
-2.3636 -4.7923 1.5972
-2.1924 -4.8775 1.5972
-2.0180 -4.9563 1.5972
-1.8407 -5.0287 1.5972
-1.6607 -5.0946 1.5972
-1.4783 -5.1538 1.5972
-1.2991 -5.2275 1.6037
-1.1093 -5.2611 1.6000
-0.9787 -5.6322 1.7003
-0.7770 -5.6660 1.7003
-0.5742 -5.6923 1.7003
-0.3704 -5.7111 1.7003
-0.1660 -5.7224 1.7003
0.0386 -5.7261 1.7003
0.2434 -5.7222 1.7003
0.4479 -5.7107 1.7003
0.6518 -5.6917 1.7003
0.8549 -5.6651 1.7003
1.0569 -5.6310 1.7003
1.2575 -5.5895 1.7003
1.4564 -5.5405 1.7003
1.6533 -5.4842 1.7003
1.8480 -5.4207 1.7003
2.0402 -5.3500 1.7003
2.2296 -5.2723 1.7003
2.4159 -5.1876 1.7003
2.5989 -5.0961 1.7003
2.7784 -4.9980 1.7003
2.9540 -4.8933 1.7003
3.1256 -4.7822 1.7003
3.2928 -4.6650 1.7003
3.4556 -4.5417 1.7003
3.6136 -4.4125 1.7003
3.7666 -4.2777 1.7003
3.9145 -4.1374 1.7003
3.8797 -3.8174 1.6260
4.1940 -3.8412 1.7003
4.3253 -3.6858 1.7003
4.4506 -3.5257 1.7003
4.5700 -3.3613 1.7003
4.6831 -3.1928 1.7003
4.7898 -3.0204 1.7003
3.3367 -1.9407 1.1602
3.2738 -1.7505 1.1169
3.2871 -1.6091 1.1022
3.3390 -1.4888 1.1022
3.4301 -1.3844 1.1163
3.5918 -1.3022 1.1543
3.7700 -1.2160 1.1982
3.7817 -1.0719 1.1903
4.1443 -1.0158 1.2936
5.4850 -1.1379 1.7003
5.5157 -0.9396 1.7003
5.5391 -0.7405 1.7003
5.5553 -0.5410 1.7003
5.5642 -0.3412 1.7003
5.5660 -0.1414 1.7003
5.5605 0.0580 1.7003
5.5479 0.2570 1.7003
5.5282 0.4551 1.7003
5.5014 0.6521 1.7003
5.4675 0.8479 1.7003
5.4267 1.0420 1.7003
5.3791 1.2344 1.7003
5.3247 1.4247 1.7003
5.2635 1.6127 1.7003
5.1958 1.7982 1.7003
5.1216 1.9810 1.7003
5.0410 2.1608 1.7003
4.9542 2.3375 1.7003
4.8613 2.5107 1.7003
4.7624 2.6803 1.7003
4.6576 2.8462 1.7003
4.5472 3.0081 1.7003
4.4312 3.1658 1.7003
4.3099 3.3191 1.7003
4.1833 3.4679 1.7003
4.0517 3.6120 1.7003
3.9153 3.7512 1.7003
3.7741 3.8854 1.7003
3.6285 4.0145 1.7003
3.4786 4.1382 1.7003
3.3245 4.2565 1.7003
3.1665 4.3693 1.7003
3.0049 4.4763 1.7003
2.8396 4.5775 1.7003
2.6711 4.6728 1.7003
0.9039 1.7220 0.6148
0.8413 1.7532 0.6152
0.7777 1.7822 0.6156
0.7130 1.8088 0.6160
0.6475 1.8332 0.6163
0.5811 1.8552 0.6167
0.5140 1.8748 0.6170
0.4463 1.8920 0.6173
0.3779 1.9068 0.6176
0.3091 1.9191 0.6178
0.2399 1.9290 0.6180
0.1704 1.9363 0.6183
0.1007 1.9413 0.6185
0.0308 1.9437 0.6186
-0.0392 1.9436 0.6188
-3.2979 3.3157 1.5970
-3.4173 3.1971 1.5970
-3.5325 3.0744 1.5970
-3.6435 2.9476 1.5970
-3.7500 2.8169 1.5970
-3.8519 2.6825 1.5970
-3.9491 2.5444 1.5970
-4.0415 2.4030 1.5970
-4.1289 2.2582 1.5970
-4.2113 2.1103 1.5970
-4.2884 1.9596 1.5970
-4.3603 1.8060 1.5970
-4.4267 1.6499 1.5970
-4.4877 1.4913 1.5970
-4.5430 1.3306 1.5970
-4.5928 1.1678 1.5970
-4.6367 1.0033 1.5970
-4.6748 0.8371 1.5970
-4.7071 0.6695 1.5970
-4.7334 0.5007 1.5970
-4.7537 0.3309 1.5970
-4.7680 0.1603 1.5970
-4.7762 -0.0109 1.5970
-4.7783 -0.1824 1.5970
-4.7743 -0.3541 1.5970
-4.7641 -0.5257 1.5970
-4.7478 -0.6971 1.5970
-4.7254 -0.8679 1.5970
-4.6968 -1.0380 1.5970
-4.6621 -1.2071 1.5970
-4.6213 -1.3751 1.5970
-4.5745 -1.5416 1.5970
-4.5216 -1.7066 1.5970
-4.4628 -1.8697 1.5970
-4.3980 -2.0307 1.5970
-4.3274 -2.1895 1.5970
-4.2511 -2.3458 1.5970
-4.1690 -2.4993 1.5970
-4.0814 -2.6500 1.5970
-3.9883 -2.7975 1.5970
-3.8898 -2.9417 1.5970
-3.7860 -3.0823 1.5970
-3.6771 -3.2192 1.5970
-3.5631 -3.3522 1.5970
-3.4443 -3.4810 1.5970
-3.3208 -3.6056 1.5970
-3.1926 -3.7256 1.5970
-3.0601 -3.8410 1.5970
-2.9234 -3.9516 1.5970
-2.7825 -4.0572 1.5970
-2.6378 -4.1576 1.5970
-2.4894 -4.2527 1.5970
-2.3376 -4.3424 1.5970
-2.1824 -4.4265 1.5970
-2.0241 -4.5048 1.5970
-1.8630 -4.5774 1.5970
-1.6994 -4.6445 1.5972
-1.5331 -4.7051 1.5972
-1.3764 -4.8005 1.6110
-1.1943 -4.8078 1.5972
-1.0881 -5.1628 1.7003
-0.9033 -5.2007 1.7003
-0.7171 -5.2317 1.7003
-0.5298 -5.2559 1.7003
-0.3417 -5.2732 1.7003
-0.1530 -5.2834 1.7003
0.0359 -5.2868 1.7003
0.2249 -5.2831 1.7003
0.4136 -5.2725 1.7003
0.6019 -5.2548 1.7003
0.7893 -5.2303 1.7003
0.9758 -5.1988 1.7003
1.1609 -5.1605 1.7003
1.3445 -5.1153 1.7003
1.5263 -5.0634 1.7003
1.7060 -5.0048 1.7003
1.8834 -4.9397 1.7003
2.0583 -4.8680 1.7003
2.2303 -4.7899 1.7003
2.3993 -4.7056 1.7003
2.5651 -4.6151 1.7003
2.7273 -4.5186 1.7003
2.8858 -4.4162 1.7003
3.0403 -4.3081 1.7003
3.1907 -4.1945 1.7003
3.3367 -4.0754 1.7003
3.4782 -3.9511 1.7003
3.6149 -3.8217 1.7003
3.7467 -3.6875 1.7003
3.8734 -3.5486 1.7003
3.9948 -3.4053 1.7003
4.1108 -3.2577 1.7003
4.2213 -3.1060 1.7003
4.3260 -2.9505 1.7003
4.4250 -2.7914 1.7003
3.3033 -1.9221 1.2432
3.2461 -1.7365 1.1986
3.2602 -1.5967 1.1831
3.3117 -1.4774 1.1830
3.4012 -1.3736 1.1978
3.5579 -1.2908 1.2372
4.9449 -1.5961 1.7003
3.7779 -1.0717 1.2864
5.0356 -1.2355 1.7003
5.0710 -1.0532 1.7003
5.0997 -0.8700 1.7003
5.1218 -0.6860 1.7003
5.1372 -0.5015 1.7003
5.1459 -0.3168 1.7003
5.1480 -0.1320 1.7003
5.1434 0.0525 1.7003
5.1322 0.2365 1.7003
5.1143 0.4198 1.7003
5.0900 0.6021 1.7003
5.0591 0.7833 1.7003
5.0218 0.9630 1.7003
4.9781 1.1411 1.7003
4.9282 1.3173 1.7003
4.8720 1.4915 1.7003
4.8097 1.6633 1.7003
4.7414 1.8327 1.7003
4.6673 1.9993 1.7003
4.5873 2.1630 1.7003
4.5016 2.3236 1.7003
4.4103 2.4809 1.7003
4.3137 2.6347 1.7003
4.2117 2.7848 1.7003
4.1046 2.9311 1.7003
3.9925 3.0733 1.7003
3.8756 3.2114 1.7003
3.7540 3.3452 1.7003
3.6278 3.4744 1.7003
3.4973 3.5990 1.7003
3.3626 3.7188 1.7003
3.2238 3.8337 1.7003
3.0813 3.9436 1.7003
2.9350 4.0483 1.7003
2.7854 4.1477 1.7003
2.6324 4.2418 1.7003
0.8936 1.5626 0.6136
0.8367 1.5936 0.6139
0.7788 1.6225 0.6143
0.7199 1.6493 0.6147
0.6601 1.6739 0.6150
0.5994 1.6965 0.6153
0.5380 1.7168 0.6156
0.4759 1.7350 0.6159
0.4132 1.7509 0.6162
0.3499 1.7646 0.6165
0.2862 1.7760 0.6167
0.2222 1.7851 0.6169
0.1578 1.7920 0.6171
0.0932 1.7965 0.6173
0.0286 1.7988 0.6175
-0.0362 1.7987 0.6176
-3.0705 3.0862 1.5970
-3.1815 2.9757 1.5970
-3.2887 2.8613 1.5970
-3.3918 2.7431 1.5970
-3.4908 2.6213 1.5970
-3.5855 2.4960 1.5970
-3.6758 2.3674 1.5970
-3.7616 2.2356 1.5970
-3.8427 2.1007 1.5970
-3.9192 1.9630 1.5970
-3.9907 1.8225 1.5970
-4.0574 1.6795 1.5970
-4.1189 1.5341 1.5970
-4.1754 1.3865 1.5970
-4.2266 1.2369 1.5970
-4.2726 1.0854 1.5970
-4.3132 0.9322 1.5970
-4.3484 0.7776 1.5970
-4.3781 0.6217 1.5970
-4.4022 0.4646 1.5970
-4.4208 0.3067 1.5970
-4.4338 0.1480 1.5970
-4.4411 -0.0112 1.5970
-4.4427 -0.1707 1.5970
-4.4387 -0.3303 1.5970
-4.4289 -0.4899 1.5970
-4.4134 -0.6491 1.5970
-4.3922 -0.8078 1.5970
-4.3653 -0.9659 1.5970
-4.3327 -1.1230 1.5970
-4.2945 -1.2790 1.5970
-4.2506 -1.4337 1.5970
-4.2012 -1.5868 1.5970
-4.1462 -1.7382 1.5970
-4.0857 -1.8877 1.5970
-4.0199 -2.0351 1.5970
-3.9487 -2.1801 1.5970
-3.8722 -2.3226 1.5970
-3.7905 -2.4623 1.5970
-3.7037 -2.5992 1.5970
-3.6120 -2.7329 1.5970
-3.5154 -2.8633 1.5970
-3.4140 -2.9902 1.5970
-3.3080 -3.1135 1.5970
-3.1975 -3.2329 1.5970
-3.0826 -3.3483 1.5970
-2.9635 -3.4595 1.5970
-2.8403 -3.5665 1.5970
-2.7132 -3.6689 1.5970
-2.5823 -3.7666 1.5970
-2.4479 -3.8596 1.5970
-2.3100 -3.9477 1.5970
-2.1690 -4.0307 1.5970
-2.0249 -4.1085 1.5970
-1.8779 -4.1811 1.5970
-1.7283 -4.2482 1.5970
-1.5763 -4.3099 1.5970
-1.4220 -4.3659 1.5970
-1.2661 -4.4177 1.5976
-1.1792 -4.7493 1.7003
-1.0092 -4.7906 1.7003
-0.8377 -4.8256 1.7003
-0.6649 -4.8543 1.7003
-0.4912 -4.8766 1.7003
-0.3167 -4.8925 1.7003
-0.1417 -4.9019 1.7003
0.0335 -4.9049 1.7003
0.2088 -4.9015 1.7003
0.3839 -4.8916 1.7003
0.5585 -4.8752 1.7003
0.7323 -4.8524 1.7003
0.9053 -4.8232 1.7003
1.0770 -4.7876 1.7003
1.2473 -4.7458 1.7003
1.4159 -4.6977 1.7003
1.5826 -4.6434 1.7003
1.7472 -4.5830 1.7003
1.9094 -4.5166 1.7003
2.0691 -4.4443 1.7003
2.2259 -4.3662 1.7003
2.3796 -4.2823 1.7003
2.5302 -4.1929 1.7003
2.6773 -4.0981 1.7003
2.8207 -3.9979 1.7003
2.9603 -3.8926 1.7003
3.0959 -3.7823 1.7003
3.2273 -3.6671 1.7003
3.3543 -3.5472 1.7003
3.4768 -3.4228 1.7003
3.5945 -3.2941 1.7003
3.7074 -3.1612 1.7003
3.8152 -3.0244 1.7003
3.9179 -2.8838 1.7003
4.0154 -2.7396 1.7003
4.1074 -2.5921 1.7003
3.3077 -1.9256 1.3410
3.2369 -1.7324 1.2875
3.2489 -1.5920 1.2699
3.3002 -1.4731 1.2697
3.3910 -1.3703 1.2862
3.5566 -1.2912 1.3319
4.5920 -1.4833 1.7003
4.6375 -1.3166 1.7003
4.6769 -1.1486 1.7003
4.7101 -0.9794 1.7003
4.7371 -0.8092 1.7003
4.7580 -0.6384 1.7003
4.7727 -0.4670 1.7003
4.7811 -0.2955 1.7003
4.7834 -0.1238 1.7003
4.7794 0.0476 1.7003
4.7694 0.2186 1.7003
4.7532 0.3889 1.7003
4.7309 0.5584 1.7003
4.7025 0.7268 1.7003
4.6682 0.8940 1.7003
4.6280 1.0596 1.7003
4.5819 1.2235 1.7003
4.5300 1.3855 1.7003
4.4724 1.5454 1.7003
4.4093 1.7030 1.7003
4.3406 1.8581 1.7003
4.2665 2.0105 1.7003
4.1871 2.1600 1.7003
4.1026 2.3065 1.7003
4.0129 2.4497 1.7003
3.9184 2.5895 1.7003
3.8190 2.7258 1.7003
3.7149 2.8583 1.7003
3.6063 2.9870 1.7003
3.4934 3.1116 1.7003
3.3762 3.2321 1.7003
3.2549 3.3482 1.7003
3.1298 3.4600 1.7003
3.0008 3.5671 1.7003
2.8683 3.6696 1.7003
2.7323 3.7672 1.7003
2.5931 3.8600 1.7003
0.8828 1.4219 0.6124
0.8310 1.4526 0.6128
0.7781 1.4814 0.6132
0.7243 1.5082 0.6135
0.6695 1.5331 0.6138
0.6139 1.5561 0.6141
0.5575 1.5771 0.6144
0.5004 1.5960 0.6147
0.4426 1.6129 0.6150
0.3843 1.6277 0.6153
0.3255 1.6404 0.6155
0.2662 1.6510 0.6157
0.2066 1.6595 0.6159
0.1468 1.6658 0.6161
0.0868 1.6701 0.6163
0.0266 1.6721 0.6164
-0.0336 1.6720 0.6166
-2.8694 2.8832 1.5970
-2.9731 2.7798 1.5970
-3.0731 2.6728 1.5970
-3.1693 2.5623 1.5970
-3.2617 2.4483 1.5970
-3.3500 2.3312 1.5970
-3.4342 2.2109 1.5970
-3.5142 2.0876 1.5970
-3.5899 1.9616 1.5970
-3.6611 1.8328 1.5970
-3.7277 1.7015 1.5970
-3.7898 1.5678 1.5970
-3.8471 1.4319 1.5970
-3.8996 1.2940 1.5970
-3.9472 1.1542 1.5970
-3.9899 1.0126 1.5970
-4.0276 0.8695 1.5970
-4.0602 0.7251 1.5970
-4.0877 0.5794 1.5970
-4.1100 0.4327 1.5970
-4.1271 0.2852 1.5970
-4.1389 0.1371 1.5970
-4.1455 -0.0115 1.5970
-4.1467 -0.1604 1.5970
-4.1427 -0.3094 1.5970
-4.1333 -0.4582 1.5970
-4.1185 -0.6068 1.5970
-4.0985 -0.7549 1.5970
-4.0731 -0.9023 1.5970
-4.0425 -1.0488 1.5970
-4.0065 -1.1943 1.5970
-3.9653 -1.3385 1.5970
-3.9189 -1.4813 1.5970
-3.8674 -1.6225 1.5970
-3.8108 -1.7618 1.5970
-3.7491 -1.8991 1.5970
-3.6824 -2.0343 1.5970
-3.6108 -2.1670 1.5970
-3.5345 -2.2972 1.5970
-3.4533 -2.4246 1.5970
-3.3676 -2.5491 1.5970
-3.2773 -2.6706 1.5970
-3.1826 -2.7887 1.5970
-3.0836 -2.9035 1.5970
-2.9804 -3.0147 1.5970
-2.8731 -3.1221 1.5970
-2.7619 -3.2256 1.5970
-2.6470 -3.3251 1.5970
-2.5284 -3.4203 1.5970
-2.4063 -3.5113 1.5970
-2.2809 -3.5978 1.5970
-2.1524 -3.6797 1.5970
-2.0208 -3.7568 1.5970
-1.8865 -3.8292 1.5970
-1.7495 -3.8967 1.5970
-1.6101 -3.9591 1.5970
-1.4684 -4.0164 1.5970
-1.3329 -4.0940 1.6071
-1.2552 -4.3813 1.7003
-1.0983 -4.4254 1.7003
-0.9399 -4.4637 1.7003
-0.7801 -4.4962 1.7003
-0.6192 -4.5228 1.7003
-0.4573 -4.5435 1.7003
-0.2948 -4.5582 1.7003
-0.1318 -4.5670 1.7003
0.0314 -4.5697 1.7003
0.1947 -4.5664 1.7003
0.3577 -4.5571 1.7003
0.5204 -4.5419 1.7003
0.6823 -4.5206 1.7003
0.8434 -4.4934 1.7003
1.0033 -4.4603 1.7003
1.1619 -4.4214 1.7003
1.3190 -4.3766 1.7003
1.4743 -4.3261 1.7003
1.6276 -4.2699 1.7003
1.7787 -4.2081 1.7003
1.9274 -4.1408 1.7003
2.0735 -4.0681 1.7003
2.2168 -3.9901 1.7003
2.3571 -3.9069 1.7003
2.4942 -3.8186 1.7003
2.6279 -3.7254 1.7003
2.7581 -3.6274 1.7003
2.8845 -3.5248 1.7003
3.0070 -3.4176 1.7003
3.1254 -3.3060 1.7003
3.2396 -3.1902 1.7003
3.3494 -3.0704 1.7003
3.4547 -2.9468 1.7003
3.5554 -2.8194 1.7003
3.6513 -2.6885 1.7003
3.7423 -2.5543 1.7003
3.8282 -2.4169 1.7003
3.9091 -2.2767 1.7003
3.2505 -1.7405 1.3870
3.2557 -1.5961 1.3652
3.3067 -1.4768 1.3647
3.4033 -1.3761 1.3846
3.6164 -1.3138 1.4525
4.2815 -1.3841 1.7003
4.3242 -1.2288 1.7003
4.3612 -1.0721 1.7003
4.3924 -0.9144 1.7003
4.4180 -0.7558 1.7003
4.4377 -0.5965 1.7003
4.4516 -0.4367 1.7003
4.4598 -0.2767 1.7003
4.4622 -0.1166 1.7003
4.4589 0.0433 1.7003
4.4497 0.2028 1.7003
4.4349 0.3617 1.7003
4.4144 0.5199 1.7003
4.3883 0.6771 1.7003
4.3565 0.8331 1.7003
4.3193 0.9878 1.7003
4.2765 1.1408 1.7003
4.2284 1.2921 1.7003
4.1749 1.4415 1.7003
4.1162 1.5887 1.7003
4.0524 1.7335 1.7003
3.9835 1.8759 1.7003
3.9096 2.0156 1.7003
3.8309 2.1525 1.7003
3.7474 2.2864 1.7003
3.6593 2.4171 1.7003
3.5667 2.5445 1.7003
3.4698 2.6684 1.7003
3.3686 2.7888 1.7003
3.2632 2.9053 1.7003
3.1539 3.0180 1.7003
3.0408 3.1267 1.7003
2.9240 3.2312 1.7003
2.8037 3.3315 1.7003
2.6800 3.4274 1.7003
2.5531 3.5188 1.7003
0.8714 1.2966 0.6114
0.8241 1.3269 0.6118
0.7757 1.3555 0.6121
0.7264 1.3824 0.6125
0.6761 1.4075 0.6128
0.6250 1.4307 0.6131
0.5731 1.4522 0.6134
0.5204 1.4717 0.6137
0.4671 1.4894 0.6139
0.4132 1.5052 0.6142
0.3588 1.5190 0.6144
0.3039 1.5308 0.6146
0.2486 1.5407 0.6148
0.1930 1.5487 0.6150
0.1371 1.5546 0.6152
0.0811 1.5585 0.6154
0.0249 1.5604 0.6155
-0.0312 1.5604 0.6156
-2.6901 2.7023 1.5970
-2.7872 2.6052 1.5970
-2.8809 2.5048 1.5970
-2.9710 2.4011 1.5970
-3.0575 2.2942 1.5970
-3.1402 2.1843 1.5970
-3.2190 2.0715 1.5970
-3.2938 1.9558 1.5970
-3.3646 1.8376 1.5970
-3.4312 1.7168 1.5970
-3.4935 1.5937 1.5970
-3.5514 1.4683 1.5970
-3.6050 1.3409 1.5970
-3.6540 1.2116 1.5970
-3.6985 1.0805 1.5970
-3.7383 0.9478 1.5970
-3.7734 0.8137 1.5970
-3.8037 0.6783 1.5970
-3.8293 0.5418 1.5970
-3.8499 0.4044 1.5970
-3.8657 0.2662 1.5970
-3.8766 0.1274 1.5970
-3.8825 -0.0118 1.5970
-3.8835 -0.1512 1.5970
-3.8794 -0.2907 1.5970
-3.8704 -0.4301 1.5970
-3.8564 -0.5692 1.5970
-3.8374 -0.7078 1.5970
-3.8134 -0.8458 1.5970
-3.7845 -0.9829 1.5970
-3.7506 -1.1191 1.5970
-3.7118 -1.2540 1.5970
-3.6682 -1.3876 1.5970
-3.6197 -1.5196 1.5970
-3.5665 -1.6500 1.5970
-3.5086 -1.7784 1.5970
-3.4460 -1.9047 1.5970
-3.3788 -2.0289 1.5970
-3.3071 -2.1506 1.5970
-3.2311 -2.2697 1.5970
-3.1507 -2.3861 1.5970
-3.0660 -2.4996 1.5970
-2.9773 -2.6100 1.5970
-2.8845 -2.7172 1.5970
-2.7878 -2.8210 1.5970
-2.6873 -2.9214 1.5970
-2.5832 -3.0181 1.5970
-2.4756 -3.1110 1.5970
-2.3645 -3.1999 1.5970
-2.2503 -3.2848 1.5970
-2.1329 -3.3656 1.5970
-2.0126 -3.4420 1.5970
-1.8895 -3.5141 1.5970
-1.7638 -3.5816 1.5970
-1.6357 -3.6445 1.5970
-1.5053 -3.7028 1.5970
-1.3868 -3.7947 1.6134
-1.3183 -4.0508 1.7003
-1.1733 -4.0972 1.7003
-1.0266 -4.1384 1.7003
-0.8785 -4.1741 1.7003
-0.7291 -4.2044 1.7003
-0.5786 -4.2292 1.7003
-0.4273 -4.2484 1.7003
-0.2754 -4.2621 1.7003
-0.1230 -4.2702 1.7003
0.0296 -4.2728 1.7003
0.1822 -4.2696 1.7003
0.3346 -4.2609 1.7003
0.4866 -4.2466 1.7003
0.6380 -4.2268 1.7003
0.7885 -4.2013 1.7003
0.9381 -4.1704 1.7003
1.0863 -4.1340 1.7003
1.2332 -4.0922 1.7003
1.3783 -4.0450 1.7003
1.5217 -3.9925 1.7003
1.6629 -3.9348 1.7003
1.8020 -3.8719 1.7003
1.9386 -3.8040 1.7003
2.0726 -3.7312 1.7003
2.2038 -3.6535 1.7003
2.3320 -3.5711 1.7003
2.4570 -3.4840 1.7003
2.5788 -3.3925 1.7003
2.6970 -3.2966 1.7003
2.8117 -3.1965 1.7003
2.9225 -3.0922 1.7003
3.0294 -2.9841 1.7003
3.1322 -2.8722 1.7003
3.2308 -2.7567 1.7003
3.3251 -2.6377 1.7003
3.4149 -2.5154 1.7003
3.5001 -2.3899 1.7003
3.5806 -2.2616 1.7003
3.6564 -2.1305 1.7003
3.3091 -1.7727 1.5095
3.2904 -1.6140 1.4749
3.3409 -1.4929 1.4738
3.4564 -1.3985 1.5031
3.9606 -1.4398 1.7003
4.0060 -1.2960 1.7003
4.0461 -1.1508 1.7003
4.0810 -1.0043 1.7003
4.1104 -0.8567 1.7003
4.1345 -0.7083 1.7003
4.1533 -0.5593 1.7003
4.1665 -0.4098 1.7003
4.1744 -0.2600 1.7003
4.1769 -0.1103 1.7003
4.1740 0.0394 1.7003
4.1658 0.1888 1.7003
4.1521 0.3376 1.7003
4.1332 0.4857 1.7003
4.1089 0.6329 1.7003
4.0795 0.7791 1.7003
4.0448 0.9239 1.7003
4.0050 1.0673 1.7003
3.9602 1.2090 1.7003
3.9103 1.3490 1.7003
3.8556 1.4869 1.7003
3.7960 1.6227 1.7003
3.7316 1.7562 1.7003
3.6627 1.8872 1.7003
3.5891 2.0155 1.7003
3.5111 2.1411 1.7003
3.4288 2.2636 1.7003
3.3422 2.3831 1.7003
3.2515 2.4994 1.7003
3.1568 2.6123 1.7003
3.0583 2.7216 1.7003
2.9560 2.8274 1.7003
2.8501 2.9294 1.7003
2.7408 3.0275 1.7003
2.6281 3.1216 1.7003
0.9016 1.1525 0.6102
0.8594 1.1841 0.6105
0.8162 1.2140 0.6109
0.7719 1.2424 0.6112
0.7266 1.2692 0.6115
0.6804 1.2943 0.6118
0.6333 1.3178 0.6121
0.5855 1.3396 0.6124
0.5368 1.3597 0.6127
0.4875 1.3780 0.6130
0.4376 1.3946 0.6132
0.3871 1.4093 0.6135
0.3361 1.4223 0.6137
0.2847 1.4334 0.6139
0.2329 1.4426 0.6141
0.1808 1.4501 0.6143
0.1285 1.4556 0.6144
0.0760 1.4593 0.6146
0.0234 1.4611 0.6147
-0.0292 1.4610 0.6148
-2.5652 2.5760 1.6198
-2.6203 2.4485 1.5970
-2.7343 2.3766 1.6124
-2.7930 2.2564 1.5970
-2.8742 2.1559 1.5970
-2.9518 2.0525 1.5970
-3.0258 1.9463 1.5970
-3.0960 1.8376 1.5970
-3.1624 1.7263 1.5970
-3.2249 1.6127 1.5970
-3.2833 1.4969 1.5970
-3.3376 1.3791 1.5970
-3.3878 1.2592 1.5970
-3.4337 1.1377 1.5970
-3.4753 1.0144 1.5970
-3.5126 0.8897 1.5970
-3.5454 0.7636 1.5970
-3.5737 0.6364 1.5970
-3.5976 0.5081 1.5970
-3.6168 0.3790 1.5970
-3.6315 0.2492 1.5970
-3.6415 0.1188 1.5970
-3.6469 -0.0120 1.5970
-3.6476 -0.1430 1.5970
-3.6436 -0.2740 1.5970
-3.6349 -0.4049 1.5970
-3.6216 -0.5355 1.5970
-3.6035 -0.6657 1.5970
-3.5808 -0.7952 1.5970
-3.5535 -0.9239 1.5970
-3.5215 -1.0517 1.5970
-3.4849 -1.1784 1.5970
-3.4437 -1.3037 1.5970
-3.3980 -1.4276 1.5970
-3.3479 -1.5499 1.5970
-3.2933 -1.6703 1.5970
-3.2344 -1.7889 1.5970
-3.1712 -1.9053 1.5970
-3.1038 -2.0194 1.5970
-3.0322 -2.1311 1.5970
-2.9566 -2.2402 1.5970
-2.8771 -2.3466 1.5970
-2.7936 -2.4501 1.5970
-2.7064 -2.5506 1.5970
-2.6156 -2.6479 1.5970
-2.5212 -2.7420 1.5970
-2.4234 -2.8325 1.5970
-2.3223 -2.9196 1.5970
-2.2181 -3.0029 1.5970
-2.1108 -3.0825 1.5970
-2.0006 -3.1581 1.5970
-1.8877 -3.2297 1.5970
-1.7722 -3.2972 1.5970
-1.6673 -3.3870 1.6097
-1.5340 -3.4193 1.5970
-1.4338 -3.5284 1.6221
-1.3705 -3.7517 1.7003
-1.2362 -3.8001 1.7003
-1.1002 -3.8435 1.7003
-0.9626 -3.8820 1.7003
-0.8236 -3.9155 1.7003
-0.6835 -3.9438 1.7003
-0.5424 -3.9669 1.7003
-0.4005 -3.9850 1.7003
-0.2581 -3.9977 1.7003
-0.1152 -4.0053 1.7003
0.0279 -4.0076 1.7003
0.1710 -4.0047 1.7003
0.3139 -3.9965 1.7003
0.4565 -3.9831 1.7003
0.5984 -3.9644 1.7003
0.7396 -3.9406 1.7003
0.8798 -3.9116 1.7003
1.0188 -3.8774 1.7003
1.1565 -3.8382 1.7003
1.2927 -3.7940 1.7003
1.4271 -3.7448 1.7003
1.5596 -3.6907 1.7003
1.6900 -3.6318 1.7003
1.8181 -3.5682 1.7003
1.9438 -3.5000 1.7003
2.0668 -3.4272 1.7003
2.1871 -3.3500 1.7003
2.3044 -3.2684 1.7003
2.4187 -3.1826 1.7003
2.5296 -3.0928 1.7003
2.6372 -2.9990 1.7003
2.7412 -2.9013 1.7003
2.8416 -2.8000 1.7003
2.9381 -2.6951 1.7003
3.0307 -2.5868 1.7003
3.1192 -2.4753 1.7003
3.2036 -2.3606 1.7003
3.2837 -2.2431 1.7003
3.3594 -2.1227 1.7003
3.4306 -1.9998 1.7003
3.4973 -1.8744 1.7003
3.4305 -1.6836 1.6388
3.4673 -1.5503 1.6301
3.6691 -1.4855 1.7003
3.7168 -1.3521 1.7003
3.7596 -1.2172 1.7003
3.7974 -1.0810 1.7003
3.8303 -0.9436 1.7003
3.8582 -0.8051 1.7003
3.8810 -0.6659 1.7003
3.8987 -0.5260 1.7003
3.9114 -0.3857 1.7003
3.9190 -0.2452 1.7003
3.9216 -0.1045 1.7003
3.9191 0.0360 1.7003
3.9115 0.1762 1.7003
3.8989 0.3160 1.7003
3.8813 0.4551 1.7003
3.8587 0.5934 1.7003
3.8313 0.7306 1.7003
3.7989 0.8667 1.7003
3.7618 1.0014 1.7003
3.7198 1.1346 1.7003
3.6732 1.2661 1.7003
3.6220 1.3957 1.7003
3.5662 1.5234 1.7003
3.5059 1.6489 1.7003
3.4413 1.7720 1.7003
3.3723 1.8927 1.7003
3.2992 2.0107 1.7003
3.2220 2.1260 1.7003
3.1408 2.2384 1.7003
3.0557 2.3477 1.7003
2.9669 2.4539 1.7003
2.8744 2.5569 1.7003
2.7784 2.6563 1.7003
2.6790 2.7523 1.7003
2.5763 2.8446 1.7003
0.8855 1.0513 0.6094
0.8469 1.0823 0.6097
0.8073 1.1118 0.6101
0.7667 1.1400 0.6104
0.7251 1.1667 0.6107
0.6826 1.1918 0.6110
0.6392 1.2155 0.6113
0.5950 1.2375 0.6116
0.5500 1.2580 0.6118
0.5043 1.2769 0.6121
0.4580 1.2941 0.6124
0.4111 1.3096 0.6126
0.3637 1.3235 0.6128
0.3158 1.3356 0.6130
0.2675 1.3461 0.6132
0.2188 1.3548 0.6134
0.1699 1.3617 0.6136
0.1208 1.3669 0.6137
0.0715 1.3704 0.6139
0.0221 1.3721 0.6140
-0.0274 1.3720 0.6141
-2.5377 2.5477 1.7003
-2.5216 2.3554 1.6307
-2.5524 2.2177 1.5970
-2.6321 2.1257 1.5970
-2.7085 2.0309 1.5970
-2.7816 1.9333 1.5970
-2.8512 1.8332 1.5970
-2.9173 1.7307 1.5970
-2.9798 1.6258 1.5970
-3.0385 1.5187 1.5970
-3.0935 1.4096 1.5970
-3.1445 1.2984 1.5970
-3.1917 1.1855 1.5970
-3.2348 1.0709 1.5970
-3.2739 0.9548 1.5970
-3.3088 0.8372 1.5970
-3.3396 0.7185 1.5970
-3.3662 0.5986 1.5970
-3.3884 0.4777 1.5970
-3.4064 0.3561 1.5970
-3.4201 0.2338 1.5970
-3.4294 0.1109 1.5970
-3.4343 -0.0122 1.5970
-3.4348 -0.1355 1.5970
-3.4309 -0.2589 1.5970
-3.4225 -0.3822 1.5970
-3.4098 -0.5051 1.5970
-3.3926 -0.6276 1.5970
-3.3711 -0.7496 1.5970
-3.3452 -0.8707 1.5970
-3.3149 -0.9910 1.5970
-3.2803 -1.1102 1.5970
-3.2414 -1.2281 1.5970
-3.1983 -1.3447 1.5970
-3.1509 -1.4597 1.5970
-3.0994 -1.5730 1.5970
-3.0438 -1.6845 1.5970
-2.9842 -1.7939 1.5970
-2.9206 -1.9012 1.5970
-2.8532 -2.0063 1.5970
-2.7819 -2.1089 1.5970
-2.7069 -2.2089 1.5970
-2.6283 -2.3062 1.5970
-2.5462 -2.4006 1.5970
-2.4606 -2.4921 1.5970
-2.3717 -2.5805 1.5970
-2.2796 -2.6656 1.5970
-2.1844 -2.7474 1.5970
-2.0863 -2.8257 1.5970
-1.9853 -2.9004 1.5970
-1.8816 -2.9714 1.5970
-1.7753 -3.0386 1.5970
-1.6666 -3.1020 1.5970
-1.5556 -3.1614 1.5970
-1.4752 -3.2896 1.6332
-1.4132 -3.4792 1.7003
-1.2887 -3.5292 1.7003
-1.1623 -3.5746 1.7003
-1.0344 -3.6154 1.7003
-0.9050 -3.6515 1.7003
-0.7743 -3.6829 1.7003
-0.6426 -3.7094 1.7003
-0.5099 -3.7312 1.7003
-0.3764 -3.7480 1.7003
-0.2425 -3.7600 1.7003
-0.1081 -3.7671 1.7003
0.0264 -3.7692 1.7003
0.1610 -3.7664 1.7003
0.2954 -3.7587 1.7003
0.4294 -3.7460 1.7003
0.5628 -3.7285 1.7003
0.6956 -3.7061 1.7003
0.8274 -3.6788 1.7003
0.9581 -3.6467 1.7003
1.0876 -3.6099 1.7003
1.2156 -3.5683 1.7003
1.3420 -3.5221 1.7003
1.4666 -3.4713 1.7003
1.5892 -3.4160 1.7003
1.7097 -3.3562 1.7003
1.8279 -3.2921 1.7003
1.9437 -3.2237 1.7003
2.0568 -3.1511 1.7003
2.1672 -3.0745 1.7003
2.2747 -2.9939 1.7003
2.3791 -2.9095 1.7003
2.4803 -2.8213 1.7003
2.5782 -2.7295 1.7003
2.6726 -2.6343 1.7003
2.7635 -2.5357 1.7003
2.8507 -2.4340 1.7003
2.9340 -2.3291 1.7003
3.0135 -2.2214 1.7003
3.0889 -2.1109 1.7003
3.1602 -1.9978 1.7003
3.2273 -1.8822 1.7003
3.2902 -1.7643 1.7003
3.3487 -1.6443 1.7003
3.4027 -1.5224 1.7003
3.4523 -1.3986 1.7003
3.4973 -1.2732 1.7003
3.5377 -1.1463 1.7003
3.5735 -1.0182 1.7003
3.6045 -0.8889 1.7003
3.6309 -0.7586 1.7003
3.6525 -0.6276 1.7003
3.6694 -0.4960 1.7003
3.6815 -0.3640 1.7003
3.6889 -0.2317 1.7003
3.6914 -0.0993 1.7003
3.6892 0.0329 1.7003
3.6823 0.1649 1.7003
3.6706 0.2965 1.7003
3.6542 0.4275 1.7003
3.6332 0.5577 1.7003
3.6075 0.6869 1.7003
3.5772 0.8151 1.7003
3.5424 0.9420 1.7003
3.5030 1.0675 1.7003
3.4593 1.1914 1.7003
3.4112 1.3135 1.7003
3.3588 1.4338 1.7003
3.3022 1.5520 1.7003
3.2415 1.6681 1.7003
3.1767 1.7818 1.7003
3.1079 1.8931 1.7003
3.0353 2.0018 1.7003
2.9590 2.1077 1.7003
2.8789 2.2108 1.7003
2.7954 2.3110 1.7003
2.7083 2.4080 1.7003
2.6180 2.5019 1.7003
0.9032 0.9275 0.6083
0.8691 0.9592 0.6087
0.8339 0.9897 0.6090
0.7976 1.0188 0.6093
0.7604 1.0467 0.6096
0.7221 1.0732 0.6099
0.6829 1.0983 0.6102
0.6429 1.1220 0.6105
0.6020 1.1443 0.6108
0.5604 1.1651 0.6111
0.5180 1.1843 0.6113
0.4750 1.2021 0.6116
0.4314 1.2183 0.6118
0.3872 1.2330 0.6120
0.3425 1.2460 0.6122
0.2974 1.2575 0.6124
0.2519 1.2673 0.6126
0.2061 1.2755 0.6128
0.1601 1.2820 0.6129
0.1138 1.2869 0.6131
0.0674 1.2902 0.6132
0.0208 1.2918 0.6133
-0.0257 1.2917 0.6134
-0.8625 0.8656 0.6119
-0.8933 0.8342 0.6117
-2.4811 2.1550 1.6437
-2.4859 2.0069 1.5970
-2.5580 1.9172 1.5970
-2.6360 1.8314 1.6025
-2.6926 1.7305 1.5970
-2.7549 1.6336 1.5970
-2.8138 1.5345 1.5970
-2.8692 1.4333 1.5970
-2.9210 1.3302 1.5970
-2.9691 1.2252 1.5970
-3.0135 1.1185 1.5970
-3.0542 1.0103 1.5970
-3.0909 0.9006 1.5970
-3.1238 0.7896 1.5970
-3.1527 0.6774 1.5970
-3.1777 0.5642 1.5970
-3.1986 0.4501 1.5970
-3.2154 0.3352 1.5970
-3.2282 0.2198 1.5970
-3.2368 0.1039 1.5970
-3.2413 -0.0124 1.5970
-3.2416 -0.1288 1.5970
-3.2378 -0.2452 1.5970
-3.2298 -0.3615 1.5970
-3.2177 -0.4776 1.5970
-3.2013 -0.5932 1.5970
-3.1809 -0.7082 1.5970
-3.1563 -0.8225 1.5970
-3.1276 -0.9359 1.5970
-3.0948 -1.0483 1.5970
-3.0580 -1.1595 1.5970
-3.0171 -1.2694 1.5970
-2.9723 -1.3779 1.5970
-2.9236 -1.4847 1.5970
-2.8711 -1.5898 1.5970
-2.8147 -1.6930 1.5970
-2.7546 -1.7942 1.5970
-2.6909 -1.8932 1.5970
-2.6236 -1.9898 1.5970
-2.5527 -2.0841 1.5970
-2.4785 -2.1758 1.5970
-2.4009 -2.2648 1.5970
-2.3202 -2.3509 1.5970
-2.2363 -2.4342 1.5970
-2.1494 -2.5144 1.5970
-2.0595 -2.5914 1.5970
-1.9669 -2.6651 1.5970
-1.8717 -2.7355 1.5970
-1.7772 -2.8077 1.6001
-1.6736 -2.8657 1.5970
-1.5711 -2.9253 1.5970
-1.5118 -3.0735 1.6465
-1.4476 -3.2294 1.7003
-1.3320 -3.2807 1.7003
-1.2146 -3.3277 1.7003
-1.0955 -3.3705 1.7003
-0.9749 -3.4089 1.7003
-0.8529 -3.4429 1.7003
-0.7297 -3.4724 1.7003
-0.6055 -3.4973 1.7003
-0.4804 -3.5178 1.7003
-0.3546 -3.5336 1.7003
-0.2284 -3.5449 1.7003
-0.1017 -3.5515 1.7003
0.0251 -3.5535 1.7003
0.1519 -3.5508 1.7003
0.2786 -3.5435 1.7003
0.4049 -3.5316 1.7003
0.5306 -3.5150 1.7003
0.6557 -3.4939 1.7003
0.7800 -3.4682 1.7003
0.9032 -3.4380 1.7003
1.0252 -3.4033 1.7003
1.1459 -3.3641 1.7003
1.2650 -3.3206 1.7003
1.3825 -3.2727 1.7003
1.4981 -3.2206 1.7003
1.6117 -3.1643 1.7003
1.7231 -3.1039 1.7003
1.8322 -3.0395 1.7003
1.9389 -2.9711 1.7003
2.0430 -2.8990 1.7003
2.1443 -2.8231 1.7003
2.2428 -2.7435 1.7003
2.3383 -2.6605 1.7003
2.4306 -2.5741 1.7003
2.5197 -2.4843 1.7003
2.6054 -2.3915 1.7003
2.6877 -2.2956 1.7003
2.7663 -2.1968 1.7003
2.8413 -2.0953 1.7003
2.9125 -1.9912 1.7003
2.9799 -1.8846 1.7003
3.0433 -1.7757 1.7003
3.1026 -1.6646 1.7003
3.1579 -1.5515 1.7003
3.2090 -1.4366 1.7003
3.2558 -1.3199 1.7003
3.2984 -1.2017 1.7003
3.3366 -1.0821 1.7003
3.3705 -0.9612 1.7003
3.3999 -0.8393 1.7003
3.4249 -0.7165 1.7003
3.4455 -0.5930 1.7003
3.4616 -0.4688 1.7003
3.4731 -0.3443 1.7003
3.4802 -0.2195 1.7003
3.4828 -0.0947 1.7003
3.4808 0.0301 1.7003
3.4744 0.1547 1.7003
3.4636 0.2788 1.7003
3.4482 0.4024 1.7003
3.4285 0.5253 1.7003
3.4044 0.6473 1.7003
3.3760 0.7683 1.7003
3.3433 0.8881 1.7003
3.3063 1.0065 1.7003
3.2652 1.1235 1.7003
3.2199 1.2389 1.7003
3.1706 1.3524 1.7003
3.1173 1.4641 1.7003
3.0601 1.5737 1.7003
2.9990 1.6811 1.7003
2.9343 1.7863 1.7003
2.8658 1.8889 1.7003
2.7938 1.9891 1.7003
2.7184 2.0865 1.7003
2.6396 2.1811 1.7003
2.5575 2.2728 1.7003
0.8836 0.8440 0.6077
0.8525 0.8751 0.6080
0.8204 0.9050 0.6083
0.7871 0.9337 0.6087
0.7529 0.9613 0.6090
0.7177 0.9876 0.6093
0.6816 1.0126 0.6095
0.6446 1.0363 0.6098
0.6068 1.0587 0.6101
0.5682 1.0797 0.6103
0.5290 1.0993 0.6106
0.4890 1.1175 0.6108
0.4484 1.1343 0.6111
0.4072 1.1496 0.6113
0.3655 1.1634 0.6115
0.3234 1.1757 0.6117
0.2808 1.1865 0.6119
0.2379 1.1958 0.6121
0.1946 1.2035 0.6122
0.1511 1.2097 0.6124
0.1075 1.2143 0.6125
0.0636 1.2174 0.6126
0.0197 1.2189 0.6127
-0.0242 1.2188 0.6128
-0.8156 0.8182 0.6114
-0.8447 0.7885 0.6112
-0.8727 0.7578 0.6110
-0.8996 0.7260 0.6108
-2.4296 1.8203 1.6031
-2.4856 1.7262 1.5970
-2.5477 1.6366 1.5970
-2.6066 1.5449 1.5970
-2.6622 1.4511 1.5970
-2.7146 1.3553 1.5970
-2.7635 1.2577 1.5970
-2.8089 1.1583 1.5970
-2.8509 1.0574 1.5970
-2.8892 0.9549 1.5970
-2.9239 0.8511 1.5970
-2.9549 0.7461 1.5970
-2.9821 0.6399 1.5970
-3.0056 0.5328 1.5970
-3.0253 0.4249 1.5970
-3.0411 0.3162 1.5970
-3.0530 0.2070 1.5970
-3.0611 0.0974 1.5970
-3.0652 -0.0126 1.5970
-3.0654 -0.1226 1.5970
-3.0617 -0.2328 1.5970
-3.0540 -0.3427 1.5970
-3.0424 -0.4524 1.5970
-3.0268 -0.5617 1.5970
-3.0074 -0.6704 1.5970
-2.9840 -0.7785 1.5970
-2.9567 -0.8857 1.5970
-2.9256 -0.9919 1.5970
-2.8907 -1.0970 1.5970
-2.8520 -1.2009 1.5970
-2.8095 -1.3033 1.5970
-2.7634 -1.4043 1.5970
-2.7136 -1.5036 1.5970
-2.6602 -1.6010 1.5970
-2.6033 -1.6966 1.5970
-2.5430 -1.7901 1.5970
-2.4793 -1.8814 1.5970
-2.4123 -1.9704 1.5970
-2.3420 -2.0570 1.5970
-2.2687 -2.1410 1.5970
-2.1922 -2.2223 1.5970
-2.1129 -2.3009 1.5970
-2.0307 -2.3766 1.5970
-1.9458 -2.4493 1.5970
-1.8582 -2.5189 1.5970
-1.7682 -2.5853 1.5970
-1.6757 -2.6484 1.5970
-1.5881 -2.7205 1.6043
-1.5471 -2.8819 1.6649
-1.4747 -2.9993 1.7003
-1.3673 -3.0516 1.7003
-1.2581 -3.1000 1.7003
-1.1472 -3.1444 1.7003
-1.0346 -3.1847 1.7003
-0.9207 -3.2209 1.7003
-0.8054 -3.2529 1.7003
-0.6891 -3.2807 1.7003
-0.5717 -3.3043 1.7003
-0.4536 -3.3235 1.7003
-0.3348 -3.3385 1.7003
-0.2155 -3.3491 1.7003
-0.0959 -3.3553 1.7003
0.0239 -3.3571 1.7003
0.1436 -3.3546 1.7003
0.2633 -3.3477 1.7003
0.3825 -3.3364 1.7003
0.5013 -3.3208 1.7003
0.6195 -3.3008 1.7003
0.7368 -3.2766 1.7003
0.8532 -3.2480 1.7003
0.9685 -3.2152 1.7003
1.0824 -3.1783 1.7003
1.1950 -3.1372 1.7003
1.3059 -3.0920 1.7003
1.4151 -3.0428 1.7003
1.5224 -2.9897 1.7003
1.6277 -2.9327 1.7003
1.7308 -2.8719 1.7003
1.8316 -2.8073 1.7003
1.9299 -2.7392 1.7003
2.0257 -2.6676 1.7003
2.1187 -2.5925 1.7003
2.2090 -2.5141 1.7003
2.2962 -2.4325 1.7003
2.3805 -2.3478 1.7003
2.4615 -2.2601 1.7003
2.5393 -2.1696 1.7003
2.6137 -2.0764 1.7003
2.6846 -1.9805 1.7003
2.7519 -1.8822 1.7003
2.8156 -1.7815 1.7003
2.8756 -1.6787 1.7003
2.9318 -1.5738 1.7003
2.9841 -1.4669 1.7003
3.0324 -1.3584 1.7003
3.0768 -1.2482 1.7003
3.1172 -1.1365 1.7003
3.1534 -1.0235 1.7003
3.1855 -0.9093 1.7003
3.2135 -0.7942 1.7003
3.2372 -0.6781 1.7003
3.2568 -0.5614 1.7003
3.2721 -0.4441 1.7003
3.2831 -0.3264 1.7003
3.2899 -0.2084 1.7003
3.2925 -0.0904 1.7003
3.2908 0.0276 1.7003
3.2849 0.1453 1.7003
3.2747 0.2627 1.7003
3.2604 0.3796 1.7003
3.2419 0.4958 1.7003
3.2192 0.6112 1.7003
3.1924 0.7256 1.7003
3.1616 0.8389 1.7003
3.1268 0.9509 1.7003
3.0880 1.0616 1.7003
3.0453 1.1707 1.7003
2.9988 1.2782 1.7003
2.9485 1.3838 1.7003
2.8945 1.4876 1.7003
2.8369 1.5892 1.7003
2.7757 1.6888 1.7003
2.7111 1.7859 1.7003
2.6431 1.8807 1.7003
2.5718 1.9729 1.7003
0.8912 0.7361 0.6068
0.8640 0.7675 0.6071
0.8357 0.7979 0.6074
0.8063 0.8272 0.6077
0.7759 0.8555 0.6080
0.7444 0.8827 0.6083
0.7121 0.9088 0.6086
0.6788 0.9336 0.6089
0.6446 0.9573 0.6092
0.6097 0.9797 0.6094
0.5739 1.0009 0.6097
0.5375 1.0208 0.6099
0.5003 1.0393 0.6102
0.4625 1.0565 0.6104
0.4241 1.0724 0.6106
0.3852 1.0868 0.6108
0.3457 1.0999 0.6110
0.3059 1.1116 0.6112
0.2656 1.1218 0.6114
0.2250 1.1305 0.6115
0.1841 1.1378 0.6117
0.1430 1.1437 0.6118
0.1017 1.1481 0.6120
0.0602 1.1510 0.6121
0.0187 1.1524 0.6122
-0.0228 1.1523 0.6123
-0.7725 0.7748 0.6109
-0.8001 0.7466 0.6107
-0.8266 0.7175 0.6106
-0.8521 0.6874 0.6104
-0.8765 0.6564 0.6102
-0.8998 0.6246 0.6100
-2.4147 1.5504 1.5970
-2.4704 1.4635 1.5970
-2.5231 1.3745 1.5970
-2.5726 1.2837 1.5970
-2.6189 1.1911 1.5970
-2.6619 1.0969 1.5970
-2.7015 1.0012 1.5970
-2.7378 0.9041 1.5970
-2.7706 0.8057 1.5970
-2.7999 0.7062 1.5970
-2.8256 0.6056 1.5970
-2.8477 0.5040 1.5970
-2.8663 0.4018 1.5970
-2.8812 0.2988 1.5970
-2.8924 0.1953 1.5970
-2.8999 0.0914 1.5970
-2.9037 -0.0127 1.5970
-2.9038 -0.1170 1.5970
-2.9002 -0.2213 1.5970
-2.8928 -0.3255 1.5970
-2.8817 -0.4294 1.5970
-2.8668 -0.5329 1.5970
-2.8483 -0.6358 1.5970
-2.8260 -0.7381 1.5970
-2.8001 -0.8396 1.5970
-2.7706 -0.9402 1.5970
-2.7374 -1.0397 1.5970
-2.7006 -1.1380 1.5970
-2.6603 -1.2350 1.5970
-2.6165 -1.3306 1.5970
-2.5693 -1.4245 1.5970
-2.5187 -1.5168 1.5970
-2.4647 -1.6072 1.5970
-2.4075 -1.6956 1.5970
-2.3471 -1.7821 1.5970
-2.2836 -1.8662 1.5970
-2.2170 -1.9481 1.5970
-2.1475 -2.0276 1.5970
-2.0751 -2.1046 1.5970
-2.0000 -2.1789 1.5970
-1.9221 -2.2505 1.5970
-1.8416 -2.3192 1.5970
-1.7587 -2.3850 1.5970
-1.6734 -2.4478 1.5970
-1.6139 -2.5518 1.6253
-1.5795 -2.7069 1.6860
-1.4952 -2.7864 1.7003
-1.3955 -2.8395 1.7003
-1.2939 -2.8889 1.7003
-1.1905 -2.9346 1.7003
-1.0855 -2.9766 1.7003
-0.9789 -3.0147 1.7003
-0.8711 -3.0489 1.7003
-0.7620 -3.0791 1.7003
-0.6519 -3.1054 1.7003
-0.5409 -3.1277 1.7003
-0.4291 -3.1459 1.7003
-0.3166 -3.1599 1.7003
-0.2038 -3.1699 1.7003
-0.0906 -3.1758 1.7003
0.0228 -3.1775 1.7003
0.1361 -3.1751 1.7003
0.2493 -3.1685 1.7003
0.3621 -3.1579 1.7003
0.4746 -3.1431 1.7003
0.5864 -3.1242 1.7003
0.6974 -3.1012 1.7003
0.8075 -3.0742 1.7003
0.9166 -3.0432 1.7003
1.0244 -3.0083 1.7003
1.1309 -2.9694 1.7003
1.2359 -2.9267 1.7003
1.3392 -2.8801 1.7003
1.4408 -2.8299 1.7003
1.5404 -2.7760 1.7003
1.6380 -2.7185 1.7003
1.7334 -2.6575 1.7003
1.8265 -2.5930 1.7003
1.9171 -2.5253 1.7003
2.0052 -2.4543 1.7003
2.0906 -2.3801 1.7003
2.1733 -2.3030 1.7003
2.2530 -2.2229 1.7003
2.3298 -2.1399 1.7003
2.4034 -2.0543 1.7003
2.4739 -1.9661 1.7003
2.5411 -1.8754 1.7003
2.6049 -1.7824 1.7003
2.6653 -1.6872 1.7003
2.7221 -1.5898 1.7003
2.7753 -1.4906 1.7003
2.8249 -1.3895 1.7003
2.8708 -1.2868 1.7003
2.9129 -1.1825 1.7003
2.9512 -1.0768 1.7003
2.9856 -0.9699 1.7003
3.0161 -0.8618 1.7003
3.0427 -0.7528 1.7003
3.0653 -0.6429 1.7003
3.0839 -0.5324 1.7003
3.0985 -0.4214 1.7003
3.1091 -0.3099 1.7003
3.1156 -0.1982 1.7003
3.1182 -0.0865 1.7003
3.1167 0.0252 1.7003
3.1112 0.1368 1.7003
3.1017 0.2479 1.7003
3.0882 0.3586 1.7003
3.0708 0.4687 1.7003
3.0494 0.5780 1.7003
3.0242 0.6864 1.7003
2.9951 0.7938 1.7003
2.9622 0.9000 1.7003
2.9256 1.0048 1.7003
2.8852 1.1082 1.7003
2.8412 1.2101 1.7003
2.7937 1.3102 1.7003
2.7426 1.4086 1.7003
2.6881 1.5050 1.7003
2.6302 1.5993 1.7003
2.5691 1.6914 1.7003
0.8927 0.6348 0.6060
0.8691 0.6663 0.6063
0.8443 0.6970 0.6066
0.8186 0.7267 0.6069
0.7917 0.7555 0.6072
0.7639 0.7834 0.6075
0.7350 0.8102 0.6078
0.7053 0.8359 0.6080
0.6746 0.8606 0.6083
0.6431 0.8842 0.6086
0.6108 0.9066 0.6088
0.5776 0.9278 0.6091
0.5438 0.9479 0.6093
0.5092 0.9667 0.6096
0.4740 0.9843 0.6098
0.4382 1.0006 0.6100
0.4018 1.0156 0.6102
0.3649 1.0293 0.6104
