ply
format ascii 1.0
element vertex 2158
property float32 x
property float32 y
property float32 z
end_header
-6.1596 -2.3198 1.2934
-7.3967 -3.0934 1.5777
-5.9332 -2.7356 1.2874
-7.1367 -3.6068 1.5777
-5.9918 -3.3036 1.3516
-5.9880 -3.5879 1.3806
-6.6838 -4.3385 1.5777
-6.5169 -4.5711 1.5777
-6.3424 -4.7976 1.5777
-6.1604 -5.0179 1.5777
-5.9712 -5.2316 1.5777
-5.7750 -5.4387 1.5777
-5.5720 -5.6388 1.5777
-5.3625 -5.8318 1.5777
-5.3441 -6.2482 1.6382
-5.2467 -6.6004 1.6808
-5.0042 -6.7820 1.6808
-4.7557 -6.9553 1.6808
-4.5016 -7.1199 1.6808
-4.2421 -7.2759 1.6808
-3.9776 -7.4229 1.6808
-3.7082 -7.5609 1.6808
-3.4343 -7.6897 1.6808
-3.1562 -7.8092 1.6808
-2.8741 -7.9192 1.6808
-2.5884 -8.0196 1.6808
-2.2994 -8.1103 1.6808
-2.0073 -8.1912 1.6808
-1.7125 -8.2622 1.6808
-1.4154 -8.3232 1.6808
-1.1161 -8.3742 1.6808
-0.8151 -8.4149 1.6808
-0.5127 -8.4455 1.6808
-5.9054 0.3790 1.2780
-5.8442 0.1648 1.2649
-5.9715 -0.0460 1.2942
-6.1729 -0.2694 1.3414
-5.8369 -0.4651 1.2733
-5.9359 -0.6883 1.3016
-6.1342 -0.9355 1.3537
-5.9319 -1.1238 1.3192
-7.0307 -1.5957 1.5777
-5.9370 -1.5736 1.3461
-6.0928 -1.8515 1.3975
-6.0603 -2.0822 1.4083
-6.0950 -2.3421 1.4368
-5.9273 -2.5256 1.4196
-6.2785 -2.9460 1.5299
-5.8828 -3.0228 1.4607
-5.7454 -3.2182 1.4560
-5.6934 -3.4635 1.4750
-5.6942 -3.7508 1.5106
-5.7971 -4.1247 1.5777
-5.6403 -4.3267 1.5777
-5.4768 -4.5230 1.5777
-5.3487 -4.7506 1.5901
-5.3409 -5.0986 1.6424
-5.2715 -5.4076 1.6808
-5.0711 -5.5905 1.6808
-4.8645 -5.7664 1.6808
-4.6522 -5.9351 1.6808
-4.4344 -6.0964 1.6808
-4.2112 -6.2501 1.6808
-3.9830 -6.3961 1.6808
-3.7500 -6.5343 1.6808
-3.5125 -6.6644 1.6808
-3.2706 -6.7863 1.6808
-3.0248 -6.8999 1.6808
-2.7752 -7.0051 1.6808
-2.5221 -7.1017 1.6808
-2.2658 -7.1897 1.6808
-2.0066 -7.2689 1.6808
-1.7448 -7.3393 1.6808
-1.4805 -7.4007 1.6808
-1.2142 -7.4531 1.6808
-0.9462 -7.4964 1.6808
-0.6766 -7.5306 1.6808
-0.4058 -7.5556 1.6808
-0.1341 -7.5712 1.6808
0.1381 -7.5776 1.6808
0.4107 -7.5747 1.6808
0.6833 -7.5624 1.6808
0.9555 -7.5408 1.6808
1.2272 -7.5097 1.6808
1.4979 -7.4694 1.6808
1.7674 -7.4197 1.6808
2.0353 -7.3606 1.6808
2.3014 -7.2923 1.6808
2.5653 -7.2148 1.6808
2.7051 -6.8213 1.6085
2.9120 -6.6369 1.5863
3.1357 -6.5017 1.5775
3.3724 -6.3948 1.5775
3.6055 -6.2796 1.5775
3.8349 -6.1561 1.5775
4.0602 -6.0245 1.5775
4.2812 -5.8849 1.5775
4.4975 -5.7375 1.5775
4.7088 -5.5822 1.5775
4.9150 -5.4194 1.5775
5.1157 -5.2492 1.5775
5.3106 -5.0717 1.5775
5.4995 -4.8871 1.5775
5.6821 -4.6955 1.5775
5.3503 -4.1074 1.4408
5.3716 -3.8256 1.4059
6.1895 -4.0816 1.5775
6.3444 -3.8647 1.5775
6.4917 -3.6418 1.5775
6.6312 -3.4135 1.5775
6.7694 -3.1830 1.5791
6.8671 -2.9331 1.5732
5.3901 -2.0770 1.2145
5.3476 -1.8434 1.1869
5.3482 -1.6316 1.1710
6.5735 -1.7505 1.4218
6.5742 -1.5006 1.4067
6.5749 -1.2548 1.3936
6.5756 -1.0122 1.3825
6.5762 -0.7723 1.3733
6.5769 -0.5343 1.3660
6.5776 -0.2977 1.3605
6.5782 -0.0619 1.3568
6.5789 0.1738 1.3549
6.5795 0.4100 1.3548
6.5802 0.6473 1.3564
6.5808 0.8863 1.3599
6.5815 1.1277 1.3652
6.5822 1.3720 1.3725
6.5828 1.6201 1.3816
6.5835 1.8726 1.3928
6.5843 2.1304 1.4061
6.5850 2.3943 1.4216
6.5857 2.6651 1.4395
6.5865 2.9440 1.4598
6.5873 3.2320 1.4828
6.5881 3.5304 1.5086
6.5943 3.8436 1.5387
6.6225 4.1845 1.5775
6.4752 4.4234 1.5775
6.3190 4.6568 1.5775
6.1539 4.8844 1.5775
5.9802 5.1058 1.5775
5.7982 5.3206 1.5775
5.6081 5.5286 1.5775
5.4101 5.7293 1.5775
5.2046 5.9226 1.5775
4.9919 6.1080 1.5775
4.7722 6.2853 1.5775
4.5458 6.4542 1.5775
4.3132 6.6145 1.5775
4.0746 6.7660 1.5775
3.8304 6.9082 1.5775
3.5810 7.0412 1.5775
3.3267 7.1646 1.5775
3.0680 7.2783 1.5775
2.8051 7.3821 1.5775
0.9120 2.6856 0.5667
0.8153 2.7165 0.5669
0.7176 2.7439 0.5671
0.6189 2.7678 0.5674
0.5195 2.7882 0.5677
0.4195 2.8050 0.5680
0.3188 2.8183 0.5684
0.2178 2.8280 0.5689
0.1165 2.8341 0.5694
0.0150 2.8366 0.5699
-0.0865 2.8354 0.5705
-0.1880 2.8307 0.5711
-0.2891 2.8223 0.5718
-0.3900 2.8104 0.5725
-0.4904 2.7948 0.5732
-0.5901 2.7757 0.5740
-0.6892 2.7531 0.5748
-0.7873 2.7269 0.5756
-2.5789 7.8639 1.6808
-2.8545 7.7551 1.6808
-3.1255 7.6362 1.6808
-3.3916 7.5076 1.6808
-3.6523 7.3695 1.6808
-3.9074 7.2220 1.6808
-4.1564 7.0654 1.6808
-4.3992 6.9001 1.6808
-4.6353 6.7262 1.6808
-4.8644 6.5441 1.6808
-5.0864 6.3540 1.6808
-5.3009 6.1563 1.6808
-5.3125 5.7404 1.6212
-5.3564 5.3871 1.5777
-5.5354 5.1818 1.5777
-5.7064 4.9705 1.5777
-5.8694 4.7535 1.5777
-6.0241 4.5312 1.5777
-6.1704 4.3038 1.5777
-6.3082 4.0718 1.5777
-5.4984 3.2760 1.3476
-5.7768 3.1669 1.3898
-6.6690 3.3509 1.5777
-6.7714 3.1035 1.5777
-6.8648 2.8530 1.5777
-6.9490 2.5999 1.5777
-7.0240 2.3444 1.5777
-7.0898 2.0869 1.5777
-7.1463 1.8277 1.5777
-7.1935 1.5671 1.5777
-7.2314 1.3056 1.5777
-7.2600 1.0433 1.5777
-5.8824 0.6309 1.2749
-5.9030 0.4195 1.2776
-7.2903 0.2556 1.5777
-5.9591 -0.0050 1.2911
-6.0891 -0.2238 1.3224
-7.2382 -0.5269 1.5777
-5.9406 -0.6475 1.3012
-5.9721 -0.8688 1.3162
-5.9387 -1.0830 1.3187
-6.1001 -1.3405 1.3664
-5.8939 -1.5190 1.3335
-5.8733 -1.7408 1.3441
-5.8476 -1.9643 1.3553
-5.9743 -2.2488 1.4044
-5.9404 -2.4831 1.4183
-5.9333 -2.7345 1.4409
-6.2185 -3.1416 1.5384
-5.7685 -3.1794 1.4560
-5.6932 -3.4101 1.4685
-5.6940 -3.6949 1.5035
-5.8263 -4.0855 1.5777
-5.6708 -4.2885 1.5777
-5.5085 -4.4859 1.5777
-5.3506 -4.6870 1.5809
-5.3407 -5.0288 1.6315
-5.3091 -5.3719 1.6808
-5.1098 -5.5561 1.6808
-4.9044 -5.7334 1.6808
-4.6932 -5.9035 1.6808
-4.4764 -6.0662 1.6808
-4.2542 -6.2214 1.6808
-4.0270 -6.3689 1.6808
-3.7949 -6.5085 1.6808
-3.5582 -6.6401 1.6808
-3.3171 -6.7636 1.6808
-3.0720 -6.8788 1.6808
-2.8231 -6.9856 1.6808
-2.5707 -7.0839 1.6808
-2.3150 -7.1736 1.6808
-2.0563 -7.2545 1.6808
-1.7950 -7.3265 1.6808
-1.5312 -7.3897 1.6808
-1.2652 -7.4438 1.6808
-0.9975 -7.4889 1.6808
-0.7282 -7.5248 1.6808
-0.4576 -7.5515 1.6808
-5.9692 0.3845 1.4335
-5.8451 0.1662 1.4036
-5.9697 -0.0445 1.4353
-6.2720 -0.2723 1.5117
-6.2726 -0.4984 1.5175
-5.9364 -0.6870 1.4434
-6.1337 -0.9341 1.5007
-5.9305 -1.1223 1.4620
-6.1854 -1.4025 1.5384
-5.7950 -1.5347 1.4560
-5.7287 -1.7397 1.4560
-5.6896 -1.9536 1.4648
-5.6899 -2.1852 1.4859
-5.6905 -2.4235 1.5096
-5.6912 -2.6693 1.5359
-5.6919 -2.9236 1.5651
-5.6224 -3.1482 1.5777
-5.5004 -3.3450 1.5777
-5.3718 -3.5374 1.5777
-5.3416 -3.7996 1.6093
-5.3382 -4.0939 1.6528
-5.2714 -4.3524 1.6808
-5.1082 -4.5360 1.6808
-4.9388 -4.7138 1.6808
-4.7635 -4.8856 1.6808
-4.5825 -5.0512 1.6808
-4.3960 -5.2104 1.6808
-4.2043 -5.3631 1.6808
-4.0075 -5.5091 1.6808
-3.8059 -5.6482 1.6808
-3.5997 -5.7802 1.6808
-3.3891 -5.9052 1.6808
-3.1744 -6.0228 1.6808
-2.9558 -6.1330 1.6808
-2.7335 -6.2357 1.6808
-2.5079 -6.3307 1.6808
-2.2790 -6.4180 1.6808
-2.0473 -6.4973 1.6808
-1.8130 -6.5687 1.6808
-1.5762 -6.6321 1.6808
-1.3373 -6.6874 1.6808
-1.0966 -6.7344 1.6808
-0.8543 -6.7732 1.6808
-0.6106 -6.8036 1.6808
-0.3659 -6.8257 1.6808
-0.1204 -6.8394 1.6808
0.1256 -6.8446 1.6808
0.3718 -6.8414 1.6808
0.6180 -6.8297 1.6808
0.8639 -6.8095 1.6808
1.1091 -6.7808 1.6808
1.3535 -6.7436 1.6808
1.5967 -6.6979 1.6808
1.8384 -6.6439 1.6808
2.0784 -6.5814 1.6808
2.3163 -6.5106 1.6808
2.5520 -6.4314 1.6808
2.7021 -6.1551 1.6307
2.8300 -5.8646 1.5775
3.0431 -5.7673 1.5775
3.2529 -5.6626 1.5775
3.4593 -5.5503 1.5775
3.6619 -5.4308 1.5775
3.8605 -5.3041 1.5775
4.0549 -5.1703 1.5775
4.2447 -5.0295 1.5775
4.4298 -4.8819 1.5775
4.6098 -4.7277 1.5775
4.7846 -4.5670 1.5775
4.9538 -4.3999 1.5775
5.1174 -4.2266 1.5775
5.2749 -4.0474 1.5775
5.4263 -3.8624 1.5775
5.5712 -3.6718 1.5775
5.7095 -3.4758 1.5775
5.8409 -3.2747 1.5775
5.9653 -3.0687 1.5775
6.0825 -2.8580 1.5775
6.1922 -2.6429 1.5775
5.3814 -2.0720 1.3487
5.3476 -1.8418 1.3205
5.3482 -1.6301 1.3030
6.5533 -1.7433 1.5775
6.6233 -1.5100 1.5775
6.5749 -1.2530 1.5516
6.5756 -1.0105 1.5395
6.5762 -0.7706 1.5295
6.5769 -0.5327 1.5217
6.5776 -0.2961 1.5158
6.5782 -0.0603 1.5120
6.5789 0.1754 1.5101
6.5795 0.4115 1.5102
6.5802 0.6488 1.5124
6.5808 0.8878 1.5165
6.5815 1.1291 1.5227
6.5822 1.3734 1.5310
6.5828 1.6215 1.5415
6.5835 1.8740 1.5542
6.6190 2.1430 1.5775
6.5466 2.3817 1.5775
6.4653 2.6177 1.5775
6.3752 2.8508 1.5775
6.2763 3.0807 1.5775
6.1689 3.3070 1.5775
6.0530 3.5293 1.5775
5.9288 3.7473 1.5775
5.7964 3.9608 1.5775
5.6559 4.1693 1.5775
5.5077 4.3725 1.5775
5.3518 4.5702 1.5775
5.1886 4.7621 1.5775
5.0181 4.9478 1.5775
4.8407 5.1271 1.5775
4.6566 5.2996 1.5775
4.4660 5.4652 1.5775
4.2693 5.6236 1.5775
4.0667 5.7745 1.5775
3.8585 5.9177 1.5775
3.6451 6.0530 1.5775
3.4266 6.1802 1.5775
3.2036 6.2991 1.5775
2.9761 6.4095 1.5775
2.7492 6.5218 1.5801
0.9071 2.3870 0.5702
0.8211 2.4179 0.5703
0.7341 2.4457 0.5705
0.6462 2.4704 0.5707
0.5574 2.4919 0.5709
0.4679 2.5102 0.5712
0.3778 2.5254 0.5715
0.2873 2.5373 0.5719
0.1963 2.5460 0.5723
0.1051 2.5515 0.5727
0.0138 2.5537 0.5732
-0.0776 2.5526 0.5737
-0.1689 2.5483 0.5743
-0.2599 2.5408 0.5749
-0.3507 2.5300 0.5755
-0.4410 2.5160 0.5761
-0.5308 2.4988 0.5768
-0.6199 2.4783 0.5776
-0.7083 2.4548 0.5783
-0.7957 2.4280 0.5791
-0.8822 2.3982 0.5799
-2.8001 6.8450 1.6808
-3.0390 6.7308 1.6808
-3.2732 6.6080 1.6808
-3.5024 6.4769 1.6808
-3.7263 6.3376 1.6808
-3.9447 6.1903 1.6808
-4.1572 6.0355 1.6808
-4.3635 5.8731 1.6808
-4.5635 5.7036 1.6808
-4.7568 5.5272 1.6808
-4.9433 5.3441 1.6808
-5.1227 5.1547 1.6808
-5.2949 4.9592 1.6808
-5.3141 4.6311 1.6360
-5.3230 4.3133 1.5929
-5.4121 4.0731 1.5777
-5.5447 3.8695 1.5777
-5.6696 3.6617 1.5777
-5.4921 3.2742 1.4973
-5.7613 3.1604 1.5416
-5.9974 3.0154 1.5777
-6.0907 2.7934 1.5777
-6.1758 2.5686 1.5777
-6.2528 2.3412 1.5777
-6.3214 2.1117 1.5777
-6.3818 1.8803 1.5777
-6.4339 1.6473 1.5777
-6.4776 1.4129 1.5777
-6.5129 1.1775 1.5777
-6.0354 0.8689 1.4560
-5.8818 0.6323 1.4149
-5.9028 0.4209 1.4178
-6.1367 0.2166 1.4735
-6.2713 -0.0039 1.5073
-6.0870 -0.2223 1.4663
-6.2725 -0.4552 1.5163
-5.9394 -0.6461 1.4426
-5.9624 -0.8661 1.4569
-5.9373 -1.0814 1.4614
-6.1965 -1.3604 1.5384
-5.8069 -1.4953 1.4560
-5.7419 -1.7007 1.4560
-5.6935 -1.9114 1.4620
-5.6897 -2.1405 1.4817
-5.6904 -2.3775 1.5049
-5.6911 -2.6218 1.5307
-5.6918 -2.8743 1.5593
-5.6449 -3.1101 1.5777
-5.5287 -3.3105 1.5790
-5.3968 -3.5010 1.5777
-5.3432 -3.7458 1.6017
-5.3380 -4.0359 1.6439
-5.3019 -4.3167 1.6808
-5.1398 -4.5014 1.6808
-4.9716 -4.6803 1.6808
-4.7974 -4.8533 1.6808
-4.6175 -5.0201 1.6808
-4.4321 -5.1805 1.6808
-4.2413 -5.3344 1.6808
-4.0455 -5.4817 1.6808
-3.8448 -5.6221 1.6808
-3.6394 -5.7556 1.6808
-3.4297 -5.8819 1.6808
-3.2157 -6.0009 1.6808
-2.9978 -6.1126 1.6808
-2.7762 -6.2167 1.6808
-2.5512 -6.3132 1.6808
-2.3230 -6.4019 1.6808
-2.0918 -6.4828 1.6808
-1.8579 -6.5557 1.6808
-1.6216 -6.6206 1.6808
-1.3831 -6.6774 1.6808
-1.1427 -6.7260 1.6808
-0.9006 -6.7664 1.6808
-0.6572 -6.7984 1.6808
-0.4127 -6.8221 1.6808
-5.6828 0.3675 1.5011
-5.6834 0.1630 1.5010
-5.6839 -0.0411 1.5027
-5.6845 -0.2454 1.5064
-5.6851 -0.4504 1.5120
-5.6856 -0.6567 1.5195
-5.6862 -0.8647 1.5291
-5.6868 -1.0750 1.5406
-5.6874 -1.2883 1.5543
-5.6880 -1.5052 1.5701
-5.6506 -1.7147 1.5777
-5.5789 -1.9145 1.5777
-5.5004 -2.1113 1.5777
-5.4152 -2.3052 1.5777
-5.3439 -2.5054 1.5838
-5.3381 -2.7408 1.6118
-5.3351 -2.9863 1.6437
-5.3358 -3.2439 1.6803
-5.2130 -3.4318 1.6808
-5.0823 -3.6142 1.6808
-4.9455 -3.7919 1.6808
-4.8028 -3.9645 1.6808
-4.6542 -4.1321 1.6808
-4.5001 -4.2944 1.6808
-4.3405 -4.4511 1.6808
-4.1758 -4.6022 1.6808
-4.0060 -4.7475 1.6808
-3.8313 -4.8868 1.6808
-3.6521 -5.0200 1.6808
-3.4684 -5.1469 1.6808
-3.2805 -5.2674 1.6808
-3.0885 -5.3813 1.6808
-2.8928 -5.4886 1.6808
-2.6936 -5.5890 1.6808
-2.4910 -5.6826 1.6808
-2.2852 -5.7691 1.6808
-2.0766 -5.8486 1.6808
-1.8654 -5.9208 1.6808
-1.6517 -5.9857 1.6808
-1.4359 -6.0433 1.6808
-1.2181 -6.0934 1.6808
-0.9987 -6.1360 1.6808
-0.7778 -6.1711 1.6808
-0.5557 -6.1985 1.6808
-0.3327 -6.2183 1.6808
-0.1090 -6.2304 1.6808
0.1152 -6.2348 1.6808
0.3395 -6.2314 1.6808
0.5638 -6.2202 1.6808
0.7877 -6.2013 1.6808
1.0110 -6.1747 1.6808
1.2335 -6.1403 1.6808
1.4548 -6.0982 1.6808
1.6748 -6.0483 1.6808
1.8931 -5.9908 1.6808
2.1096 -5.9257 1.6808
2.3238 -5.8530 1.6808
2.5357 -5.7728 1.6808
2.7036 -5.5997 1.6555
2.7699 -5.2468 1.5775
2.9605 -5.1508 1.5775
3.1478 -5.0480 1.5775
3.3317 -4.9387 1.5775
3.5119 -4.8227 1.5775
3.6882 -4.7004 1.5775
3.8603 -4.5717 1.5775
4.0280 -4.4369 1.5775
4.1911 -4.2961 1.5775
4.3493 -4.1494 1.5775
4.5025 -3.9969 1.5775
4.6504 -3.8389 1.5775
4.7928 -3.6755 1.5775
4.9296 -3.5069 1.5775
5.0604 -3.3332 1.5775
5.1852 -3.1548 1.5775
5.3038 -2.9717 1.5775
5.4159 -2.7842 1.5775
5.5213 -2.5925 1.5775
5.6200 -2.3969 1.5775
5.7118 -2.1975 1.5775
5.3641 -1.8459 1.4599
5.3562 -1.6310 1.4385
5.9440 -1.5795 1.5775
6.0065 -1.3678 1.5775
6.0615 -1.1535 1.5775
6.1087 -0.9372 1.5775
6.1481 -0.7189 1.5775
6.1796 -0.4990 1.5775
6.2031 -0.2778 1.5775
6.2185 -0.0555 1.5775
6.2259 0.1674 1.5775
6.2251 0.3908 1.5775
6.2161 0.6143 1.5775
6.1988 0.8376 1.5775
6.1734 1.0605 1.5775
6.1398 1.2825 1.5775
6.0980 1.5034 1.5775
6.0480 1.7228 1.5775
5.9898 1.9406 1.5775
5.9236 2.1562 1.5775
5.8494 2.3695 1.5775
5.7672 2.5801 1.5775
5.6772 2.7878 1.5775
5.5795 2.9921 1.5775
5.4742 3.1928 1.5775
5.3613 3.3897 1.5775
5.2412 3.5824 1.5775
5.1138 3.7706 1.5775
4.9794 3.9540 1.5775
4.8382 4.1324 1.5775
4.6903 4.3056 1.5775
4.5360 4.4732 1.5775
4.3754 4.6350 1.5775
4.2088 4.7907 1.5775
4.0365 4.9401 1.5775
3.8586 5.0831 1.5775
3.6754 5.2193 1.5775
3.4872 5.3486 1.5775
3.2943 5.4707 1.5775
3.0969 5.5856 1.5775
2.8953 5.6930 1.5775
2.7406 5.9020 1.6073
0.9012 2.1379 0.5731
0.8242 2.1687 0.5732
0.7461 2.1967 0.5733
0.6671 2.2219 0.5734
0.5872 2.2443 0.5736
0.5066 2.2639 0.5738
0.4253 2.2806 0.5741
0.3435 2.2943 0.5744
0.2612 2.3051 0.5747
0.1786 2.3131 0.5751
0.0958 2.3180 0.5755
0.0128 2.3200 0.5759
-0.0702 2.3190 0.5764
-0.1531 2.3151 0.5769
-0.2358 2.3082 0.5774
-0.3182 2.2984 0.5780
-0.4003 2.2856 0.5786
-0.4818 2.2700 0.5792
-0.5627 2.2514 0.5799
-0.6430 2.2299 0.5806
-0.7224 2.2056 0.5813
-0.8009 2.1785 0.5820
-0.8784 2.1486 0.5828
-2.7499 6.0938 1.6808
-2.9623 5.9835 1.6808
-3.1702 5.8656 1.6808
-3.3734 5.7402 1.6808
-3.5716 5.6077 1.6808
-3.7646 5.4682 1.6808
-3.9521 5.3220 1.6808
-4.1338 5.1692 1.6808
-4.3096 5.0101 1.6808
-4.4793 4.8449 1.6808
-4.6426 4.6740 1.6808
-4.7994 4.4975 1.6808
-4.9495 4.3156 1.6808
-5.0927 4.1288 1.6808
-5.2288 3.9372 1.6808
-5.3166 3.7125 1.6679
-5.3174 3.4362 1.6311
-5.3245 3.1762 1.6000
-5.3504 2.9369 1.5777
-5.4432 2.7386 1.5777
-5.5288 2.5375 1.5777
-5.6069 2.3337 1.5777
-5.6777 2.1276 1.5777
-5.7409 1.9195 1.5777
-5.7967 1.7095 1.5777
-5.8449 1.4981 1.5777
-5.8854 1.2853 1.5777
-5.6810 1.0286 1.5144
-5.6816 0.8194 1.5081
-5.6821 0.6122 1.5038
-5.6827 0.4066 1.5014
-5.6833 0.2020 1.5009
-5.6838 -0.0021 1.5023
-5.6844 -0.2064 1.5056
-5.6850 -0.4112 1.5108
-5.6855 -0.6171 1.5179
-5.6861 -0.8248 1.5271
-5.6867 -1.0346 1.5382
-5.6873 -1.2473 1.5515
-5.6879 -1.4635 1.5669
-5.6635 -1.6763 1.5777
-5.5931 -1.8765 1.5777
-5.5249 -2.0774 1.5803
-5.4320 -2.2684 1.5777
-5.3450 -2.4612 1.5787
-5.3393 -2.6953 1.6062
-5.3350 -2.9383 1.6372
-5.3357 -3.1939 1.6730
-5.2372 -3.3965 1.6808
-5.1077 -3.5797 1.6808
-4.9721 -3.7583 1.6808
-4.8305 -3.9320 1.6808
-4.6830 -4.1005 1.6808
-4.5299 -4.2638 1.6808
-4.3714 -4.4216 1.6808
-4.2076 -4.5738 1.6808
-4.0388 -4.7202 1.6808
-3.8650 -4.8607 1.6808
-3.6867 -4.9950 1.6808
-3.5038 -5.1231 1.6808
-3.3167 -5.2449 1.6808
-3.1255 -5.3600 1.6808
-2.9305 -5.4686 1.6808
-2.7319 -5.5704 1.6808
-2.5299 -5.6652 1.6808
-2.3248 -5.7531 1.6808
-2.1167 -5.8339 1.6808
-1.9059 -5.9076 1.6808
-1.6927 -5.9739 1.6808
-1.4773 -6.0329 1.6808
-1.2598 -6.0844 1.6808
-1.0407 -6.1285 1.6808
-0.8201 -6.1650 1.6808
-0.5982 -6.1939 1.6808
-0.3753 -6.2151 1.6808
-5.4698 0.3551 1.5777
-5.4715 0.1583 1.5777
-5.4662 -0.0382 1.5777
-5.4540 -0.2342 1.5777
-5.4350 -0.4294 1.5777
-5.4092 -0.6235 1.5777
-5.3766 -0.8164 1.5777
-5.3410 -1.0084 1.5788
-5.3385 -1.2081 1.5917
-5.3356 -1.4108 1.6068
-5.3322 -1.6170 1.6240
-5.3319 -1.8286 1.6446
-5.3325 -2.0458 1.6681
-5.2902 -2.2509 1.6808
-5.2010 -2.4373 1.6808
-5.1054 -2.6203 1.6808
-5.0036 -2.7997 1.6808
-4.8957 -2.9754 1.6808
-4.7819 -3.1471 1.6808
-4.6623 -3.3146 1.6808
-4.5370 -3.4778 1.6808
-4.4063 -3.6364 1.6808
-4.2702 -3.7904 1.6808
-4.1289 -3.9394 1.6808
-3.9827 -4.0834 1.6808
-3.8316 -4.2223 1.6808
-3.6759 -4.3557 1.6808
-3.5157 -4.4837 1.6808
-3.3512 -4.6060 1.6808
-3.1827 -4.7226 1.6808
-3.0103 -4.8332 1.6808
-2.8341 -4.9378 1.6808
-2.6545 -5.0363 1.6808
-2.4716 -5.1285 1.6808
-2.2856 -5.2144 1.6808
-2.0968 -5.2938 1.6808
-1.9053 -5.3666 1.6808
-1.7114 -5.4328 1.6808
-1.5152 -5.4923 1.6808
-1.3171 -5.5450 1.6808
-1.1172 -5.5908 1.6808
-0.9158 -5.6297 1.6808
-0.7130 -5.6617 1.6808
-0.5092 -5.6866 1.6808
-0.3046 -5.7045 1.6808
-0.0993 -5.7153 1.6808
0.1064 -5.7190 1.6808
0.3122 -5.7156 1.6808
0.5179 -5.7050 1.6808
0.7233 -5.6873 1.6808
0.9281 -5.6624 1.6808
1.1320 -5.6304 1.6808
1.3349 -5.5913 1.6808
1.5365 -5.5452 1.6808
1.7366 -5.4920 1.6808
1.9349 -5.4318 1.6808
2.1312 -5.3647 1.6808
2.3252 -5.2906 1.6808
2.5167 -5.2098 1.6808
2.7050 -5.1210 1.6804
2.7182 -4.7268 1.5801
2.8852 -4.6244 1.5775
3.0533 -4.5237 1.5775
3.2181 -4.4169 1.5775
3.3792 -4.3044 1.5775
3.5364 -4.1860 1.5775
3.6895 -4.0621 1.5775
3.8384 -3.9326 1.5775
3.9828 -3.7978 1.5775
4.1226 -3.6578 1.5775
4.2575 -3.5126 1.5775
4.3873 -3.3626 1.5775
4.5118 -3.2079 1.5775
4.6310 -3.0486 1.5775
4.7446 -2.8849 1.5775
4.8524 -2.7171 1.5775
4.9543 -2.5452 1.5775
5.0501 -2.3696 1.5775
5.1397 -2.1904 1.5775
5.2229 -2.0078 1.5775
5.2996 -1.8221 1.5775
5.3697 -1.6335 1.5775
5.4330 -1.4422 1.5775
5.4894 -1.2485 1.5775
5.5389 -1.0526 1.5775
5.5813 -0.8548 1.5775
5.6166 -0.6553 1.5775
5.6447 -0.4544 1.5775
5.6654 -0.2523 1.5775
5.6788 -0.0493 1.5775
5.6848 0.1542 1.5775
5.6834 0.3581 1.5775
5.6745 0.5621 1.5775
5.6581 0.7659 1.5775
5.6343 0.9691 1.5775
5.6030 1.1716 1.5775
5.5642 1.3730 1.5775
5.5180 1.5731 1.5775
5.4644 1.7715 1.5775
5.4035 1.9680 1.5775
5.3353 2.1624 1.5775
5.2599 2.3542 1.5775
5.1774 2.5433 1.5775
5.0878 2.7294 1.5775
4.9914 2.9122 1.5775
4.8881 3.0915 1.5775
4.7782 3.2669 1.5775
4.6618 3.4382 1.5775
4.5391 3.6052 1.5775
4.4101 3.7676 1.5775
4.2751 3.9252 1.5775
4.1342 4.0777 1.5775
3.9877 4.2249 1.5775
3.8358 4.3667 1.5775
3.6786 4.5027 1.5775
3.5164 4.6328 1.5775
3.3494 4.7568 1.5775
3.1779 4.8745 1.5775
3.0021 4.9857 1.5775
2.8222 5.0904 1.5775
2.7339 5.3757 1.6345
0.8944 1.9262 0.5756
0.8250 1.9569 0.5756
0.7545 1.9851 0.5757
0.6830 2.0107 0.5758
0.6107 2.0338 0.5759
0.5376 2.0543 0.5761
0.4638 2.0722 0.5763
0.3894 2.0874 0.5765
0.3146 2.1000 0.5768
0.2393 2.1099 0.5771
0.1637 2.1172 0.5774
0.0879 2.1217 0.5778
0.0120 2.1235 0.5782
-0.0640 2.1226 0.5786
-0.1398 2.1190 0.5791
-0.2155 2.1127 0.5796
-0.2909 2.1037 0.5801
-0.3660 2.0920 0.5806
-0.4406 2.0776 0.5812
-0.5147 2.0606 0.5818
-0.5881 2.0409 0.5825
-0.6607 2.0187 0.5831
-0.7326 1.9938 0.5838
-0.8035 1.9664 0.5845
-0.8734 1.9365 0.5852
-2.7024 5.4616 1.6808
-2.8925 5.3545 1.6808
-3.0783 5.2408 1.6808
-3.2596 5.1204 1.6808
-3.4361 4.9937 1.6808
-3.6077 4.8608 1.6808
-3.7742 4.7218 1.6808
-3.9352 4.5771 1.6808
-4.0907 4.4269 1.6808
-4.2404 4.2712 1.6808
-4.3842 4.1105 1.6808
-4.5219 3.9449 1.6808
-4.6534 3.7747 1.6808
-4.7784 3.6001 1.6808
-4.8969 3.4213 1.6808
-5.0087 3.2387 1.6808
-5.1137 3.0524 1.6808
-5.2119 2.8627 1.6808
-5.3030 2.6699 1.6808
-5.3201 2.4435 1.6599
-5.3208 2.2163 1.6367
-5.3238 1.9967 1.6171
-5.3283 1.7831 1.6004
-5.3322 1.5741 1.5859
-5.3493 1.3726 1.5777
-5.3871 1.1780 1.5777
-5.4180 0.9825 1.5777
-5.4418 0.7863 1.5777
-5.4588 0.5896 1.5777
-5.4687 0.3927 1.5777
-5.4717 0.1958 1.5777
-5.4677 -0.0008 1.5777
-5.4569 -0.1968 1.5777
-5.4392 -0.3921 1.5777
-5.4147 -0.5865 1.5777
-5.3834 -0.7796 1.5777
-5.3454 -0.9713 1.5777
-5.3390 -1.1698 1.5891
-5.3362 -1.3718 1.6037
-5.3329 -1.5773 1.6205
-5.3318 -1.7877 1.6404
-5.3324 -2.0038 1.6634
-5.3065 -2.2149 1.6808
-5.2185 -2.4019 1.6808
-5.1241 -2.5856 1.6808
-5.0235 -2.7658 1.6808
-4.9168 -2.9422 1.6808
-4.8041 -3.1146 1.6808
-4.6856 -3.2830 1.6808
-4.5614 -3.4470 1.6808
-4.4316 -3.6065 1.6808
-4.2966 -3.7613 1.6808
-4.1563 -3.9113 1.6808
-4.0110 -4.0563 1.6808
-3.8608 -4.1962 1.6808
-3.7060 -4.3306 1.6808
-3.5466 -4.4597 1.6808
-3.3830 -4.5831 1.6808
-3.2152 -4.7008 1.6808
-3.0435 -4.8126 1.6808
-2.8680 -4.9183 1.6808
-2.6891 -5.0180 1.6808
-2.5068 -5.1114 1.6808
-2.3214 -5.1985 1.6808
-2.1331 -5.2791 1.6808
-1.9421 -5.3532 1.6808
-1.7486 -5.4207 1.6808
-1.5529 -5.4815 1.6808
-1.3551 -5.5355 1.6808
-1.1555 -5.5826 1.6808
-0.9544 -5.6229 1.6808
-0.7519 -5.6561 1.6808
-0.5482 -5.6824 1.6808
-0.3437 -5.7016 1.6808
-5.3259 0.3471 1.6672
-5.3264 0.1554 1.6667
-5.3270 -0.0360 1.6683
-5.3275 -0.2275 1.6721
-5.3280 -0.4196 1.6779
-5.3123 -0.6111 1.6808
-5.2808 -0.8006 1.6808
-5.2427 -0.9887 1.6808
-5.1980 -1.1752 1.6808
-5.1469 -1.3597 1.6808
-5.0895 -1.5423 1.6808
-5.0257 -1.7225 1.6808
-4.9558 -1.9002 1.6808
-4.8798 -2.0752 1.6808
-4.7978 -2.2473 1.6808
-4.7099 -2.4164 1.6808
-4.6163 -2.5821 1.6808
-4.5170 -2.7443 1.6808
-4.4122 -2.9029 1.6808
-4.3020 -3.0577 1.6808
-4.1866 -3.2084 1.6808
-4.0662 -3.3550 1.6808
-3.9407 -3.4972 1.6808
-3.8105 -3.6349 1.6808
-3.6756 -3.7680 1.6808
-3.5363 -3.8962 1.6808
-3.3926 -4.0195 1.6808
-3.2448 -4.1378 1.6808
-3.0931 -4.2508 1.6808
-2.9375 -4.3584 1.6808
-2.7784 -4.4606 1.6808
-2.6158 -4.5573 1.6808
-2.4500 -4.6482 1.6808
-2.2811 -4.7333 1.6808
-2.1094 -4.8126 1.6808
-1.9351 -4.8858 1.6808
-1.7583 -4.9530 1.6808
-1.5792 -5.0141 1.6808
-1.3981 -5.0689 1.6808
-1.2152 -5.1174 1.6808
-1.0307 -5.1596 1.6808
-0.8447 -5.1953 1.6808
-0.6575 -5.2247 1.6808
-0.4694 -5.2475 1.6808
-0.2804 -5.2638 1.6808
-0.0910 -5.2735 1.6808
0.0988 -5.2767 1.6808
0.2888 -5.2732 1.6808
0.4786 -5.2632 1.6808
0.6680 -5.2465 1.6808
0.8569 -5.2233 1.6808
1.0451 -5.1934 1.6808
1.2322 -5.1570 1.6808
1.4181 -5.1141 1.6808
1.6026 -5.0646 1.6808
1.7853 -5.0087 1.6808
1.9662 -4.9464 1.6808
2.1450 -4.8777 1.6808
2.3214 -4.8028 1.6808
2.4953 -4.7216 1.6808
2.6664 -4.6342 1.6808
2.7121 -4.3447 1.6082
2.8152 -4.1686 1.5775
2.9667 -4.0699 1.5775
3.1149 -3.9657 1.5775
3.2595 -3.8563 1.5775
3.4003 -3.7417 1.5775
3.5371 -3.6220 1.5775
3.6698 -3.4974 1.5775
3.7981 -3.3681 1.5775
3.9219 -3.2340 1.5775
4.0411 -3.0955 1.5775
4.1553 -2.9527 1.5775
4.2646 -2.8057 1.5775
4.3687 -2.6547 1.5775
4.4674 -2.4999 1.5775
4.5607 -2.3414 1.5775
4.6483 -2.1795 1.5775
4.7303 -2.0144 1.5775
4.8063 -1.8461 1.5775
4.8763 -1.6751 1.5775
4.9402 -1.5014 1.5775
4.9979 -1.3253 1.5775
5.0493 -1.1470 1.5775
5.0942 -0.9667 1.5775
5.1327 -0.7847 1.5775
5.1645 -0.6012 1.5775
5.1898 -0.4164 1.5775
5.2083 -0.2306 1.5775
5.2200 -0.0441 1.5775
5.2250 0.1430 1.5775
5.2232 0.3304 1.5775
5.2145 0.5178 1.5775
5.1989 0.7049 1.5775
5.1765 0.8916 1.5775
5.1473 1.0775 1.5775
5.1112 1.2623 1.5775
5.0683 1.4460 1.5775
5.0187 1.6281 1.5775
4.9623 1.8084 1.5775
4.8993 1.9867 1.5775
4.8297 2.1627 1.5775
4.7535 2.3361 1.5775
4.6710 2.5068 1.5775
4.5822 2.6744 1.5775
4.4871 2.8387 1.5775
4.3860 2.9996 1.5775
4.2789 3.1566 1.5775
4.1660 3.3097 1.5775
4.0475 3.4586 1.5775
3.9234 3.6030 1.5775
3.7940 3.7428 1.5775
3.6595 3.8778 1.5775
3.5199 4.0077 1.5775
3.3756 4.1324 1.5775
3.2267 4.2516 1.5775
3.0735 4.3653 1.5775
2.9161 4.4732 1.5775
2.7548 4.5752 1.5775
2.7327 4.9290 1.6646
0.8867 1.7436 0.5777
0.8238 1.7741 0.5777
0.7599 1.8024 0.5778
0.6950 1.8283 0.5778
0.6292 1.8520 0.5779
0.5626 1.8732 0.5780
0.4953 1.8921 0.5782
0.4273 1.9086 0.5784
0.3588 1.9226 0.5786
0.2899 1.9342 0.5788
0.2206 1.9433 0.5791
0.1510 1.9500 0.5794
0.0812 1.9541 0.5798
0.0113 1.9558 0.5801
-0.0587 1.9549 0.5805
-0.1285 1.9516 0.5809
-0.1982 1.9458 0.5814
-0.2677 1.9375 0.5819
-0.3368 1.9267 0.5824
-0.4055 1.9135 0.5829
-0.4736 1.8978 0.5835
-0.5412 1.8797 0.5841
-0.6081 1.8591 0.5847
-0.6743 1.8363 0.5853
-0.7395 1.8110 0.5860
-0.8039 1.7835 0.5866
-0.8672 1.7536 0.5873
-2.6566 4.9206 1.6808
-2.8276 4.8166 1.6808
-2.9945 4.7064 1.6808
-3.1570 4.5904 1.6808
-3.3151 4.4688 1.6808
-3.4684 4.3415 1.6808
-3.6168 4.2090 1.6808
-3.7602 4.0713 1.6808
-3.8983 3.9286 1.6808
-4.0309 3.7813 1.6808
-4.1580 3.6294 1.6808
-4.2794 3.4732 1.6808
-4.3949 3.3130 1.6808
-4.5044 3.1489 1.6808
-4.6077 2.9812 1.6808
-4.7049 2.8101 1.6808
-4.7958 2.6359 1.6808
-4.8802 2.4587 1.6808
-4.9581 2.2789 1.6808
-5.0295 2.0966 1.6808
-5.0942 1.9122 1.6808
-5.1522 1.7257 1.6808
-5.2035 1.5376 1.6808
-5.2480 1.3481 1.6808
-5.2857 1.1573 1.6808
-5.3165 0.9655 1.6808
-5.3247 0.7708 1.6758
-5.3253 0.5766 1.6706
-5.3258 0.3838 1.6676
-5.3263 0.1920 1.6667
-5.3269 0.0006 1.6679
-5.3274 -0.1909 1.6712
-5.3279 -0.3829 1.6766
-5.3175 -0.5748 1.6808
-5.2873 -0.7645 1.6808
-5.2504 -0.9529 1.6808
-5.2070 -1.1397 1.6808
-5.1572 -1.3246 1.6808
-5.1009 -1.5076 1.6808
-5.0384 -1.6883 1.6808
-4.9697 -1.8665 1.6808
-4.8948 -2.0420 1.6808
-4.8139 -2.2147 1.6808
-4.7272 -2.3843 1.6808
-4.6346 -2.5507 1.6808
-4.5364 -2.7136 1.6808
-4.4326 -2.8729 1.6808
-4.3235 -3.0284 1.6808
-4.2091 -3.1800 1.6808
-4.0895 -3.3273 1.6808
-3.9650 -3.4704 1.6808
-3.8357 -3.6090 1.6808
-3.7017 -3.7429 1.6808
-3.5632 -3.8721 1.6808
-3.4204 -3.9964 1.6808
-3.2733 -4.1156 1.6808
-3.1223 -4.2296 1.6808
-2.9675 -4.3383 1.6808
-2.8090 -4.4415 1.6808
-2.6471 -4.5392 1.6808
-2.4819 -4.6313 1.6808
-2.3136 -4.7175 1.6808
-2.1424 -4.7979 1.6808
-1.9686 -4.8723 1.6808
-1.7922 -4.9407 1.6808
-1.6136 -5.0029 1.6808
-1.4329 -5.0589 1.6808
-1.2503 -5.1086 1.6808
-1.0660 -5.1520 1.6808
-0.8803 -5.1890 1.6808
-0.6933 -5.2196 1.6808
-0.5054 -5.2436 1.6808
-0.3166 -5.2612 1.6808
-4.9728 0.3254 1.6808
-4.9752 0.1464 1.6808
-4.9714 -0.0323 1.6808
-4.9612 -0.2106 1.6808
-4.9448 -0.3883 1.6808
-4.9221 -0.5650 1.6808
-4.8933 -0.7407 1.6808
-4.8583 -0.9151 1.6808
-4.8173 -1.0880 1.6808
-4.7703 -1.2592 1.6808
-4.7174 -1.4285 1.6808
-4.6586 -1.5956 1.6808
-4.5941 -1.7605 1.6808
-4.5239 -1.9229 1.6808
-4.4481 -2.0826 1.6808
-4.3669 -2.2394 1.6808
-4.2803 -2.3933 1.6808
-4.1884 -2.5438 1.6808
-4.0914 -2.6911 1.6808
-3.9894 -2.8347 1.6808
-3.8825 -2.9746 1.6808
-3.7709 -3.1107 1.6808
-3.6547 -3.2427 1.6808
-3.5340 -3.3706 1.6808
-3.4090 -3.4941 1.6808
-3.2798 -3.6132 1.6808
-3.1466 -3.7276 1.6808
-3.0096 -3.8374 1.6808
-2.8689 -3.9423 1.6808
-2.7246 -4.0422 1.6808
-2.5770 -4.1371 1.6808
-2.4262 -4.2267 1.6808
-2.2723 -4.3111 1.6808
-2.1157 -4.3901 1.6808
-1.9564 -4.4636 1.6808
-1.7946 -4.5315 1.6808
-1.6306 -4.5938 1.6808
-1.4645 -4.6504 1.6808
-1.2964 -4.7012 1.6808
-1.1267 -4.7461 1.6808
-0.9555 -4.7851 1.6808
-0.7830 -4.8182 1.6808
-0.6093 -4.8453 1.6808
-0.4348 -4.8663 1.6808
-0.2595 -4.8812 1.6808
-0.0838 -4.8900 1.6808
0.0923 -4.8928 1.6808
0.2684 -4.8894 1.6808
0.4444 -4.8798 1.6808
0.6201 -4.8641 1.6808
0.7953 -4.8423 1.6808
0.9697 -4.8144 1.6808
1.1431 -4.7803 1.6808
1.3154 -4.7402 1.6808
1.4863 -4.6941 1.6808
1.6557 -4.6420 1.6808
1.8232 -4.5839 1.6808
1.9888 -4.5199 1.6808
2.1522 -4.4501 1.6808
2.3131 -4.3745 1.6808
2.4715 -4.2932 1.6808
2.6271 -4.2063 1.6808
2.7080 -4.0079 1.6375
2.7491 -3.7694 1.5775
2.8862 -3.6726 1.5775
3.0198 -3.5709 1.5775
3.1500 -3.4644 1.5775
3.2764 -3.3533 1.5775
3.3990 -3.2376 1.5775
3.5175 -3.1175 1.5775
3.6318 -2.9932 1.5775
3.7417 -2.8647 1.5775
3.8472 -2.7322 1.5775
3.9479 -2.5958 1.5775
4.0439 -2.4558 1.5775
4.1349 -2.3123 1.5775
4.2208 -2.1654 1.5775
4.3015 -2.0154 1.5775
4.3769 -1.8624 1.5775
4.4468 -1.7066 1.5775
4.5111 -1.5482 1.5775
4.5698 -1.3874 1.5775
4.6227 -1.2244 1.5775
4.6697 -1.0594 1.5775
4.7108 -0.8927 1.5775
4.7459 -0.7243 1.5775
4.7749 -0.5546 1.5775
4.7978 -0.3837 1.5775
4.8145 -0.2120 1.5775
4.8249 -0.0395 1.5775
4.8291 0.1334 1.5775
4.8270 0.3065 1.5775
4.8185 0.4796 1.5775
4.8037 0.6524 1.5775
4.7826 0.8248 1.5775
4.7552 0.9965 1.5775
4.7215 1.1672 1.5775
4.6815 1.3367 1.5775
4.6354 1.5048 1.5775
4.5830 1.6712 1.5775
4.5245 1.8357 1.5775
4.4599 1.9980 1.5775
4.3893 2.1581 1.5775
4.3129 2.3155 1.5775
4.2306 2.4701 1.5775
4.1426 2.6216 1.5775
4.0491 2.7700 1.5775
3.9501 2.9148 1.5775
3.8457 3.0559 1.5775
3.7361 3.1932 1.5775
3.6214 3.3264 1.5775
3.5019 3.4553 1.5775
3.3776 3.5797 1.5775
3.2488 3.6995 1.5775
3.1155 3.8144 1.5775
2.9781 3.9244 1.5775
2.8366 4.0292 1.5775
2.7367 4.1983 1.6041
2.7089 4.4992 1.6808
0.8782 1.5841 0.5796
0.8210 1.6144 0.5796
0.7628 1.6427 0.5796
0.7036 1.6689 0.5796
0.6436 1.6929 0.5797
0.5826 1.7148 0.5798
0.5210 1.7345 0.5799
0.4587 1.7519 0.5800
0.3958 1.7672 0.5802
0.3324 1.7802 0.5804
0.2686 1.7909 0.5806
0.2044 1.7993 0.5809
0.1400 1.8055 0.5812
0.0754 1.8093 0.5815
0.0107 1.8108 0.5818
-0.0541 1.8100 0.5822
-0.1187 1.8069 0.5826
-0.1832 1.8015 0.5830
-0.2475 1.7939 0.5834
-0.3115 1.7839 0.5839
-0.3751 1.7716 0.5844
-0.4382 1.7571 0.5849
-0.5007 1.7403 0.5855
-0.5627 1.7213 0.5860
-0.6239 1.7001 0.5866
-0.6843 1.6767 0.5872
-0.7438 1.6512 0.5878
-0.8024 1.6235 0.5885
-0.8600 1.5938 0.5891
-2.6118 4.4514 1.6808
-2.7663 4.3501 1.6808
-2.9167 4.2432 1.6808
-3.0630 4.1311 1.6808
-3.2050 4.0139 1.6808
-3.3425 3.8918 1.6808
-3.4754 3.7648 1.6808
-3.6033 3.6333 1.6808
-3.7263 3.4974 1.6808
-3.8442 3.3573 1.6808
-3.9568 3.2132 1.6808
-4.0640 3.0653 1.6808
-4.1657 2.9139 1.6808
-4.2617 2.7590 1.6808
-4.3520 2.6010 1.6808
-4.4365 2.4400 1.6808
-4.5151 2.2763 1.6808
-4.5876 2.1101 1.6808
-4.6541 1.9417 1.6808
-4.7145 1.7711 1.6808
-4.7687 1.5987 1.6808
-4.8166 1.4247 1.6808
-4.8582 1.2494 1.6808
-4.8936 1.0728 1.6808
-4.9226 0.8953 1.6808
-4.9453 0.7172 1.6808
-4.9616 0.5385 1.6808
-4.9716 0.3596 1.6808
-4.9753 0.1806 1.6808
-4.9726 0.0018 1.6808
-4.9636 -0.1766 1.6808
-4.9484 -0.3544 1.6808
-4.9269 -0.5313 1.6808
-4.8993 -0.7073 1.6808
-4.8655 -0.8819 1.6808
-4.8256 -1.0551 1.6808
-4.7798 -1.2266 1.6808
-4.7280 -1.3963 1.6808
-4.6703 -1.5639 1.6808
-4.6068 -1.7292 1.6808
-4.5377 -1.8921 1.6808
-4.4630 -2.0523 1.6808
-4.3828 -2.2097 1.6808
-4.2972 -2.3641 1.6808
-4.2063 -2.5154 1.6808
-4.1103 -2.6632 1.6808
-4.0093 -2.8075 1.6808
-3.9033 -2.9482 1.6808
-3.7926 -3.0850 1.6808
-3.6773 -3.2178 1.6808
-3.5574 -3.3465 1.6808
-3.4332 -3.4709 1.6808
-3.3048 -3.5908 1.6808
-3.1724 -3.7061 1.6808
-3.0361 -3.8168 1.6808
-2.8960 -3.9226 1.6808
-2.7524 -4.0235 1.6808
-2.6054 -4.1194 1.6808
-2.4552 -4.2100 1.6808
-2.3019 -4.2954 1.6808
-2.1458 -4.3754 1.6808
-1.9870 -4.4500 1.6808
-1.8257 -4.5190 1.6808
-1.6621 -4.5824 1.6808
-1.4963 -4.6400 1.6808
-1.3287 -4.6919 1.6808
-1.1593 -4.7380 1.6808
-0.9883 -4.7781 1.6808
-0.8160 -4.8123 1.6808
-0.6425 -4.8405 1.6808
-0.4682 -4.8627 1.6808
-0.2930 -4.8788 1.6808
-4.6260 0.3039 1.6808
-4.6286 0.1374 1.6808
-4.6254 -0.0289 1.6808
-4.6162 -0.1948 1.6808
-4.6013 -0.3602 1.6808
-4.5805 -0.5247 1.6808
-4.5540 -0.6883 1.6808
-4.5218 -0.8507 1.6808
-4.4839 -1.0117 1.6808
-4.4404 -1.1711 1.6808
-4.3914 -1.3288 1.6808
-4.3369 -1.4845 1.6808
-4.2771 -1.6381 1.6808
-4.2119 -1.7894 1.6808
-4.1416 -1.9382 1.6808
-4.0661 -2.0844 1.6808
-3.9857 -2.2277 1.6808
-3.9003 -2.3681 1.6808
-3.8101 -2.5053 1.6808
-3.7153 -2.6392 1.6808
-3.6159 -2.7696 1.6808
-3.5120 -2.8964 1.6808
-3.4039 -3.0195 1.6808
-3.2915 -3.1387 1.6808
-3.1752 -3.2538 1.6808
-3.0549 -3.3648 1.6808
-2.9309 -3.4716 1.6808
-2.8033 -3.5739 1.6808
-2.6722 -3.6716 1.6808
-2.5378 -3.7648 1.6808
-2.4003 -3.8532 1.6808
-2.2598 -3.9368 1.6808
-2.1165 -4.0154 1.6808
-1.9705 -4.0890 1.6808
-1.8221 -4.1574 1.6808
-1.6714 -4.2207 1.6808
-1.5186 -4.2787 1.6808
-1.3638 -4.3314 1.6808
-1.2072 -4.3786 1.6808
-1.0491 -4.4204 1.6808
-0.8895 -4.4566 1.6808
-0.7288 -4.4873 1.6808
-0.5670 -4.5124 1.6808
-0.4044 -4.5319 1.6808
-0.2412 -4.5457 1.6808
-0.0774 -4.5537 1.6808
0.0865 -4.5561 1.6808
0.2506 -4.5528 1.6808
0.4145 -4.5437 1.6808
0.5781 -4.5289 1.6808
0.7412 -4.5083 1.6808
0.9036 -4.4821 1.6808
1.0650 -4.4502 1.6808
1.2254 -4.4126 1.6808
1.3845 -4.3694 1.6808
1.5420 -4.3206 1.6808
1.6979 -4.2663 1.6808
1.8520 -4.2064 1.6808
2.0039 -4.1412 1.6808
2.1536 -4.0706 1.6808
2.3009 -3.9946 1.6808
2.4455 -3.9135 1.6808
2.5873 -3.8273 1.6808
2.7088 -3.7122 1.6701
2.7176 -3.4563 1.5961
2.8102 -3.3212 1.5775
2.9310 -3.2219 1.5775
3.0484 -3.1183 1.5775
3.1622 -3.0104 1.5775
3.2722 -2.8985 1.5775
3.3782 -2.7826 1.5775
3.4802 -2.6629 1.5775
3.5779 -2.5394 1.5775
3.6713 -2.4125 1.5775
3.7602 -2.2821 1.5775
3.8445 -2.1485 1.5775
3.9240 -2.0118 1.5775
3.9987 -1.8722 1.5775
4.0684 -1.7298 1.5775
4.1330 -1.5849 1.5775
4.1924 -1.4376 1.5775
4.2466 -1.2880 1.5775
4.2954 -1.1365 1.5775
4.3387 -0.9831 1.5775
4.3766 -0.8281 1.5775
4.4088 -0.6716 1.5775
4.4354 -0.5139 1.5775
4.4563 -0.3552 1.5775
4.4714 -0.1957 1.5775
4.4807 -0.0356 1.5775
4.4842 0.1250 1.5775
4.4819 0.2857 1.5775
4.4737 0.4463 1.5775
4.4597 0.6068 1.5775
4.4398 0.7667 1.5775
4.4140 0.9260 1.5775
4.3825 1.0844 1.5775
4.3451 1.2416 1.5775
4.3019 1.3975 1.5775
4.2530 1.5518 1.5775
4.1985 1.7043 1.5775
4.1384 1.8549 1.5775
4.0727 2.0032 1.5775
4.0015 2.1491 1.5775
3.9250 2.2925 1.5775
3.8432 2.4329 1.5775
3.7563 2.5704 1.5775
3.6643 2.7046 1.5775
3.5673 2.8354 1.5775
3.4656 2.9626 1.5775
3.3591 3.0860 1.5775
3.2482 3.2055 1.5775
3.1328 3.3208 1.5775
3.0133 3.4318 1.5775
2.8896 3.5383 1.5775
2.7621 3.6402 1.5775
2.7298 3.8778 1.6368
2.6596 4.0802 1.6808
0.8690 1.4433 0.5813
0.8168 1.4734 0.5813
0.7637 1.5016 0.5812
0.7095 1.5279 0.5812
0.6545 1.5522 0.5812
0.5986 1.5746 0.5813
0.5420 1.5949 0.5814
0.4847 1.6132 0.5815
0.4267 1.6295 0.5816
0.3682 1.6436 0.5818
0.3093 1.6557 0.5820
0.2499 1.6657 0.5822
0.1903 1.6735 0.5824
0.1304 1.6792 0.5827
0.0703 1.6828 0.5830
0.0101 1.6842 0.5833
-0.0501 1.6834 0.5836
-0.1102 1.6806 0.5840
-0.1702 1.6755 0.5844
-0.2299 1.6684 0.5848
-0.2894 1.6591 0.5852
-0.3485 1.6477 0.5857
-0.4072 1.6341 0.5862
-0.4654 1.6185 0.5867
-0.5229 1.6009 0.5872
-0.5798 1.5811 0.5877
-0.6360 1.5594 0.5883
-0.6914 1.5356 0.5889
-0.7459 1.5099 0.5895
-0.7994 1.4823 0.5901
-0.8519 1.4527 0.5907
-2.5675 4.0397 1.6808
-2.7074 3.9408 1.6808
-2.8435 3.8371 1.6808
-2.9756 3.7285 1.6808
-3.1035 3.6154 1.6808
-3.2271 3.4978 1.6808
-3.3463 3.3759 1.6808
-3.4608 3.2499 1.6808
-3.5706 3.1201 1.6808
-3.6755 2.9864 1.6808
-3.7754 2.8493 1.6808
-3.8702 2.7088 1.6808
-3.9598 2.5651 1.6808
-4.0441 2.4185 1.6808
-4.1229 2.2691 1.6808
-4.1963 2.1171 1.6808
-4.2641 1.9628 1.6808
-4.3263 1.8063 1.6808
-4.3828 1.6479 1.6808
-4.4335 1.4877 1.6808
-4.4785 1.3261 1.6808
-4.5176 1.1631 1.6808
-4.5508 0.9990 1.6808
-4.5782 0.8340 1.6808
-4.5996 0.6683 1.6808
-4.6152 0.5021 1.6808
-4.6248 0.3357 1.6808
-4.6286 0.1692 1.6808
-4.6264 0.0028 1.6808
-4.6184 -0.1632 1.6808
-4.6046 -0.3286 1.6808
-4.5849 -0.4934 1.6808
-4.5595 -0.6571 1.6808
-4.5284 -0.8198 1.6808
-4.4916 -0.9810 1.6808
-4.4491 -1.1408 1.6808
-4.4012 -1.2988 1.6808
-4.3477 -1.4549 1.6808
-4.2889 -1.6089 1.6808
-4.2248 -1.7607 1.6808
-4.1554 -1.9100 1.6808
-4.0809 -2.0567 1.6808
-4.0014 -2.2006 1.6808
-3.9170 -2.3415 1.6808
-3.8277 -2.4793 1.6808
-3.7337 -2.6138 1.6808
-3.6352 -2.7450 1.6808
-3.5322 -2.8725 1.6808
-3.4248 -2.9963 1.6808
-3.3133 -3.1162 1.6808
-3.1977 -3.2322 1.6808
-3.0782 -3.3440 1.6808
-2.9548 -3.4515 1.6808
-2.8279 -3.5547 1.6808
-2.6975 -3.6533 1.6808
-2.5637 -3.7474 1.6808
-2.4268 -3.8367 1.6808
-2.2869 -3.9212 1.6808
-2.1441 -4.0008 1.6808
-1.9986 -4.0753 1.6808
-1.8507 -4.1448 1.6808
-1.7004 -4.2090 1.6808
-1.5479 -4.2680 1.6808
-1.3935 -4.3217 1.6808
-1.2372 -4.3700 1.6808
-1.0794 -4.4128 1.6808
-0.9201 -4.4502 1.6808
-0.7596 -4.4819 1.6808
-0.5980 -4.5081 1.6808
-0.4355 -4.5286 1.6808
-0.2724 -4.5435 1.6808
-4.3198 0.2849 1.6808
-4.3225 0.1294 1.6808
-4.3198 -0.0259 1.6808
-4.3115 -0.1809 1.6808
-4.2978 -0.3353 1.6808
-4.2787 -0.4891 1.6808
-4.2542 -0.6420 1.6808
-4.2243 -0.7937 1.6808
-4.1891 -0.9442 1.6808
-4.1487 -1.0932 1.6808
-4.1032 -1.2406 1.6808
-4.0525 -1.3862 1.6808
-3.9967 -1.5298 1.6808
-3.9360 -1.6713 1.6808
-3.8705 -1.8105 1.6808
-3.8001 -1.9472 1.6808
-3.7251 -2.0813 1.6808
-3.6454 -2.2125 1.6808
-3.5612 -2.3409 1.6808
-3.4727 -2.4661 1.6808
-3.3799 -2.5882 1.6808
-3.2829 -2.7068 1.6808
-3.1818 -2.8220 1.6808
-3.0769 -2.9335 1.6808
-2.9682 -3.0412 1.6808
-2.8558 -3.1450 1.6808
-2.7399 -3.2449 1.6808
-2.6206 -3.3406 1.6808
-2.4980 -3.4321 1.6808
-2.3724 -3.5192 1.6808
-2.2439 -3.6019 1.6808
-2.1125 -3.6800 1.6808
-1.9785 -3.7536 1.6808
-1.8420 -3.8224 1.6808
-1.7033 -3.8864 1.6808
-1.5623 -3.9455 1.6808
-1.4194 -3.9997 1.6808
-1.2746 -4.0489 1.6808
-1.1283 -4.0931 1.6808
-0.9804 -4.1321 1.6808
-0.8312 -4.1659 1.6808
-0.6809 -4.1945 1.6808
-0.5296 -4.2179 1.6808
-0.3776 -4.2359 1.6808
-0.2249 -4.2487 1.6808
-0.0718 -4.2561 1.6808
0.0815 -4.2582 1.6808
0.2348 -4.2549 1.6808
0.3880 -4.2463 1.6808
0.5409 -4.2323 1.6808
0.6933 -4.2129 1.6808
0.8451 -4.1882 1.6808
0.9960 -4.1582 1.6808
1.1458 -4.1229 1.6808
1.2944 -4.0823 1.6808
1.4416 -4.0365 1.6808
1.5872 -3.9855 1.6808
1.7310 -3.9294 1.6808
1.8729 -3.8682 1.6808
2.0127 -3.8020 1.6808
2.1501 -3.7308 1.6808
2.2851 -3.6548 1.6808
2.4174 -3.5740 1.6808
2.5470 -3.4885 1.6808
2.6735 -3.3984 1.6808
2.7102 -3.2014 1.6287
2.7377 -3.0078 1.5775
2.8472 -2.9108 1.5775
2.9532 -2.8099 1.5775
3.0557 -2.7052 1.5775
3.1544 -2.5968 1.5775
3.2494 -2.4848 1.5775
3.3404 -2.3694 1.5775
3.4273 -2.2508 1.5775
3.5101 -2.1289 1.5775
3.5884 -2.0041 1.5775
3.6624 -1.8763 1.5775
3.7318 -1.7459 1.5775
3.7966 -1.6130 1.5775
3.8566 -1.4776 1.5775
3.9117 -1.3401 1.5775
3.9619 -1.2005 1.5775
4.0072 -1.0590 1.5775
4.0473 -0.9159 1.5775
4.0823 -0.7712 1.5775
4.1120 -0.6253 1.5775
4.1365 -0.4782 1.5775
4.1557 -0.3302 1.5775
4.1695 -0.1814 1.5775
4.1779 -0.0321 1.5775
4.1809 0.1176 1.5775
4.1785 0.2674 1.5775
4.1706 0.4171 1.5775
4.1572 0.5666 1.5775
4.1384 0.7157 1.5775
4.1141 0.8640 1.5775
4.0845 1.0116 1.5775
4.0494 1.1580 1.5775
4.0089 1.3032 1.5775
3.9632 1.4469 1.5775
3.9122 1.5890 1.5775
3.8559 1.7291 1.5775
3.7945 1.8672 1.5775
3.7281 2.0031 1.5775
3.6567 2.1365 1.5775
3.5803 2.2672 1.5775
3.4992 2.3952 1.5775
3.4134 2.5201 1.5775
3.3229 2.6418 1.5775
3.2281 2.7602 1.5775
3.1289 2.8751 1.5775
3.0254 2.9862 1.5775
2.9384 3.1151 1.5886
2.8066 3.1968 1.5775
2.7346 3.3489 1.6029
2.7290 3.5969 1.6734
0.9055 1.2864 0.5829
0.8590 1.3179 0.5828
0.8113 1.3477 0.5827
0.7627 1.3758 0.5827
0.7130 1.4021 0.5827
0.6625 1.4266 0.5827
0.6111 1.4493 0.5827
0.5590 1.4702 0.5827
0.5061 1.4892 0.5828
0.4526 1.5063 0.5829
0.3985 1.5214 0.5830
0.3439 1.5346 0.5832
0.2889 1.5459 0.5833
0.2335 1.5552 0.5835
0.1778 1.5625 0.5838
0.1219 1.5679 0.5840
0.0658 1.5712 0.5843
0.0096 1.5725 0.5846
-0.0465 1.5718 0.5849
-0.1027 1.5691 0.5852
-0.1586 1.5644 0.5856
-0.2144 1.5577 0.5860
-0.2700 1.5490 0.5864
-0.3251 1.5384 0.5868
-0.3799 1.5257 0.5873
-0.4342 1.5111 0.5877
-0.4879 1.4946 0.5882
-0.5410 1.4762 0.5887
-0.5935 1.4559 0.5893
-0.6451 1.4337 0.5898
-0.6960 1.4097 0.5904
-0.7459 1.3839 0.5909
-0.7950 1.3563 0.5915
-0.8430 1.3270 0.5921
-0.8899 1.2960 0.5927
-2.6504 3.5784 1.6808
-2.7737 3.4774 1.6808
-2.8932 3.3722 1.6808
-3.0087 3.2627 1.6808
-3.1200 3.1493 1.6808
-3.2270 3.0321 1.6808
-3.3297 2.9112 1.6808
-3.4278 2.7867 1.6808
-3.5212 2.6590 1.6808
-3.6099 2.5281 1.6808
-3.6938 2.3943 1.6808
-3.7727 2.2576 1.6808
-3.8466 2.1184 1.6808
-3.9153 1.9767 1.6808
-3.9789 1.8329 1.6808
-4.0372 1.6870 1.6808
-4.0902 1.5392 1.6808
-4.1379 1.3899 1.6808
-4.1802 1.2390 1.6808
-4.2170 1.0870 1.6808
-4.2483 0.9338 1.6808
-4.2742 0.7798 1.6808
-4.2945 0.6252 1.6808
-4.3093 0.4700 1.6808
-4.3187 0.3146 1.6808
-4.3224 0.1591 1.6808
-4.3207 0.0038 1.6808
-4.3135 -0.1513 1.6808
-4.3009 -0.3059 1.6808
-4.2828 -0.4598 1.6808
-4.2593 -0.6128 1.6808
-4.2304 -0.7648 1.6808
-4.1963 -0.9156 1.6808
-4.1569 -1.0649 1.6808
-4.1123 -1.2126 1.6808
-4.0625 -1.3586 1.6808
-4.0078 -1.5026 1.6808
-3.9480 -1.6445 1.6808
-3.8834 -1.7841 1.6808
-3.8139 -1.9213 1.6808
-3.7397 -2.0559 1.6808
-3.6610 -2.1877 1.6808
-3.5776 -2.3166 1.6808
-3.4899 -2.4424 1.6808
-3.3979 -2.5651 1.6808
-3.3017 -2.6844 1.6808
-3.2015 -2.8002 1.6808
-3.0972 -2.9125 1.6808
-2.9892 -3.0209 1.6808
-2.8775 -3.1255 1.6808
-2.7623 -3.2261 1.6808
-2.6436 -3.3226 1.6808
-2.5217 -3.4149 1.6808
-2.3966 -3.5029 1.6808
-2.2686 -3.5864 1.6808
-2.1378 -3.6655 1.6808
-2.0043 -3.7399 1.6808
-1.8683 -3.8096 1.6808
-1.7299 -3.8745 1.6808
-1.5894 -3.9346 1.6808
-1.4468 -3.9898 1.6808
-1.3024 -4.0399 1.6808
-1.1563 -4.0850 1.6808
-1.0087 -4.1250 1.6808
-0.8598 -4.1598 1.6808
-0.7096 -4.1894 1.6808
-0.5586 -4.2138 1.6808
-0.4066 -4.2329 1.6808
-0.2541 -4.2467 1.6808
-4.0472 0.2680 1.6808
-4.0500 0.1223 1.6808
-4.0476 -0.0232 1.6808
-4.0401 -0.1685 1.6808
-4.0275 -0.3132 1.6808
-4.0098 -0.4574 1.6808
-3.9870 -0.6007 1.6808
-3.9592 -0.7429 1.6808
-3.9265 -0.8841 1.6808
-3.8888 -1.0238 1.6808
-3.8462 -1.1620 1.6808
-3.7989 -1.2986 1.6808
-3.7468 -1.4333 1.6808
-3.6901 -1.5660 1.6808
-3.6287 -1.6966 1.6808
-3.5629 -1.8248 1.6808
-3.4926 -1.9506 1.6808
-3.4181 -2.0738 1.6808
-3.3392 -2.1943 1.6808
-3.2563 -2.3118 1.6808
-3.1693 -2.4263 1.6808
-3.0784 -2.5376 1.6808
-2.9838 -2.6457 1.6808
-2.8854 -2.7503 1.6808
-2.7835 -2.8515 1.6808
-2.6781 -2.9489 1.6808
-2.5694 -3.0426 1.6808
-2.4576 -3.1324 1.6808
-2.3427 -3.2183 1.6808
-2.2249 -3.3000 1.6808
-2.1043 -3.3776 1.6808
-1.9811 -3.4509 1.6808
-1.8554 -3.5199 1.6808
-1.7274 -3.5844 1.6808
-1.5972 -3.6445 1.6808
-1.4650 -3.7000 1.6808
-1.3309 -3.7508 1.6808
-1.1951 -3.7969 1.6808
-1.0578 -3.8382 1.6808
-0.9190 -3.8748 1.6808
-0.7791 -3.9064 1.6808
-0.6381 -3.9332 1.6808
-0.4962 -3.9551 1.6808
-0.3536 -3.9719 1.6808
-0.2104 -3.9838 1.6808
-0.0669 -3.9907 1.6808
0.0769 -3.9925 1.6808
0.2207 -3.9893 1.6808
0.3644 -3.9810 1.6808
0.5078 -3.9678 1.6808
0.6507 -3.9495 1.6808
0.7929 -3.9262 1.6808
0.9344 -3.8978 1.6808
1.0748 -3.8646 1.6808
1.2141 -3.8264 1.6808
1.3520 -3.7832 1.6808
1.4885 -3.7353 1.6808
1.6232 -3.6825 1.6808
1.7562 -3.6249 1.6808
1.8871 -3.5627 1.6808
2.0158 -3.4958 1.6808
2.1422 -3.4243 1.6808
2.2661 -3.3484 1.6808
2.3874 -3.2681 1.6808
2.5058 -3.1835 1.6808
2.6212 -3.0946 1.6808
2.7109 -2.9767 1.6668
2.7168 -2.7761 1.6064
2.7672 -2.6315 1.5775
2.8630 -2.5332 1.5775
2.9554 -2.4315 1.5775
3.0441 -2.3265 1.5775
3.1291 -2.2182 1.5775
3.2104 -2.1069 1.5775
3.2876 -1.9927 1.5775
3.3608 -1.8756 1.5775
3.4298 -1.7559 1.5775
3.4946 -1.6337 1.5775
3.5550 -1.5091 1.5775
3.6109 -1.3823 1.5775
3.6623 -1.2534 1.5775
3.7091 -1.1227 1.5775
3.7511 -0.9902 1.5775
3.7885 -0.8562 1.5775
3.8209 -0.7208 1.5775
3.8485 -0.5841 1.5775
3.8712 -0.4464 1.5775
3.8889 -0.3079 1.5775
3.9016 -0.1687 1.5775
3.9092 -0.0290 1.5775
3.9118 0.1110 1.5775
3.9093 0.2511 1.5775
3.9016 0.3912 1.5775
3.8889 0.5310 1.5775
3.8711 0.6704 1.5775
3.8482 0.8091 1.5775
3.8202 0.9470 1.5775
3.7872 1.0839 1.5775
3.7492 1.2196 1.5775
3.7063 1.3540 1.5775
3.6584 1.4867 1.5775
3.6056 1.6177 1.5775
3.5481 1.7467 1.5775
3.4858 1.8737 1.5775
3.4189 1.9983 1.5775
3.3474 2.1205 1.5775
3.2715 2.2400 1.5775
3.1911 2.3567 1.5775
3.1065 2.4704 1.5775
3.0178 2.5810 1.5775
2.9382 2.7005 1.5847
2.8282 2.7921 1.5775
2.7383 2.9036 1.5837
2.7277 3.1074 1.6401
2.6805 3.2831 1.6808
0.8907 1.1742 0.5843
0.8482 1.2052 0.5842
0.8047 1.2347 0.5841
0.7601 1.2626 0.5840
0.7145 1.2889 0.5840
0.6680 1.3135 0.5839
0.6207 1.3365 0.5839
0.5726 1.3578 0.5839
0.5237 1.3773 0.5840
0.4742 1.3951 0.5841
0.4241 1.4111 0.5842
0.3734 1.4253 0.5843
0.3223 1.4377 0.5844
0.2708 1.4483 0.5846
0.2189 1.4570 0.5848
0.1667 1.4638 0.5850
0.1143 1.4688 0.5852
0.0618 1.4719 0.5855
0.0092 1.4731 0.5857
-0.0434 1.4725 0.5860
-0.0959 1.4700 0.5863
-0.1484 1.4656 0.5867
-0.2006 1.4593 0.5870
-0.2526 1.4511 0.5874
-0.3043 1.4411 0.5878
-0.3556 1.4293 0.5883
-0.4064 1.4156 0.5887
-0.4568 1.4002 0.5891
-0.5065 1.3829 0.5896
-0.5556 1.3639 0.5901
-0.6040 1.3431 0.5906
-0.6516 1.3206 0.5911
-0.6984 1.2964 0.5917
-0.7443 1.2706 0.5922
-0.7892 1.2431 0.5928
-0.8332 1.2141 0.5934
-0.8761 1.1834 0.5940
-2.5945 3.2546 1.6808
-2.7065 3.1563 1.6808
-2.8147 3.0541 1.6808
-2.9191 2.9481 1.6808
-3.0194 2.8386 1.6808
-3.1157 2.7256 1.6808
-3.2077 2.6094 1.6808
-3.2954 2.4900 1.6808
-3.3787 2.3676 1.6808
-3.4574 2.2425 1.6808
-3.5315 2.1147 1.6808
-3.6009 1.9845 1.6808
-3.6655 1.8520 1.6808
-3.7253 1.7174 1.6808
-3.7802 1.5809 1.6808
-3.8301 1.4426 1.6808
-3.8750 1.3028 1.6808
-3.9148 1.1616 1.6808
-3.9495 1.0192 1.6808
-3.9792 0.8758 1.6808
-4.0036 0.7316 1.6808
-4.0229 0.5868 1.6808
-4.0371 0.4415 1.6808
-4.0460 0.2959 1.6808
-4.0498 0.1502 1.6808
-4.0485 0.0046 1.6808
-4.0420 -0.1408 1.6808
-4.0303 -0.2856 1.6808
-4.0136 -0.4299 1.6808
-3.9918 -0.5734 1.6808
-3.9649 -0.7159 1.6808
-3.9331 -0.8572 1.6808
-3.8964 -0.9972 1.6808
-3.8548 -1.1358 1.6808
-3.8083 -1.2727 1.6808
-3.7571 -1.4077 1.6808
-3.7013 -1.5408 1.6808
-3.6408 -1.6718 1.6808
-3.5758 -1.8005 1.6808
-3.5064 -1.9268 1.6808
-3.4326 -2.0505 1.6808
-3.3546 -2.1715 1.6808
-3.2725 -2.2896 1.6808
-3.1862 -2.4047 1.6808
-3.0961 -2.5166 1.6808
-3.0021 -2.6253 1.6808
-2.9045 -2.7306 1.6808
-2.8032 -2.8324 1.6808
-2.6985 -2.9306 1.6808
-2.5904 -3.0250 1.6808
-2.4792 -3.1156 1.6808
-2.3648 -3.2022 1.6808
-2.2476 -3.2847 1.6808
-2.1275 -3.3631 1.6808
-2.0048 -3.4373 1.6808
-1.8796 -3.5071 1.6808
-1.7520 -3.5725 1.6808
-1.6222 -3.6334 1.6808
-1.4904 -3.6897 1.6808
-1.3566 -3.7414 1.6808
-1.2212 -3.7884 1.6808
-1.0841 -3.8307 1.6808
-0.9456 -3.8682 1.6808
-0.8059 -3.9008 1.6808
-0.6651 -3.9285 1.6808
-0.5234 -3.9513 1.6808
-0.3809 -3.9691 1.6808
-0.2378 -3.9819 1.6808
-3.8026 0.2529 1.6808
-3.8055 0.1160 1.6808
-3.8035 -0.0208 1.6808
-3.7966 -0.1573 1.6808
-3.7850 -0.2934 1.6808
-3.7685 -0.4289 1.6808
-3.7473 -0.5636 1.6808
-3.7213 -0.6974 1.6808
-3.6907 -0.8301 1.6808
-3.6554 -0.9615 1.6808
-3.6156 -1.0915 1.6808
-3.5712 -1.2199 1.6808
-3.5224 -1.3467 1.6808
-3.4692 -1.4715 1.6808
-3.4116 -1.5943 1.6808
-3.3498 -1.7150 1.6808
-3.2839 -1.8333 1.6808
-3.2138 -1.9492 1.6808
-3.1398 -2.0625 1.6808
-3.0619 -2.1731 1.6808
-2.9802 -2.2809 1.6808
-2.8948 -2.3857 1.6808
-2.8058 -2.4873 1.6808
-2.7133 -2.5858 1.6808
-2.6175 -2.6810 1.6808
-2.5185 -2.7727 1.6808
-2.4163 -2.8608 1.6808
-2.3111 -2.9453 1.6808
-2.2030 -3.0261 1.6808
-2.0922 -3.1030 1.6808
-1.9788 -3.1760 1.6808
-1.8629 -3.2450 1.6808
-1.7447 -3.3099 1.6808
-1.6243 -3.3706 1.6808
-1.5018 -3.4271 1.6808
-1.3775 -3.4793 1.6808
-1.2514 -3.5270 1.6808
-1.1236 -3.5704 1.6808
-0.9944 -3.6092 1.6808
-0.8639 -3.6435 1.6808
-0.7323 -3.6733 1.6808
-0.5997 -3.6984 1.6808
-0.4662 -3.7189 1.6808
-0.3321 -3.7347 1.6808
-0.1974 -3.7458 1.6808
-0.0624 -3.7521 1.6808
0.0728 -3.7538 1.6808
0.2081 -3.7506 1.6808
0.3432 -3.7428 1.6808
0.4780 -3.7302 1.6808
0.6124 -3.7129 1.6808
0.7461 -3.6908 1.6808
0.8791 -3.6641 1.6808
1.0111 -3.6326 1.6808
1.1420 -3.5965 1.6808
1.2716 -3.5559 1.6808
1.3999 -3.5106 1.6808
1.5265 -3.4608 1.6808
1.6514 -3.4066 1.6808
1.7744 -3.3479 1.6808
1.8953 -3.2849 1.6808
2.0140 -3.2176 1.6808
2.1303 -3.1460 1.6808
2.2442 -3.0704 1.6808
2.3554 -2.9907 1.6808
2.4637 -2.9070 1.6808
2.5691 -2.8195 1.6808
2.6715 -2.7282 1.6808
2.7120 -2.5775 1.6452
2.7207 -2.4059 1.5954
2.7769 -2.2833 1.5775
2.8601 -2.1845 1.5775
2.9398 -2.0827 1.5775
3.0159 -1.9780 1.5775
3.0883 -1.8706 1.5775
3.1569 -1.7606 1.5775
3.2215 -1.6480 1.5775
3.2821 -1.5332 1.5775
3.3386 -1.4161 1.5775
3.3909 -1.2969 1.5775
3.4390 -1.1759 1.5775
3.4827 -1.0531 1.5775
3.5220 -0.9286 1.5775
3.5568 -0.8027 1.5775
3.5871 -0.6756 1.5775
3.6128 -0.5473 1.5775
3.6339 -0.4180 1.5775
3.6503 -0.2880 1.5775
3.6620 -0.1574 1.5775
3.6689 -0.0263 1.5775
3.6711 0.1051 1.5775
3.6686 0.2366 1.5775
3.6612 0.3680 1.5775
3.6491 0.4992 1.5775
3.6322 0.6299 1.5775
3.6105 0.7600 1.5775
3.5841 0.8894 1.5775
3.5530 1.0177 1.5775
3.5172 1.1450 1.5775
3.4768 1.2709 1.5775
3.4317 1.3954 1.5775
3.3821 1.5182 1.5775
3.3280 1.6391 1.5775
3.2695 1.7581 1.5775
3.2066 1.8749 1.5775
3.1395 1.9894 1.5775
3.0681 2.1014 1.5775
2.9927 2.2108 1.5775
2.9359 2.3353 1.5898
2.8300 2.4210 1.5775
2.7429 2.5215 1.5775
2.7278 2.6935 1.6225
2.7253 2.8902 1.6808
2.6212 2.9866 1.6808
0.8757 1.0727 0.5856
0.8369 1.1033 0.5854
0.7970 1.1324 0.5853
0.7560 1.1601 0.5852
0.7141 1.1863 0.5852
0.6713 1.2110 0.5851
0.6277 1.2342 0.5851
0.5832 1.2558 0.5851
0.5380 1.2758 0.5851
0.4921 1.2941 0.5851
0.4456 1.3108 0.5852
0.3986 1.3259 0.5853
0.3510 1.3392 0.5854
0.3029 1.3508 0.5855
0.2545 1.3608 0.5857
0.2058 1.3689 0.5858
0.1568 1.3754 0.5860
0.1076 1.3800 0.5863
0.0583 1.3829 0.5865
0.0088 1.3841 0.5868
-0.0406 1.3835 0.5870
-0.0899 1.3811 0.5873
-0.1392 1.3770 0.5877
-0.1883 1.3711 0.5880
-0.2371 1.3634 0.5884
-0.2857 1.3540 0.5887
-0.3338 1.3429 0.5891
-0.3816 1.3301 0.5895
-0.4288 1.3155 0.5900
-0.4756 1.2993 0.5904
-0.5217 1.2814 0.5909
