ply
format ascii 1.0
element vertex 2178
property float32 x
property float32 y
property float32 z
end_header
5.1020 3.4086 1.5893
4.9746 3.5887 1.5893
4.8408 3.7641 1.5893
4.7008 3.9345 1.5893
4.5549 4.0998 1.5893
4.4032 4.2596 1.5893
4.2458 4.4139 1.5893
4.0831 4.5623 1.5893
3.4693 4.1690 1.4083
3.2779 4.2403 1.3920
3.5648 4.9712 1.5893
3.3827 5.0947 1.5893
3.1964 5.2116 1.5893
3.0060 5.3217 1.5893
2.8501 5.4987 1.6109
2.7841 5.8798 1.6925
0.9139 2.1245 0.6019
0.8369 2.1560 0.6020
0.7588 2.1846 0.6021
0.6797 2.2105 0.6023
0.5997 2.2335 0.6024
0.5190 2.2536 0.6025
0.4376 2.2708 0.6027
0.3556 2.2851 0.6028
0.2732 2.2965 0.6029
0.1904 2.3050 0.6031
0.1074 2.3104 0.6032
0.0242 2.3129 0.6033
-0.0590 2.3124 0.6035
-0.1422 2.3089 0.6036
-0.2252 2.3025 0.6037
-0.3079 2.2931 0.6039
-0.3902 2.2808 0.6040
-0.4721 2.2655 0.6041
-0.5534 2.2473 0.6042
-0.6339 2.2262 0.6044
-0.7137 2.2022 0.6045
-0.7925 2.1754 0.6046
-0.8704 2.1458 0.6047
-2.6505 5.9138 1.6925
-2.8615 5.8144 1.6925
-3.0687 5.7076 1.6925
-3.2721 5.5934 1.6925
-3.4712 5.4721 1.6925
-0.8454 1.9428 0.6046
-2.5606 5.3496 1.6925
-2.7514 5.2539 1.6925
-2.9386 5.1514 1.6925
-3.1220 5.0423 1.6925
-3.3014 4.9267 1.6925
-3.4766 4.8049 1.6925
-3.6474 4.6768 1.6925
-3.8134 4.5427 1.6925
-3.9746 4.4028 1.6925
-4.1307 4.2572 1.6925
-4.2815 4.1061 1.6925
-4.4268 3.9497 1.6925
-4.5664 3.7882 1.6925
-4.7002 3.6218 1.6925
-4.8280 3.4507 1.6925
-4.9496 3.2752 1.6925
-5.0649 3.0954 1.6925
-5.1072 2.8741 1.6708
-5.0986 2.6324 1.6357
-5.0966 2.4032 1.6060
-5.1273 2.1958 1.5894
-5.2038 2.0103 1.5894
-5.2738 1.8221 1.5894
-5.3369 1.6315 1.5894
-5.3932 1.4387 1.5894
-5.4426 1.2441 1.5894
-5.4849 1.0477 1.5894
-5.5203 0.8499 1.5894
-5.5485 0.6509 1.5894
-5.5697 0.4510 1.5894
-5.5836 0.2504 1.5894
-5.5904 0.0494 1.5894
-5.5899 -0.1517 1.5894
-5.5823 -0.3528 1.5894
-5.5674 -0.5535 1.5894
-5.5454 -0.7536 1.5894
-5.5162 -0.9528 1.5894
-5.4798 -1.1509 1.5894
-5.4364 -1.3476 1.5894
-5.3859 -1.5427 1.5894
-5.3284 -1.7358 1.5894
-5.2641 -1.9269 1.5894
-5.1929 -2.1156 1.5894
-5.1149 -2.3016 1.5894
-5.0303 -2.4848 1.5894
-4.9391 -2.6648 1.5894
-4.8917 -2.8710 1.6059
-4.8758 -3.1026 1.6358
-4.8654 -3.3477 1.6712
-4.8039 -3.5665 1.6925
-4.6739 -3.7380 1.6925
-4.5378 -3.9048 1.6925
-4.3957 -4.0666 1.6925
-4.2479 -4.2232 1.6925
-4.0944 -4.3744 1.6925
-3.9356 -4.5201 1.6925
-3.7716 -4.6599 1.6925
-3.6026 -4.7938 1.6925
-3.4289 -4.9216 1.6925
-3.2506 -5.0430 1.6925
-3.0680 -5.1579 1.6925
-2.8814 -5.2662 1.6925
-2.6909 -5.3678 1.6925
-2.4968 -5.4624 1.6925
-2.2994 -5.5499 1.6925
-2.0989 -5.6303 1.6925
-1.8956 -5.7034 1.6925
-1.6897 -5.7691 1.6925
-1.4816 -5.8273 1.6925
-1.2714 -5.8781 1.6925
-1.0596 -5.9211 1.6925
-0.8462 -5.9565 1.6925
-0.6317 -5.9842 1.6925
-0.4163 -6.0040 1.6925
-0.2003 -6.0161 1.6925
0.0161 -6.0204 1.6925
0.2325 -6.0168 1.6925
0.4486 -6.0054 1.6925
0.6643 -5.9861 1.6925
0.8791 -5.9591 1.6925
1.0928 -5.9243 1.6925
1.3051 -5.8818 1.6925
1.5158 -5.8316 1.6925
1.7245 -5.7739 1.6925
1.9311 -5.7085 1.6925
2.1351 -5.6358 1.6925
2.3363 -5.5557 1.6925
2.5346 -5.4684 1.6925
2.7295 -5.3739 1.6925
2.9209 -5.2724 1.6925
3.1086 -5.1641 1.6925
3.2502 -4.9847 1.6710
3.2596 -4.6268 1.5893
3.4439 -4.5331 1.5986
3.5833 -4.3805 1.5893
3.7383 -4.2487 1.5893
3.8883 -4.1113 1.5893
4.0333 -3.9687 1.5893
4.1730 -3.8209 1.5893
4.3072 -3.6681 1.5893
4.4358 -3.5106 1.5893
4.5587 -3.3486 1.5893
4.6755 -3.1822 1.5893
4.7862 -3.0117 1.5893
4.8907 -2.8374 1.5893
4.9888 -2.6594 1.5893
5.0804 -2.4780 1.5893
5.1653 -2.2935 1.5893
5.2435 -2.1059 1.5893
5.3149 -1.9158 1.5893
5.3793 -1.7232 1.5893
5.4367 -1.5284 1.5893
5.4870 -1.3318 1.5893
5.5301 -1.1335 1.5893
5.5661 -0.9337 1.5893
5.5948 -0.7329 1.5893
5.6162 -0.5312 1.5893
5.6304 -0.3289 1.5893
5.6372 -0.1263 1.5893
5.6367 0.0764 1.5893
5.6289 0.2789 1.5893
5.6137 0.4810 1.5893
5.5913 0.6823 1.5893
5.5617 0.8826 1.5893
5.5249 1.0817 1.5893
5.4809 1.2793 1.5893
5.4299 1.4751 1.5893
5.3718 1.6689 1.5893
5.3068 1.8604 1.5893
5.2350 2.0494 1.5893
5.1564 2.2357 1.5893
5.0712 2.4189 1.5893
4.9795 2.5990 1.5893
4.8814 2.7755 1.5893
4.7771 2.9484 1.5893
4.6666 3.1174 1.5893
4.5502 3.2822 1.5893
4.4279 3.4427 1.5893
4.3000 3.5987 1.5893
4.1666 3.7499 1.5893
4.0279 3.8962 1.5893
3.8841 4.0374 1.5893
3.7353 4.1733 1.5893
3.4650 4.1634 1.5374
3.2727 4.2332 1.5192
3.2614 4.5476 1.5893
3.0949 4.6608 1.5893
2.9245 4.7678 1.5893
2.8598 5.0623 1.6525
2.7400 5.2857 1.6925
0.9058 1.9128 0.6018
0.8364 1.9441 0.6019
0.7659 1.9728 0.6021
0.6944 1.9990 0.6022
0.6220 2.0227 0.6023
0.5489 2.0437 0.6024
0.4750 2.0622 0.6025
0.4005 2.0779 0.6027
0.3255 2.0910 0.6028
0.2501 2.1014 0.6029
0.1743 2.1091 0.6030
0.0983 2.1141 0.6032
0.0222 2.1164 0.6033
-0.0539 2.1159 0.6034
-0.1300 2.1127 0.6035
-0.2060 2.1068 0.6036
-0.2817 2.0982 0.6038
-0.3570 2.0869 0.6039
-0.4319 2.0729 0.6040
-0.5062 2.0562 0.6041
-0.5800 2.0369 0.6042
-0.6530 2.0149 0.6043
-0.7251 1.9904 0.6045
-0.7964 1.9632 0.6046
-0.8666 1.9336 0.6047
-2.6188 5.3213 1.6925
-2.8085 5.2235 1.6925
-2.9946 5.1190 1.6925
-3.1768 5.0080 1.6925
-0.7783 1.7887 0.6045
-0.8423 1.7597 0.6046
-2.5337 4.8382 1.6925
-2.7061 4.7439 1.6925
-2.8750 4.6434 1.6925
-3.0403 4.5370 1.6925
-3.2016 4.4247 1.6925
-3.3589 4.3068 1.6925
-3.5118 4.1833 1.6925
-3.6602 4.0544 1.6925
-3.8039 3.9203 1.6925
-3.9428 3.7811 1.6925
-4.0765 3.6371 1.6925
-4.2051 3.4883 1.6925
-4.3283 3.3351 1.6925
-4.4460 3.1775 1.6925
-4.5579 3.0158 1.6925
-4.6640 2.8502 1.6925
-4.7641 2.6809 1.6925
-4.8582 2.5081 1.6925
-4.9460 2.3320 1.6925
-5.0275 2.1529 1.6925
-5.0716 1.9590 1.6823
-5.0635 1.7493 1.6573
-5.0565 1.5456 1.6355
-5.0530 1.3478 1.6173
-5.0491 1.1539 1.6015
-5.0502 0.9644 1.5894
-5.0827 0.7823 1.5894
-5.1086 0.5991 1.5894
-5.1279 0.4150 1.5894
-5.1407 0.2303 1.5894
-5.1468 0.0453 1.5894
-5.1463 -0.1399 1.5894
-5.1392 -0.3250 1.5894
-5.1254 -0.5098 1.5894
-5.1050 -0.6940 1.5894
-5.0780 -0.8774 1.5894
-5.0444 -1.0597 1.5894
-5.0044 -1.2408 1.5894
-4.9578 -1.4203 1.5894
-4.9417 -1.6101 1.6014
-4.9305 -1.8051 1.6173
-4.9185 -2.0041 1.6356
-4.9097 -2.2095 1.6575
-4.9014 -2.4214 1.6826
-4.8408 -2.6121 1.6925
-4.7450 -2.7852 1.6925
-4.6430 -2.9549 1.6925
-4.5350 -3.1207 1.6925
-4.4211 -3.2827 1.6925
-4.3013 -3.4405 1.6925
-4.1760 -3.5938 1.6925
-4.0451 -3.7427 1.6925
-3.9090 -3.8867 1.6925
-3.7677 -4.0258 1.6925
-3.6215 -4.1597 1.6925
-3.4705 -4.2883 1.6925
-3.3150 -4.4115 1.6925
-3.1550 -4.5289 1.6925
-2.9909 -4.6406 1.6925
-2.8228 -4.7462 1.6925
-2.6510 -4.8458 1.6925
-2.4757 -4.9391 1.6925
-2.2971 -5.0261 1.6925
-2.1154 -5.1065 1.6925
-1.9309 -5.1804 1.6925
-1.7438 -5.2476 1.6925
-1.5544 -5.3079 1.6925
-1.3629 -5.3615 1.6925
-1.1696 -5.4080 1.6925
-0.9746 -5.4476 1.6925
-0.7784 -5.4800 1.6925
-0.5810 -5.5054 1.6925
-0.3828 -5.5236 1.6925
-0.1841 -5.5347 1.6925
0.0149 -5.5385 1.6925
0.2140 -5.5352 1.6925
0.4128 -5.5246 1.6925
0.6112 -5.5068 1.6925
0.8088 -5.4820 1.6925
1.0054 -5.4499 1.6925
1.2007 -5.4107 1.6925
1.3945 -5.3646 1.6925
1.5865 -5.3114 1.6925
1.7764 -5.2513 1.6925
1.9641 -5.1843 1.6925
2.1492 -5.1106 1.6925
2.3316 -5.0303 1.6925
2.5109 -4.9434 1.6925
2.6870 -4.8500 1.6925
2.8595 -4.7504 1.6925
3.0284 -4.6445 1.6925
3.1933 -4.5326 1.6925
3.2245 -4.2444 1.6272
3.2962 -4.0296 1.5893
3.4388 -3.9083 1.5893
3.5768 -3.7820 1.5893
3.7102 -3.6508 1.5893
3.8387 -3.5149 1.5893
3.9622 -3.3744 1.5893
4.0806 -3.2296 1.5893
4.1936 -3.0805 1.5893
4.3011 -2.9275 1.5893
4.4030 -2.7707 1.5893
4.4992 -2.6104 1.5893
4.5894 -2.4466 1.5893
4.6737 -2.2798 1.5893
4.7519 -2.1100 1.5893
4.8239 -1.9376 1.5893
4.8896 -1.7627 1.5893
4.9490 -1.5855 1.5893
5.0018 -1.4064 1.5893
5.0482 -1.2255 1.5893
5.0880 -1.0430 1.5893
5.1211 -0.8593 1.5893
5.1476 -0.6745 1.5893
5.1675 -0.4890 1.5893
5.1805 -0.3028 1.5893
5.1869 -0.1164 1.5893
5.1865 0.0701 1.5893
5.1794 0.2564 1.5893
5.1656 0.4424 1.5893
5.1451 0.6276 1.5893
5.1179 0.8120 1.5893
5.0841 0.9952 1.5893
5.0438 1.1770 1.5893
4.9969 1.3572 1.5893
4.9436 1.5356 1.5893
4.8839 1.7119 1.5893
4.8179 1.8859 1.5893
4.7457 2.0573 1.5893
4.6674 2.2260 1.5893
4.5831 2.3918 1.5893
4.4929 2.5543 1.5893
4.3969 2.7135 1.5893
4.2954 2.8690 1.5893
4.1883 3.0208 1.5893
4.0758 3.1686 1.5893
3.9582 3.3123 1.5893
3.8355 3.4515 1.5893
3.7079 3.5863 1.5893
3.5756 3.7163 1.5893
3.4387 3.8415 1.5893
3.2975 3.9617 1.5893
3.1520 4.0767 1.5893
3.0026 4.1864 1.5893
2.8937 4.3573 1.6140
2.8675 4.6744 1.6925
2.6969 4.7734 1.6925
0.8970 1.7302 0.6018
0.8341 1.7612 0.6019
0.7702 1.7900 0.6020
0.7053 1.8165 0.6021
0.6395 1.8407 0.6022
0.5728 1.8624 0.6023
0.5055 1.8818 0.6024
0.4374 1.8988 0.6026
0.3688 1.9133 0.6027
0.2998 1.9253 0.6028
0.2303 1.9349 0.6029
0.1606 1.9420 0.6030
0.0906 1.9466 0.6031
0.0205 1.9487 0.6032
-0.0496 1.9482 0.6034
-0.1197 1.9453 0.6035
-0.1896 1.9398 0.6036
-0.2593 1.9319 0.6037
-0.3287 1.9215 0.6038
-0.3976 1.9085 0.6039
-0.4661 1.8932 0.6040
-0.5339 1.8754 0.6041
-0.6011 1.8551 0.6042
-0.6676 1.8325 0.6043
-0.7332 1.8075 0.6044
-0.7978 1.7802 0.6045
-0.8615 1.7505 0.6046
-2.5863 4.8103 1.6925
-2.7577 4.7141 1.6925
-2.9255 4.6118 1.6925
-0.7204 1.6555 0.6044
-0.7796 1.6287 0.6044
-0.8378 1.5998 0.6045
-0.8949 1.5688 0.6046
-2.6615 4.2986 1.6925
-2.8145 4.2000 1.6925
-2.9639 4.0961 1.6925
-3.1094 3.9869 1.6925
-3.2510 3.8726 1.6925
-3.3884 3.7532 1.6925
-3.5214 3.6291 1.6925
-3.6499 3.5002 1.6925
-3.7738 3.3668 1.6925
-3.8928 3.2291 1.6925
-4.0068 3.0872 1.6925
-4.1157 2.9413 1.6925
-4.2193 2.7916 1.6925
-4.3175 2.6383 1.6925
-4.4102 2.4815 1.6925
-4.4972 2.3216 1.6925
-4.5784 2.1585 1.6925
-4.6538 1.9927 1.6925
-4.7232 1.8243 1.6925
-4.7865 1.6534 1.6925
-4.8437 1.4804 1.6925
-4.8947 1.3054 1.6925
-4.9393 1.1286 1.6925
-4.9777 0.9504 1.6925
-5.0096 0.7709 1.6925
-5.0184 0.5883 1.6869
-5.0113 0.4054 1.6782
-5.0042 0.2240 1.6717
-4.9972 0.0437 1.6674
-4.9902 -0.1359 1.6652
-4.9833 -0.3154 1.6653
-4.9763 -0.4952 1.6674
-4.9692 -0.6758 1.6718
-4.9622 -0.8576 1.6783
-4.9551 -1.0412 1.6870
-4.9315 -1.2230 1.6925
-4.8856 -1.3999 1.6925
-4.8333 -1.5751 1.6925
-4.7746 -1.7483 1.6925
-4.7099 -1.9194 1.6925
-4.6390 -2.0880 1.6925
-4.5620 -2.2541 1.6925
-4.4792 -2.4173 1.6925
-4.3905 -2.5774 1.6925
-4.2961 -2.7344 1.6925
-4.1960 -2.8878 1.6925
-4.0905 -3.0376 1.6925
-3.9797 -3.1835 1.6925
-3.8636 -3.3254 1.6925
-3.7425 -3.4630 1.6925
-3.6165 -3.5962 1.6925
-3.4857 -3.7248 1.6925
-3.3503 -3.8487 1.6925
-3.2106 -3.9676 1.6925
-3.0666 -4.0814 1.6925
-2.9186 -4.1900 1.6925
-2.7668 -4.2932 1.6925
-2.6112 -4.3909 1.6925
-2.4523 -4.4829 1.6925
-2.2901 -4.5692 1.6925
-2.1248 -4.6496 1.6925
-1.9567 -4.7239 1.6925
-1.7860 -4.7922 1.6925
-1.6129 -4.8542 1.6925
-1.4377 -4.9100 1.6925
-1.2605 -4.9594 1.6925
-1.0817 -5.0024 1.6925
-0.9014 -5.0389 1.6925
-0.7198 -5.0689 1.6925
-0.5372 -5.0923 1.6925
-0.3539 -5.1091 1.6925
-0.1701 -5.1193 1.6925
0.0140 -5.1228 1.6925
0.1981 -5.1196 1.6925
0.3820 -5.1098 1.6925
0.5654 -5.0934 1.6925
0.7482 -5.0703 1.6925
0.9300 -5.0406 1.6925
1.1106 -5.0044 1.6925
1.2898 -4.9617 1.6925
1.4674 -4.9124 1.6925
1.6431 -4.8568 1.6925
1.8166 -4.7949 1.6925
1.9878 -4.7267 1.6925
2.1565 -4.6524 1.6925
2.3223 -4.5720 1.6925
2.4851 -4.4857 1.6925
2.6447 -4.3935 1.6925
2.8009 -4.2956 1.6925
2.9534 -4.1922 1.6925
3.1021 -4.0832 1.6925
3.2089 -3.9229 1.6728
3.2075 -3.6455 1.6028
3.3081 -3.4980 1.5893
3.4315 -3.3767 1.5893
3.5504 -3.2510 1.5893
3.6646 -3.1211 1.5893
3.7741 -2.9871 1.5893
3.8786 -2.8493 1.5893
3.9781 -2.7078 1.5893
4.0724 -2.5628 1.5893
4.1614 -2.4145 1.5893
4.2449 -2.2631 1.5893
4.3229 -2.1088 1.5893
4.3953 -1.9518 1.5893
4.4619 -1.7924 1.5893
4.5227 -1.6306 1.5893
4.5777 -1.4668 1.5893
4.6266 -1.3011 1.5893
4.6696 -1.1337 1.5893
4.7064 -0.9650 1.5893
4.7372 -0.7951 1.5893
4.7617 -0.6242 1.5893
4.7801 -0.4525 1.5893
4.7923 -0.2803 1.5893
4.7983 -0.1079 1.5893
4.7980 0.0646 1.5893
4.7915 0.2370 1.5893
4.7788 0.4090 1.5893
4.7599 0.5804 1.5893
4.7349 0.7510 1.5893
4.7037 0.9205 1.5893
4.6664 1.0887 1.5893
4.6232 1.2555 1.5893
4.5739 1.4205 1.5893
4.5187 1.5836 1.5893
4.4578 1.7446 1.5893
4.3911 1.9033 1.5893
4.3187 2.0594 1.5893
4.2408 2.2128 1.5893
4.1574 2.3633 1.5893
4.0687 2.5106 1.5893
3.9748 2.6546 1.5893
3.8758 2.7951 1.5893
3.7718 2.9319 1.5893
3.6630 3.0649 1.5893
3.5495 3.1938 1.5893
3.4315 3.3186 1.5893
3.3091 3.4390 1.5893
3.1825 3.5549 1.5893
3.0518 3.6662 1.5893
2.9218 3.7786 1.5918
2.8995 4.0421 1.6581
2.8086 4.2288 1.6925
2.6541 4.3261 1.6925
0.8875 1.5707 0.6018
0.8304 1.6015 0.6019
0.7722 1.6303 0.6020
0.7130 1.6569 0.6021
0.6529 1.6814 0.6022
0.5920 1.7038 0.6023
0.5303 1.7239 0.6024
0.4679 1.7419 0.6025
0.4050 1.7576 0.6026
0.3415 1.7710 0.6027
0.2775 1.7822 0.6028
0.2132 1.7910 0.6029
0.1487 1.7976 0.6030
0.0839 1.8018 0.6031
0.0190 1.8037 0.6032
-0.0459 1.8033 0.6033
-0.1108 1.8006 0.6034
-0.1755 1.7955 0.6035
-0.2400 1.7882 0.6036
-0.3042 1.7785 0.6037
-0.3680 1.7665 0.6038
-0.4314 1.7523 0.6039
-0.4942 1.7358 0.6040
-0.5564 1.7170 0.6041
-0.6179 1.6961 0.6042
-0.6786 1.6729 0.6043
-0.7384 1.6476 0.6044
-0.7973 1.6201 0.6045
-0.8552 1.5906 0.6046
-2.5529 4.3640 1.6925
-2.7082 4.2693 1.6925
-0.6697 1.5392 0.6042
-0.7248 1.5142 0.6043
-0.7789 1.4873 0.6044
-0.8320 1.4585 0.6045
-0.8840 1.4278 0.6046
-2.6172 3.9056 1.6925
-2.7561 3.8089 1.6925
-2.8914 3.7074 1.6925
-3.0231 3.6010 1.6925
-3.1508 3.4900 1.6925
-3.2746 3.3746 1.6925
-3.3941 3.2547 1.6925
-3.5092 3.1307 1.6925
-3.6199 3.0026 1.6925
-3.7258 2.8707 1.6925
-3.8271 2.7350 1.6925
-3.9234 2.5957 1.6925
-4.0147 2.4531 1.6925
-4.1008 2.3074 1.6925
-4.1817 2.1586 1.6925
-4.2572 2.0070 1.6925
-4.3272 1.8527 1.6925
-4.3918 1.6961 1.6925
-4.4506 1.5372 1.6925
-4.5037 1.3763 1.6925
-4.5511 1.2136 1.6925
-4.5925 1.0492 1.6925
-4.6281 0.8835 1.6925
-4.6578 0.7165 1.6925
-4.6814 0.5486 1.6925
-4.6990 0.3799 1.6925
-4.7105 0.2107 1.6925
-4.7160 0.0411 1.6925
-4.7155 -0.1286 1.6925
-4.7087 -0.2982 1.6925
-4.6960 -0.4675 1.6925
-4.6772 -0.6363 1.6925
-4.6523 -0.8043 1.6925
-4.6214 -0.9713 1.6925
-4.5845 -1.1371 1.6925
-4.5417 -1.3016 1.6925
-4.4930 -1.4644 1.6925
-4.4384 -1.6255 1.6925
-4.3781 -1.7845 1.6925
-4.3122 -1.9412 1.6925
-4.2406 -2.0955 1.6925
-4.1635 -2.2472 1.6925
-4.0810 -2.3960 1.6925
-3.9931 -2.5419 1.6925
-3.9001 -2.6844 1.6925
-3.8020 -2.8236 1.6925
-3.6989 -2.9592 1.6925
-3.5910 -3.0910 1.6925
-3.4783 -3.2189 1.6925
-3.3611 -3.3426 1.6925
-3.2395 -3.4621 1.6925
-3.1137 -3.5772 1.6925
-2.9838 -3.6876 1.6925
-2.8499 -3.7934 1.6925
-2.7123 -3.8943 1.6925
-2.5711 -3.9901 1.6925
-2.4266 -4.0808 1.6925
-2.2788 -4.1663 1.6925
-2.1280 -4.2464 1.6925
-1.9744 -4.3210 1.6925
-1.8182 -4.3901 1.6925
-1.6595 -4.4534 1.6925
-1.4987 -4.5110 1.6925
-1.3358 -4.5628 1.6925
-1.1712 -4.6087 1.6925
-1.0050 -4.6486 1.6925
-0.8374 -4.6825 1.6925
-0.6687 -4.7103 1.6925
-0.4991 -4.7320 1.6925
-0.3287 -4.7475 1.6925
-0.1580 -4.7569 1.6925
0.0131 -4.7601 1.6925
0.1842 -4.7572 1.6925
0.3551 -4.7480 1.6925
0.5255 -4.7327 1.6925
0.6953 -4.7112 1.6925
0.8642 -4.6836 1.6925
1.0320 -4.6499 1.6925
1.1985 -4.6102 1.6925
1.3635 -4.5644 1.6925
1.5267 -4.5128 1.6925
1.6880 -4.4552 1.6925
1.8470 -4.3919 1.6925
2.0037 -4.3228 1.6925
2.1578 -4.2481 1.6925
2.3091 -4.1679 1.6925
2.4574 -4.0823 1.6925
2.6025 -3.9913 1.6925
2.7441 -3.8952 1.6925
2.8823 -3.7940 1.6925
3.0166 -3.6879 1.6925
3.1471 -3.5770 1.6925
3.1875 -3.3705 1.6481
3.1910 -3.1401 1.5906
3.2988 -3.0207 1.5893
3.4050 -2.9001 1.5893
3.5067 -2.7756 1.5893
3.6039 -2.6476 1.5893
3.6964 -2.5161 1.5893
3.7840 -2.3814 1.5893
3.8667 -2.2437 1.5893
3.9443 -2.1030 1.5893
4.0168 -1.9597 1.5893
4.0841 -1.8138 1.5893
4.1461 -1.6656 1.5893
4.2026 -1.5153 1.5893
4.2537 -1.3631 1.5893
4.2993 -1.2092 1.5893
4.3392 -1.0537 1.5893
4.3735 -0.8969 1.5893
4.4021 -0.7390 1.5893
4.4250 -0.5802 1.5893
4.4422 -0.4207 1.5893
4.4536 -0.2607 1.5893
4.4592 -0.1005 1.5893
4.4590 0.0599 1.5893
4.4530 0.2201 1.5893
4.4413 0.3799 1.5893
4.4238 0.5392 1.5893
4.4006 0.6977 1.5893
4.3717 0.8553 1.5893
4.3371 1.0116 1.5893
4.2969 1.1666 1.5893
4.2512 1.3201 1.5893
4.2000 1.4717 1.5893
4.1434 1.6214 1.5893
4.0815 1.7689 1.5893
4.0143 1.9140 1.5893
3.9419 2.0566 1.5893
3.8645 2.1965 1.5893
3.7821 2.3335 1.5893
3.6948 2.4674 1.5893
3.6029 2.5980 1.5893
3.5063 2.7252 1.5893
3.4052 2.8489 1.5893
3.2997 2.9688 1.5893
3.1901 3.0848 1.5893
3.0763 3.1968 1.5893
2.9587 3.3046 1.5893
2.9210 3.5086 1.6362
2.8885 3.7350 1.6925
2.7516 3.8356 1.6925
2.6113 3.9313 1.6925
0.8773 1.4298 0.6017
0.8253 1.4604 0.6018
0.7722 1.4891 0.6019
0.7181 1.5158 0.6020
0.6630 1.5406 0.6021
0.6072 1.5634 0.6022
0.5505 1.5842 0.6023
0.4932 1.6029 0.6024
0.4352 1.6196 0.6025
0.3766 1.6342 0.6026
0.3176 1.6467 0.6027
0.2581 1.6571 0.6028
0.1983 1.6653 0.6029
0.1383 1.6714 0.6030
0.0781 1.6753 0.6031
0.0177 1.6771 0.6032
-0.0426 1.6767 0.6033
-0.1029 1.6741 0.6034
-0.1631 1.6694 0.6035
-0.2231 1.6626 0.6036
-0.2828 1.6536 0.6037
-0.3421 1.6424 0.6037
-0.4010 1.6292 0.6038
-0.4594 1.6138 0.6039
-0.5173 1.5964 0.6040
-0.5744 1.5769 0.6041
-0.6309 1.5554 0.6042
-0.6865 1.5318 0.6043
-0.7412 1.5063 0.6044
-0.7951 1.4788 0.6044
-0.8479 1.4494 0.6045
-2.5184 3.9700 1.6925
-0.6251 1.4365 0.6042
-0.6765 1.4133 0.6042
-0.7269 1.3882 0.6043
-0.7765 1.3612 0.6044
-0.8251 1.3326 0.6044
-0.8726 1.3022 0.6045
-2.5728 3.5556 1.6925
-2.6992 3.4607 1.6925
-2.8220 3.3615 1.6925
-2.9413 3.2579 1.6925
-3.0568 3.1500 1.6925
-3.1683 3.0382 1.6925
-3.2758 2.9224 1.6925
-3.3791 2.8028 1.6925
-3.4780 2.6796 1.6925
-3.5725 2.5529 1.6925
-3.6624 2.4229 1.6925
-3.7476 2.2898 1.6925
-3.8280 2.1537 1.6925
-3.9035 2.0148 1.6925
-3.9739 1.8732 1.6925
-4.0392 1.7293 1.6925
-4.0994 1.5830 1.6925
-4.1543 1.4347 1.6925
-4.2038 1.2845 1.6925
-4.2480 1.1326 1.6925
-4.2867 0.9792 1.6925
-4.3199 0.8244 1.6925
-4.3475 0.6686 1.6925
-4.3695 0.5118 1.6925
-4.3859 0.3544 1.6925
-4.3966 0.1964 1.6925
-4.4017 0.0381 1.6925
-4.4011 -0.1203 1.6925
-4.3947 -0.2786 1.6925
-4.3828 -0.4366 1.6925
-4.3651 -0.5940 1.6925
-4.3419 -0.7508 1.6925
-4.3130 -0.9067 1.6925
-4.2785 -1.0615 1.6925
-4.2385 -1.2149 1.6925
-4.1930 -1.3669 1.6925
-4.1420 -1.5172 1.6925
-4.0857 -1.6655 1.6925
-4.0241 -1.8118 1.6925
-3.9572 -1.9558 1.6925
-3.8852 -2.0973 1.6925
-3.8081 -2.2361 1.6925
-3.7261 -2.3722 1.6925
-3.6393 -2.5052 1.6925
-3.5476 -2.6350 1.6925
-3.4514 -2.7615 1.6925
-3.3506 -2.8844 1.6925
-3.2455 -3.0037 1.6925
-3.1361 -3.1192 1.6925
-3.0226 -3.2306 1.6925
-2.9051 -3.3379 1.6925
-2.7839 -3.4410 1.6925
-2.6589 -3.5396 1.6925
-2.5305 -3.6336 1.6925
-2.3988 -3.7230 1.6925
-2.2639 -3.8076 1.6925
-2.1260 -3.8873 1.6925
-1.9853 -3.9620 1.6925
-1.8419 -4.0315 1.6925
-1.6961 -4.0959 1.6925
-1.5481 -4.1550 1.6925
-1.3981 -4.2087 1.6925
-1.2461 -4.2569 1.6925
-1.0925 -4.2997 1.6925
-0.9374 -4.3369 1.6925
-0.7811 -4.3684 1.6925
-0.6237 -4.3943 1.6925
-0.4654 -4.4145 1.6925
-0.3065 -4.4290 1.6925
-0.1472 -4.4378 1.6925
0.0124 -4.4407 1.6925
0.1719 -4.4379 1.6925
0.3313 -4.4294 1.6925
0.4903 -4.4150 1.6925
0.6487 -4.3950 1.6925
0.8063 -4.3692 1.6925
0.9628 -4.3377 1.6925
1.1181 -4.3007 1.6925
1.2720 -4.2580 1.6925
1.4243 -4.2098 1.6925
1.5747 -4.1560 1.6925
1.7230 -4.0969 1.6925
1.8692 -4.0325 1.6925
2.0129 -3.9628 1.6925
2.1540 -3.8880 1.6925
2.2923 -3.8081 1.6925
2.4277 -3.7233 1.6925
2.5599 -3.6336 1.6925
2.6887 -3.5392 1.6925
2.8140 -3.4403 1.6925
2.9357 -3.3368 1.6925
3.0536 -3.2290 1.6925
3.1675 -3.1171 1.6925
3.1699 -2.9027 1.6371
3.1764 -2.7054 1.5893
3.2713 -2.5893 1.5893
3.3658 -2.4728 1.5911
3.4482 -2.3473 1.5893
3.5300 -2.2217 1.5893
3.6071 -2.0932 1.5893
3.6796 -1.9620 1.5893
3.7473 -1.8283 1.5893
3.8101 -1.6922 1.5893
3.8679 -1.5540 1.5893
3.9207 -1.4138 1.5893
3.9684 -1.2718 1.5893
4.0109 -1.1282 1.5893
4.0482 -0.9832 1.5893
4.0803 -0.8369 1.5893
4.1070 -0.6896 1.5893
4.1284 -0.5415 1.5893
4.1444 -0.3927 1.5893
4.1551 -0.2435 1.5893
4.1604 -0.0939 1.5893
4.1603 0.0557 1.5893
4.1547 0.2051 1.5893
4.1438 0.3543 1.5893
4.1276 0.5029 1.5893
4.1060 0.6508 1.5893
4.0791 0.7978 1.5893
4.0469 0.9437 1.5893
4.0094 1.0883 1.5893
3.9668 1.2315 1.5893
3.9191 1.3730 1.5893
3.8664 1.5127 1.5893
3.8086 1.6504 1.5893
3.7460 1.7858 1.5893
3.6785 1.9189 1.5893
3.6063 2.0495 1.5893
3.5295 2.1773 1.5893
3.4481 2.3023 1.5893
3.3623 2.4243 1.5893
3.2722 2.5430 1.5893
3.1779 2.6585 1.5893
3.0795 2.7704 1.5893
2.9773 2.8787 1.5893
2.9407 3.0555 1.6278
2.9294 3.2715 1.6860
2.8202 3.3872 1.6925
2.6959 3.4857 1.6925
2.5683 3.5797 1.6925
0.8665 1.3044 0.6017
0.8190 1.3346 0.6018
0.7704 1.3631 0.6019
0.7208 1.3899 0.6020
0.6703 1.4148 0.6021
0.6190 1.4380 0.6022
0.5668 1.4593 0.6022
0.5139 1.4787 0.6023
0.4604 1.4962 0.6024
0.4063 1.5118 0.6025
0.3516 1.5254 0.6026
0.2965 1.5370 0.6027
0.2410 1.5467 0.6028
0.1852 1.5544 0.6029
0.1291 1.5601 0.6030
0.0729 1.5637 0.6031
0.0166 1.5654 0.6032
-0.0397 1.5650 0.6032
-0.0960 1.5626 0.6033
-0.1522 1.5582 0.6034
-0.2082 1.5518 0.6035
-0.2639 1.5434 0.6036
-0.3193 1.5330 0.6037
-0.3743 1.5206 0.6038
-0.4288 1.5063 0.6039
-0.4828 1.4900 0.6039
-0.5361 1.4718 0.6040
-0.5888 1.4517 0.6041
-0.6407 1.4297 0.6042
-0.6918 1.4058 0.6043
-0.7421 1.3802 0.6043
-0.7913 1.3527 0.6044
-0.8396 1.3235 0.6045
-0.5853 1.3453 0.6041
-0.6334 1.3235 0.6041
-0.6807 1.2999 0.6042
-0.7272 1.2747 0.6043
-0.7726 1.2479 0.6043
-0.8172 1.2194 0.6044
-0.8606 1.1893 0.6045
-2.5280 3.2413 1.6925
-2.6432 3.1484 1.6925
-2.7549 3.0513 1.6925
-2.8630 2.9503 1.6925
-2.9675 2.8455 1.6925
-3.0682 2.7370 1.6925
-3.1649 2.6250 1.6925
-3.2575 2.5096 1.6925
-3.3460 2.3910 1.6925
-3.4302 2.2692 1.6925
-3.5099 2.1445 1.6925
-3.5852 2.0170 1.6925
-3.6559 1.8869 1.6925
-3.7219 1.7543 1.6925
-3.7831 1.6194 1.6925
-3.8394 1.4824 1.6925
-3.8907 1.3435 1.6925
-3.9371 1.2028 1.6925
-3.9785 1.0605 1.6925
-4.0146 0.9169 1.6925
-4.0457 0.7719 1.6925
-4.0715 0.6260 1.6925
-4.0921 0.4792 1.6925
-4.1074 0.3317 1.6925
-4.1174 0.1837 1.6925
-4.1221 0.0355 1.6925
-4.1214 -0.1128 1.6925
-4.1155 -0.2611 1.6925
-4.1043 -0.4090 1.6925
-4.0877 -0.5565 1.6925
-4.0659 -0.7033 1.6925
-4.0387 -0.8493 1.6925
-4.0064 -0.9942 1.6925
-3.9689 -1.1379 1.6925
-3.9262 -1.2802 1.6925
-3.8784 -1.4209 1.6925
-3.8257 -1.5597 1.6925
-3.7679 -1.6967 1.6925
-3.7053 -1.8315 1.6925
-3.6378 -1.9640 1.6925
-3.5656 -2.0940 1.6925
-3.4888 -2.2213 1.6925
-3.4074 -2.3458 1.6925
-3.3215 -2.4674 1.6925
-3.2314 -2.5858 1.6925
-3.1370 -2.7009 1.6925
-3.0385 -2.8125 1.6925
-2.9361 -2.9205 1.6925
-2.8298 -3.0248 1.6925
-2.7198 -3.1253 1.6925
-2.6062 -3.2217 1.6925
-2.4892 -3.3140 1.6925
-2.3689 -3.4020 1.6925
-2.2456 -3.4856 1.6925
-2.1193 -3.5648 1.6925
-1.9901 -3.6394 1.6925
-1.8584 -3.7092 1.6925
-1.7242 -3.7743 1.6925
-1.5877 -3.8345 1.6925
-1.4491 -3.8898 1.6925
-1.3086 -3.9400 1.6925
-1.1664 -3.9852 1.6925
-1.0226 -4.0252 1.6925
-0.8774 -4.0599 1.6925
-0.7310 -4.0894 1.6925
-0.5837 -4.1136 1.6925
-0.4356 -4.1325 1.6925
-0.2868 -4.1460 1.6925
-0.1377 -4.1542 1.6925
0.0117 -4.1569 1.6925
0.1611 -4.1543 1.6925
0.3103 -4.1462 1.6925
0.4591 -4.1328 1.6925
0.6073 -4.1140 1.6925
0.7548 -4.0899 1.6925
0.9013 -4.0604 1.6925
1.0467 -4.0257 1.6925
1.1907 -3.9857 1.6925
1.3333 -3.9406 1.6925
1.4740 -3.8903 1.6925
1.6129 -3.8350 1.6925
1.7497 -3.7746 1.6925
1.8842 -3.7094 1.6925
2.0163 -3.6394 1.6925
2.1458 -3.5646 1.6925
2.2724 -3.4852 1.6925
2.3961 -3.4013 1.6925
2.5168 -3.3129 1.6925
2.6341 -3.2203 1.6925
2.7480 -3.1235 1.6925
2.8583 -3.0226 1.6925
2.9649 -2.9178 1.6925
3.0677 -2.8092 1.6925
3.1611 -2.6925 1.6897
3.1541 -2.4967 1.6370
3.1580 -2.3202 1.5949
3.2277 -2.1973 1.5893
3.3043 -2.0798 1.5893
3.3765 -1.9595 1.5893
3.4444 -1.8367 1.5893
3.5077 -1.7116 1.5893
3.5666 -1.5842 1.5893
3.6207 -1.4549 1.5893
3.6702 -1.3236 1.5893
3.7148 -1.1907 1.5893
3.7547 -1.0563 1.5893
3.7896 -0.9206 1.5893
3.8197 -0.7837 1.5893
3.8447 -0.6458 1.5893
3.8648 -0.5071 1.5893
3.8799 -0.3678 1.5893
3.8899 -0.2281 1.5893
3.8949 -0.0881 1.5893
3.8948 0.0519 1.5893
3.8897 0.1918 1.5893
3.8795 0.3315 1.5893
3.8643 0.4706 1.5893
3.8442 0.6091 1.5893
3.8190 0.7467 1.5893
3.7889 0.8834 1.5893
3.7539 1.0188 1.5893
3.7141 1.1528 1.5893
3.6694 1.2853 1.5893
3.6201 1.4161 1.5893
3.5661 1.5450 1.5893
3.5075 1.6719 1.5893
3.4443 1.7965 1.5893
3.3768 1.9188 1.5893
3.3049 2.0385 1.5893
3.2287 2.1556 1.5893
3.1484 2.2698 1.5893
3.0641 2.3810 1.5893
2.9759 2.4892 1.5893
2.9558 2.6588 1.6290
2.9458 2.8480 1.6792
2.8634 2.9749 1.6925
2.7540 3.0753 1.6925
2.6410 3.1717 1.6925
0.8974 1.1602 0.6016
0.8551 1.1917 0.6017
0.8116 1.2216 0.6018
0.7671 1.2499 0.6019
0.7216 1.2766 0.6019
0.6751 1.3017 0.6020
0.6279 1.3251 0.6021
0.5798 1.3467 0.6022
0.5309 1.3667 0.6023
0.4814 1.3849 0.6024
0.4312 1.4012 0.6024
0.3805 1.4158 0.6025
0.3293 1.4286 0.6026
0.2777 1.4395 0.6027
0.2257 1.4485 0.6028
0.1735 1.4557 0.6029
0.1210 1.4611 0.6030
0.0683 1.4645 0.6030
0.0156 1.4660 0.6031
-0.0372 1.4657 0.6032
-0.0899 1.4635 0.6033
-0.1425 1.4593 0.6034
-0.1950 1.4533 0.6035
-0.2471 1.4454 0.6035
-0.2990 1.4357 0.6036
-0.3505 1.4241 0.6037
-0.4015 1.4106 0.6038
-0.4521 1.3954 0.6039
-0.5021 1.3783 0.6039
-0.5514 1.3595 0.6040
-0.6000 1.3389 0.6041
-0.6479 1.3165 0.6042
-0.6949 1.2925 0.6042
-0.7410 1.2668 0.6043
-0.7862 1.2394 0.6044
-0.5498 1.2635 0.6040
-0.5949 1.2430 0.6041
-0.6393 1.2209 0.6041
-0.6830 1.1972 0.6042
-0.7257 1.1720 0.6042
-0.7674 1.1452 0.6043
-0.8083 1.1170 0.6044
-0.8480 1.0873 0.6044
-0.8867 1.0562 0.6045
-2.5878 2.8662 1.6925
-2.6894 2.7713 1.6925
-2.7875 2.6729 1.6925
-2.8820 2.5709 1.6925
-2.9729 2.4657 1.6925
-3.0599 2.3573 1.6925
-3.1430 2.2458 1.6925
-3.2221 2.1314 1.6925
-3.2970 2.0143 1.6925
-3.3677 1.8945 1.6925
-3.4341 1.7722 1.6925
-3.4960 1.6477 1.6925
-3.5534 1.5210 1.6925
-3.6063 1.3923 1.6925
-3.6546 1.2618 1.6925
-3.6981 1.1297 1.6925
-3.7369 0.9960 1.6925
-3.7709 0.8610 1.6925
-3.8000 0.7249 1.6925
-3.8242 0.5878 1.6925
-3.8435 0.4499 1.6925
-3.8578 0.3114 1.6925
-3.8672 0.1724 1.6925
-3.8716 0.0332 1.6925
-3.8709 -0.1061 1.6925
-3.8653 -0.2454 1.6925
-3.8547 -0.3843 1.6925
-3.8391 -0.5229 1.6925
-3.8186 -0.6607 1.6925
-3.7931 -0.7978 1.6925
-3.7627 -0.9339 1.6925
-3.7274 -1.0689 1.6925
-3.6872 -1.2025 1.6925
-3.6424 -1.3346 1.6925
-3.5928 -1.4650 1.6925
-3.5385 -1.5936 1.6925
-3.4796 -1.7202 1.6925
-3.4162 -1.8446 1.6925
-3.3483 -1.9667 1.6925
-3.2761 -2.0862 1.6925
-3.1997 -2.2031 1.6925
-3.1190 -2.3172 1.6925
-3.0344 -2.4284 1.6925
-2.9457 -2.5364 1.6925
-2.8532 -2.6412 1.6925
-2.7569 -2.7427 1.6925
-2.6571 -2.8406 1.6925
-2.5538 -2.9348 1.6925
-2.4471 -3.0254 1.6925
-2.3372 -3.1120 1.6925
-2.2243 -3.1946 1.6925
-2.1084 -3.2731 1.6925
-1.9898 -3.3474 1.6925
-1.8685 -3.4174 1.6925
-1.7448 -3.4829 1.6925
-1.6188 -3.5440 1.6925
-1.4906 -3.6005 1.6925
-1.3605 -3.6524 1.6925
-1.2286 -3.6995 1.6925
-1.0950 -3.7419 1.6925
-0.9599 -3.7794 1.6925
-0.8237 -3.8120 1.6925
-0.6862 -3.8397 1.6925
-0.5479 -3.8623 1.6925
-0.4088 -3.8800 1.6925
-0.2692 -3.8927 1.6925
-0.1292 -3.9003 1.6925
0.0111 -3.9029 1.6925
0.1513 -3.9004 1.6925
0.2914 -3.8928 1.6925
0.4311 -3.8802 1.6925
0.5703 -3.8625 1.6925
0.7088 -3.8399 1.6925
0.8463 -3.8122 1.6925
0.9828 -3.7796 1.6925
1.1180 -3.7420 1.6925
1.2518 -3.6996 1.6925
1.3839 -3.6524 1.6925
1.5143 -3.6005 1.6925
1.6427 -3.5438 1.6925
1.7690 -3.4826 1.6925
1.8930 -3.4168 1.6925
2.0146 -3.3466 1.6925
2.1335 -3.2721 1.6925
2.2496 -3.1933 1.6925
2.3629 -3.1104 1.6925
2.4730 -3.0234 1.6925
2.5799 -2.9325 1.6925
2.6835 -2.8378 1.6925
2.7836 -2.7394 1.6925
2.8801 -2.6375 1.6925
2.9728 -2.5322 1.6925
3.0616 -2.4236 1.6925
3.1463 -2.3117 1.6924
3.1396 -2.1374 1.6465
3.1410 -1.9771 1.6091
3.1701 -1.8398 1.5893
3.2338 -1.7246 1.5893
3.2934 -1.6071 1.5893
3.3486 -1.4875 1.5893
3.3994 -1.3661 1.5893
3.4459 -1.2429 1.5893
3.4879 -1.1181 1.5893
3.5253 -0.9919 1.5893
3.5582 -0.8645 1.5893
3.5864 -0.7359 1.5893
3.6099 -0.6065 1.5893
3.6288 -0.4763 1.5893
3.6430 -0.3455 1.5893
3.6524 -0.2143 1.5893
3.6571 -0.0829 1.5893
3.6571 0.0486 1.5893
3.6523 0.1800 1.5893
3.6428 0.3111 1.5893
3.6286 0.4417 1.5893
3.6097 0.5717 1.5893
3.5861 0.7010 1.5893
3.5579 0.8293 1.5893
3.5251 0.9565 1.5893
3.4877 1.0824 1.5893
3.4459 1.2068 1.5893
3.3996 1.3296 1.5893
3.3489 1.4507 1.5893
3.2939 1.5698 1.5893
3.2346 1.6869 1.5893
3.1712 1.8017 1.5893
3.1037 1.9142 1.5893
3.0322 2.0242 1.5893
2.9823 2.1498 1.6029
2.9671 2.3054 1.6386
2.9603 2.4759 1.6833
2.8844 2.5943 1.6925
2.7887 2.6958 1.6925
2.6893 2.7937 1.6925
2.5866 2.8881 1.6925
0.8818 1.0588 0.6016
0.8430 1.0898 0.6017
0.8032 1.1193 0.6018
0.7624 1.1474 0.6019
0.7206 1.1740 0.6019
0.6778 1.1991 0.6020
0.6342 1.2226 0.6021
0.5898 1.2446 0.6022
0.5446 1.2650 0.6022
0.4987 1.2837 0.6023
0.4522 1.3008 0.6024
0.4051 1.3162 0.6025
0.3575 1.3298 0.6025
0.3094 1.3418 0.6026
0.2609 1.3521 0.6027
0.2121 1.3606 0.6028
0.1630 1.3673 0.6029
0.1137 1.3723 0.6029
0.0642 1.3756 0.6030
0.0147 1.3770 0.6031
-0.0349 1.3767 0.6032
-0.0844 1.3746 0.6033
-0.1338 1.3707 0.6033
-0.1831 1.3650 0.6034
-0.2321 1.3576 0.6035
-0.2808 1.3485 0.6036
-0.3292 1.3376 0.6037
-0.3771 1.3249 0.6037
-0.4246 1.3106 0.6038
-0.4715 1.2946 0.6039
-0.5179 1.2769 0.6039
-0.5635 1.2575 0.6040
-0.6085 1.2365 0.6041
-0.6526 1.2139 0.6041
-0.6960 1.1898 0.6042
-0.7384 1.1640 0.6043
-0.5177 1.1898 0.6039
-0.5602 1.1705 0.6040
-0.6020 1.1496 0.6040
-0.6431 1.1273 0.6041
-0.6833 1.1036 0.6042
-0.7226 1.0784 0.6042
-0.7611 1.0518 0.6043
-0.7985 1.0238 0.6043
-0.8349 0.9945 0.6044
-0.8703 0.9639 0.6044
-2.5327 2.6098 1.6925
-2.6251 2.5171 1.6925
-2.7141 2.4211 1.6925
-2.7997 2.3220 1.6925
-2.8817 2.2199 1.6925
-2.9599 2.1148 1.6925
-3.0343 2.0071 1.6925
-3.1049 1.8968 1.6925
-3.1714 1.7840 1.6925
-3.2339 1.6688 1.6925
-3.2922 1.5516 1.6925
-3.3463 1.4322 1.6925
-3.3961 1.3110 1.6925
-3.4415 1.1881 1.6925
-3.4825 1.0636 1.6925
-3.5190 0.9378 1.6925
-3.5509 0.8107 1.6925
-3.5783 0.6824 1.6925
-3.6011 0.5533 1.6925
-3.6193 0.4235 1.6925
-3.6327 0.2930 1.6925
-3.6415 0.1622 1.6925
-3.6456 0.0310 1.6925
-3.6450 -0.1001 1.6925
-3.6396 -0.2312 1.6925
-3.6296 -0.3621 1.6925
-3.6149 -0.4925 1.6925
-3.5955 -0.6223 1.6925
-3.5715 -0.7514 1.6925
-3.5428 -0.8796 1.6925
-3.5096 -1.0066 1.6925
-3.4718 -1.1324 1.6925
-3.4294 -1.2568 1.6925
-3.3827 -1.3796 1.6925
-3.3316 -1.5007 1.6925
-3.2761 -1.6198 1.6925
-3.2164 -1.7369 1.6925
-3.1525 -1.8518 1.6925
-3.0844 -1.9644 1.6925
-3.0124 -2.0744 1.6925
-2.9365 -2.1818 1.6925
-2.8567 -2.2865 1.6925
-2.7732 -2.3882 1.6925
-2.6861 -2.4868 1.6925
-2.5954 -2.5823 1.6925
-2.5014 -2.6744 1.6925
-2.4041 -2.7632 1.6925
-2.3037 -2.8483 1.6925
-2.2002 -2.9299 1.6925
-2.0939 -3.0076 1.6925
-1.9848 -3.0815 1.6925
-1.8731 -3.1514 1.6925
-1.7589 -3.2173 1.6925
-1.6424 -3.2790 1.6925
-1.5238 -3.3364 1.6925
-1.4031 -3.3896 1.6925
-1.2806 -3.4384 1.6925
-1.1564 -3.4827 1.6925
-1.0306 -3.5226 1.6925
-0.9035 -3.5578 1.6925
-0.7752 -3.5885 1.6925
-0.6459 -3.6145 1.6925
-0.5157 -3.6359 1.6925
-0.3847 -3.6525 1.6925
-0.2533 -3.6644 1.6925
-0.1214 -3.6716 1.6925
0.0106 -3.6739 1.6925
0.1426 -3.6716 1.6925
0.2744 -3.6644 1.6925
0.4059 -3.6525 1.6925
0.5369 -3.6359 1.6925
0.6672 -3.6145 1.6925
0.7967 -3.5885 1.6925
0.9252 -3.5577 1.6925
1.0524 -3.5224 1.6925
1.1784 -3.4825 1.6925
1.3027 -3.4380 1.6925
1.4255 -3.3891 1.6925
1.5463 -3.3358 1.6925
1.6652 -3.2782 1.6925
1.7819 -3.2163 1.6925
1.8963 -3.1502 1.6925
2.0082 -3.0801 1.6925
2.1176 -3.0059 1.6925
2.2242 -2.9278 1.6925
2.3278 -2.8460 1.6925
2.4285 -2.7604 1.6925
2.5260 -2.6713 1.6925
2.6202 -2.5787 1.6925
2.7110 -2.4828 1.6925
2.7983 -2.3837 1.6925
2.8819 -2.2814 1.6925
2.9618 -2.1763 1.6925
3.0378 -2.0683 1.6925
3.1099 -1.9576 1.6925
3.1270 -1.8149 1.6654
3.1234 -1.6658 1.6307
3.1253 -1.5252 1.6022
3.1521 -1.4004 1.5893
3.2000 -1.2861 1.5893
3.2438 -1.1701 1.5893
3.2833 -1.0527 1.5893
3.3186 -0.9339 1.5893
3.3495 -0.8139 1.5893
3.3761 -0.6929 1.5893
3.3983 -0.5711 1.5893
3.4161 -0.4485 1.5893
3.4295 -0.3254 1.5893
3.4384 -0.2019 1.5893
3.4429 -0.0782 1.5893
3.4429 0.0456 1.5893
3.4384 0.1692 1.5893
3.4295 0.2927 1.5893
3.4161 0.4157 1.5893
3.3984 0.5381 1.5893
3.3762 0.6598 1.5893
3.3497 0.7806 1.5893
3.3188 0.9003 1.5893
3.2836 1.0188 1.5893
3.2443 1.1360 1.5893
3.2189 1.2588 1.5983
3.1530 1.3656 1.5893
3.1013 1.4778 1.5893
3.0455 1.5881 1.5893
3.0010 1.7048 1.5973
2.9885 1.8429 1.6253
2.9792 1.9885 1.6584
2.9650 2.1371 1.6925
2.8857 2.2419 1.6925
2.8026 2.3437 1.6925
2.7160 2.4425 1.6925
2.6259 2.5381 1.6925
0.9001 0.9349 0.6016
0.8658 0.9666 0.6016
0.8304 0.9970 0.6017
0.7939 1.0262 0.6018
0.7564 1.0540 0.6018
0.7180 1.0804 0.6019
0.6786 1.1055 0.6020
0.6384 1.1292 0.6020
0.5973 1.1513 0.6021
0.5555 1.1720 0.6022
0.5129 1.1912 0.6023
0.4697 1.2088 0.6023
0.4259 1.2249 0.6024
0.3815 1.2394 0.6025
0.3367 1.2523 0.6026
0.2914 1.2636 0.6026
0.2458 1.2732 0.6027
0.1998 1.2812 0.6028
0.1535 1.2876 0.6029
0.1071 1.2923 0.6029
0.0605 1.2953 0.6030
0.0139 1.2967 0.6031
-0.0328 1.2964 0.6032
-0.0794 1.2944 0.6032
-0.1260 1.2907 0.6033
-0.1724 1.2854 0.6034
-0.2185 1.2784 0.6035
-0.2644 1.2698 0.6035
-0.3099 1.2595 0.6036
-0.3551 1.2476 0.6037
-0.3998 1.2341 0.6037
-0.4440 1.2190 0.6038
-0.4876 1.2023 0.6039
-0.5306 1.1841 0.6039
-0.5730 1.1643 0.6040
-0.6145 1.1430 0.6041
-0.6553 1.1203 0.6041
-0.6953 1.0961 0.6042
-0.4886 1.1228 0.6039
-0.5287 1.1046 0.6039
-0.5682 1.0850 0.6040
-0.6069 1.0639 0.6040
-0.6448 1.0415 0.6041
-0.6820 1.0176 0.6041
-0.7182 0.9926 0.6042
-0.7536 0.9661 0.6042
-0.7879 0.9385 0.6043
-0.8213 0.9096 0.6043
-0.8536 0.8796 0.6044
-0.8848 0.8484 0.6044
-2.5618 2.2851 1.6925
-2.6425 2.1915 1.6925
-2.7198 2.0951 1.6925
-2.7937 1.9960 1.6925
-2.8639 1.8943 1.6925
-2.9305 1.7901 1.6925
-2.9933 1.6837 1.6925
-3.0523 1.5750 1.6925
-3.1073 1.4643 1.6925
-3.1583 1.3516 1.6925
-3.2053 1.2372 1.6925
-3.2481 1.1212 1.6925
-3.2868 1.0037 1.6925
-3.3212 0.8849 1.6925
-3.3513 0.7649 1.6925
-3.3772 0.6439 1.6925
-3.3987 0.5221 1.6925
-3.4158 0.3995 1.6925
-3.4285 0.2764 1.6925
-3.4367 0.1529 1.6925
-3.4405 0.0291 1.6925
-3.4400 -0.0947 1.6925
-3.4349 -0.2184 1.6925
-3.4254 -0.3419 1.6925
-3.4115 -0.4650 1.6925
-3.3932 -0.5875 1.6925
-3.3705 -0.7093 1.6925
-3.3434 -0.8303 1.6925
-3.3120 -0.9501 1.6925
-3.2762 -1.0688 1.6925
-3.2363 -1.1862 1.6925
-3.1921 -1.3021 1.6925
-3.1438 -1.4163 1.6925
-3.0915 -1.5288 1.6925
-3.0351 -1.6392 1.6925
-2.9747 -1.7477 1.6925
-2.9106 -1.8539 1.6925
-2.8425 -1.9577 1.6925
-2.7708 -2.0590 1.6925
-2.6955 -2.1577 1.6925
-2.6167 -2.2537 1.6925
-2.5345 -2.3468 1.6925
-2.4489 -2.4368 1.6925
-2.3602 -2.5238 1.6925
-2.2684 -2.6074 1.6925
-2.1736 -2.6878 1.6925
-2.0759 -2.7647 1.6925
-1.9756 -2.8380 1.6925
-1.8726 -2.9077 1.6925
-1.7672 -2.9736 1.6925
-1.6595 -3.0358 1.6925
-1.5495 -3.0939 1.6925
-1.4376 -3.1481 1.6925
-1.3238 -3.1983 1.6925
-1.2081 -3.2443 1.6925
-1.0910 -3.2861 1.6925
-0.9723 -3.3237 1.6925
-0.8524 -3.3569 1.6925
-0.7313 -3.3858 1.6925
-0.6092 -3.4104 1.6925
-0.4864 -3.4305 1.6925
-0.3629 -3.4462 1.6925
-0.2388 -3.4574 1.6925
-0.1145 -3.4641 1.6925
0.0101 -3.4663 1.6925
0.1346 -3.4641 1.6925
0.2590 -3.4573 1.6925
0.3830 -3.4461 1.6925
0.5067 -3.4304 1.6925
0.6296 -3.4102 1.6925
0.7517 -3.3856 1.6925
0.8729 -3.3566 1.6925
0.9930 -3.3233 1.6925
1.1118 -3.2856 1.6925
1.2291 -3.2437 1.6925
1.3449 -3.1975 1.6925
1.4589 -3.1472 1.6925
1.5711 -3.0929 1.6925
1.6812 -3.0345 1.6925
1.7891 -2.9721 1.6925
1.8947 -2.9059 1.6925
1.9978 -2.8360 1.6925
2.0984 -2.7623 1.6925
2.1962 -2.6851 1.6925
2.2912 -2.6044 1.6925
2.3832 -2.5203 1.6925
2.4721 -2.4330 1.6925
2.5577 -2.3425 1.6925
2.6401 -2.2490 1.6925
2.7190 -2.1525 1.6925
2.7944 -2.0533 1.6925
2.8661 -1.9515 1.6925
2.9341 -1.8471 1.6925
2.9983 -1.7403 1.6925
3.0586 -1.6313 1.6925
3.1149 -1.5202 1.6925
3.1102 -1.3819 1.6621
3.1061 -1.2485 1.6350
3.1067 -1.1208 1.6133
3.1068 -0.9962 1.5939
3.1311 -0.8813 1.5893
3.1603 -0.7681 1.5893
3.1854 -0.6539 1.5893
3.2064 -0.5390 1.5893
3.2232 -0.4234 1.5893
3.2359 -0.3072 1.5893
3.2443 -0.1907 1.5893
3.2703 -0.0745 1.5999
3.2663 0.0431 1.5979
3.2618 0.1604 1.5978
3.2568 0.2777 1.5995
3.2234 0.3920 1.5893
3.2067 0.5076 1.5893
3.1858 0.6224 1.5893
3.1608 0.7364 1.5893
3.1317 0.8494 1.5893
3.0985 0.9612 1.5893
3.0614 1.0718 1.5893
3.0230 1.1820 1.5907
3.0134 1.3050 1.6096
3.0031 1.4308 1.6308
2.9958 1.5619 1.6567
2.9905 1.6986 1.6868
2.9369 1.8109 1.6925
2.8694 1.9150 1.6925
2.7981 2.0165 1.6925
2.7232 2.1154 1.6925
2.6449 2.2116 1.6925
2.5632 2.3048 1.6925
0.8808 0.8513 0.6016
0.8496 0.8823 0.6016
0.8172 0.9122 0.6017
0.7838 0.9410 0.6018
0.7494 0.9685 0.6018
0.7140 0.9947 0.6019
0.6777 1.0197 0.6020
0.6405 1.0434 0.6020
0.6026 1.0657 0.6021
0.5638 1.0866 0.6022
0.5243 1.1061 0.6022
0.4842 1.1242 0.6023
0.4434 1.1409 0.6024
0.4020 1.1561 0.6024
0.3602 1.1697 0.6025
0.3178 1.1819 0.6026
0.2751 1.1926 0.6026
0.2320 1.2017 0.6027
0.1886 1.2092 0.6028
0.1449 1.2152 0.6029
0.1011 1.2197 0.6029
0.0572 1.2225 0.6030
0.0131 1.2238 0.6031
-0.0309 1.2235 0.6031
-0.0749 1.2216 0.6032
-0.1188 1.2182 0.6033
-0.1626 1.2131 0.6034
-0.2062 1.2065 0.6034
-0.2495 1.1984 0.6035
-0.2925 1.1887 0.6036
-0.3351 1.1775 0.6036
-0.3773 1.1647 0.6037
-0.4190 1.1504 0.6037
-0.4602 1.1347 0.6038
-0.5008 1.1175 0.6039
-0.5407 1.0988 0.6039
-0.5800 1.0787 0.6040
-0.6184 1.0572 0.6040
-0.6562 1.0344 0.6041
-0.4619 1.0618 0.6038
-0.4999 1.0445 0.6039
-0.5372 1.0259 0.6039
-0.5738 1.0060 0.6040
-0.6098 0.9848 0.6040
-0.6449 0.9623 0.6041
-0.6792 0.9385 0.6041
-0.7125 0.9136 0.6042
-0.7451 0.8874 0.6042
-0.7766 0.8601 0.6042
-0.8071 0.8317 0.6043
-0.8366 0.8022 0.6043
-0.8651 0.7716 0.6044
-0.8924 0.7401 0.6044
-2.5722 1.9813 1.6925
-2.6420 1.8875 1.6925
-2.7084 1.7913 1.6925
-2.7714 1.6928 1.6925
-2.8308 1.5921 1.6925
-2.8865 1.4893 1.6925
-2.9385 1.3846 1.6925
-2.9868 1.2781 1.6925
-3.0312 1.1699 1.6925
-3.0717 1.0602 1.6925
-3.1082 0.9491 1.6925
-3.1408 0.8367 1.6925
-3.1692 0.7232 1.6925
-3.1936 0.6088 1.6925
-3.2139 0.4935 1.6925
-3.2301 0.3776 1.6925
-3.2421 0.2612 1.6925
-3.2499 0.1444 1.6925
-3.2535 0.0274 1.6925
-3.2529 -0.0897 1.6925
-3.2481 -0.2067 1.6925
-3.2390 -0.3235 1.6925
-3.2259 -0.4399 1.6925
-3.2085 -0.5557 1.6925
-3.1870 -0.6709 1.6925
-3.1614 -0.7852 1.6925
-3.1316 -0.8986 1.6925
-3.0978 -1.0109 1.6925
-3.0601 -1.1218 1.6925
-3.0183 -1.2314 1.6925
-2.9726 -1.3394 1.6925
-2.9230 -1.4457 1.6925
-2.8697 -1.5502 1.6925
-2.8126 -1.6527 1.6925
-2.7519 -1.7530 1.6925
-2.6876 -1.8512 1.6925
-2.6198 -1.9470 1.6925
-2.5485 -2.0403 1.6925
-2.4740 -2.1310 1.6925
-2.3962 -2.2190 1.6925
-2.3153 -2.3041 1.6925
-2.2314 -2.3863 1.6925
-2.1446 -2.4654 1.6925
-2.0549 -2.5414 1.6925
-1.9626 -2.6140 1.6925
-1.8677 -2.6834 1.6925
-1.7704 -2.7492 1.6925
-1.6707 -2.8115 1.6925
-1.5688 -2.8702 1.6925
-1.4649 -2.9252 1.6925
-1.3590 -2.9765 1.6925
-1.2514 -3.0238 1.6925
-1.1421 -3.0673 1.6925
-1.0313 -3.1068 1.6925
-0.9191 -3.1423 1.6925
-0.8057 -3.1737 1.6925
-0.6913 -3.2010 1.6925
-0.5759 -3.2242 1.6925
-0.4597 -3.2432 1.6925
-0.3429 -3.2580 1.6925
-0.2257 -3.2686 1.6925
-0.1081 -3.2749 1.6925
0.0096 -3.2771 1.6925
0.1273 -3.2749 1.6925
0.2449 -3.2685 1.6925
0.3622 -3.2579 1.6925
0.4790 -3.2430 1.6925
0.5953 -3.2239 1.6925
0.7107 -3.2007 1.6925
0.8253 -3.1732 1.6925
0.9388 -3.1417 1.6925
1.0511 -3.1061 1.6925
1.1620 -3.0665 1.6925
1.2715 -3.0228 1.6925
1.3792 -2.9753 1.6925
1.4853 -2.9239 1.6925
1.5893 -2.8687 1.6925
1.6914 -2.8098 1.6925
1.7912 -2.7472 1.6925
1.8887 -2.6810 1.6925
1.9837 -2.6114 1.6925
2.0762 -2.5384 1.6925
2.1660 -2.4621 1.6925
2.2530 -2.3827 1.6925
2.3370 -2.3001 1.6925
2.4180 -2.2146 1.6925
2.4958 -2.1262 1.6925
2.5704 -2.0350 1.6925
2.6417 -1.9412 1.6925
2.7095 -1.8449 1.6925
2.7738 -1.7463 1.6925
2.8345 -1.6454 1.6925
2.8915 -1.5423 1.6925
2.9448 -1.4373 1.6925
2.9942 -1.3305 1.6925
3.0398 -1.2219 1.6925
3.0813 -1.1118 1.6925
3.0951 -0.9926 1.6796
3.0903 -0.8699 1.6592
3.0856 -0.7501 1.6413
3.0841 -0.6333 1.6276
3.0826 -0.5183 1.6161
3.0806 -0.4048 1.6066
3.0782 -0.2924 1.5991
3.0753 -0.1809 1.5934
3.0720 -0.0701 1.5896
3.0713 0.0403 1.5893
3.0674 0.1507 1.5893
3.0595 0.2608 1.5893
3.0540 0.3713 1.5926
3.0484 0.4823 1.5979
3.0422 0.5941 1.6051
3.0354 0.7070 1.6142
3.0282 0.8211 1.6253
3.0203 0.9367 1.6384
3.0155 1.0555 1.6556
3.0108 1.1770 1.6755
2.9961 1.2973 1.6925
2.9469 1.4039 1.6925
2.8940 1.5086 1.6925
2.8374 1.6114 1.6925
2.7771 1.7121 1.6925
2.7132 1.8105 1.6925
2.6458 1.9065 1.6925
2.5751 2.0001 1.6925
0.8889 0.7432 0.6015
0.8615 0.7746 0.6016
0.8330 0.8050 0.6017
0.8034 0.8344 0.6017
0.7729 0.8626 0.6018
0.7413 0.8898 0.6018
0.7087 0.9158 0.6019
0.6753 0.9407 0.6019
0.6410 0.9643 0.6020
0.6058 0.9866 0.6021
0.5699 1.0077 0.6021
0.5332 1.0276 0.6022
0.4959 1.0460 0.6023
0.4579 1.0631 0.6023
0.4193 1.0789 0.6024
0.3802 1.0932 0.6025
0.3406 1.1062 0.6025
0.3006 1.1177 0.6026
0.2602 1.1277 0.6027
0.2194 1.1364 0.6027
0.1784 1.1435 0.6028
0.1371 1.1492 0.6029
0.0957 1.1534 0.6029
0.0541 1.1561 0.6030
0.0124 1.1573 0.6031
-0.0292 1.1570 0.6031
-0.0708 1.1552 0.6032
-0.1124 1.1520 0.6033
-0.1538 1.1472 0.6033
-0.1950 1.1409 0.6034
-0.2359 1.1332 0.6035
-0.2766 1.1241 0.6035
-0.3169 1.1134 0.6036
-0.3568 1.1014 0.6036
-0.3962 1.0879 0.6037
-0.4351 1.0730 0.6038
-0.4735 1.0567 0.6038
-0.5113 1.0390 0.6039
-0.5484 1.0200 0.6039
-0.5848 0.9997 0.6040
-0.6205 0.9781 0.6040
-0.4376 1.0058 0.6037
-0.4735 0.9894 0.6038
-0.5089 0.9718 0.6038
-0.5436 0.9529 0.6039
-0.5776 0.9328 0.6039
-0.6108 0.9115 0.6040
-0.6433 0.8890 0.6040
-0.6749 0.8653 0.6041
-0.7057 0.8406 0.6041
-0.7356 0.8147 0.6042
-0.7645 0.7878 0.6042
-0.7925 0.7598 0.6042
-0.8194 0.7309 0.6043
-0.8453 0.7010 0.6043
-0.8701 0.6702 0.6044
-0.8938 0.6385 0.6044
-2.5658 1.6969 1.6925
-2.6254 1.6036 1.6925
-2.6817 1.5082 1.6925
-2.7345 1.4108 1.6925
-2.7837 1.3116 1.6925
-2.8294 1.2107 1.6925
-2.8715 1.1081 1.6925
-2.9098 1.0042 1.6925
-2.9444 0.8989 1.6925
-2.9753 0.7925 1.6925
-3.0022 0.6850 1.6925
-3.0253 0.5766 1.6925
-3.0445 0.4674 1.6925
-3.0598 0.3576 1.6925
-3.0712 0.2473 1.6925
-3.0785 0.1366 1.6925
-3.0819 0.0258 1.6925
-3.0813 -0.0851 1.6925
-3.0768 -0.1960 1.6925
-3.0682 -0.3066 1.6925
-3.0557 -0.4168 1.6925
-3.0392 -0.5266 1.6925
-3.0188 -0.6357 1.6925
-2.9945 -0.7440 1.6925
-2.9663 -0.8514 1.6925
-2.9343 -0.9577 1.6925
-2.8985 -1.0628 1.6925
-2.8589 -1.1666 1.6925
-2.8156 -1.2688 1.6925
-2.7686 -1.3695 1.6925
-2.7181 -1.4685 1.6925
-2.6640 -1.5655 1.6925
-2.6065 -1.6606 1.6925
-2.5455 -1.7536 1.6925
-2.4813 -1.8443 1.6925
-2.4138 -1.9327 1.6925
-2.3432 -2.0186 1.6925
-2.2695 -2.1019 1.6925
-2.1928 -2.1825 1.6925
-2.1133 -2.2603 1.6925
-2.0311 -2.3352 1.6925
-1.9462 -2.4071 1.6925
-1.8587 -2.4760 1.6925
-1.7688 -2.5416 1.6925
-1.6766 -2.6040 1.6925
-1.5822 -2.6629 1.6925
-1.4857 -2.7185 1.6925
-1.3872 -2.7706 1.6925
-1.2870 -2.8191 1.6925
-1.1850 -2.8639 1.6925
-1.0815 -2.9051 1.6925
-0.9766 -2.9425 1.6925
-0.8703 -2.9761 1.6925
-0.7630 -3.0058 1.6925
-0.6545 -3.0317 1.6925
-0.5453 -3.0536 1.6925
-0.4352 -3.0716 1.6925
-0.3246 -3.0856 1.6925
-0.2136 -3.0956 1.6925
-0.1023 -3.1016 1.6925
0.0092 -3.1036 1.6925
0.1207 -3.1015 1.6925
0.2321 -3.0955 1.6925
0.3431 -3.0854 1.6925
0.4538 -3.0713 1.6925
0.5638 -3.0532 1.6925
0.6732 -3.0312 1.6925
0.7817 -3.0052 1.6925
0.8891 -2.9753 1.6925
0.9955 -2.9416 1.6925
1.1005 -2.9041 1.6925
1.2042 -2.8628 1.6925
1.3062 -2.8177 1.6925
1.4066 -2.7690 1.6925
1.5052 -2.7168 1.6925
1.6018 -2.6610 1.6925
1.6963 -2.6017 1.6925
1.7887 -2.5391 1.6925
1.8787 -2.4731 1.6925
1.9662 -2.4040 1.6925
2.0513 -2.3318 1.6925
2.1336 -2.2565 1.6925
2.2132 -2.1784 1.6925
2.2899 -2.0973 1.6925
2.3636 -2.0136 1.6925
2.4343 -1.9273 1.6925
2.5018 -1.8385 1.6925
2.5660 -1.7473 1.6925
2.6269 -1.6539 1.6925
2.6844 -1.5583 1.6925
2.7384 -1.4608 1.6925
2.7889 -1.3613 1.6925
2.8357 -1.2601 1.6925
2.8788 -1.1573 1.6925
2.9182 -1.0530 1.6925
2.9538 -0.9474 1.6925
2.9856 -0.8406 1.6925
3.0135 -0.7327 1.6925
3.0375 -0.6239 1.6925
3.0575 -0.5142 1.6925
3.0722 -0.4038 1.6918
3.0678 -0.2916 1.6827
3.0635 -0.1804 1.6760
3.0592 -0.0700 1.6714
3.0550 0.0399 1.6691
3.0507 0.1497 1.6689
3.0464 0.2595 1.6708
3.0421 0.3697 1.6749
3.0378 0.4805 1.6813
3.0335 0.5923 1.6899
3.0145 0.7019 1.6925
2.9868 0.8097 1.6925
2.9552 0.9163 1.6925
2.9198 1.0218 1.6925
2.8807 1.1259 1.6925
2.8379 1.2285 1.6925
2.7913 1.3295 1.6925
2.7412 1.4288 1.6925
2.6876 1.5261 1.6925
2.6305 1.6215 1.6925
2.5701 1.7147 1.6925
0.8907 0.6417 0.6015
0.8670 0.6733 0.6016
0.8421 0.7040 0.6016
0.8162 0.7337 0.6017
0.7892 0.7625 0.6017
0.7612 0.7904 0.6018
0.7322 0.8171 0.6018
0.7023 0.8429 0.6019
0.6714 0.8675 0.6019
0.6397 0.8911 0.6020
0.6072 0.9134 0.6020
0.5739 0.9346 0.6021
0.5399 0.9546 0.6022
0.5052 0.9734 0.6022
0.4698 0.9909 0.6023
0.4338 1.0071 0.6023
0.3973 1.0220 0.6024
0.3602 1.0356 0.6025
0.3227 1.0479 0.6025
0.2848 1.0588 0.6026
0.2465 1.0683 0.6027
0.2079 1.0765 0.6027
0.1690 1.0832 0.6028
0.1299 1.0886 0.6029
0.0907 1.0926 0.6029
0.0513 1.0951 0.6030
0.0118 1.0963 0.6030
-0.0276 1.0960 0.6031
-0.0671 1.0943 0.6032
-0.1064 1.0912 0.6032
-0.1456 1.0867 0.6033
-0.1847 1.0808 0.6034
-0.2235 1.0735 0.6034
-0.2620 1.0648 0.6035
-0.3001 1.0547 0.6035
-0.3379 1.0433 0.6036
-0.3753 1.0305 0.6036
-0.4122 1.0164 0.6037
-0.4485 1.0010 0.6038
-0.4843 0.9842 0.6038
-0.5194 0.9662 0.6039
-0.5540 0.9470 0.6039
-0.5877 0.9265 0.6040
-0.4151 0.9542 0.6037
-0.4492 0.9387 0.6037
-0.4828 0.9220 0.6038
-0.5157 0.9040 0.6038
-0.5480 0.8850 0.6039
-0.5795 0.8647 0.6039
-0.6103 0.8434 0.6040
-0.6403 0.8209 0.6040
-0.6695 0.7974 0.6041
-0.6979 0.7729 0.6041
-0.7253 0.7473 0.6041
-0.7518 0.7208 0.6042
-0.7774 0.6933 0.6042
-0.8019 0.6650 0.6042
-0.8254 0.6357 0.6043
-0.8478 0.6057 0.6043
-0.8692 0.5748 0.6043
-0.8894 0.5432 0.6044
-2.5443 1.4308 1.6925
-2.5944 1.3384 1.6925
-2.6411 1.2443 1.6925
-2.6845 1.1485 1.6925
-2.7244 1.0513 1.6925
-2.7608 0.9526 1.6925
-2.7936 0.8527 1.6925
-2.8228 0.7517 1.6925
-2.8484 0.6497 1.6925
-2.8703 0.5469 1.6925
-2.8885 0.4433 1.6925
-2.9030 0.3391 1.6925
-2.9137 0.2345 1.6925
-2.9206 0.1295 1.6925
-2.9239 0.0243 1.6925
-2.9233 -0.0809 1.6925
-2.9189 -0.1861 1.6925
-2.9108 -0.2910 1.6925
-2.8989 -0.3956 1.6925
-2.8833 -0.4997 1.6925
-2.8639 -0.6032 1.6925
-2.8408 -0.7060 1.6925
-2.8141 -0.8079 1.6925
-2.7837 -0.9087 1.6925
-2.7497 -1.0084 1.6925
-2.7121 -1.1069 1.6925
-2.6710 -1.2039 1.6925
-2.6264 -1.2994 1.6925
-2.5785 -1.3932 1.6925
-2.5271 -1.4853 1.6925
-2.4725 -1.5755 1.6925
-2.4147 -1.6637 1.6925
-2.3537 -1.7497 1.6925
-2.2897 -1.8336 1.6925
-2.2227 -1.9150 1.6925
-2.1528 -1.9940 1.6925
-2.0801 -2.0705 1.6925
-2.0046 -2.1443 1.6925
-1.9266 -2.2153 1.6925
-1.8460 -2.2835 1.6925
-1.7630 -2.3488 1.6925
-1.6778 -2.4110 1.6925
-1.5903 -2.4702 1.6925
-1.5007 -2.5261 1.6925
-1.4092 -2.5788 1.6925
-1.3158 -2.6282 1.6925
-1.2207 -2.6742 1.6925
-1.1239 -2.7167 1.6925
-1.0258 -2.7557 1.6925
-0.9262 -2.7912 1.6925
-0.8254 -2.8230 1.6925
-0.7236 -2.8512 1.6925
-0.6208 -2.8758 1.6925
-0.5171 -2.8965 1.6925
-0.4128 -2.9136 1.6925
-0.3078 -2.9269 1.6925
-0.2025 -2.9363 1.6925
-0.0969 -2.9420 1.6925
0.0088 -2.9439 1.6925
0.1146 -2.9419 1.6925
0.2202 -2.9361 1.6925
0.3255 -2.9266 1.6925
0.4305 -2.9132 1.6925
0.5349 -2.8960 1.6925
0.6386 -2.8751 1.6925
0.7415 -2.8505 1.6925
0.8434 -2.8222 1.6925
0.9443 -2.7902 1.6925
1.0439 -2.7546 1.6925
1.1422 -2.7154 1.6925
1.2390 -2.6727 1.6925
1.3342 -2.6265 1.6925
1.4277 -2.5769 1.6925
1.5193 -2.5240 1.6925
1.6090 -2.4678 1.6925
1.6966 -2.4084 1.6925
1.7820 -2.3458 1.6925
1.8650 -2.2803 1.6925
1.9456 -2.2118 1.6925
2.0238 -2.1404 1.6925
2.0992 -2.0662 1.6925
2.1720 -1.9894 1.6925
2.2419 -1.9100 1.6925
2.3089 -1.8282 1.6925
2.3730 -1.7440 1.6925
2.4339 -1.6575 1.6925
2.4917 -1.5689 1.6925
2.5462 -1.4782 1.6925
2.5975 -1.3857 1.6925
2.6453 -1.2914 1.6925
2.6897 -1.1954 1.6925
2.7307 -1.0979 1.6925
2.7680 -0.9990 1.6925
2.8018 -0.8988 1.6925
2.8320 -0.7975 1.6925
2.8584 -0.6951 1.6925
2.8812 -0.5919 1.6925
2.9002 -0.4879 1.6925
2.9155 -0.3834 1.6925
2.9270 -0.2783 1.6925
2.9346 -0.1729 1.6925
2.9385 -0.0674 1.6925
2.9386 0.0383 1.6925
2.9349 0.1438 1.6925
2.9274 0.2492 1.6925
2.9161 0.3542 1.6925
2.9010 0.4587 1.6925
2.8821 0.5625 1.6925
2.8596 0.6657 1.6925
2.8333 0.7679 1.6925
2.8034 0.8691 1.6925
2.7699 0.9691 1.6925
2.7328 1.0679 1.6925
2.6922 1.1653 1.6925
2.6481 1.2611 1.6925
2.6006 1.3552 1.6925
2.5497 1.4476 1.6925
0.8869 0.5466 0.6015
0.8665 0.5781 0.6015
0.8451 0.6088 0.6016
0.8226 0.6387 0.6016
0.7990 0.6679 0.6017
0.7744 0.6961 0.6017
0.7488 0.7234 0.6018
0.7222 0.7498 0.6018
0.6947 0.7753 0.6019
0.6663 0.7997 0.6019
0.6371 0.8231 0.6020
0.6070 0.8454 0.6020
0.5762 0.8666 0.6021
0.5446 0.8867 0.6021
0.5123 0.9057 0.6022
0.4794 0.9235 0.6022
0.4458 0.9401 0.6023
0.4117 0.9555 0.6024
0.3770 0.9696 0.6024
