ply
format ascii 1.0
element vertex 2170
property float32 x
property float32 y
property float32 z
end_header
-23.5446 4.5183 1.6640
-23.3784 3.6216 1.6640
-23.1855 2.7435 1.6640
-22.9672 1.8845 1.6640
-22.7248 1.0450 1.6640
-22.4594 0.2254 1.6640
-22.1724 -0.5741 1.6640
-20.5100 -1.2693 1.5609
-20.2028 -1.9808 1.5609
-19.8782 -2.6729 1.5609
-12.2113 -2.0910 0.9756
-19.1812 -3.9987 1.5608
-18.8106 -4.6324 1.5608
-1.7980 -2.3615 0.3488
-1.6232 -2.2992 0.3323
-1.4655 -2.2431 0.3177
-1.3220 -2.1919 0.3047
-1.1906 -2.1451 0.2931
-1.0695 -2.1020 0.2827
-0.9573 -2.0620 0.2734
-0.8528 -2.0248 0.2650
-0.8031 -2.1169 0.2738
-0.7590 -2.2409 0.2868
-0.7107 -2.3768 0.3014
-0.6574 -2.5269 0.3177
-0.5981 -2.6937 0.3363
-0.5316 -2.8809 0.3575
-0.4562 -3.0931 0.3819
-0.3698 -3.3361 0.4103
-0.2696 -3.6182 0.4437
-0.1504 -3.9209 0.4799
-0.0091 -3.9286 0.4804
0.1326 -3.9325 0.4810
0.3010 -4.3084 0.5276
0.5241 -4.9364 0.6058
1.9295 -13.5157 1.6640
2.2737 -12.6508 1.5642
2.7271 -12.5570 1.5609
3.1843 -12.4766 1.5609
3.6401 -12.3830 1.5609
4.0945 -12.2761 1.5609
4.5472 -12.1560 1.5609
4.9978 -12.0224 1.5609
5.4462 -11.8755 1.5609
5.8921 -11.7151 1.5609
6.4292 -11.7123 1.5841
6.8758 -11.5220 1.5841
7.3190 -11.3178 1.5841
7.7585 -11.0997 1.5841
8.1940 -10.8676 1.5841
6.7618 -8.3269 1.2419
9.0516 -10.3612 1.5841
9.4730 -10.0867 1.5841
9.8890 -9.7979 1.5841
10.2992 -9.4949 1.5841
10.7032 -9.1775 1.5841
11.1006 -8.8456 1.5841
11.4910 -8.4994 1.5841
11.8739 -8.1386 1.5841
12.2489 -7.7634 1.5841
12.6155 -7.3736 1.5841
12.9730 -6.9693 1.5841
13.3212 -6.5505 1.5841
13.6594 -6.1173 1.5841
13.9870 -5.6696 1.5841
14.3034 -5.2075 1.5841
14.6081 -4.7312 1.5841
14.9005 -4.2408 1.5841
15.1799 -3.7363 1.5841
15.4457 -3.2180 1.5841
15.6971 -2.6860 1.5841
6.3550 -0.8538 0.6318
6.3584 -0.6227 0.6235
6.8803 -0.4250 0.6663
6.8809 -0.1774 0.6588
6.8846 0.0698 0.6525
16.8650 0.7771 1.5841
16.5686 1.3609 1.5442
16.5604 1.9609 1.5335
17.1963 2.6651 1.5841
17.2642 3.3141 1.5841
17.3095 3.9718 1.5841
17.3314 4.6374 1.5841
17.3293 5.3101 1.5841
17.3023 5.9889 1.5841
17.2498 6.6730 1.5841
15.3739 6.5908 1.4182
17.0654 8.0524 1.5841
16.9322 8.7455 1.5841
15.6895 8.8304 1.4819
16.5811 10.1321 1.5841
6.9689 4.6096 0.6747
16.1139 11.5102 1.5841
15.8358 12.1923 1.5841
15.5277 12.8678 1.5841
15.1894 13.5350 1.5841
14.8209 14.1921 1.5841
6.9951 7.1966 0.7683
7.0107 8.9660 0.8512
6.4926 8.9469 0.8208
6.0198 8.9539 0.7956
6.9300 11.1514 0.9619
6.8607 11.9774 1.0051
6.4370 12.2348 1.0008
21.0240 43.6934 3.4914
5.8755 13.4222 1.0497
5.6792 14.3536 1.1009
5.7049 16.0810 1.2119
5.7367 18.2186 1.3515
5.7773 20.9397 1.5320
5.1322 21.5929 1.5609
4.3652 21.8143 1.5609
3.5872 21.9981 1.5609
2.8003 22.1438 1.5609
2.1392 23.7202 1.6640
1.2882 23.7923 1.6640
0.4345 23.8226 1.6640
-0.4194 23.8107 1.6640
-1.2714 23.7568 1.6640
-2.1189 23.6612 1.6640
-2.9600 23.5243 1.6640
-3.7921 23.3468 1.6640
-4.6133 23.1294 1.6640
-5.2349 22.0864 1.6068
-5.8287 21.1777 1.5608
-6.5565 20.8672 1.5608
-7.2665 20.5235 1.5608
-7.9573 20.1479 1.5608
-8.6274 19.7420 1.5608
-9.1798 19.1082 1.5447
-9.2034 17.5192 1.4510
-9.2242 16.1265 1.3711
-9.2425 14.8930 1.3026
-9.2590 13.7901 1.2433
-13.6553 15.1141 1.5740
-13.7499 14.1629 1.5385
-14.4493 13.8529 1.5740
-10.5173 9.3830 1.1184
-15.1264 12.5503 1.5740
-15.4212 11.8875 1.5740
-15.5551 11.1247 1.5608
-15.7905 10.4578 1.5608
-15.9979 9.7883 1.5608
-16.1777 9.1173 1.5608
-16.3304 8.4463 1.5608
-16.4565 7.7764 1.5608
-16.6753 7.1596 1.5720
-17.7315 6.8706 1.6640
-17.7847 6.1668 1.6640
-17.8122 5.4686 1.6640
-17.8147 4.7769 1.6640
-17.7929 4.0926 1.6640
-17.7477 3.4166 1.6640
-17.6797 2.7494 1.6640
-17.5897 2.0918 1.6640
-17.4785 1.4445 1.6640
-17.3470 0.8079 1.6640
-17.1957 0.1827 1.6640
-17.0255 -0.4308 1.6640
-15.7940 -0.9682 1.5609
-15.6008 -1.5204 1.5609
-15.3918 -2.0605 1.5609
-12.1993 -2.0817 1.2554
-14.9295 -3.1034 1.5608
-14.6775 -3.6057 1.5608
-1.7999 -2.3624 0.4170
-1.6249 -2.3000 0.3969
-1.4669 -2.2437 0.3792
-1.3232 -2.1926 0.3635
-1.1916 -2.1457 0.3495
-1.0704 -2.1025 0.3369
-0.9581 -2.0624 0.3256
-0.8535 -2.0252 0.3154
-0.8035 -2.1167 0.3257
-0.7594 -2.2408 0.3410
-0.7111 -2.3767 0.3582
-0.6577 -2.5268 0.3776
-0.5984 -2.6938 0.3996
-0.5319 -2.8811 0.4247
-0.4565 -3.0934 0.4536
-0.3659 -3.2988 0.4818
-0.2468 -3.3116 0.4822
-0.1274 -3.3210 0.4827
-0.0079 -3.4403 0.4996
0.1292 -3.8264 0.5558
0.3015 -4.3113 0.6270
0.5250 -4.9407 0.7202
1.6253 -11.3761 1.6640
2.0369 -11.3248 1.6640
2.3047 -10.6044 1.5670
2.6798 -10.4925 1.5609
3.0622 -10.4098 1.5609
3.4430 -10.3157 1.5609
3.8219 -10.2100 1.5609
4.1985 -10.0927 1.5609
4.5727 -9.9638 1.5609
4.9442 -9.8233 1.5609
5.3126 -9.6712 1.5609
5.6778 -9.5075 1.5609
6.0394 -9.3322 1.5609
6.4921 -9.2808 1.5841
6.8509 -9.0792 1.5841
6.7615 -8.3198 1.4865
7.5546 -8.6406 1.5841
7.8989 -8.4035 1.5841
8.2376 -8.1546 1.5841
8.5705 -7.8940 1.5841
8.8971 -7.6216 1.5841
6.8152 -5.4254 1.1713
9.5302 -7.0418 1.5841
9.8358 -6.7344 1.5841
10.1337 -6.4155 1.5841
10.4234 -6.0850 1.5841
10.7045 -5.7432 1.5841
10.9765 -5.3902 1.5841
11.2391 -5.0259 1.5841
11.4917 -4.6507 1.5841
11.7339 -4.2645 1.5841
11.9653 -3.8677 1.5841
12.1853 -3.4604 1.5841
12.3935 -3.0428 1.5841
12.5893 -2.6152 1.5841
12.7723 -2.1778 1.5841
6.1771 -0.8261 0.7561
6.1805 -0.6016 0.7475
13.2392 -0.8100 1.5841
13.3657 -0.3368 1.5841
13.4768 0.1445 1.5841
13.5719 0.6334 1.5841
13.6507 1.1293 1.5841
13.7124 1.6317 1.5841
13.7567 2.1402 1.5841
13.7831 2.6541 1.5841
13.7910 3.1728 1.5841
13.7801 3.6955 1.5841
13.7498 4.2216 1.5841
13.6997 4.7504 1.5841
13.6295 5.2810 1.5841
13.5388 5.8126 1.5841
13.4272 6.3443 1.5841
13.2944 6.8752 1.5841
13.1403 7.4044 1.5841
12.9645 7.9308 1.5841
12.7668 8.4535 1.5841
12.5473 8.9714 1.5841
12.3057 9.4833 1.5841
12.0421 9.9882 1.5841
11.7566 10.4850 1.5841
11.4492 10.9725 1.5841
6.9930 7.2001 0.9962
10.7697 11.9149 1.5841
10.3982 12.3674 1.5841
7.0108 8.9726 1.1099
9.5936 13.2292 1.5841
5.9868 8.9108 1.0351
8.7105 14.0256 1.5841
7.0437 12.3046 1.3539
21.7379 41.3428 4.4408
20.0829 41.7627 4.3876
5.8721 13.4222 1.3819
5.6793 14.3621 1.4516
5.5672 15.7017 1.5609
5.0153 15.9361 1.5609
4.4522 16.1455 1.5609
3.8792 16.3295 1.5609
3.2976 16.4874 1.5609
2.7126 16.6423 1.5631
2.2535 17.8274 1.6640
1.6146 17.9093 1.6640
0.9723 17.9618 1.6640
0.3283 17.9847 1.6640
-0.3161 17.9780 1.6640
-0.9592 17.9416 1.6640
-1.5995 17.8759 1.6640
-2.2356 17.7809 1.6640
-2.8659 17.6571 1.6640
-3.4890 17.5050 1.6640
-4.1035 17.3249 1.6640
-4.7080 17.1177 1.6640
-5.3013 16.8839 1.6640
-5.5170 15.5929 1.5608
-6.0488 15.3261 1.5608
-6.5667 15.0369 1.5608
-7.0696 14.7262 1.5608
-7.5568 14.3949 1.5608
-8.0272 14.0441 1.5608
-8.4802 13.6747 1.5608
-8.9151 13.2879 1.5608
-9.3312 12.8848 1.5608
-9.8106 12.5724 1.5740
-10.1907 12.1364 1.5740
-10.5505 11.6873 1.5740
-10.7980 11.1318 1.5608
-11.1135 10.6641 1.5608
-10.6930 9.5485 1.4630
-11.6814 9.7012 1.5608
-11.9336 9.2082 1.5608
-12.1646 8.7089 1.5608
-12.3745 8.2044 1.5608
-12.5633 7.6958 1.5608
-12.7313 7.1839 1.5608
-13.7166 7.1037 1.6623
-13.8657 6.5613 1.6640
-13.9793 6.0112 1.6640
-14.0718 5.4615 1.6640
-14.1433 4.9131 1.6640
-14.1944 4.3668 1.6640
-14.2254 3.8233 1.6640
-14.2368 3.2834 1.6640
-14.2290 2.7478 1.6640
-14.2025 2.2172 1.6640
-14.1578 1.6922 1.6640
-14.0953 1.1733 1.6640
-14.0156 0.6611 1.6640
-13.9192 0.1561 1.6640
-13.8065 -0.3412 1.6640
-13.6781 -0.8304 1.6640
-12.6961 -1.2298 1.5609
-12.5475 -1.6723 1.5609
-12.1873 -2.0724 1.5359
-12.2110 -2.5310 1.5609
-12.0240 -2.9466 1.5609
-1.7820 -2.3372 0.4804
-1.6266 -2.3008 0.4621
-1.4683 -2.2444 0.4412
-1.3244 -2.1932 0.4227
-1.1927 -2.1462 0.4062
-1.0713 -2.1030 0.3914
-0.9589 -2.0629 0.3782
-0.8541 -2.0256 0.3662
-0.8039 -2.1164 0.3779
-0.7597 -2.2406 0.3956
-0.7114 -2.3766 0.4154
-0.6581 -2.5268 0.4378
-0.5988 -2.6939 0.4633
-0.5224 -2.8283 0.4833
-0.4200 -2.8452 0.4836
-0.3172 -2.8591 0.4840
-0.2140 -2.8700 0.4843
-0.1199 -3.1260 0.5265
-0.0078 -3.4417 0.5792
0.1294 -3.8284 0.6444
0.3019 -4.3143 0.7272
0.5259 -4.9450 0.8356
1.4030 -9.8125 1.6640
1.7579 -9.7665 1.6640
2.1118 -9.7097 1.6640
2.3263 -9.1019 1.5708
2.6408 -8.9709 1.5609
2.9683 -8.8870 1.5609
3.2938 -8.7930 1.5609
3.6170 -8.6887 1.5609
3.9378 -8.5743 1.5609
4.2559 -8.4497 1.5609
4.5709 -8.3150 1.5609
4.8827 -8.1701 1.5609
5.1910 -8.0151 1.5609
5.4954 -7.8500 1.5609
5.7958 -7.6749 1.5609
6.0917 -7.4897 1.5609
6.4777 -7.4027 1.5841
6.7683 -7.1945 1.5841
7.0535 -6.9763 1.5841
7.3331 -6.7482 1.5841
7.6067 -6.5101 1.5841
7.8740 -6.2621 1.5841
8.1346 -6.0044 1.5841
8.3883 -5.7371 1.5841
8.6347 -5.4602 1.5841
8.8733 -5.1739 1.5841
9.1040 -4.8783 1.5841
6.8333 -3.3510 1.1606
9.5397 -4.2597 1.5841
9.7441 -3.9371 1.5841
9.9390 -3.6058 1.5841
10.1239 -3.2661 1.5841
10.2986 -2.9182 1.5841
10.4627 -2.5623 1.5841
10.6157 -2.1987 1.5841
10.7573 -1.8277 1.5841
6.1772 -0.8224 0.8988
6.1805 -0.5979 0.8897
11.1095 -0.6731 1.5841
11.2015 -0.2756 1.5841
11.2801 0.1277 1.5841
11.3449 0.5362 1.5841
11.3957 0.9495 1.5841
11.4321 1.3672 1.5841
11.4536 1.7888 1.5841
11.4600 2.2137 1.5841
11.4510 2.6413 1.5841
11.4263 3.0712 1.5841
11.3855 3.5027 1.5841
11.3284 3.9352 1.5841
11.2549 4.3679 1.5841
11.1645 4.8004 1.5841
11.0573 5.2317 1.5841
10.9331 5.6612 1.5841
10.7916 6.0881 1.5841
10.6329 6.5117 1.5841
10.4569 6.9312 1.5841
10.2635 7.3457 1.5841
10.0528 7.7545 1.5841
9.8250 8.1566 1.5841
9.5800 8.5512 1.5841
9.3182 8.9375 1.5841
6.9914 7.2042 1.2251
8.7446 9.6818 1.5841
8.4334 10.0379 1.5841
7.0109 8.9791 1.3700
7.7643 10.7142 1.5841
7.4073 11.0325 1.5841
7.0359 11.3366 1.5841
6.5536 11.4558 1.5609
6.1612 11.7251 1.5609
5.7566 11.9782 1.5609
5.3404 12.2142 1.5609
4.9135 12.4326 1.5609
4.4766 12.6328 1.5609
4.0306 12.8142 1.5609
3.5764 12.9763 1.5609
3.1148 13.1186 1.5609
2.6624 13.3177 1.5700
2.3173 14.2235 1.6640
1.8081 14.3097 1.6640
1.2954 14.3735 1.6640
0.7802 14.4146 1.6640
0.2636 14.4330 1.6640
-0.2532 14.4287 1.6640
-0.7691 14.4017 1.6640
-1.2831 14.3521 1.6640
-1.7940 14.2800 1.6640
-2.3007 14.1857 1.6640
-2.8022 14.0694 1.6640
-3.2974 13.9317 1.6640
-3.7854 13.7728 1.6640
-4.2651 13.5932 1.6640
-4.7355 13.3935 1.6640
-5.1959 13.1743 1.6640
-5.4482 12.4846 1.6059
-5.7054 11.8930 1.5608
-6.1041 11.6361 1.5608
-6.4904 11.3635 1.5608
-6.8635 11.0759 1.5608
-7.2231 10.7741 1.5608
-7.5685 10.4588 1.5608
-7.8992 10.1309 1.5608
-8.2149 9.7912 1.5608
-8.5151 9.4404 1.5608
-8.7996 9.0795 1.5608
-9.0681 8.7092 1.5608
-9.3203 8.3304 1.5608
-9.5561 7.9438 1.5608
-9.7753 7.5504 1.5608
-10.1842 7.2988 1.5930
-10.7756 7.1523 1.6547
-11.0165 6.7561 1.6640
-11.1791 6.3158 1.6640
-11.3240 5.8723 1.6640
-11.4512 5.4264 1.6640
-11.5610 4.9789 1.6640
-11.6535 4.5305 1.6640
-11.7288 4.0819 1.6640
-11.7873 3.6337 1.6640
-11.8292 3.1866 1.6640
-11.8547 2.7413 1.6640
-11.8641 2.2984 1.6640
-11.8577 1.8583 1.6640
-11.8359 1.4218 1.6640
-11.7991 0.9892 1.6640
-11.7474 0.5611 1.6640
-11.6813 0.1380 1.6640
-11.6012 -0.2798 1.6640
-11.5075 -0.6917 1.6640
-11.0325 -1.0621 1.6103
-10.5816 -1.4040 1.5609
-10.4572 -1.7719 1.5609
-10.3214 -2.1331 1.5609
-10.1747 -2.4872 1.5609
-1.5680 -2.0550 0.4825
-1.4888 -2.1045 0.4826
-1.4085 -2.1515 0.4827
-1.3257 -2.1938 0.4824
-1.1938 -2.1468 0.4634
-1.0722 -2.1034 0.4464
-0.9597 -2.0633 0.4312
-0.8548 -2.0260 0.4174
-0.8042 -2.1162 0.4305
-0.7601 -2.2404 0.4506
-0.7118 -2.3765 0.4731
-0.6398 -2.4554 0.4845
-0.5506 -2.4757 0.4847
-0.4608 -2.4934 0.4850
-0.3705 -2.5083 0.4853
-0.2930 -2.6396 0.5086
-0.2136 -2.8634 0.5500
-0.1200 -3.1270 0.5994
-0.0078 -3.4432 0.6595
0.1297 -3.8305 0.7339
0.3024 -4.3172 0.8283
0.5070 -4.7641 0.9164
1.2333 -8.6188 1.6640
1.5450 -8.5773 1.6640
1.8557 -8.5260 1.6640
2.1650 -8.4650 1.6640
2.3416 -7.9487 1.5757
2.6066 -7.7987 1.5609
2.8917 -7.7141 1.5609
3.1746 -7.6205 1.5609
3.4551 -7.5178 1.5609
3.7329 -7.4061 1.5609
4.0079 -7.2853 1.5609
4.2796 -7.1556 1.5609
4.5480 -7.0170 1.5609
4.8127 -6.8695 1.5609
5.0735 -6.7131 1.5609
5.3301 -6.5479 1.5609
5.5822 -6.3740 1.5609
5.8297 -6.1915 1.5609
6.0721 -6.0003 1.5609
6.3093 -5.8007 1.5609
6.6379 -5.6755 1.5841
6.8670 -5.4559 1.5841
7.0899 -5.2278 1.5841
7.3063 -4.9916 1.5841
7.5158 -4.7473 1.5841
7.7183 -4.4949 1.5841
7.9133 -4.2348 1.5841
8.1006 -3.9669 1.5841
8.2799 -3.6916 1.5841
8.4508 -3.4090 1.5841
8.6130 -3.1192 1.5841
8.7663 -2.8225 1.5841
8.9103 -2.5192 1.5841
9.0447 -2.2094 1.5841
9.1691 -1.8935 1.5841
9.2833 -1.5716 1.5841
6.1772 -0.8187 1.0424
6.1806 -0.5941 1.0328
9.5616 -0.5736 1.5841
9.6319 -0.2312 1.5841
9.6905 0.1155 1.5841
9.7371 0.4660 1.5841
9.7714 0.8200 1.5841
9.7931 1.1771 1.5841
9.8021 1.5367 1.5841
9.7981 1.8985 1.5841
9.7809 2.2620 1.5841
9.7502 2.6267 1.5841
9.7059 2.9920 1.5841
9.6479 3.3574 1.5841
9.5759 3.7224 1.5841
9.4898 4.0863 1.5841
9.3896 4.4487 1.5841
9.2751 4.8088 1.5841
9.1464 5.1661 1.5841
9.0034 5.5200 1.5841
8.8461 5.8697 1.5841
8.6746 6.2147 1.5841
8.4889 6.5543 1.5841
8.2891 6.8878 1.5841
8.0755 7.2145 1.5841
7.8481 7.5338 1.5841
6.9898 7.2083 1.4555
7.3531 8.1474 1.5841
7.0860 8.4405 1.5841
6.8063 8.7234 1.5841
6.4192 8.8641 1.5609
6.1198 9.1211 1.5609
5.8093 9.3663 1.5609
5.4879 9.5991 1.5609
5.1564 9.8190 1.5609
4.8151 10.0254 1.5609
4.4648 10.2177 1.5609
4.1060 10.3956 1.5609
3.7394 10.5585 1.5609
3.3656 10.7061 1.5609
2.9854 10.8379 1.5609
2.6247 11.0599 1.5761
2.3544 11.7829 1.6640
1.9331 11.8711 1.6640
1.5082 11.9412 1.6640
1.0805 11.9933 1.6640
0.6508 12.0271 1.6640
0.2201 12.0425 1.6640
-0.2109 12.0395 1.6640
-0.6412 12.0182 1.6640
-1.0700 11.9785 1.6640
-1.4964 11.9207 1.6640
-1.9196 11.8448 1.6640
-2.3388 11.7512 1.6640
-2.7531 11.6401 1.6640
-3.1617 11.5117 1.6640
-3.5639 11.3664 1.6640
-3.9588 11.2047 1.6640
-4.3459 11.0270 1.6640
-4.7244 10.8336 1.6640
-5.0936 10.6252 1.6640
-5.4529 10.4022 1.6640
-5.8017 10.1653 1.6640
-6.1395 9.9150 1.6640
-6.4658 9.6519 1.6640
-6.7801 9.3766 1.6640
-7.0698 9.0744 1.6612
-7.3377 8.7528 1.6566
-7.6465 8.4845 1.6640
-7.9087 8.1673 1.6640
-8.1570 7.8412 1.6640
-8.3914 7.5070 1.6640
-8.6115 7.1655 1.6640
-8.8171 6.8171 1.6640
-9.0083 6.4628 1.6640
-9.1848 6.1031 1.6640
-9.3465 5.7387 1.6640
-9.4936 5.3702 1.6640
-9.6259 4.9984 1.6640
-9.7436 4.6238 1.6640
-9.8466 4.2471 1.6640
-9.9351 3.8689 1.6640
-10.0091 3.4898 1.6640
-10.0688 3.1103 1.6640
-10.1144 2.7310 1.6640
-10.1461 2.3525 1.6640
-10.1639 1.9752 1.6640
-10.1682 1.5997 1.6640
-10.1592 1.2265 1.6640
-10.1370 0.8560 1.6640
-10.1020 0.4886 1.6640
-10.0544 0.1248 1.6640
-9.9945 -0.2351 1.6640
-9.9226 -0.5905 1.6640
-9.8390 -0.9413 1.6640
-9.7438 -1.2870 1.6640
-9.3284 -1.5750 1.6106
-8.9306 -1.8403 1.5609
-8.8108 -2.1485 1.5609
-1.3987 -1.8319 0.4842
-1.3285 -1.8766 0.4843
-1.2571 -1.9190 0.4844
-1.1846 -1.9590 0.4845
-1.1110 -1.9967 0.4846
-1.0365 -2.0320 0.4848
-0.9605 -2.0638 0.4846
-0.8555 -2.0264 0.4691
-0.8046 -2.1160 0.4835
-0.7296 -2.1492 0.4855
-0.6510 -2.1725 0.4857
-0.5718 -2.1933 0.4859
-0.4921 -2.2116 0.4861
-0.4213 -2.2789 0.4976
-0.3616 -2.4472 0.5315
-0.2931 -2.6401 0.5709
-0.2137 -2.8641 0.6175
-0.1200 -3.1281 0.6731
-0.0077 -3.4447 0.7406
0.1299 -3.8326 0.8242
0.3029 -4.3202 0.9305
0.4888 -4.5888 0.9909
1.0993 -7.6769 1.6640
1.3770 -7.6390 1.6640
1.6537 -7.5924 1.6640
1.9290 -7.5369 1.6640
2.2029 -7.4727 1.6640
2.3530 -7.0350 1.5820
2.5751 -6.8645 1.5609
2.8263 -6.7797 1.5609
3.0753 -6.6867 1.5609
3.3218 -6.5855 1.5609
3.5654 -6.4763 1.5609
3.8061 -6.3590 1.5609
4.0435 -6.2338 1.5609
4.2774 -6.1006 1.5609
4.4582 -5.8942 1.5438
4.6820 -5.7470 1.5438
4.9016 -5.5921 1.5438
5.1157 -5.4285 1.5435
5.3864 -5.3179 1.5609
5.5943 -5.1386 1.5609
5.7970 -4.9518 1.5609
5.9943 -4.7577 1.5609
6.1859 -4.5565 1.5609
6.3715 -4.3482 1.5609
6.6480 -4.1943 1.5841
6.8235 -3.9689 1.5841
6.9921 -3.7369 1.5841
7.1536 -3.4983 1.5841
7.3077 -3.2532 1.5841
7.4541 -3.0020 1.5841
7.5926 -2.7447 1.5841
7.7230 -2.4817 1.5841
7.8449 -2.2130 1.5841
7.9581 -1.9390 1.5841
8.0624 -1.6599 1.5841
8.1574 -1.3759 1.5841
6.1773 -0.8149 1.1871
6.1806 -0.5904 1.1769
8.3847 -0.4979 1.5841
8.4405 -0.1975 1.5841
8.4858 0.1062 1.5841
8.5205 0.4129 1.5841
8.5444 0.7222 1.5841
8.5573 1.0337 1.5841
8.5589 1.3470 1.5841
8.5492 1.6617 1.5841
8.5279 1.9775 1.5841
8.4949 2.2938 1.5841
8.4502 2.6102 1.5841
8.3935 2.9262 1.5841
8.3248 3.2414 1.5841
8.2440 3.5552 1.5841
8.1511 3.8672 1.5841
8.0460 4.1769 1.5841
7.9287 4.4837 1.5841
7.7993 4.7871 1.5841
7.6578 5.0866 1.5841
7.5042 5.3816 1.5841
7.3387 5.6717 1.5841
7.1614 5.9561 1.5841
6.9724 6.2344 1.5841
6.7719 6.5061 1.5841
6.4642 6.6717 1.5609
6.2447 6.9246 1.5609
6.0144 7.1695 1.5609
5.7739 7.4056 1.5609
5.5234 7.6325 1.5609
5.2632 7.8498 1.5609
4.9938 8.0569 1.5609
4.7155 8.2534 1.5609
4.4288 8.4388 1.5609
4.1341 8.6127 1.5609
3.8320 8.7747 1.5609
3.5229 8.9244 1.5609
3.2074 9.0614 1.5609
2.8860 9.1856 1.5609
0.8476 3.0788 0.5170
0.7370 3.1073 0.5163
0.6255 3.1319 0.5158
0.5131 3.1524 0.5154
0.4001 3.1690 0.5151
0.2865 3.1815 0.5150
0.1726 3.1899 0.5149
0.0584 3.1943 0.5150
-0.0559 3.1947 0.5151
-0.1701 3.1909 0.5154
-0.2841 3.1831 0.5158
-0.3978 3.1713 0.5163
-0.5110 3.1554 0.5169
-0.6236 3.1354 0.5176
-0.7354 3.1115 0.5184
-0.8463 3.0836 0.5194
-3.0574 9.7580 1.6640
-3.3974 9.6225 1.6640
-3.7310 9.4733 1.6640
-4.0575 9.3110 1.6640
-4.3765 9.1358 1.6640
-4.6873 8.9482 1.6640
-4.9895 8.7487 1.6640
-5.2827 8.5376 1.6640
-5.5663 8.3155 1.6640
-5.8400 8.0829 1.6640
-6.1034 7.8403 1.6640
-6.3562 7.5882 1.6640
-6.5979 7.3272 1.6640
-6.8284 7.0578 1.6640
-7.0474 6.7806 1.6640
-7.2546 6.4961 1.6640
-7.4498 6.2049 1.6640
-7.6329 5.9075 1.6640
-7.8038 5.6046 1.6640
-7.9622 5.2966 1.6640
-8.1082 4.9842 1.6640
-8.2416 4.6679 1.6640
-8.3626 4.3482 1.6640
-8.4709 4.0256 1.6640
-8.5667 3.7008 1.6640
-8.6500 3.3741 1.6640
-8.7208 3.0462 1.6640
-8.7793 2.7176 1.6640
-8.8255 2.3886 1.6640
-8.8596 2.0597 1.6640
-8.8816 1.7315 1.6640
-8.8918 1.4044 1.6640
-8.8902 1.0787 1.6640
-8.8772 0.7550 1.6640
-8.8528 0.4335 1.6640
-8.8172 0.1148 1.6640
-8.7707 -0.2010 1.6640
-8.7136 -0.5133 1.6640
-8.6459 -0.8219 1.6640
-8.5680 -1.1265 1.6640
-8.4800 -1.4266 1.6640
-8.3823 -1.7221 1.6640
-8.2751 -2.0127 1.6640
-1.2614 -1.6509 0.4855
-1.1984 -1.6916 0.4856
-1.1342 -1.7302 0.4857
-1.0690 -1.7666 0.4858
-1.0028 -1.8010 0.4859
-0.9356 -1.8331 0.4860
-0.8676 -1.8631 0.4862
-0.7988 -1.8909 0.4863
-0.7292 -1.9165 0.4865
-0.6589 -1.9398 0.4867
-0.5880 -1.9610 0.4869
-0.5212 -1.9981 0.4916
-0.4743 -2.1305 0.5200
-0.4216 -2.2791 0.5526
-0.3618 -2.4475 0.5901
-0.2933 -2.6406 0.6340
-0.2138 -2.8648 0.6857
-0.1201 -3.1291 0.7474
-0.0076 -3.4462 0.8225
0.1302 -3.8347 0.9155
0.3034 -4.3232 1.0338
0.4807 -4.5088 1.0810
0.6703 -4.6774 1.1258
1.2410 -6.8792 1.6640
1.4901 -6.8364 1.6640
1.7380 -6.7857 1.6640
1.9845 -6.7269 1.6640
2.2293 -6.6602 1.6640
2.3640 -6.2973 1.5912
2.5448 -6.1000 1.5609
2.7685 -6.0151 1.5609
2.9897 -5.9228 1.5609
3.2083 -5.8232 1.5609
3.4240 -5.7164 1.5609
3.6367 -5.6023 1.5609
3.8460 -5.4811 1.5609
4.0519 -5.3527 1.5609
4.2540 -5.2174 1.5609
4.4521 -5.0751 1.5609
4.6461 -4.9259 1.5609
4.8357 -4.7699 1.5609
5.0206 -4.6073 1.5609
5.2007 -4.4381 1.5609
5.3756 -4.2624 1.5609
5.5453 -4.0803 1.5609
5.7094 -3.8920 1.5609
5.8677 -3.6976 1.5609
6.0200 -3.4972 1.5609
6.1660 -3.2910 1.5609
6.3056 -3.0792 1.5609
6.4385 -2.8619 1.5609
6.6618 -2.6784 1.5841
6.7823 -2.4473 1.5841
6.8954 -2.2113 1.5841
7.0007 -1.9704 1.5841
7.0982 -1.7250 1.5841
7.1874 -1.4753 1.5841
6.8716 -1.1548 1.4976
6.1773 -0.8111 1.3330
6.1807 -0.5866 1.3223
7.4589 -0.4384 1.5841
7.5044 -0.1710 1.5841
7.5405 0.0990 1.5841
7.5671 0.3713 1.5841
7.5840 0.6456 1.5841
7.5912 0.9216 1.5841
7.5883 1.1989 1.5841
7.5754 1.4771 1.5841
7.5522 1.7559 1.5841
7.5188 2.0349 1.5841
7.4749 2.3136 1.5841
7.4205 2.5917 1.5841
7.3557 2.8687 1.5841
7.2802 3.1443 1.5841
7.1941 3.4180 1.5841
7.0975 3.6892 1.5841
6.9903 3.9578 1.5841
6.8725 4.2230 1.5841
6.7442 4.4845 1.5841
6.5090 4.6727 1.5609
6.3622 4.9217 1.5609
6.2054 5.1657 1.5609
6.0387 5.4043 1.5609
5.8622 5.6369 1.5609
5.6763 5.8632 1.5609
5.4810 6.0826 1.5609
5.2767 6.2948 1.5609
5.0636 6.4993 1.5609
4.8420 6.6957 1.5609
4.6122 6.8836 1.5609
4.3746 7.0626 1.5609
4.1294 7.2322 1.5609
3.8771 7.3923 1.5609
3.6181 7.5423 1.5609
3.3528 7.6820 1.5609
3.0816 7.8110 1.5609
2.8050 7.9291 1.5609
0.8520 2.7132 0.5270
0.7545 2.7421 0.5264
0.6561 2.7674 0.5258
0.5568 2.7892 0.5254
0.4568 2.8075 0.5250
0.3562 2.8223 0.5248
0.2551 2.8334 0.5246
0.1537 2.8409 0.5245
0.0521 2.8448 0.5246
-0.0496 2.8450 0.5247
-0.1513 2.8417 0.5250
-0.2528 2.8347 0.5253
-0.3540 2.8241 0.5258
-0.4547 2.8099 0.5263
-0.5549 2.7921 0.5270
-0.6544 2.7708 0.5277
-0.7531 2.7459 0.5285
-0.8508 2.7175 0.5294
-2.9723 8.4243 1.6640
-3.2650 8.2961 1.6640
-3.5518 8.1564 1.6640
-3.8322 8.0056 1.6640
-4.1058 7.8440 1.6640
-4.3722 7.6719 1.6640
-4.6308 7.4898 1.6640
-4.8814 7.2980 1.6640
-5.1236 7.0969 1.6640
-5.3570 6.8870 1.6640
-5.5813 6.6687 1.6640
-5.7963 6.4425 1.6640
-6.0017 6.2087 1.6640
-6.1971 5.9679 1.6640
-6.3825 5.7206 1.6640
-6.5576 5.4671 1.6640
-6.7223 5.2081 1.6640
-6.8764 4.9438 1.6640
-7.0198 4.6750 1.6640
-7.1524 4.4019 1.6640
-7.2742 4.1251 1.6640
-7.3850 3.8450 1.6640
-7.4849 3.5621 1.6640
-7.5738 3.2769 1.6640
-7.6518 2.9898 1.6640
-7.7188 2.7013 1.6640
-7.7750 2.4117 1.6640
-7.8204 2.1215 1.6640
-7.8550 1.8311 1.6640
-7.8790 1.5410 1.6640
-7.8925 1.2514 1.6640
-7.8956 0.9629 1.6640
-7.8884 0.6757 1.6640
-7.8711 0.3903 1.6640
-7.8438 0.1069 1.6640
-7.8067 -0.1741 1.6640
-7.7599 -0.4524 1.6640
-7.7038 -0.7277 1.6640
-7.6383 -0.9996 1.6640
-7.5638 -1.2679 1.6640
-7.4805 -1.5323 1.6640
-7.3884 -1.7925 1.6640
-1.1477 -1.5009 0.4867
-1.0905 -1.5382 0.4867
-1.0323 -1.5736 0.4868
-0.9731 -1.6071 0.4869
-0.9129 -1.6386 0.4870
-0.8519 -1.6681 0.4871
-0.7901 -1.6956 0.4872
-0.7275 -1.7211 0.4874
-0.6641 -1.7445 0.4875
-0.6020 -1.7713 0.4892
-0.5637 -1.8791 0.5135
-0.5215 -1.9981 0.5410
-0.4745 -2.1306 0.5723
-0.4218 -2.2793 0.6081
-0.3620 -2.4478 0.6495
-0.2935 -2.6411 0.6977
-0.2139 -2.8656 0.7546
-0.1201 -3.1302 0.8227
-0.0075 -3.4477 0.9054
0.1304 -3.8368 1.0079
0.3039 -4.3263 1.1383
0.4766 -4.4667 1.1784
0.6613 -4.6107 1.2212
1.1285 -6.2507 1.6640
1.3549 -6.2113 1.6640
1.5801 -6.1646 1.6640
1.8040 -6.1105 1.6640
2.0262 -6.0491 1.6640
2.2466 -5.9804 1.6640
2.3726 -5.6830 1.6016
2.5151 -5.4607 1.5609
2.7156 -5.3759 1.5609
2.9137 -5.2845 1.5609
3.1090 -5.1864 1.5609
3.3014 -5.0818 1.5609
3.4906 -4.9706 1.5609
3.6766 -4.8530 1.5609
3.8591 -4.7291 1.5609
4.0378 -4.5988 1.5609
4.2126 -4.4623 1.5609
4.3833 -4.3198 1.5609
4.5496 -4.1711 1.5609
4.7114 -4.0166 1.5609
4.8684 -3.8562 1.5609
5.0204 -3.6901 1.5609
5.1673 -3.5185 1.5609
5.3087 -3.3414 1.5609
5.4446 -3.1590 1.5609
5.5747 -2.9715 1.5609
5.6988 -2.7789 1.5609
5.8168 -2.5816 1.5609
5.9283 -2.3795 1.5609
6.0332 -2.1730 1.5609
6.1313 -1.9622 1.5609
6.2225 -1.7473 1.5609
6.3065 -1.5286 1.5609
6.3831 -1.3061 1.5609
6.4523 -1.0803 1.5609
6.6103 -0.8639 1.5841
6.6646 -0.6284 1.5841
6.7108 -0.3903 1.5841
6.7487 -0.1497 1.5841
6.7782 0.0931 1.5841
6.7991 0.3378 1.5841
6.8112 0.5840 1.5841
6.8145 0.8315 1.5841
6.8088 1.0799 1.5841
6.7941 1.3290 1.5841
6.7703 1.5783 1.5841
6.7372 1.8276 1.5841
6.6948 2.0764 1.5841
6.6432 2.3244 1.5841
6.4859 2.5338 1.5609
6.4165 2.7755 1.5609
6.3379 3.0154 1.5609
6.2500 3.2530 1.5609
6.1529 3.4879 1.5609
6.0466 3.7198 1.5609
5.9313 3.9483 1.5609
5.8069 4.1729 1.5609
5.6737 4.3933 1.5609
5.5316 4.6092 1.5609
5.3810 4.8200 1.5609
5.2218 5.0254 1.5609
5.0543 5.2250 1.5609
4.8788 5.4185 1.5609
4.6953 5.6055 1.5609
4.5043 5.7856 1.5609
4.3058 5.9585 1.5609
4.1002 6.1237 1.5609
3.8879 6.2811 1.5609
3.6690 6.4302 1.5609
3.4440 6.5707 1.5609
3.2132 6.7025 1.5609
2.9770 6.8251 1.5609
2.7356 6.9383 1.5609
0.8537 2.4146 0.5352
0.7669 2.4437 0.5346
0.6792 2.4697 0.5340
0.5906 2.4925 0.5335
0.5012 2.5122 0.5331
0.4112 2.5286 0.5328
0.3206 2.5418 0.5325
0.2297 2.5518 0.5324
0.1384 2.5586 0.5323
0.0469 2.5620 0.5324
-0.0446 2.5623 0.5325
-0.1361 2.5592 0.5327
-0.2274 2.5529 0.5330
-0.3185 2.5433 0.5334
-0.4092 2.5305 0.5339
-0.4993 2.5145 0.5345
-0.5889 2.4952 0.5352
-0.6777 2.4728 0.5359
-0.7657 2.4472 0.5368
-0.8527 2.4185 0.5377
-2.8994 7.3724 1.6640
-3.1548 7.2500 1.6640
-3.4048 7.1178 1.6640
-3.6488 6.9761 1.6640
-3.8866 6.8250 1.6640
-4.1178 6.6651 1.6640
-4.3420 6.4966 1.6640
-4.5589 6.3198 1.6640
-4.7682 6.1350 1.6640
-4.9697 5.9428 1.6640
-5.1630 5.7434 1.6640
-5.3479 5.5373 1.6640
-5.5242 5.3248 1.6640
-5.6917 5.1063 1.6640
-5.8503 4.8822 1.6640
-5.9997 4.6530 1.6640
-6.1398 4.4190 1.6640
-6.2705 4.1807 1.6640
-6.3917 3.9385 1.6640
-6.5034 3.6927 1.6640
-6.6054 3.4438 1.6640
-6.6978 3.1922 1.6640
-6.7804 2.9382 1.6640
-6.8533 2.6824 1.6640
-6.9165 2.4250 1.6640
-6.9700 2.1665 1.6640
-7.0139 1.9072 1.6640
-7.0482 1.6475 1.6640
-7.0730 1.3878 1.6640
-7.0883 1.1284 1.6640
-7.0943 0.8696 1.6640
-7.0910 0.6118 1.6640
-7.0786 0.3553 1.6640
-7.0572 0.1005 1.6640
-7.0269 -0.1524 1.6640
-6.9878 -0.4031 1.6640
-6.9402 -0.6513 1.6640
-6.8842 -0.8966 1.6640
-6.8199 -1.1389 1.6640
-6.7475 -1.3779 1.6640
-6.6672 -1.6133 1.6640
-1.0518 -1.3745 0.4876
-0.9996 -1.4089 0.4877
-0.9464 -1.4416 0.4877
-0.8922 -1.4725 0.4878
-0.8372 -1.5015 0.4879
-0.7813 -1.5287 0.4880
-0.7246 -1.5541 0.4881
-0.6692 -1.5823 0.4897
-0.6372 -1.6727 0.5108
-0.6023 -1.7711 0.5344
-0.5640 -1.8790 0.5610
-0.5218 -1.9981 0.5910
-0.4748 -2.1307 0.6252
-0.4221 -2.2795 0.6643
-0.3622 -2.4482 0.7095
-0.2937 -2.6416 0.7622
-0.2140 -2.8663 0.8244
-0.1201 -3.1313 0.8989
-0.0075 -3.4492 0.9893
0.1306 -3.8390 1.1016
0.3044 -4.3294 1.2442
0.4758 -4.4551 1.2839
0.6628 -4.6172 1.3359
1.0338 -5.7217 1.6640
1.2411 -5.6853 1.6640
1.4472 -5.6420 1.6640
1.6521 -5.5920 1.6640
1.8554 -5.5352 1.6640
2.0570 -5.4716 1.6640
2.2567 -5.4015 1.6640
2.3799 -5.1633 1.6136
2.4854 -4.9164 1.5609
2.6662 -4.8320 1.5609
2.8445 -4.7415 1.5609
3.0200 -4.6450 1.5609
3.1925 -4.5425 1.5609
3.3620 -4.4341 1.5609
3.5281 -4.3199 1.5609
3.6907 -4.1999 1.5609
3.8496 -4.0742 1.5609
4.0047 -3.9430 1.5609
4.1556 -3.8063 1.5609
4.3023 -3.6642 1.5609
4.4445 -3.5168 1.5609
4.5821 -3.3643 1.5609
4.7148 -3.2068 1.5609
4.8426 -3.0443 1.5609
4.9651 -2.8771 1.5609
5.0822 -2.7053 1.5609
5.1938 -2.5290 1.5609
5.2996 -2.3484 1.5609
5.3995 -2.1636 1.5609
5.4933 -1.9749 1.5609
5.5808 -1.7823 1.5609
5.6618 -1.5862 1.5609
5.7363 -1.3866 1.5609
5.8040 -1.1839 1.5609
5.8648 -0.9782 1.5609
5.9185 -0.7697 1.5609
5.9650 -0.5587 1.5609
6.0042 -0.3454 1.5609
6.0359 -0.1301 1.5609
6.0600 0.0870 1.5609
6.0764 0.3057 1.5609
6.0850 0.5255 1.5609
6.0857 0.7464 1.5609
6.0783 0.9679 1.5609
6.0629 1.1898 1.5609
6.0394 1.4118 1.5609
6.0076 1.6335 1.5609
5.9676 1.8547 1.5609
5.9194 2.0750 1.5609
5.8628 2.2942 1.5609
5.7980 2.5118 1.5609
5.7248 2.7276 1.5609
5.6434 2.9411 1.5609
5.5538 3.1522 1.5609
5.4560 3.3603 1.5609
5.3501 3.5653 1.5609
5.2362 3.7666 1.5609
5.1144 3.9641 1.5609
4.9847 4.1573 1.5609
4.8474 4.3459 1.5609
4.7026 4.5296 1.5609
4.5505 4.7081 1.5609
4.3912 4.8809 1.5609
4.2249 5.0478 1.5609
4.0519 5.2085 1.5609
3.8724 5.3626 1.5609
3.6867 5.5099 1.5609
3.4950 5.6501 1.5609
3.2975 5.7829 1.5609
3.0947 5.9081 1.5609
2.8868 6.0253 1.5609
2.6741 6.1344 1.5609
0.8533 2.1654 0.5421
0.7755 2.1946 0.5414
0.6967 2.2210 0.5408
0.6170 2.2446 0.5403
0.5365 2.2653 0.5398
0.4553 2.2832 0.5395
0.3735 2.2981 0.5392
0.2913 2.3101 0.5390
0.2087 2.3192 0.5388
0.1257 2.3253 0.5388
0.0427 2.3285 0.5388
-0.0405 2.3286 0.5389
-0.1236 2.3258 0.5391
-0.2065 2.3201 0.5394
-0.2892 2.3114 0.5398
-0.3716 2.2997 0.5402
-0.4535 2.2851 0.5408
-0.5348 2.2676 0.5414
-0.6154 2.2472 0.5420
-0.6953 2.2239 0.5428
-0.7743 2.1978 0.5436
-0.8524 2.1689 0.5446
-2.8346 6.5189 1.6640
-3.0598 6.4014 1.6640
-3.2799 6.2753 1.6640
-3.4944 6.1409 1.6640
-3.7032 5.9986 1.6640
-3.9058 5.8485 1.6640
-4.1020 5.6909 1.6640
-4.2915 5.5262 1.6640
-4.4741 5.3547 1.6640
-4.6495 5.1767 1.6640
-4.8175 4.9926 1.6640
-4.9779 4.8026 1.6640
-5.1305 4.6072 1.6640
-5.2751 4.4066 1.6640
-5.4117 4.2013 1.6640
-5.5400 3.9917 1.6640
-5.6599 3.7779 1.6640
-5.7714 3.5605 1.6640
-5.8743 3.3397 1.6640
-5.9686 3.1160 1.6640
-6.0543 2.8897 1.6640
-6.1312 2.6611 1.6640
-6.1995 2.4307 1.6640
-6.2590 2.1987 1.6640
-6.3098 1.9654 1.6640
-6.3519 1.7313 1.6640
-6.3853 1.4967 1.6640
-6.4102 1.2618 1.6640
-6.4265 1.0271 1.6640
-6.4343 0.7927 1.6640
-6.4337 0.5591 1.6640
-6.4248 0.3265 1.6640
-6.4077 0.0952 1.6640
-6.3825 -0.1345 1.6640
-6.3493 -0.3623 1.6640
-6.3083 -0.5881 1.6640
-6.2595 -0.8114 1.6640
-6.2032 -1.0321 1.6640
-6.1395 -1.2499 1.6640
-6.0684 -1.4646 1.6640
-0.9698 -1.2664 0.4884
-0.9218 -1.2984 0.4885
-0.8728 -1.3286 0.4885
-0.8230 -1.3573 0.4886
-0.7723 -1.3842 0.4887
-0.7267 -1.4210 0.4928
-0.6992 -1.4986 0.5113
-0.6696 -1.5821 0.5318
-0.6375 -1.6725 0.5547
-0.6026 -1.7710 0.5803
-0.5643 -1.8789 0.6091
-0.5221 -1.9981 0.6417
-0.4751 -2.1307 0.6788
-0.4223 -2.2796 0.7212
-0.3625 -2.4485 0.7703
-0.2939 -2.6422 0.8276
-0.2142 -2.8671 0.8952
-0.1202 -3.1324 0.9761
-0.0074 -3.4508 1.0744
0.1309 -3.8412 1.1965
0.3050 -4.3326 1.3517
0.4788 -4.4798 1.4016
0.7610 -5.2975 1.6640
0.9529 -5.2699 1.6640
1.1439 -5.2360 1.6640
1.3338 -5.1958 1.6640
1.5224 -5.1493 1.6640
1.7096 -5.0965 1.6640
1.8952 -5.0375 1.6640
2.0790 -4.9723 1.6640
2.2607 -4.9009 1.6640
2.3862 -4.7167 1.6272
2.4553 -4.4463 1.5609
2.6191 -4.3624 1.5609
2.7802 -4.2729 1.5609
2.9386 -4.1778 1.5609
3.0941 -4.0774 1.5609
3.2464 -3.9716 1.5609
3.3954 -3.8605 1.5609
3.5410 -3.7441 1.5609
3.6828 -3.6227 1.5609
3.8209 -3.4963 1.5609
3.9549 -3.3649 1.5609
4.0848 -3.2288 1.5609
4.2102 -3.0879 1.5609
4.3312 -2.9425 1.5609
4.4475 -2.7926 1.5609
4.5589 -2.6384 1.5609
4.6653 -2.4799 1.5609
4.7664 -2.3175 1.5609
4.8623 -2.1512 1.5609
4.9526 -1.9811 1.5609
5.0372 -1.8075 1.5609
5.1160 -1.6305 1.5609
5.1889 -1.4503 1.5609
5.2556 -1.2670 1.5609
5.3161 -1.0809 1.5609
5.3702 -0.8922 1.5609
5.4177 -0.7011 1.5609
5.4587 -0.5078 1.5609
5.4928 -0.3125 1.5609
5.5201 -0.1155 1.5609
5.5405 0.0831 1.5609
5.5537 0.2829 1.5609
5.5598 0.4837 1.5609
5.5587 0.6852 1.5609
5.5503 0.8873 1.5609
5.5345 1.0896 1.5609
5.5112 1.2918 1.5609
5.4805 1.4937 1.5609
5.4424 1.6950 1.5609
5.3967 1.8953 1.5609
5.3435 2.0945 1.5609
5.2828 2.2922 1.5609
5.2146 2.4880 1.5609
5.1389 2.6817 1.5609
5.0558 2.8731 1.5609
4.9653 3.0617 1.5609
4.8676 3.2473 1.5609
4.7626 3.4296 1.5609
4.6505 3.6082 1.5609
4.5315 3.7829 1.5609
4.4055 3.9533 1.5609
4.2729 4.1192 1.5609
4.1336 4.2803 1.5609
3.9880 4.4363 1.5609
3.8361 4.5868 1.5609
3.6782 4.7317 1.5609
3.5146 4.8706 1.5609
3.3454 5.0033 1.5609
3.1708 5.1296 1.5609
2.9912 5.2492 1.5609
2.8067 5.3618 1.5609
2.6177 5.4673 1.5609
0.8511 1.9536 0.5479
0.7809 1.9829 0.5472
0.7097 2.0096 0.5466
0.6376 2.0338 0.5460
0.5646 2.0554 0.5456
0.4910 2.0743 0.5452
0.4167 2.0907 0.5448
0.3419 2.1043 0.5445
0.2666 2.1153 0.5444
0.1910 2.1236 0.5442
0.1151 2.1292 0.5442
0.0391 2.1320 0.5442
-0.0370 2.1322 0.5443
-0.1130 2.1296 0.5445
-0.1889 2.1244 0.5448
-0.2646 2.1164 0.5451
-0.3400 2.1057 0.5455
-0.4149 2.0923 0.5460
-0.4893 2.0763 0.5466
-0.5631 2.0576 0.5472
-0.6362 2.0363 0.5479
-0.7085 2.0123 0.5487
-0.7798 1.9858 0.5495
-0.8502 1.9568 0.5504
-2.7753 5.8104 1.6640
-2.9754 5.6971 1.6640
-3.1707 5.5763 1.6640
-3.3607 5.4482 1.6640
-3.5454 5.3130 1.6640
-3.7243 5.1711 1.6640
-3.8973 5.0227 1.6640
-4.0640 4.8681 1.6640
-4.2244 4.7075 1.6640
-4.3782 4.5414 1.6640
-4.5251 4.3698 1.6640
-4.6651 4.1933 1.6640
-4.7979 4.0120 1.6640
-4.9235 3.8263 1.6640
-5.0416 3.6366 1.6640
-5.1523 3.4430 1.6640
-5.2553 3.2461 1.6640
-5.3506 3.0459 1.6640
-5.4382 2.8430 1.6640
-5.5179 2.6376 1.6640
-5.5898 2.4300 1.6640
-5.6537 2.2206 1.6640
-5.7098 2.0096 1.6640
-5.7579 1.7974 1.6640
-5.7982 1.5842 1.6640
-5.8305 1.3704 1.6640
-5.8550 1.1563 1.6640
-5.8718 0.9422 1.6640
-5.8807 0.7283 1.6640
-5.8820 0.5149 1.6640
-5.8757 0.3023 1.6640
-5.8619 0.0908 1.6640
-5.8406 -0.1194 1.6640
-5.8120 -0.3280 1.6640
-5.7762 -0.5348 1.6640
-5.7332 -0.7395 1.6640
-5.6833 -0.9420 1.6640
-5.6265 -1.1419 1.6640
-5.5630 -1.3390 1.6640
-0.9155 -1.1945 0.4981
-0.8545 -1.2026 0.4892
-0.8092 -1.2308 0.4892
-0.7768 -1.2803 0.4982
-0.7527 -1.3482 0.5144
-0.7270 -1.4207 0.5324
-0.6995 -1.4983 0.5523
-0.6699 -1.5819 0.5745
-0.6378 -1.6723 0.5991
-0.6029 -1.7708 0.6268
-0.5646 -1.8788 0.6579
-0.5224 -1.9981 0.6931
-0.4754 -2.1308 0.7331
-0.4226 -2.2798 0.7790
-0.3627 -2.4489 0.8320
-0.2940 -2.6427 0.8939
-0.2143 -2.8679 0.9670
-0.1202 -3.1335 1.0545
-0.0073 -3.4523 1.1608
0.1312 -3.8434 1.2929
0.3180 -4.5131 1.5206
0.4912 -4.5919 1.5515
0.7052 -4.9050 1.6640
0.8829 -4.8792 1.6640
1.0598 -4.8476 1.6640
1.2357 -4.8100 1.6640
1.4103 -4.7666 1.6640
1.5836 -4.7173 1.6640
1.7554 -4.6623 1.6640
1.9254 -4.6015 1.6640
2.0935 -4.5350 1.6640
2.2595 -4.4628 1.6640
2.3919 -4.3281 1.6425
2.4245 -4.0351 1.5609
2.5734 -3.9517 1.5609
2.7196 -3.8633 1.5609
2.8630 -3.7697 1.5609
3.0035 -3.6713 1.5609
3.1409 -3.5679 1.5609
3.2750 -3.4598 1.5609
3.4056 -3.3469 1.5609
3.5327 -3.2294 1.5609
3.6559 -3.1074 1.5609
3.7752 -2.9810 1.5609
3.8905 -2.8502 1.5609
4.0015 -2.7153 1.5609
4.1080 -2.5763 1.5609
4.2100 -2.4333 1.5609
4.3073 -2.2865 1.5609
4.3998 -2.1360 1.5609
4.4872 -1.9821 1.5609
4.5695 -1.8247 1.5609
4.6465 -1.6641 1.5609
4.7181 -1.5005 1.5609
4.7841 -1.3339 1.5609
4.8444 -1.1647 1.5609
4.8990 -0.9929 1.5609
4.9475 -0.8188 1.5609
4.9901 -0.6426 1.5609
5.0265 -0.4644 1.5609
5.0566 -0.2845 1.5609
5.0804 -0.1031 1.5609
5.0978 0.0797 1.5609
5.1087 0.2634 1.5609
5.1129 0.4480 1.5609
5.1105 0.6332 1.5609
5.1014 0.8188 1.5609
5.0855 1.0045 1.5609
5.0628 1.1900 1.5609
5.0333 1.3751 1.5609
4.9969 1.5595 1.5609
4.9537 1.7430 1.5609
4.9036 1.9254 1.5609
4.8466 2.1062 1.5609
4.7828 2.2853 1.5609
4.7122 2.4624 1.5609
4.6349 2.6372 1.5609
4.5508 2.8094 1.5609
4.4602 2.9788 1.5609
4.3630 3.1451 1.5609
4.2593 3.3080 1.5609
4.1493 3.4672 1.5609
4.0332 3.6225 1.5609
3.9109 3.7736 1.5609
3.7827 3.9202 1.5609
3.6487 4.0621 1.5609
3.5091 4.1991 1.5609
3.3640 4.3308 1.5609
3.2138 4.4571 1.5609
3.0586 4.5777 1.5609
2.8985 4.6924 1.5609
2.7368 4.8061 1.5626
0.9099 1.7395 0.5537
0.8474 1.7709 0.5530
0.7837 1.8002 0.5523
0.7191 1.8271 0.5516
0.6535 1.8517 0.5510
0.5871 1.8740 0.5505
0.5200 1.8939 0.5501
0.4521 1.9113 0.5497
0.3837 1.9264 0.5494
0.3148 1.9389 0.5491
0.2455 1.9490 0.5490
0.1759 1.9567 0.5489
0.1061 1.9618 0.5488
0.0360 1.9644 0.5489
-0.0340 1.9646 0.5490
-0.1040 1.9622 0.5491
-0.1739 1.9573 0.5494
-0.2436 1.9499 0.5497
-0.3130 1.9401 0.5501
-0.3820 1.9278 0.5505
-0.4505 1.9130 0.5510
-0.5184 1.8957 0.5516
-0.5857 1.8761 0.5522
-0.6522 1.8541 0.5529
-0.7180 1.8296 0.5537
-0.7828 1.8029 0.5545
-0.8466 1.7738 0.5554
-2.7197 5.2114 1.6640
-2.8986 5.1018 1.6640
-3.0729 4.9855 1.6640
-3.2423 4.8628 1.6640
-3.4066 4.7339 1.6640
-3.5655 4.5990 1.6640
-3.7188 4.4584 1.6640
-3.8663 4.3124 1.6640
-4.0079 4.1611 1.6640
-4.1434 4.0050 1.6640
-4.2725 3.8442 1.6640
-4.3952 3.6790 1.6640
-4.5113 3.5097 1.6640
-4.6206 3.3366 1.6640
-4.7232 3.1600 1.6640
-4.8188 2.9802 1.6640
-4.9075 2.7973 1.6640
-4.9891 2.6119 1.6640
-5.0635 2.4240 1.6640
-5.1308 2.2341 1.6640
-5.1909 2.0424 1.6640
-5.2437 1.8491 1.6640
-5.2893 1.6547 1.6640
-5.3277 1.4592 1.6640
-5.3589 1.2631 1.6640
-5.3829 1.0666 1.6640
-5.3997 0.8699 1.6640
-5.4094 0.6734 1.6640
-5.4120 0.4772 1.6640
-5.4076 0.2817 1.6640
-5.3963 0.0870 1.6640
-5.3781 -0.1065 1.6640
-5.3531 -0.2987 1.6640
-5.3215 -0.4893 1.6640
-5.2833 -0.6781 1.6640
-5.2386 -0.8649 1.6640
-5.1875 -1.0494 1.6640
-5.1302 -1.2315 1.6640
-0.9166 -1.1950 0.5364
-0.8270 -1.1630 0.5091
-0.7999 -1.2158 0.5200
-0.7772 -1.2799 0.5359
-0.7530 -1.3479 0.5533
-0.7274 -1.4204 0.5726
-0.6998 -1.4980 0.5940
-0.6702 -1.5816 0.6178
-0.6381 -1.6721 0.6443
-0.6032 -1.7707 0.6740
-0.5649 -1.8787 0.7074
-0.5227 -1.9981 0.7452
-0.4756 -2.1309 0.7883
-0.4228 -2.2800 0.8376
-0.3629 -2.4492 0.8947
-0.2942 -2.6432 0.9613
-0.2144 -2.8687 1.0399
-0.1203 -3.1346 1.1341
-0.0072 -3.4539 1.2486
0.1314 -3.8457 1.3908
0.3240 -4.5935 1.6640
0.4904 -4.5805 1.6640
0.6564 -4.5618 1.6640
0.8218 -4.5377 1.6640
0.9863 -4.5080 1.6640
1.1499 -4.4728 1.6640
1.3124 -4.4321 1.6640
1.4736 -4.3860 1.6640
1.6332 -4.3345 1.6640
1.7913 -4.2776 1.6640
1.9475 -4.2153 1.6640
2.1017 -4.1478 1.6640
2.2538 -4.0750 1.6640
2.3970 -3.9861 1.6595
2.4078 -3.6944 1.5707
2.5285 -3.5888 1.5609
2.6616 -3.5014 1.5609
2.7918 -3.4095 1.5609
2.9191 -3.3129 1.5609
3.0433 -3.2120 1.5609
3.1642 -3.1066 1.5609
3.2817 -2.9970 1.5609
3.3957 -2.8832 1.5609
3.5059 -2.7653 1.5609
3.6123 -2.6434 1.5609
3.7147 -2.5177 1.5609
3.8130 -2.3882 1.5609
3.9069 -2.2551 1.5609
3.9965 -2.1185 1.5609
4.0815 -1.9785 1.5609
4.1618 -1.8353 1.5609
4.2372 -1.6890 1.5609
4.3077 -1.5398 1.5609
4.3732 -1.3878 1.5609
4.4334 -1.2331 1.5609
4.4884 -1.0761 1.5609
4.5379 -0.9167 1.5609
4.5819 -0.7553 1.5609
4.6203 -0.5919 1.5609
4.6530 -0.4269 1.5609
4.6798 -0.2602 1.5609
4.7008 -0.0923 1.5609
4.7158 0.0767 1.5609
4.7248 0.2467 1.5609
4.7276 0.4173 1.5609
4.7243 0.5884 1.5609
4.7148 0.7598 1.5609
4.6990 0.9312 1.5609
4.6770 1.1023 1.5609
4.6487 1.2731 1.5609
4.6140 1.4431 1.5609
4.5731 1.6122 1.5609
4.5258 1.7801 1.5609
4.4722 1.9466 1.5609
4.4124 2.1114 1.5609
4.3463 2.2743 1.5609
4.2741 2.4350 1.5609
4.1957 2.5933 1.5609
4.1113 2.7489 1.5609
4.0209 2.9016 1.5609
3.9246 3.0511 1.5609
3.8225 3.1972 1.5609
3.7148 3.3396 1.5609
3.6015 3.4782 1.5609
3.4828 3.6126 1.5609
3.3589 3.7426 1.5609
3.2299 3.8681 1.5609
3.0959 3.9887 1.5609
2.9572 4.1043 1.5609
2.8140 4.2147 1.5609
2.6664 4.3196 1.5609
0.8992 1.5801 0.5582
0.8424 1.6113 0.5574
0.7844 1.6405 0.5567
0.7255 1.6675 0.5560
0.6657 1.6925 0.5554
0.6050 1.7153 0.5549
0.5435 1.7359 0.5544
0.4814 1.7543 0.5540
0.4186 1.7704 0.5536
0.3553 1.7843 0.5533
0.2915 1.7960 0.5531
0.2273 1.8053 0.5530
0.1629 1.8124 0.5529
0.0982 1.8171 0.5528
0.0334 1.8195 0.5529
-0.0314 1.8197 0.5529
-0.0962 1.8175 0.5531
-0.1609 1.8129 0.5533
-0.2254 1.8061 0.5536
-0.2896 1.7970 0.5540
-0.3535 1.7856 0.5544
-0.4169 1.7719 0.5548
-0.4798 1.7559 0.5554
-0.5421 1.7377 0.5560
-0.6037 1.7173 0.5566
-0.6645 1.6947 0.5573
-0.7245 1.6699 0.5581
-0.7836 1.6430 0.5589
-0.8416 1.6140 0.5598
-2.6666 4.6971 1.6640
-2.8274 4.5908 1.6640
-2.9837 4.4785 1.6640
-3.1354 4.3606 1.6640
-3.2821 4.2371 1.6640
-3.4239 4.1084 1.6640
-3.5603 3.9746 1.6640
-3.6914 3.8360 1.6640
-3.8168 3.6929 1.6640
-3.9366 3.5454 1.6640
-4.0504 3.3939 1.6640
-4.1582 3.2385 1.6640
-4.2599 3.0796 1.6640
-4.3554 2.9174 1.6640
-4.4445 2.7521 1.6640
-4.5273 2.5840 1.6640
-4.6035 2.4135 1.6640
-4.6733 2.2406 1.6640
-4.7364 2.0658 1.6640
-4.7930 1.8892 1.6640
-4.8429 1.7111 1.6640
-4.8861 1.5319 1.6640
-4.9227 1.3516 1.6640
-4.9527 1.1707 1.6640
-4.9760 0.9892 1.6640
-4.9926 0.8076 1.6640
-5.0027 0.6260 1.6640
-5.0063 0.4447 1.6640
-5.0034 0.2639 1.6640
-4.9941 0.0837 1.6640
-4.9783 -0.0954 1.6640
-4.9563 -0.2734 1.6640
-4.9281 -0.4500 1.6640
-4.8938 -0.6250 1.6640
-4.8534 -0.7981 1.6640
-4.8072 -0.9693 1.6640
-4.7550 -1.1383 1.6640
-0.9177 -1.1955 0.5754
-0.8279 -1.1635 0.5460
-0.8002 -1.2154 0.5573
-0.7775 -1.2795 0.5742
-0.7534 -1.3476 0.5928
-0.7277 -1.4201 0.6134
-0.7002 -1.4977 0.6363
-0.6705 -1.5814 0.6618
-0.6385 -1.6719 0.6902
-0.6036 -1.7705 0.7220
-0.5653 -1.8786 0.7578
-0.5230 -1.9981 0.7983
-0.4759 -2.1310 0.8444
-0.4231 -2.2802 0.8973
-0.3632 -2.4496 0.9584
-0.2944 -2.6438 1.0298
-0.2145 -2.8695 1.1141
-0.1203 -3.1358 1.2151
-0.0072 -3.4556 1.3379
0.1470 -4.2959 1.6640
0.3028 -4.2888 1.6640
0.4583 -4.2765 1.6640
0.6134 -4.2590 1.6640
0.7678 -4.2363 1.6640
0.9215 -4.2084 1.6640
1.0743 -4.1753 1.6640
1.2260 -4.1371 1.6640
1.3764 -4.0938 1.6640
1.5255 -4.0454 1.6640
1.6730 -3.9920 1.6640
1.8187 -3.9335 1.6640
1.9626 -3.8701 1.6640
2.1044 -3.8019 1.6640
2.2440 -3.7287 1.6640
2.3813 -3.6508 1.6640
2.4056 -3.4114 1.5909
2.4841 -3.2651 1.5609
2.6176 -3.1939 1.5683
2.7238 -3.0885 1.5609
2.8393 -2.9939 1.5609
2.9518 -2.8953 1.5609
3.0610 -2.7926 1.5609
3.1668 -2.6861 1.5609
3.2692 -2.5758 1.5609
3.3679 -2.4618 1.5609
3.4628 -2.3442 1.5609
3.5539 -2.2231 1.5609
3.6409 -2.0987 1.5609
3.7237 -1.9711 1.5609
3.8022 -1.8403 1.5609
3.8764 -1.7066 1.5609
3.9460 -1.5701 1.5609
4.0109 -1.4309 1.5609
4.0711 -1.2891 1.5609
4.1265 -1.1449 1.5609
4.1768 -0.9985 1.5609
4.2221 -0.8501 1.5609
4.2622 -0.6997 1.5609
4.2971 -0.5477 1.5609
4.3267 -0.3941 1.5609
4.3508 -0.2391 1.5609
4.3694 -0.0830 1.5609
4.3825 0.0742 1.5609
4.3899 0.2321 1.5609
4.3917 0.3905 1.5609
4.3877 0.5494 1.5609
4.3780 0.7084 1.5609
4.3625 0.8674 1.5609
4.3412 1.0261 1.5609
4.3140 1.1843 1.5609
4.2810 1.3418 1.5609
4.2422 1.4984 1.5609
4.1976 1.6539 1.5609
4.1471 1.8080 1.5609
4.0908 1.9604 1.5609
4.0288 2.1110 1.5609
3.9611 2.2596 1.5609
3.8878 2.4059 1.5609
3.8089 2.5496 1.5609
3.7245 2.6906 1.5609
3.6347 2.8286 1.5609
3.5396 2.9634 1.5609
3.4393 3.0948 1.5609
3.3339 3.2226 1.5609
3.2235 3.3465 1.5609
3.1084 3.4663 1.5609
2.9885 3.5819 1.5609
2.8642 3.6931 1.5609
2.7355 3.7995 1.5609
2.6027 3.9011 1.5609
0.8879 1.4395 0.5620
0.8361 1.4703 0.5613
0.7833 1.4994 0.5605
0.7295 1.5265 0.5599
0.6747 1.5516 0.5593
0.6190 1.5748 0.5587
0.5626 1.5960 0.5582
0.5054 1.6152 0.5578
0.4476 1.6323 0.5574
0.3893 1.6473 0.5571
0.3304 1.6603 0.5568
0.2711 1.6711 0.5566
0.2114 1.6798 0.5564
0.1515 1.6863 0.5563
0.0914 1.6907 0.5563
0.0311 1.6930 0.5563
-0.0292 1.6931 0.5564
-0.0894 1.6910 0.5566
-0.1496 1.6868 0.5568
-0.2096 1.6805 0.5570
-0.2693 1.6719 0.5574
-0.3286 1.6613 0.5578
-0.3876 1.6486 0.5582
-0.4461 1.6337 0.5587
-0.5040 1.6168 0.5592
-0.5612 1.5978 0.5599
-0.6178 1.5768 0.5605
-0.6736 1.5537 0.5612
-0.7285 1.5287 0.5620
-0.7825 1.5017 0.5628
-0.8355 1.4728 0.5637
-0.8874 1.4420 0.5646
-2.7602 4.1465 1.6640
-2.9009 4.0379 1.6640
-3.0371 3.9242 1.6640
-3.1687 3.8056 1.6640
-3.2956 3.6824 1.6640
-3.4174 3.5547 1.6640
-3.5341 3.4227 1.6640
-3.6456 3.2867 1.6640
-3.7517 3.1469 1.6640
-3.8522 3.0035 1.6640
-3.9471 2.8567 1.6640
-4.0363 2.7069 1.6640
-4.1197 2.5542 1.6640
-4.1972 2.3988 1.6640
-4.2687 2.2411 1.6640
-4.3342 2.0812 1.6640
-4.3936 1.9194 1.6640
-4.4470 1.7560 1.6640
-4.4941 1.5911 1.6640
-4.5352 1.4250 1.6640
-4.5701 1.2579 1.6640
-4.5988 1.0901 1.6640
-4.6213 0.9219 1.6640
-4.6378 0.7533 1.6640
-4.6481 0.5847 1.6640
-4.6523 0.4163 1.6640
-4.6505 0.2483 1.6640
-4.6428 0.0809 1.6640
-4.6291 -0.0857 1.6640
-4.6095 -0.2512 1.6640
-4.5842 -0.4156 1.6640
-4.5531 -0.5785 1.6640
-4.5164 -0.7397 1.6640
-4.4742 -0.8992 1.6640
-4.4265 -1.0567 1.6640
-0.9188 -1.1960 0.6150
-0.8289 -1.1639 0.5836
-0.8006 -1.2151 0.5951
-0.7778 -1.2792 0.6131
-0.7537 -1.3472 0.6330
-0.7280 -1.4198 0.6550
-0.7005 -1.4975 0.6794
-0.6709 -1.5811 0.7066
-0.6388 -1.6717 0.7369
-0.6039 -1.7704 0.7708
-0.5656 -1.8786 0.8090
-0.5233 -1.9980 0.8522
-0.4762 -2.1311 0.9015
-0.4234 -2.2804 0.9580
-0.3634 -2.4499 1.0233
-0.2946 -2.6443 1.0995
-0.2147 -2.8703 1.1896
-0.1204 -3.1369 1.2976
-0.0082 -4.0260 1.6640
0.1379 -4.0243 1.6640
0.2839 -4.0176 1.6640
0.4297 -4.0060 1.6640
0.5750 -3.9894 1.6640
0.7198 -3.9680 1.6640
0.8638 -3.9417 1.6640
1.0070 -3.9106 1.6640
1.1491 -3.8746 1.6640
1.2900 -3.8338 1.6640
1.4296 -3.7883 1.6640
1.5677 -3.7379 1.6640
1.7042 -3.6829 1.6640
1.8389 -3.6233 1.6640
1.9716 -3.5590 1.6640
2.1023 -3.4902 1.6640
2.2307 -3.4169 1.6640
2.3567 -3.3392 1.6640
2.4092 -3.1639 1.6164
2.4398 -2.9742 1.5609
2.5505 -2.8892 1.5609
2.6583 -2.8003 1.5609
2.7633 -2.7077 1.5609
2.8652 -2.6113 1.5609
2.9639 -2.5113 1.5609
3.0593 -2.4077 1.5609
3.1512 -2.3007 1.5609
3.2396 -2.1904 1.5609
3.3243 -2.0768 1.5609
3.4052 -1.9602 1.5609
3.4822 -1.8406 1.5609
3.5551 -1.7180 1.5609
3.6238 -1.5928 1.5609
3.6883 -1.4649 1.5609
3.7485 -1.3345 1.5609
3.8041 -1.2018 1.5609
3.8552 -1.0670 1.5609
3.9016 -0.9300 1.5609
3.9432 -0.7912 1.5609
3.9800 -0.6507 1.5609
4.0119 -0.5086 1.5609
4.0388 -0.3651 1.5609
4.0606 -0.2204 1.5609
4.0773 -0.0747 1.5609
4.0888 0.0719 1.5609
4.0950 0.2192 1.5609
4.0959 0.3670 1.5609
4.0915 0.5150 1.5609
4.0817 0.6632 1.5609
4.0666 0.8113 1.5609
4.0460 0.9591 1.5609
4.0200 1.1063 1.5609
3.9886 1.2529 1.5609
3.9517 1.3986 1.5609
3.9094 1.5431 1.5609
3.8618 1.6863 1.5609
3.8087 1.8280 1.5609
3.7504 1.9679 1.5609
3.6868 2.1059 1.5609
3.6180 2.2416 1.5609
3.5440 2.3750 1.5609
3.4649 2.5058 1.5609
3.3809 2.6338 1.5609
3.2919 2.7588 1.5609
3.1982 2.8806 1.5609
3.0997 2.9990 1.5609
2.9968 3.1138 1.5609
2.8893 3.2248 1.5609
2.7776 3.3319 1.5609
2.6618 3.4347 1.5609
2.5419 3.5333 1.5609
0.8761 1.3141 0.5655
0.8288 1.3447 0.5647
0.7805 1.3735 0.5640
0.7312 1.4006 0.5633
0.6809 1.4259 0.5627
0.6298 1.4494 0.5622
0.5779 1.4711 0.5616
0.5252 1.4909 0.5612
0.4718 1.5087 0.5608
0.4179 1.5247 0.5604
0.3634 1.5387 0.5601
0.3084 1.5508 0.5598
0.2531 1.5609 0.5596
0.1974 1.5690 0.5595
0.1415 1.5751 0.5594
0.0853 1.5792 0.5594
0.0291 1.5813 0.5594
-0.0272 1.5814 0.5595
-0.0835 1.5795 0.5596
-0.1396 1.5756 0.5598
-0.1956 1.5696 0.5601
-0.2513 1.5617 0.5604
-0.3067 1.5518 0.5607
-0.3618 1.5399 0.5611
-0.4163 1.5260 0.5616
-0.4704 1.5102 0.5621
-0.5238 1.4924 0.5627
-0.5766 1.4728 0.5633
-0.6287 1.4513 0.5640
-0.6799 1.4279 0.5647
-0.7303 1.4027 0.5655
-0.7797 1.3757 0.5663
-0.8282 1.3470 0.5672
-0.8756 1.3165 0.5681
-2.6960 3.7559 1.6640
-2.8230 3.6507 1.6640
-2.9457 3.5409 1.6640
-3.0640 3.4268 1.6640
-3.1777 3.3085 1.6640
-3.2867 3.1862 1.6640
-3.3909 3.0602 1.6640
-3.4900 2.9305 1.6640
-3.5841 2.7976 1.6640
-3.6730 2.6614 1.6640
-3.7566 2.5224 1.6640
-3.8349 2.3807 1.6640
-3.9076 2.2364 1.6640
-3.9749 2.0899 1.6640
-4.0366 1.9413 1.6640
-4.0926 1.7909 1.6640
-4.1430 1.6389 1.6640
-4.1877 1.4856 1.6640
-4.2267 1.3310 1.6640
-4.2599 1.1755 1.6640
-4.2874 1.0193 1.6640
-4.3092 0.8625 1.6640
-4.3253 0.7055 1.6640
-4.3357 0.5483 1.6640
-4.3404 0.3913 1.6640
-4.3395 0.2346 1.6640
-4.3330 0.0784 1.6640
-4.3210 -0.0771 1.6640
-4.3035 -0.2317 1.6640
-4.2805 -0.3852 1.6640
-4.2522 -0.5374 1.6640
-4.2187 -0.6882 1.6640
-4.1799 -0.8373 1.6640
-4.1360 -0.9846 1.6640
-0.9200 -1.1966 0.6555
-0.8299 -1.1644 0.6219
-0.8009 -1.2147 0.6337
-0.7782 -1.2788 0.6528
-0.7541 -1.3469 0.6739
-0.7284 -1.4194 0.6973
-0.7009 -1.4972 0.7233
-0.6712 -1.5809 0.7522
-0.6392 -1.6715 0.7844
-0.6042 -1.7702 0.8205
-0.5659 -1.8785 0.8612
-0.5236 -1.9980 0.9072
-0.4765 -2.1311 0.9597
-0.4236 -2.2806 1.0198
-0.3636 -2.4503 1.0894
-0.2948 -2.6449 1.1706
-0.2148 -2.8711 1.2666
-0.1204 -3.1381 1.3816
-0.0076 -3.7824 1.6640
0.1297 -3.7807 1.6640
0.2670 -3.7744 1.6640
0.4041 -3.7634 1.6640
0.5407 -3.7478 1.6640
0.6767 -3.7276 1.6640
0.8121 -3.7027 1.6640
0.9467 -3.6733 1.6640
1.0802 -3.6393 1.6640
1.2126 -3.6008 1.6640
1.3437 -3.5578 1.6640
1.4735 -3.5103 1.6640
1.6016 -3.4584 1.6640
1.7281 -3.4021 1.6640
1.8527 -3.3415 1.6640
1.9753 -3.2766 1.6640
2.0958 -3.2075 1.6640
2.2140 -3.1342 1.6640
2.3298 -3.0568 1.6640
2.4126 -2.9383 1.6433
2.4186 -2.7372 1.5760
2.4964 -2.6272 1.5609
2.5947 -2.5399 1.5609
2.6901 -2.4491 1.5609
2.7825 -2.3550 1.5609
2.8717 -2.2575 1.5609
2.9577 -2.1568 1.5609
3.0402 -2.0530 1.5609
3.1193 -1.9462 1.5609
3.1948 -1.8365 1.5609
3.2666 -1.7241 1.5609
3.3346 -1.6089 1.5609
3.3986 -1.4912 1.5609
3.4586 -1.3711 1.5609
3.5145 -1.2487 1.5609
3.5662 -1.1241 1.5609
3.6135 -0.9975 1.5609
3.6565 -0.8690 1.5609
3.6950 -0.7389 1.5609
3.7289 -0.6071 1.5609
3.7582 -0.4739 1.5609
3.7828 -0.3394 1.5609
3.8026 -0.2039 1.5609
3.8176 -0.0673 1.5609
3.8278 0.0699 1.5609
3.8330 0.2078 1.5609
3.8333 0.3460 1.5609
3.8286 0.4845 1.5609
3.8188 0.6231 1.5609
3.8040 0.7615 1.5609
3.7842 0.8996 1.5609
3.7593 1.0372 1.5609
3.7293 1.1741 1.5609
3.6943 1.3101 1.5609
3.6542 1.4450 1.5609
3.6091 1.5786 1.5609
3.5591 1.7108 1.5609
3.5040 1.8412 1.5609
3.4441 1.9698 1.5609
3.3793 2.0964 1.5609
3.3098 2.2207 1.5609
3.2355 2.3425 1.5609
3.1566 2.4617 1.5609
3.0732 2.5781 1.5609
2.9853 2.6915 1.5609
2.8931 2.8017 1.5609
2.7966 2.9085 1.5609
2.7047 3.0214 1.5659
2.5916 3.1113 1.5609
2.5027 3.2321 1.5732
0.8638 1.2016 0.5686
0.8206 1.2318 0.5679
0.7763 1.2604 0.5671
0.7311 1.2874 0.5665
0.6849 1.3128 0.5658
0.6378 1.3365 0.5653
0.5899 1.3585 0.5647
0.5413 1.3788 0.5642
0.4919 1.3973 0.5638
0.4420 1.4141 0.5634
0.3914 1.4290 0.5631
0.3404 1.4422 0.5628
0.2889 1.4535 0.5626
0.2371 1.4629 0.5624
0.1849 1.4705 0.5622
0.1325 1.4762 0.5622
0.0799 1.4801 0.5621
0.0273 1.4820 0.5622
-0.0254 1.4821 0.5622
-0.0781 1.4803 0.5624
-0.1307 1.4766 0.5625
-0.1831 1.4711 0.5628
-0.2353 1.4636 0.5631
-0.2872 1.4543 0.5634
-0.3388 1.4431 0.5638
-0.3899 1.4301 0.5642
-0.4405 1.4153 0.5647
-0.4905 1.3987 0.5652
-0.5400 1.3803 0.5658
-0.5887 1.3601 0.5664
-0.6367 1.3382 0.5671
-0.6839 1.3146 0.5678
-0.7302 1.2893 0.5686
