ply
format ascii 1.0
element vertex 2172
property float32 x
property float32 y
property float32 z
end_header
1.5509 21.9206 1.0881
1.1522 33.0760 1.6273
-0.0293 29.5485 1.4426
-1.2230 33.2144 1.6112
-2.4286 33.3854 1.6113
-3.6481 33.5133 1.6113
-4.8799 33.5970 1.6114
-6.5138 35.7864 1.7145
-7.8450 35.7771 1.7145
-9.1837 35.7178 1.7145
-10.5279 35.6073 1.7145
-11.8755 35.4450 1.7145
-13.2241 35.2297 1.7145
-13.6954 32.8587 1.6114
-14.9585 32.5554 1.6114
-10.9077 21.6599 1.0839
-15.3748 25.7583 1.3245
-14.7030 22.7414 1.1887
-14.1497 20.2565 1.0785
-13.6850 18.1692 0.9874
-13.2881 16.3870 0.9109
-12.9445 14.8439 0.8460
-12.5576 13.4001 0.7850
-12.3767 12.2937 0.7422
-12.1382 11.2228 0.7002
-11.9232 10.2573 0.6633
-11.7279 9.3801 0.6308
-11.5493 8.5779 0.6021
-11.3849 7.8394 0.5765
-11.2327 7.1558 0.5536
-11.0910 6.5195 0.5332
-10.9585 5.9244 0.5149
-10.8340 5.3651 0.4985
-10.7164 4.8373 0.4838
-10.6051 4.3371 0.4706
-10.4991 3.8611 0.4588
-10.3979 3.4066 0.4482
-10.3009 2.9710 0.4388
-10.2076 2.5521 0.4304
-10.1176 2.1480 0.4229
-9.9585 1.7443 0.4134
-9.9460 1.3772 0.4107
-9.8637 1.0075 0.4058
-9.7833 0.6465 0.4017
-9.7046 0.2931 0.3983
-9.6273 -0.0540 0.3955
-9.5512 -0.3958 0.3934
-9.4761 -0.7331 0.3920
-9.4017 -1.0672 0.3912
-9.3279 -1.3985 0.3910
-9.2545 -1.7283 0.3915
-9.1813 -2.0572 0.3925
-9.1080 -2.3862 0.3942
-9.0346 -2.7160 0.3964
-8.9607 -3.0476 0.3993
-8.8863 -3.3818 0.4029
-8.8111 -3.7195 0.4071
-8.7350 -4.0616 0.4120
-8.6576 -4.4092 0.4176
-8.5787 -4.7632 0.4239
-8.4982 -5.1248 0.4310
-8.4157 -5.4953 0.4389
-8.3310 -5.8758 0.4478
-8.2437 -6.2679 0.4575
-8.1535 -6.6731 0.4683
-8.0599 -7.0932 0.4802
-7.9626 -7.5302 0.4932
-7.8611 -7.9863 0.5076
-7.7547 -8.4640 0.5234
-7.6428 -8.9663 0.5407
-7.5248 -9.4965 0.5598
-7.3433 -9.9819 0.5765
-7.2665 -10.6566 0.6042
-7.1240 -11.2965 0.6299
-6.9709 -11.9841 0.6585
-6.8054 -12.7274 0.6903
6.9822 0.4696 0.5798
6.8737 0.7105 0.5719
6.8417 0.9561 0.5710
6.8368 1.2066 0.5730
6.8222 1.4579 0.5748
6.7902 1.7076 0.5759
6.7576 1.9594 0.5776
6.7244 2.2139 0.5800
6.6903 2.4718 0.5831
6.6554 2.7337 0.5868
6.6297 3.0051 0.5922
6.6005 3.2819 0.5982
6.5690 3.5653 0.6049
6.5361 3.8569 0.6125
6.5019 4.1577 0.6210
6.4660 4.4691 0.6305
6.4284 4.7923 0.6411
6.4726 5.1962 0.6615
6.5349 5.6428 0.6857
6.4781 6.0120 0.6994
6.4177 6.3990 0.7146
6.3534 6.8059 0.7313
6.6123 7.6126 0.7890
7.1561 8.8608 0.8877
12.4556 16.6061 1.6112
11.9019 17.1122 1.6112
12.0551 18.7297 1.7145
11.4255 19.2321 1.7145
10.7765 19.7151 1.7145
10.1083 20.1779 1.7145
9.4215 20.6198 1.7145
8.7167 21.0399 1.7145
7.9945 21.4375 1.7145
7.2555 21.8117 1.7145
6.5003 22.1619 1.7145
5.7297 22.4871 1.7145
4.6775 21.5567 1.6219
4.1451 23.0598 1.7145
3.3328 23.3058 1.7145
2.5083 23.5240 1.7145
1.5497 21.9722 1.5886
0.8264 23.8739 1.7145
-0.0290 24.0044 1.7145
-0.8928 24.1044 1.7145
-1.7637 24.1733 1.7145
-2.6406 24.2106 1.7145
-3.5225 24.2159 1.7145
-4.4079 24.1884 1.7145
-5.2958 24.1280 1.7145
-6.1848 24.0341 1.7145
-7.0735 23.9066 1.7145
-7.9606 23.7450 1.7145
-8.8447 23.5493 1.7145
-9.7244 23.3192 1.7145
-10.5982 23.0547 1.7145
-10.7752 21.3874 1.6114
-11.5811 21.0741 1.6114
-9.6825 16.2155 1.2605
-9.3060 14.3887 1.1393
-8.9116 12.7535 1.0305
-13.2068 16.2820 1.3787
-12.9433 14.8385 1.2906
-12.5579 13.3968 1.1997
-12.3758 12.2899 1.1360
-12.1375 11.2195 1.0734
-11.9226 10.2544 1.0184
-11.7274 9.3777 0.9699
-11.5488 8.5758 0.9269
-11.3845 7.8376 0.8886
-11.2323 7.1543 0.8543
-11.0907 6.5183 0.8237
-10.9583 5.9233 0.7962
-10.8338 5.3643 0.7715
-10.7163 4.8366 0.7493
-10.6049 4.3365 0.7294
-10.4990 3.8606 0.7114
-10.3978 3.4062 0.6953
-10.3008 2.9708 0.6809
-10.2076 2.5520 0.6680
-10.1176 2.1480 0.6565
-9.9585 1.7444 0.6417
-9.9461 1.3774 0.6375
-9.8638 1.0078 0.6297
-9.7834 0.6468 0.6231
-9.7047 0.2934 0.6175
-9.6274 -0.0536 0.6129
-9.5513 -0.3952 0.6093
-9.4762 -0.7326 0.6067
-9.4019 -1.0665 0.6049
-9.3281 -1.3978 0.6041
-9.2547 -1.7275 0.6041
-9.1815 -2.0564 0.6050
-9.1082 -2.3853 0.6068
-9.0348 -2.7151 0.6095
-8.9610 -3.0466 0.6131
-8.8866 -3.3807 0.6176
-8.8114 -3.7183 0.6231
-8.7352 -4.0604 0.6295
-8.6579 -4.4078 0.6370
-8.5791 -4.7618 0.6455
-8.4985 -5.1234 0.6551
-8.4161 -5.4936 0.6659
-8.3314 -5.8740 0.6780
-8.2441 -6.2660 0.6914
-8.1539 -6.6711 0.7062
-8.0604 -7.0911 0.7226
-7.9631 -7.5279 0.7407
-7.8616 -7.9838 0.7607
-7.7553 -8.4614 0.7826
-7.6435 -8.9635 0.8068
-7.5254 -9.4935 0.8335
-7.3446 -9.9794 0.8564
-7.2672 -10.6531 0.8954
-7.1248 -11.2926 0.9315
-6.9718 -11.9800 0.9716
-6.8064 -12.7228 1.0162
6.7731 0.4559 0.7167
6.7062 0.6936 0.7112
6.6815 0.9342 0.7109
6.6760 1.1788 0.7135
6.6695 1.4259 0.7169
6.6621 1.6761 0.7211
6.6537 1.9300 0.7261
6.6442 2.1883 0.7320
6.6135 2.4442 0.7366
6.5783 2.7030 0.7416
6.5480 2.9691 0.7483
6.5170 3.2415 0.7560
6.4847 3.5208 0.7648
6.4510 3.8079 0.7747
6.4158 4.1041 0.7858
6.3788 4.4103 0.7982
6.3400 4.7280 0.8120
6.3638 5.1106 0.8358
6.3851 5.5154 0.8617
6.3261 5.8732 0.8791
6.2634 6.2475 0.8984
6.1966 6.6405 0.9196
6.2765 7.2287 0.9664
6.7484 8.3593 1.0812
7.0145 9.3558 1.1731
9.1977 13.2299 1.6112
8.7465 13.5953 1.6112
8.2814 13.9464 1.6112
7.8030 14.2824 1.6112
7.3115 14.6029 1.6112
6.8074 14.9072 1.6112
6.2913 15.1949 1.6112
5.7636 15.4656 1.6112
5.2248 15.7185 1.6112
4.9751 16.9756 1.7145
4.3799 17.2057 1.7145
3.7748 17.4154 1.7145
3.1604 17.6042 1.7145
2.5374 17.7718 1.7145
1.9065 17.9175 1.7145
1.2685 18.0411 1.7145
0.6240 18.1421 1.7145
-0.0260 18.2201 1.7145
-0.6808 18.2747 1.7145
-1.3395 18.3057 1.7145
-2.0013 18.3126 1.7145
-2.6652 18.2954 1.7145
-3.3303 18.2536 1.7145
-3.9958 18.1871 1.7145
-4.6605 18.0958 1.7145
-5.3236 17.9794 1.7145
-5.9841 17.8380 1.7145
-6.6409 17.6715 1.7145
-7.2931 17.4798 1.7145
-7.9396 17.2631 1.7145
-8.5793 17.0214 1.7145
-9.2112 16.7548 1.7145
-9.2429 15.4736 1.6114
-9.8192 15.1769 1.6114
-10.3852 14.8575 1.6114
-8.6273 11.4473 1.2707
-8.3944 10.3461 1.1780
-8.1789 9.3739 1.0972
-7.9629 8.4927 1.0243
-12.1195 11.2003 1.4455
-11.8518 10.1913 1.3663
-11.7268 9.3753 1.3098
-11.5483 8.5737 1.2525
-11.3841 7.8359 1.2015
-11.2320 7.1528 1.1559
-11.0904 6.5170 1.1150
-10.9580 5.9223 1.0783
-10.8336 5.3633 1.0453
-10.7161 4.8359 1.0156
-10.6048 4.3359 0.9888
-10.4989 3.8602 0.9647
-10.3977 3.4059 0.9431
-10.3008 2.9706 0.9237
-10.2076 2.5519 0.9063
-10.1176 2.1479 0.8908
-9.9585 1.7444 0.8707
-9.9461 1.3775 0.8649
-9.8638 1.0080 0.8543
-9.7835 0.6471 0.8452
-9.7048 0.2938 0.8374
-9.6275 -0.0532 0.8310
-9.5514 -0.3948 0.8258
-9.4764 -0.7320 0.8219
-9.4020 -1.0659 0.8192
-9.3283 -1.3971 0.8177
-9.2549 -1.7268 0.8173
-9.1816 -2.0556 0.8181
-9.1084 -2.3844 0.8201
-9.0350 -2.7142 0.8232
-8.9612 -3.0456 0.8275
-8.8868 -3.3796 0.8330
-8.8117 -3.7171 0.8397
-8.7355 -4.0591 0.8477
-8.6582 -4.4065 0.8570
-8.5794 -4.7604 0.8678
-8.4989 -5.1218 0.8799
-8.4165 -5.4920 0.8936
-8.3318 -5.8724 0.9089
-8.2445 -6.2642 0.9260
-8.1543 -6.6691 0.9449
-8.0609 -7.0890 0.9658
-7.9636 -7.5257 0.9889
-7.8621 -7.9815 1.0145
-7.7558 -8.4589 1.0426
-7.6441 -8.9607 1.0736
-7.5261 -9.4905 1.1079
-7.3459 -9.9770 1.1371
-7.2680 -10.6496 1.1875
-7.1257 -11.2888 1.2339
-6.9727 -11.9758 1.2855
-6.7963 -12.6975 1.3408
6.5980 0.4446 0.8492
6.5491 0.6778 0.8448
6.5280 0.9132 0.8450
6.5218 1.1521 0.8482
6.5146 1.3934 0.8524
6.5062 1.6375 0.8574
6.4967 1.8852 0.8635
6.4860 2.1370 0.8705
6.4740 2.3936 0.8786
6.4607 2.6556 0.8878
6.4407 2.9215 0.8975
6.4352 3.2019 0.9106
6.4022 3.4771 0.9213
6.3677 3.7600 0.9335
6.3315 4.0515 0.9470
6.2936 4.3528 0.9622
6.2536 4.6651 0.9790
6.2581 5.0275 1.0051
6.2414 5.3932 1.0305
6.1805 5.7400 1.0514
6.1157 6.1024 1.0744
6.0466 6.4822 1.0997
5.9728 6.8817 1.1276
6.3829 7.9098 1.2546
6.3791 8.5119 1.3096
6.2436 8.9848 1.3435
6.4943 10.0992 1.4705
9.1000 15.3322 2.1776
8.8318 16.1738 2.2445
8.2700 16.5261 2.2445
5.5237 12.1030 1.6112
5.1013 12.3285 1.6112
4.6700 12.5397 1.6112
4.2303 12.7362 1.6112
3.7826 12.9176 1.6112
3.3275 13.0836 1.6112
2.8654 13.2339 1.6112
2.3968 13.3680 1.6112
1.9224 13.4857 1.6112
1.5351 14.4573 1.7145
1.0195 14.5467 1.7145
0.4996 14.6177 1.7145
-0.0242 14.6701 1.7145
-0.5510 14.7036 1.7145
-1.0802 14.7179 1.7145
-1.6111 14.7132 1.7145
-2.1430 14.6889 1.7145
-2.6751 14.6450 1.7145
-3.2067 14.5816 1.7145
-3.7371 14.4983 1.7145
-4.2655 14.3953 1.7145
-4.7910 14.2724 1.7145
-5.3130 14.1298 1.7145
-5.8307 13.9674 1.7145
-6.3431 13.7854 1.7145
-6.8496 13.5838 1.7145
-7.3494 13.3628 1.7145
-7.8416 13.1227 1.7145
-8.3254 12.8636 1.7145
-8.4273 12.0524 1.6418
-8.7078 11.5505 1.6114
-8.7003 10.7199 1.5348
-8.4059 9.6314 1.4183
-8.0023 8.5324 1.2953
-7.7950 7.7371 1.2139
-7.6827 7.0983 1.1541
-7.5319 6.4752 1.0941
-11.4445 9.1477 1.6114
-11.7814 8.7450 1.6114
-11.0226 6.4760 1.3988
-10.9116 5.8962 1.3557
-10.8334 5.3625 1.3201
-10.7160 4.8351 1.2828
-10.6047 4.3353 1.2493
-10.4988 3.8598 1.2190
-10.3977 3.4056 1.1918
-10.3007 2.9703 1.1674
-10.2075 2.5517 1.1455
-10.1176 2.1479 1.1259
-9.9586 1.7444 1.1006
-9.9461 1.3776 1.0932
-9.8638 1.0082 1.0797
-9.7835 0.6474 1.0681
-9.7048 0.2941 1.0582
-9.6276 -0.0527 1.0499
-9.5516 -0.3943 1.0432
-9.4765 -0.7315 1.0380
-9.4022 -1.0652 1.0344
-9.3284 -1.3965 1.0322
-9.2550 -1.7260 1.0314
-9.1818 -2.0548 1.0321
-9.1086 -2.3835 1.0342
-9.0352 -2.7132 1.0377
-8.9614 -3.0445 1.0427
-8.8871 -3.3785 1.0492
-8.8119 -3.7160 1.0572
-8.7358 -4.0579 1.0668
-8.6585 -4.4052 1.0780
-8.5797 -4.7589 1.0909
-8.4992 -5.1203 1.1056
-8.4168 -5.4904 1.1221
-8.3322 -5.8706 1.1407
-8.2449 -6.2623 1.1614
-8.1548 -6.6672 1.1844
-8.0613 -7.0868 1.2099
-7.9641 -7.5234 1.2381
-7.8627 -7.9790 1.2692
-7.7564 -8.4562 1.3036
-7.6339 -8.9454 1.3396
-7.4818 -9.4308 1.3750
-7.3472 -9.9746 1.4190
-15.8308 -23.1860 3.2249
-14.8935 -23.5840 3.2132
-7.0198 -12.0509 1.6112
-6.5648 -12.2585 1.6112
6.4455 0.4346 0.9779
6.3983 0.6627 0.9731
6.3805 0.8931 0.9739
6.3738 1.1265 0.9776
6.3659 1.3621 0.9824
6.3567 1.6005 0.9882
6.3462 1.8422 0.9952
6.3343 2.0878 1.0033
6.3210 2.3379 1.0126
6.2941 2.5880 1.0212
6.2432 2.8328 1.0274
6.2472 3.1094 1.0442
6.2498 3.3956 1.0627
6.2509 3.6923 1.0830
6.2490 4.0001 1.1051
6.2100 4.2965 1.1228
6.1690 4.6037 1.1425
6.1553 4.9466 1.1699
6.1032 5.2756 1.1929
6.0405 5.6121 1.2169
5.9739 5.9631 1.2433
5.9029 6.3305 1.2723
5.8269 6.7163 1.3043
6.0241 7.4682 1.4044
5.8966 7.8715 1.4364
5.7589 8.2909 1.4711
5.6100 8.7281 1.5085
5.6872 9.5869 1.6169
5.3848 9.8663 1.6266
5.0705 10.1381 1.6365
4.7524 10.4190 1.6493
4.2855 10.3632 1.6112
3.9211 10.5359 1.6112
2.1998 6.6277 0.9984
1.9555 6.6836 0.9931
2.7892 10.9775 1.6112
2.4004 11.0983 1.6112
2.0065 11.2054 1.6112
1.6080 11.2987 1.6112
1.2055 11.3778 1.6112
0.7994 11.4426 1.6112
0.4152 12.2294 1.7145
-0.0229 12.2672 1.7145
-0.4632 12.2893 1.7145
-0.9051 12.2955 1.7145
-1.3479 12.2856 1.7145
-1.7912 12.2595 1.7145
-2.2342 12.2171 1.7145
-2.6765 12.1584 1.7145
-3.1172 12.0834 1.7145
-3.5560 11.9920 1.7145
-3.9920 11.8844 1.7145
-4.4247 11.7604 1.7145
-4.8533 11.6201 1.7145
-5.2774 11.4638 1.7145
-5.6962 11.2914 1.7145
-6.1091 11.1032 1.7145
-6.5154 10.8993 1.7145
-6.9146 10.6799 1.7145
-7.3060 10.4453 1.7145
-7.6889 10.1957 1.7145
-7.9143 9.7486 1.6829
-7.9202 9.0724 1.6114
-8.2529 8.7973 1.6114
-8.5754 8.5095 1.6114
-8.8871 8.2092 1.6114
-7.8773 6.7706 1.3816
-9.4764 7.5729 1.6114
-9.7529 7.2378 1.6114
-10.0167 6.8921 1.6114
-10.2674 6.5362 1.6114
-10.5044 6.1706 1.6114
-10.7275 5.7959 1.6114
-10.9362 5.4126 1.6114
-10.3689 3.3959 1.4378
-10.2385 2.9521 1.4038
-10.1463 2.5363 1.3775
-10.0738 2.1386 1.3563
-9.9586 1.7445 1.3316
-9.9461 1.3777 1.3226
-9.8639 1.0084 1.3063
-9.7836 0.6477 1.2921
-9.7049 0.2945 1.2800
-9.6277 -0.0524 1.2699
-9.5517 -0.3938 1.2616
-9.4766 -0.7309 1.2552
-9.4023 -1.0646 1.2506
-9.3286 -1.3958 1.2477
-9.2552 -1.7253 1.2465
-9.1820 -2.0539 1.2471
-9.1088 -2.3826 1.2493
-9.0354 -2.7122 1.2533
-8.9617 -3.0435 1.2590
-8.8873 -3.3774 1.2665
-8.8122 -3.7148 1.2757
-8.7361 -4.0566 1.2869
-8.6588 -4.4038 1.3000
-8.5800 -4.7575 1.3151
-8.4996 -5.1187 1.3323
-8.3931 -5.4730 1.3479
-8.2836 -5.8343 1.3656
-8.1948 -6.2221 1.3895
-8.1071 -6.6258 1.4168
-16.5522 -18.0387 3.3412
-7.6482 -8.9585 1.6112
-7.3059 -9.2053 1.6112
-6.9555 -9.4388 1.6112
-6.5976 -9.6588 1.6112
-6.2327 -9.8650 1.6112
-5.8614 -10.0573 1.6112
-5.4842 -10.2355 1.6112
6.2989 0.4251 1.1016
6.2534 0.6480 1.0964
6.2386 0.8737 1.0979
6.2314 1.1018 1.1021
6.2228 1.3321 1.1074
6.2129 1.5650 1.1140
6.2015 1.8009 1.1218
6.1886 2.0405 1.1308
6.1741 2.2843 1.1412
6.1173 2.5162 1.1454
6.0561 2.7489 1.1503
6.0568 3.0157 1.1688
6.0558 3.2912 1.1891
6.0530 3.5766 1.2113
6.0483 3.8729 1.2356
6.0415 4.1814 1.2621
6.0325 4.5034 1.2912
5.9999 4.8235 1.3183
5.9500 5.1451 1.3448
5.8950 5.4789 1.3736
5.8347 5.8263 1.4049
5.7649 6.1849 1.4380
5.6871 6.5577 1.4736
5.6075 6.9545 1.5138
5.4760 7.3130 1.5452
5.3323 7.6801 1.5782
5.1774 8.0589 1.6137
5.0106 8.4505 1.6518
4.5986 8.4301 1.6112
4.3025 8.6072 1.6112
3.9998 8.7742 1.6112
3.6907 8.9307 1.6112
3.3757 9.0764 1.6112
2.1955 6.6198 1.1579
1.9509 6.6734 1.1518
2.3981 9.4472 1.6112
2.0628 9.5478 1.6112
1.7233 9.6367 1.6112
1.3802 9.7134 1.6112
1.0338 9.7781 1.6112
0.6846 9.8303 1.6112
0.3543 10.5026 1.7145
-0.0220 10.5314 1.7145
-0.3998 10.5467 1.7145
-0.7788 10.5483 1.7145
-1.1583 10.5362 1.7145
-1.5379 10.5102 1.7145
-1.9171 10.4703 1.7145
-2.2953 10.4165 1.7145
-2.6720 10.3488 1.7145
-3.0467 10.2672 1.7145
-3.4189 10.1717 1.7145
-3.7880 10.0624 1.7145
-4.1535 9.9393 1.7145
-4.5148 9.8025 1.7145
-4.8715 9.6522 1.7145
-5.2229 9.4886 1.7145
-5.5685 9.3117 1.7145
-5.9079 9.1217 1.7145
-6.2404 8.9189 1.7145
-6.5657 8.7036 1.7145
-6.8831 8.4759 1.7145
-7.1921 8.2361 1.7145
-7.4924 7.9846 1.7145
-7.3789 7.3204 1.6254
-7.5796 6.9997 1.6114
-7.8343 6.7321 1.6114
-8.0789 6.4548 1.6114
-8.3131 6.1681 1.6114
-8.5366 5.8725 1.6114
-8.7488 5.5684 1.6114
-8.9495 5.2563 1.6114
-9.1384 4.9365 1.6114
-9.3152 4.6096 1.6114
-9.4794 4.2760 1.6114
-9.6310 3.9363 1.6114
-9.7696 3.5909 1.6114
-9.8950 3.2403 1.6114
-10.0069 2.8852 1.6114
-10.1053 2.5259 1.6114
-10.1900 2.1632 1.6114
-9.9586 1.7445 1.5639
-8.5684 -5.5855 1.6112
-8.3496 -5.8788 1.6112
-8.1204 -6.1634 1.6112
-7.8811 -6.4389 1.6112
-7.6322 -6.7047 1.6112
-7.3740 -6.9608 1.6112
-7.1070 -7.2067 1.6112
-6.8316 -7.4422 1.6112
-6.5482 -7.6669 1.6112
-6.2572 -7.8807 1.6112
-5.9592 -8.0833 1.6112
-5.6546 -8.2744 1.6112
-5.3437 -8.4540 1.6112
-5.0272 -8.6217 1.6112
-4.7054 -8.7775 1.6112
6.1577 0.4159 1.2207
6.1138 0.6340 1.2151
6.1018 0.8550 1.2174
6.0941 1.0781 1.2220
6.0850 1.3032 1.2279
6.0744 1.5307 1.2351
6.0622 1.7611 1.2437
6.0483 1.9950 1.2536
6.0097 2.2243 1.2601
5.9488 2.4478 1.2637
5.8857 2.6725 1.2685
5.8763 2.9268 1.2869
5.8721 3.1925 1.3087
5.8658 3.4672 1.3326
5.8573 3.7519 1.3586
5.8465 4.0478 1.3871
5.8332 4.3561 1.4181
5.7512 4.6251 1.4356
5.6701 4.9048 1.4562
5.6116 5.2175 1.4861
5.5476 5.5418 1.5185
5.4776 5.8789 1.5536
5.4010 6.2303 1.5916
5.2532 6.5178 1.6132
5.0185 6.7049 1.6112
4.7832 6.8923 1.6112
4.5411 7.0717 1.6112
4.2924 7.2427 1.6112
4.0375 7.4052 1.6112
3.7764 7.5589 1.6112
3.5097 7.7036 1.6112
3.2375 7.8390 1.6112
2.9602 7.9649 1.6112
2.1912 6.6119 1.3183
0.8913 3.0512 0.6004
0.7815 3.0814 0.5993
0.6707 3.1077 0.5982
0.5590 3.1301 0.5971
0.4466 3.1484 0.5960
0.3337 3.1628 0.5950
0.2202 3.1731 0.5939
0.1065 3.1794 0.5928
-0.0074 3.1817 0.5918
-0.1213 3.1799 0.5908
-0.2350 3.1741 0.5897
-0.3486 3.1642 0.5887
-0.4617 3.1503 0.5878
-0.5742 3.1324 0.5868
-0.6861 3.1105 0.5858
-0.7971 3.0846 0.5849
-2.6631 8.9678 1.7145
-2.9875 8.8822 1.7145
-3.3090 8.7846 1.7145
-3.6272 8.6751 1.7145
-3.9416 8.5539 1.7145
-4.2518 8.4208 1.7145
-4.5574 8.2762 1.7145
-4.8578 8.1201 1.7145
-5.1527 7.9529 1.7145
-5.4415 7.7745 1.7145
-5.7239 7.5853 1.7145
-5.9994 7.3855 1.7145
-6.2676 7.1753 1.7145
-6.5280 6.9550 1.7145
-6.7803 6.7248 1.7145
-7.0241 6.4851 1.7145
-7.1024 6.1018 1.6775
-7.0344 5.6191 1.6114
-7.2374 5.3688 1.6114
-7.4310 5.1110 1.6114
-7.6148 4.8458 1.6114
-7.7887 4.5737 1.6114
-7.9523 4.2951 1.6114
-8.1054 4.0103 1.6114
-8.2477 3.7199 1.6114
-8.3790 3.4241 1.6114
-8.4991 3.1235 1.6114
-8.6078 2.8185 1.6114
-8.7049 2.5096 1.6114
-8.7903 2.1971 1.6114
-8.8638 1.8816 1.6114
-8.9254 1.5636 1.6114
-8.9749 1.2434 1.6114
-9.0122 0.9217 1.6114
-9.0374 0.5988 1.6114
-9.0504 0.2753 1.6114
-9.0511 -0.0484 1.6114
-9.0397 -0.3718 1.6114
-9.0160 -0.6943 1.6114
-8.9803 -1.0156 1.6114
-8.9325 -1.3351 1.6114
-8.8727 -1.6524 1.6114
-8.8011 -1.9670 1.6114
-8.7177 -2.2785 1.6114
-8.6228 -2.5863 1.6114
-8.5165 -2.8902 1.6114
-8.3990 -3.1895 1.6114
-8.2706 -3.4840 1.6114
-8.1313 -3.7731 1.6114
-7.9807 -4.0561 1.6112
-7.8206 -4.3334 1.6112
-7.6505 -4.6042 1.6112
-7.4707 -4.8682 1.6112
-7.2815 -5.1250 1.6112
-7.0831 -5.3742 1.6112
-6.8759 -5.6156 1.6112
-6.6603 -5.8488 1.6112
-6.4365 -6.0736 1.6112
-6.2049 -6.2896 1.6112
-5.9659 -6.4967 1.6112
-5.7199 -6.6945 1.6112
-5.4672 -6.8828 1.6112
-5.2082 -7.0615 1.6112
-4.9433 -7.2304 1.6112
-4.6728 -7.3891 1.6112
-4.3973 -7.5377 1.6112
-4.1170 -7.6758 1.6112
6.0216 0.4071 1.3356
5.9792 0.6204 1.3297
5.9697 0.8369 1.3327
5.9617 1.0551 1.3378
5.9520 1.2753 1.3442
5.9407 1.4977 1.3520
5.9278 1.7228 1.3612
5.9055 1.9486 1.3702
5.8478 2.1652 1.3728
5.7880 2.3825 1.3767
5.7258 2.6008 1.3819
5.7047 2.8424 1.3992
5.6976 3.0988 1.4223
5.6882 3.3634 1.4476
5.6764 3.6373 1.4751
5.6621 3.9215 1.5052
5.6301 4.2060 1.5340
5.5232 4.4433 1.5453
5.4131 4.6842 1.5585
5.3520 4.9779 1.5891
5.2492 5.2457 1.6112
5.0650 5.4382 1.6112
4.8739 5.6245 1.6112
4.6761 5.8042 1.6112
4.4718 5.9771 1.6112
4.2613 6.1431 1.6112
4.0448 6.3018 1.6112
3.8225 6.4530 1.6112
3.5946 6.5965 1.6112
3.3615 6.7321 1.6112
3.1233 6.8596 1.6112
2.8804 6.9788 1.6112
2.6330 7.0895 1.6112
0.8893 2.6856 0.6017
0.7926 2.7159 0.6007
0.6949 2.7428 0.5997
0.5963 2.7662 0.5987
0.4969 2.7860 0.5978
0.3969 2.8023 0.5968
0.2963 2.8151 0.5958
0.1954 2.8243 0.5949
0.0942 2.8299 0.5939
-0.0072 2.8319 0.5930
-0.1086 2.8303 0.5921
-0.2098 2.8251 0.5912
-0.3108 2.8162 0.5903
-0.4115 2.8038 0.5894
-0.5117 2.7879 0.5885
-0.6112 2.7683 0.5877
-0.7100 2.7453 0.5869
-0.8080 2.7187 0.5861
-2.6506 7.8755 1.7145
-2.9351 7.7875 1.7145
-3.2166 7.6890 1.7145
-3.4946 7.5801 1.7145
-3.7689 7.4609 1.7145
-4.0389 7.3316 1.7145
-4.3043 7.1921 1.7145
-4.5647 7.0428 1.7145
-4.8197 6.8838 1.7145
-5.0690 6.7153 1.7145
-5.3121 6.5374 1.7145
-5.5487 6.3505 1.7145
-5.7784 6.1547 1.7145
-6.0009 5.9502 1.7145
-6.2158 5.7375 1.7145
-6.4228 5.5167 1.7145
-6.6216 5.2882 1.7145
-6.8119 5.0522 1.7145
-6.7802 4.6625 1.6622
-6.7349 4.2850 1.6114
-6.8881 4.0441 1.6114
-7.0322 3.7975 1.6114
-7.1671 3.5455 1.6114
-7.2925 3.2886 1.6114
-7.4082 3.0270 1.6114
-7.5141 2.7612 1.6114
-7.6099 2.4916 1.6114
-7.6955 2.2184 1.6114
-7.7709 1.9422 1.6114
-7.8358 1.6634 1.6114
-7.8902 1.3823 1.6114
-7.9340 1.0993 1.6114
-7.9672 0.8150 1.6114
-7.9897 0.5296 1.6114
-8.0014 0.2437 1.6114
-8.0024 -0.0424 1.6114
-7.9926 -0.3283 1.6114
-7.9722 -0.6134 1.6114
-7.9411 -0.8975 1.6114
-7.8994 -1.1801 1.6114
-7.8472 -1.4607 1.6114
-7.7845 -1.7391 1.6114
-7.7116 -2.0147 1.6114
-7.6284 -2.2872 1.6114
-7.5352 -2.5562 1.6114
-7.4322 -2.8213 1.6114
-7.3194 -3.0822 1.6114
-7.1971 -3.3385 1.6114
-7.0648 -3.5894 1.6112
-6.9241 -3.8353 1.6112
-6.7745 -4.0756 1.6112
-6.6164 -4.3100 1.6112
-6.4498 -4.5380 1.6112
-6.2752 -4.7595 1.6112
-6.0927 -4.9741 1.6112
-5.9027 -5.1816 1.6112
-5.7054 -5.3817 1.6112
-5.5012 -5.5742 1.6112
-5.2903 -5.7587 1.6112
-5.0732 -5.9352 1.6112
-4.8501 -6.1034 1.6112
-4.6213 -6.2630 1.6112
-4.3872 -6.4140 1.6112
-4.2591 -6.7317 1.6543
-4.1545 -7.1180 1.7145
-3.8907 -7.2500 1.7145
5.8900 0.3986 1.4466
5.8490 0.6073 1.4404
5.8420 0.8195 1.4443
5.8336 1.0330 1.4497
5.8234 1.2483 1.4566
5.8116 1.4657 1.4649
5.7980 1.6857 1.4748
5.7495 1.8979 1.4778
5.6929 2.1086 1.4806
5.6341 2.3200 1.4848
5.5729 2.5323 1.4903
5.5413 2.7619 1.5061
5.5316 3.0095 1.5304
5.5195 3.2648 1.5569
5.5047 3.5286 1.5858
5.4669 3.7877 1.6112
5.3335 3.9858 1.6112
5.1931 4.1794 1.6112
5.0459 4.3681 1.6112
4.8921 4.5518 1.6112
4.7317 4.7303 1.6112
4.5649 4.9033 1.6112
4.3920 5.0705 1.6112
4.2132 5.2318 1.6112
4.0285 5.3869 1.6112
3.8382 5.5356 1.6112
3.6426 5.6777 1.6112
3.4417 5.8131 1.6112
3.2360 5.9415 1.6112
3.0256 6.0626 1.6112
2.8106 6.1765 1.6112
2.5915 6.2828 1.6112
0.8859 2.3870 0.6027
0.7999 2.4174 0.6018
0.7129 2.4447 0.6009
0.6249 2.4689 0.6000
0.5361 2.4899 0.5991
0.4467 2.5078 0.5983
0.3567 2.5225 0.5974
0.2661 2.5340 0.5965
0.1753 2.5422 0.5957
0.0842 2.5472 0.5948
-0.0070 2.5490 0.5940
-0.0983 2.5475 0.5931
-0.1894 2.5428 0.5923
-0.2803 2.5348 0.5915
-0.3709 2.5236 0.5907
-0.4611 2.5092 0.5900
-0.5507 2.4916 0.5892
-0.6396 2.4708 0.5885
-0.7277 2.4469 0.5878
-0.8150 2.4198 0.5870
-2.6349 6.9869 1.7145
-2.8870 6.8975 1.7145
-3.1360 6.7989 1.7145
-3.3815 6.6910 1.7145
-3.6232 6.5741 1.7145
-3.8606 6.4482 1.7145
-4.0935 6.3135 1.7145
-4.3216 6.1702 1.7145
-4.5444 6.0184 1.7145
-4.7617 5.8584 1.7145
-4.9732 5.6902 1.7145
-5.1784 5.5141 1.7145
-5.3772 5.3305 1.7145
-5.5692 5.1394 1.7145
-5.7541 4.9412 1.7145
-5.9317 4.7361 1.7145
-6.1016 4.5244 1.7145
-6.2636 4.3064 1.7145
-6.4175 4.0823 1.7145
-6.5630 3.8526 1.7145
-6.5252 3.5231 1.6697
-6.4579 3.1942 1.6215
-6.5294 2.9441 1.6114
-6.6328 2.7099 1.6114
-6.7273 2.4718 1.6114
-6.8129 2.2304 1.6114
-6.8894 1.9859 1.6114
-6.9568 1.7387 1.6114
-7.0149 1.4891 1.6114
-7.0636 1.2375 1.6114
-7.1028 0.9843 1.6114
-7.1326 0.7298 1.6114
-7.1528 0.4744 1.6114
-7.1635 0.2184 1.6114
-7.1646 -0.0377 1.6114
-7.1562 -0.2935 1.6114
-7.1382 -0.5488 1.6114
-7.1108 -0.8032 1.6114
-7.0738 -1.0562 1.6114
-7.0275 -1.3076 1.6114
-6.9719 -1.5569 1.6114
-6.9071 -1.8038 1.6114
-6.8332 -2.0480 1.6114
-6.7504 -2.2891 1.6114
-6.6587 -2.5268 1.6114
-6.5583 -2.7607 1.6114
-6.4494 -2.9905 1.6114
-6.3322 -3.2160 1.6114
-6.2062 -3.4365 1.6112
-6.0729 -3.6522 1.6112
-5.9319 -3.8627 1.6112
-5.7833 -4.0676 1.6112
-5.6275 -4.2667 1.6112
-5.4646 -4.4597 1.6112
-5.2950 -4.6464 1.6112
-5.1188 -4.8266 1.6112
-4.9363 -4.9999 1.6112
-4.7479 -5.1662 1.6112
-4.5758 -5.3511 1.6190
-4.4967 -5.6564 1.6640
-4.4154 -5.9815 1.7145
-4.1925 -6.1267 1.7145
-3.9647 -6.2634 1.7145
-3.7325 -6.3917 1.7145
-3.4961 -6.5113 1.7145
5.7627 0.3903 1.5541
5.7253 0.5949 1.5481
5.7183 0.8026 1.5524
5.7095 1.0115 1.5581
5.6990 1.2221 1.5654
5.6866 1.4348 1.5742
5.6532 1.6443 1.5793
5.5999 1.8493 1.5809
5.5445 2.0544 1.5839
5.4866 2.2601 1.5884
5.4263 2.4666 1.5942
5.3854 2.6851 1.6081
5.3004 2.8847 1.6112
5.1982 3.0759 1.6112
5.0894 3.2635 1.6112
4.9740 3.4474 1.6112
4.8521 3.6274 1.6112
4.7239 3.8031 1.6112
4.5895 3.9745 1.6112
4.4490 4.1412 1.6112
4.3027 4.3031 1.6112
4.1505 4.4599 1.6112
3.9928 4.6115 1.6112
3.8297 4.7576 1.6112
3.6613 4.8981 1.6112
3.4879 5.0327 1.6112
3.3096 5.1613 1.6112
3.1267 5.2837 1.6112
2.9393 5.3996 1.6112
2.7477 5.5091 1.6112
2.5521 5.6118 1.6112
0.8812 2.1378 0.6035
0.8041 2.1682 0.6027
0.7260 2.1958 0.6019
0.6470 2.2206 0.6011
0.5671 2.2426 0.6003
0.4864 2.2617 0.5995
0.4052 2.2779 0.5987
0.3234 2.2912 0.5979
0.2412 2.3017 0.5971
0.1587 2.3091 0.5963
0.0759 2.3137 0.5955
-0.0069 2.3153 0.5948
-0.0898 2.3139 0.5940
-0.1726 2.3096 0.5933
-0.2552 2.3024 0.5926
-0.3374 2.2922 0.5918
-0.4193 2.2790 0.5911
-0.5007 2.2630 0.5905
-0.5814 2.2441 0.5898
-0.6614 2.2223 0.5891
-0.7407 2.1977 0.5885
-0.8189 2.1703 0.5879
-0.8962 2.1401 0.5873
-2.8416 6.1576 1.7145
-3.0636 6.0592 1.7145
-3.2820 5.9526 1.7145
-3.4967 5.8380 1.7145
-3.7071 5.7155 1.7145
-3.9132 5.5852 1.7145
-4.1145 5.4472 1.7145
-4.3107 5.3018 1.7145
-4.5016 5.1492 1.7145
-4.6870 4.9895 1.7145
-4.8664 4.8229 1.7145
-5.0397 4.6497 1.7145
-5.2066 4.4700 1.7145
-5.3668 4.2842 1.7145
-5.5201 4.0924 1.7145
-5.6663 3.8950 1.7145
-5.8052 3.6921 1.7145
-5.9365 3.4842 1.7145
-6.0600 3.2714 1.7145
-6.1756 3.0541 1.7145
-6.2831 2.8326 1.7145
-6.3139 2.5792 1.6961
-6.2506 2.2964 1.6555
-6.1974 2.0287 1.6209
-6.2302 1.7957 1.6114
-6.3057 1.5759 1.6151
-6.3435 1.3466 1.6114
-6.3875 1.1191 1.6114
-6.4230 0.8901 1.6114
-6.4500 0.6601 1.6114
-6.4685 0.4292 1.6114
-6.4782 0.1978 1.6114
-6.4794 -0.0338 1.6114
-6.4720 -0.2651 1.6114
-6.4560 -0.4960 1.6114
-6.4314 -0.7260 1.6114
-6.3983 -0.9548 1.6114
-6.3568 -1.1822 1.6114
-6.3069 -1.4077 1.6114
-6.2486 -1.6312 1.6114
-6.1822 -1.8521 1.6114
-6.1077 -2.0704 1.6114
-6.0252 -2.2856 1.6114
-5.9349 -2.4974 1.6114
-5.8369 -2.7056 1.6114
-5.7313 -2.9098 1.6114
-5.6184 -3.1099 1.6114
-5.4977 -3.3051 1.6112
-5.3706 -3.4960 1.6112
-5.2367 -3.6819 1.6112
-5.1112 -3.8738 1.6159
-4.9493 -4.0377 1.6112
-4.8245 -4.2320 1.6207
-4.7593 -4.4859 1.6536
-4.6972 -4.7559 1.6922
-4.5781 -4.9795 1.7145
-4.3915 -5.1334 1.7145
-4.1996 -5.2804 1.7145
-4.0028 -5.4201 1.7145
-3.8013 -5.5524 1.7145
-3.5953 -5.6771 1.7145
-3.3853 -5.7941 1.7145
-3.1714 -5.9033 1.7145
5.4798 0.3715 1.6112
5.4649 0.5682 1.6112
5.4431 0.7644 1.6112
5.4146 0.9597 1.6112
5.3793 1.1541 1.6112
5.3372 1.3472 1.6112
5.2885 1.5388 1.6112
5.2331 1.7288 1.6112
5.1711 1.9168 1.6112
5.1025 2.1026 1.6112
5.0274 2.2861 1.6112
4.9460 2.4670 1.6112
4.8582 2.6450 1.6112
4.7642 2.8201 1.6112
4.6641 2.9919 1.6112
4.5580 3.1602 1.6112
4.4459 3.3249 1.6112
4.3280 3.4857 1.6112
4.2045 3.6424 1.6112
4.0754 3.7949 1.6112
3.9409 3.9429 1.6112
3.8012 4.0862 1.6112
3.6564 4.2246 1.6112
3.5066 4.3581 1.6112
3.3520 4.4863 1.6112
3.1929 4.6091 1.6112
3.0293 4.7264 1.6112
2.8615 4.8379 1.6112
2.6896 4.9436 1.6112
2.5139 5.0432 1.6112
0.8754 1.9261 0.6042
0.8059 1.9564 0.6034
0.7354 1.9842 0.6027
0.6639 2.0095 0.6020
0.5915 2.0321 0.6012
0.5184 2.0522 0.6005
0.4446 2.0697 0.5997
0.3703 2.0846 0.5990
0.2955 2.0968 0.5983
0.2202 2.1063 0.5976
0.1447 2.1131 0.5969
0.0690 2.1173 0.5962
-0.0068 2.1187 0.5955
-0.0827 2.1175 0.5948
-0.1584 2.1135 0.5941
-0.2340 2.1069 0.5934
-0.3093 2.0975 0.5928
-0.3842 2.0855 0.5921
-0.4586 2.0708 0.5915
-0.5325 2.0535 0.5909
-0.6057 2.0335 0.5903
-0.6782 2.0110 0.5897
-0.7498 1.9859 0.5891
-0.8205 1.9582 0.5886
-0.8902 1.9280 0.5881
-2.7977 5.5308 1.7145
-2.9968 5.4330 1.7145
-3.1924 5.3279 1.7145
-3.3842 5.2157 1.7145
-3.5719 5.0963 1.7145
-3.7553 4.9700 1.7145
-3.9340 4.8370 1.7145
-4.1079 4.6974 1.7145
-4.2766 4.5514 1.7145
-4.4400 4.3991 1.7145
-4.5977 4.2408 1.7145
-4.7496 4.0767 1.7145
-4.8954 3.9070 1.7145
-5.0350 3.7319 1.7145
-5.1680 3.5517 1.7145
-5.2944 3.3666 1.7145
-5.4139 3.1769 1.7145
-5.5263 2.9828 1.7145
-5.6315 2.7846 1.7145
-5.7293 2.5826 1.7145
-5.8195 2.3770 1.7145
-5.9022 2.1682 1.7145
-5.9770 1.9564 1.7145
-6.0439 1.7419 1.7145
-6.0764 1.5185 1.7070
-6.0227 1.2784 1.6780
-5.9707 1.0461 1.6520
-5.9214 0.8207 1.6293
-5.8841 0.6022 1.6122
-5.8978 0.3915 1.6114
-5.9068 0.1806 1.6114
-5.9080 -0.0305 1.6114
-5.9025 -0.2415 1.6117
-5.8870 -0.4519 1.6114
-5.8648 -0.6616 1.6114
-5.8349 -0.8703 1.6114
-5.7973 -1.0776 1.6114
-5.7520 -1.2833 1.6114
-5.6992 -1.4871 1.6114
-5.6390 -1.6887 1.6114
-5.5713 -1.8878 1.6114
-5.4965 -2.0842 1.6114
-5.4144 -2.2775 1.6114
-5.3254 -2.4676 1.6114
-5.2295 -2.6541 1.6114
-5.1269 -2.8368 1.6114
-5.0681 -3.0457 1.6275
-5.0296 -3.2728 1.6532
-4.9773 -3.4982 1.6777
-4.9253 -3.7316 1.7058
-4.8080 -3.9210 1.7145
-4.6598 -4.0860 1.7145
-4.5058 -4.2453 1.7145
-4.3463 -4.3987 1.7145
-4.1814 -4.5461 1.7145
-4.0114 -4.6872 1.7145
-3.8367 -4.8219 1.7145
-3.6573 -4.9500 1.7145
-3.4736 -5.0714 1.7145
-3.2858 -5.1859 1.7145
-3.0943 -5.2934 1.7145
-2.8992 -5.3938 1.7145
5.0554 0.3430 1.6112
5.0415 0.5245 1.6112
5.0213 0.7055 1.6112
4.9948 0.8858 1.6112
4.9621 1.0651 1.6112
4.9231 1.2432 1.6112
4.8779 1.4200 1.6112
4.8266 1.5951 1.6112
4.7691 1.7685 1.6112
4.7056 1.9398 1.6112
4.6361 2.1090 1.6112
4.5608 2.2757 1.6112
4.4796 2.4398 1.6112
4.3926 2.6011 1.6112
4.3000 2.7593 1.6112
4.2018 2.9144 1.6112
4.0982 3.0660 1.6112
3.9892 3.2140 1.6112
3.8750 3.3583 1.6112
3.7558 3.4986 1.6112
3.6315 3.6347 1.6112
3.5024 3.7666 1.6112
3.3686 3.8938 1.6112
3.2303 4.0165 1.6112
3.0876 4.1343 1.6112
2.9407 4.2471 1.6112
2.7897 4.3547 1.6112
2.6349 4.4571 1.6112
2.4763 4.5540 1.6112
0.8686 1.7435 0.6047
0.8056 1.7737 0.6041
0.7416 1.8016 0.6034
0.6767 1.8272 0.6027
0.6108 1.8504 0.6020
0.5442 1.8713 0.6013
0.4769 1.8898 0.6007
0.4090 1.9059 0.6000
0.3405 1.9196 0.5993
0.2716 1.9308 0.5986
0.2023 1.9396 0.5980
0.1328 1.9459 0.5973
0.0631 1.9497 0.5967
-0.0067 1.9510 0.5960
-0.0766 1.9498 0.5954
-0.1463 1.9462 0.5948
-0.2159 1.9400 0.5942
-0.2852 1.9314 0.5936
-0.3542 1.9204 0.5930
-0.4227 1.9068 0.5924
-0.4908 1.8908 0.5918
-0.5582 1.8725 0.5913
-0.6249 1.8517 0.5907
-0.6908 1.8285 0.5902
-0.7559 1.8030 0.5897
-0.8201 1.7753 0.5892
-0.8832 1.7452 0.5887
-2.7546 4.9918 1.7145
-2.9341 4.8949 1.7145
-3.1100 4.7913 1.7145
-3.2822 4.6814 1.7145
-3.4504 4.5650 1.7145
-3.6143 4.4426 1.7145
-3.7737 4.3140 1.7145
-3.9285 4.1797 1.7145
-4.0782 4.0396 1.7145
-4.2228 3.8940 1.7145
-4.3621 3.7432 1.7145
-4.4957 3.5872 1.7145
-4.6236 3.4263 1.7145
-4.7456 3.2607 1.7145
-4.8614 3.0907 1.7145
-4.9709 2.9164 1.7145
-5.0739 2.7382 1.7145
-5.1703 2.5561 1.7145
-5.2599 2.3706 1.7145
-5.3427 2.1819 1.7145
-5.4184 1.9902 1.7145
-5.4870 1.7958 1.7145
-5.5484 1.5989 1.7145
-5.6024 1.3999 1.7145
-5.6491 1.1991 1.7145
-5.6883 0.9966 1.7145
-5.7200 0.7929 1.7145
-5.7441 0.5881 1.7145
-5.7606 0.3826 1.7145
-5.7695 0.1766 1.7145
-5.7309 -0.0293 1.7026
-5.6857 -0.2323 1.6910
-5.6411 -0.4327 1.6818
-5.5969 -0.6310 1.6749
-5.5531 -0.8278 1.6703
-5.5095 -1.0236 1.6678
-5.4660 -1.2189 1.6676
-5.4225 -1.4143 1.6696
-5.3792 -1.6103 1.6739
-5.3362 -1.8074 1.6806
-5.2928 -2.0062 1.6895
-5.2489 -2.2071 1.7008
-5.2044 -2.4106 1.7145
-5.1111 -2.5931 1.7145
-5.0112 -2.7718 1.7145
-4.9048 -2.9466 1.7145
-4.7922 -3.1172 1.7145
-4.6735 -3.2835 1.7145
-4.5490 -3.4452 1.7145
-4.4186 -3.6021 1.7145
-4.2828 -3.7540 1.7145
-4.1417 -3.9007 1.7145
-3.9954 -4.0420 1.7145
-3.8442 -4.1778 1.7145
-3.6884 -4.3079 1.7145
-3.5280 -4.4321 1.7145
-3.3635 -4.5503 1.7145
-3.1949 -4.6623 1.7145
-3.0225 -4.7680 1.7145
-2.8467 -4.8673 1.7145
-2.6675 -4.9601 1.7145
4.6872 0.3183 1.6112
4.6742 0.4867 1.6112
4.6553 0.6545 1.6112
4.6306 0.8216 1.6112
4.6001 0.9879 1.6112
4.5638 1.1530 1.6112
4.5217 1.3168 1.6112
4.4740 1.4792 1.6112
4.4205 1.6398 1.6112
4.3615 1.7986 1.6112
4.2969 1.9553 1.6112
4.2268 2.1098 1.6112
4.1513 2.2618 1.6112
4.0705 2.4112 1.6112
3.9844 2.5578 1.6112
3.8932 2.7013 1.6112
3.7969 2.8417 1.6112
3.6957 2.9787 1.6112
3.5897 3.1122 1.6112
3.4789 3.2420 1.6112
3.3635 3.3679 1.6112
3.2437 3.4898 1.6112
3.1195 3.6075 1.6112
2.9912 3.7208 1.6112
2.8588 3.8296 1.6112
2.7225 3.9338 1.6112
2.5825 4.0332 1.6112
2.4389 4.1277 1.6112
0.8609 1.5841 0.6052
0.8036 1.6140 0.6046
0.7453 1.6419 0.6040
0.6861 1.6678 0.6033
0.6260 1.6914 0.6027
0.5650 1.7130 0.6021
0.5034 1.7323 0.6014
0.4410 1.7495 0.6008
0.3782 1.7644 0.6002
0.3148 1.7770 0.5996
0.2510 1.7874 0.5989
0.1869 1.7955 0.5983
0.1225 1.8013 0.5977
0.0579 1.8048 0.5971
-0.0067 1.8061 0.5965
-0.0713 1.8050 0.5959
-0.1359 1.8016 0.5954
-0.2003 1.7959 0.5948
-0.2644 1.7879 0.5942
-0.3283 1.7776 0.5937
-0.3917 1.7651 0.5932
-0.4547 1.7503 0.5926
-0.5171 1.7333 0.5921
-0.5788 1.7140 0.5916
-0.6399 1.6926 0.5911
-0.7001 1.6689 0.5907
-0.7595 1.6432 0.5902
-0.8179 1.6154 0.5898
-0.8753 1.5854 0.5894
-2.7118 4.5222 1.7145
-2.8742 4.4263 1.7145
-3.0330 4.3244 1.7145
-3.1882 4.2167 1.7145
-3.3394 4.1033 1.7145
-3.4864 3.9844 1.7145
-3.6291 3.8601 1.7145
-3.7672 3.7306 1.7145
-3.9006 3.5960 1.7145
-4.0290 3.4565 1.7145
-4.1522 3.3123 1.7145
-4.2701 3.1637 1.7145
-4.3825 3.0106 1.7145
-4.4893 2.8536 1.7145
-4.5902 2.6926 1.7145
-4.6852 2.5280 1.7145
-4.7741 2.3599 1.7145
-4.8567 2.1886 1.7145
-4.9330 2.0143 1.7145
-5.0028 1.8374 1.7145
-5.0661 1.6579 1.7145
-5.1227 1.4761 1.7145
-5.1726 1.2925 1.7145
-5.2156 1.1071 1.7145
-5.2518 0.9202 1.7145
-5.2810 0.7321 1.7145
-5.3033 0.5431 1.7145
-5.3187 0.3534 1.7145
-5.3270 0.1633 1.7145
-5.3282 -0.0270 1.7145
-5.3225 -0.2171 1.7145
-5.3098 -0.4069 1.7145
-5.2901 -0.5960 1.7145
-5.2634 -0.7842 1.7145
-5.2298 -0.9712 1.7145
-5.1894 -1.1567 1.7145
-5.1422 -1.3406 1.7145
-5.0883 -1.5226 1.7145
-5.0278 -1.7023 1.7145
-4.9608 -1.8796 1.7145
-4.8873 -2.0542 1.7145
-4.8075 -2.2260 1.7145
-4.7215 -2.3945 1.7145
-4.6295 -2.5597 1.7145
-4.5315 -2.7213 1.7145
-4.4278 -2.8791 1.7145
-4.3185 -3.0329 1.7145
-4.2036 -3.1825 1.7145
-4.0836 -3.3276 1.7145
-3.9583 -3.4682 1.7145
-3.8282 -3.6041 1.7145
-3.6933 -3.7349 1.7145
-3.5539 -3.8607 1.7145
-3.4101 -3.9812 1.7145
-3.2622 -4.0963 1.7145
-3.1103 -4.2059 1.7145
-2.9547 -4.3097 1.7145
-2.7956 -4.4078 1.7145
-2.6332 -4.5000 1.7145
-2.4678 -4.5861 1.7145
4.3643 0.2967 1.6112
4.3521 0.4535 1.6112
4.3345 0.6098 1.6112
4.3114 0.7654 1.6112
4.2828 0.9202 1.6112
4.2489 1.0739 1.6112
4.2096 1.2265 1.6112
4.1650 1.3776 1.6112
4.1151 1.5271 1.6112
4.0599 1.6749 1.6112
3.9996 1.8208 1.6112
3.9342 1.9645 1.6112
3.8637 2.1059 1.6112
3.7883 2.2449 1.6112
3.7080 2.3812 1.6112
3.6229 2.5147 1.6112
3.5331 2.6453 1.6112
3.4387 2.7727 1.6112
3.3398 2.8967 1.6112
3.2366 3.0174 1.6112
3.1290 3.1344 1.6112
3.0173 3.2476 1.6112
2.9016 3.3569 1.6112
2.7820 3.4621 1.6112
2.6586 3.5631 1.6112
2.5316 3.6599 1.6112
2.4012 3.7521 1.6112
0.8523 1.4433 0.6056
0.8001 1.4730 0.6050
0.7468 1.5009 0.6045
0.6926 1.5268 0.6039
0.6375 1.5508 0.6033
0.5816 1.5729 0.6027
0.5250 1.5929 0.6021
0.4676 1.6109 0.6015
0.4097 1.6268 0.6010
0.3512 1.6407 0.6004
0.2923 1.6524 0.5998
0.2330 1.6621 0.5992
0.1733 1.6696 0.5986
0.1135 1.6750 0.5981
0.0535 1.6783 0.5975
-0.0066 1.6794 0.5970
-0.0667 1.6784 0.5964
-0.1267 1.6752 0.5959
-0.1866 1.6699 0.5954
-0.2463 1.6625 0.5948
-0.3056 1.6529 0.5943
-0.3646 1.6413 0.5938
-0.4232 1.6275 0.5934
-0.4812 1.6116 0.5929
-0.5386 1.5937 0.5924
-0.5954 1.5738 0.5920
-0.6514 1.5518 0.5915
-0.7065 1.5279 0.5911
-0.7609 1.5020 0.5907
-0.8142 1.4741 0.5903
-0.8665 1.4444 0.5899
-2.6689 4.1085 1.7145
-2.8162 4.0137 1.7145
-2.9600 3.9136 1.7145
-3.1002 3.8082 1.7145
-3.2365 3.6976 1.7145
-3.3687 3.5821 1.7145
-3.4967 3.4618 1.7145
-3.6203 3.3368 1.7145
-3.7393 3.2072 1.7145
-3.8535 3.0733 1.7145
-3.9628 2.9353 1.7145
-4.0669 2.7933 1.7145
-4.1658 2.6475 1.7145
-4.2594 2.4981 1.7145
-4.3473 2.3452 1.7145
-4.4297 2.1893 1.7145
-4.5063 2.0304 1.7145
-4.5770 1.8687 1.7145
-4.6417 1.7045 1.7145
-4.7003 1.5380 1.7145
-4.7527 1.3694 1.7145
-4.7990 1.1991 1.7145
-4.8389 1.0271 1.7145
-4.8724 0.8537 1.7145
-4.8996 0.6793 1.7145
-4.9203 0.5040 1.7145
-4.9345 0.3280 1.7145
-4.9423 0.1517 1.7145
-4.9436 -0.0248 1.7145
-4.9383 -0.2012 1.7145
-4.9266 -0.3772 1.7145
-4.9084 -0.5526 1.7145
-4.8838 -0.7272 1.7145
-4.8528 -0.9007 1.7145
-4.8155 -1.0729 1.7145
-4.7719 -1.2435 1.7145
-4.7220 -1.4123 1.7145
-4.6661 -1.5792 1.7145
-4.6040 -1.7438 1.7145
-4.5360 -1.9059 1.7145
-4.4622 -2.0653 1.7145
-4.3826 -2.2218 1.7145
-4.2974 -2.3752 1.7145
-4.2068 -2.5253 1.7145
-4.1107 -2.6719 1.7145
-4.0094 -2.8148 1.7145
-3.9031 -2.9538 1.7145
-3.7918 -3.0887 1.7145
-3.6758 -3.2194 1.7145
-3.5552 -3.3457 1.7145
-3.4302 -3.4674 1.7145
-3.3010 -3.5844 1.7145
-3.1677 -3.6966 1.7145
-3.0305 -3.8037 1.7145
-2.8897 -3.9057 1.7145
-2.7454 -4.0025 1.7145
-2.5978 -4.0938 1.7145
-2.4472 -4.1797 1.7145
-2.2937 -4.2601 1.7145
4.0787 0.2775 1.6112
4.0672 0.4241 1.6112
4.0506 0.5702 1.6112
4.0290 0.7156 1.6112
4.0022 0.8603 1.6112
3.9704 1.0040 1.6112
3.9335 1.1465 1.6112
3.8917 1.2877 1.6112
3.8449 1.4275 1.6112
3.7933 1.5655 1.6112
3.7368 1.7018 1.6112
3.6755 1.8360 1.6112
3.6095 1.9681 1.6112
3.5389 2.0979 1.6112
3.4637 2.2252 1.6112
3.3840 2.3498 1.6112
3.3000 2.4717 1.6112
3.2116 2.5906 1.6112
3.1191 2.7063 1.6112
3.0224 2.8189 1.6112
2.9218 2.9280 1.6112
2.8173 3.0336 1.6112
2.7091 3.1355 1.6112
2.5972 3.2337 1.6112
2.4819 3.3279 1.6112
0.8896 1.2866 0.6065
0.8429 1.3178 0.6060
0.7952 1.3473 0.6054
0.7464 1.3751 0.6049
0.6967 1.4011 0.6043
0.6462 1.4253 0.6038
0.5947 1.4477 0.6033
0.5425 1.4683 0.6027
0.4897 1.4870 0.6022
0.4361 1.5037 0.6016
0.3820 1.5186 0.6011
0.3275 1.5316 0.6005
0.2724 1.5425 0.6000
0.2171 1.5515 0.5995
0.1614 1.5586 0.5989
0.1056 1.5636 0.5984
0.0495 1.5667 0.5979
-0.0066 1.5677 0.5974
-0.0627 1.5668 0.5968
-0.1187 1.5638 0.5963
-0.1746 1.5588 0.5959
-0.2303 1.5519 0.5954
-0.2857 1.5430 0.5949
-0.3407 1.5321 0.5944
-0.3954 1.5192 0.5940
-0.4495 1.5044 0.5935
-0.5031 1.4877 0.5931
-0.5561 1.4691 0.5927
-0.6084 1.4485 0.5923
-0.6599 1.4262 0.5919
-0.7105 1.4020 0.5915
-0.7603 1.3760 0.5911
-0.8092 1.3482 0.5908
-0.8570 1.3187 0.5905
-0.9037 1.2876 0.5901
-2.7595 3.6472 1.7145
-2.8900 3.5488 1.7145
-3.0169 3.4456 1.7145
-3.1400 3.3379 1.7145
-3.2591 3.2256 1.7145
-3.3741 3.1090 1.7145
-3.4848 2.9882 1.7145
-3.5911 2.8634 1.7145
-3.6928 2.7347 1.7145
-3.7897 2.6023 1.7145
-3.8818 2.4664 1.7145
-3.9688 2.3272 1.7145
-4.0507 2.1848 1.7145
-4.1273 2.0395 1.7145
-4.1985 1.8914 1.7145
-4.2643 1.7408 1.7145
-4.3245 1.5879 1.7145
-4.3791 1.4328 1.7145
-4.4279 1.2758 1.7145
-4.4710 1.1171 1.7145
-4.5081 0.9568 1.7145
-4.5394 0.7954 1.7145
-4.5647 0.6329 1.7145
-4.5840 0.4696 1.7145
-4.5973 0.3057 1.7145
-4.6046 0.1415 1.7145
-4.6058 -0.0229 1.7145
-4.6010 -0.1872 1.7145
-4.5902 -0.3511 1.7145
-4.5733 -0.5145 1.7145
-4.5505 -0.6772 1.7145
-4.5217 -0.8388 1.7145
-4.4871 -0.9993 1.7145
-4.4466 -1.1582 1.7145
-4.4003 -1.3156 1.7145
-4.3483 -1.4710 1.7145
-4.2906 -1.6244 1.7145
-4.2274 -1.7755 1.7145
-4.1588 -1.9241 1.7145
-4.0849 -2.0701 1.7145
-4.0056 -2.2131 1.7145
-3.9213 -2.3531 1.7145
-3.8320 -2.4898 1.7145
-3.7378 -2.6231 1.7145
-3.6389 -2.7528 1.7145
-3.5353 -2.8787 1.7145
-3.4274 -3.0007 1.7145
-3.3152 -3.1185 1.7145
-3.1988 -3.2322 1.7145
-3.0785 -3.3414 1.7145
-2.9544 -3.4462 1.7145
-2.8267 -3.5463 1.7145
-2.6955 -3.6416 1.7145
-2.5611 -3.7320 1.7145
-2.4237 -3.8175 1.7145
-2.2833 -3.8978 1.7145
-2.1403 -3.9730 1.7145
3.8239 0.2605 1.6112
3.8131 0.3979 1.6112
3.7975 0.5348 1.6112
3.7771 0.6712 1.6112
3.7519 0.8069 1.6112
3.7220 0.9416 1.6112
3.6873 1.0752 1.6112
3.6480 1.2076 1.6112
3.6041 1.3386 1.6112
3.5555 1.4680 1.6112
3.5024 1.5957 1.6112
3.4449 1.7215 1.6112
3.3829 1.8453 1.6112
3.3166 1.9669 1.6112
3.2460 2.0861 1.6112
3.1712 2.2029 1.6112
3.0922 2.3170 1.6112
3.0093 2.4283 1.6112
2.9224 2.5368 1.6112
2.8317 2.6421 1.6112
2.7373 2.7443 1.6112
2.6392 2.8431 1.6112
2.5377 2.9385 1.6112
2.4327 3.0303 1.6112
0.8754 1.1743 0.6068
0.8328 1.2051 0.6063
0.7891 1.2343 0.6058
0.7444 1.2619 0.6053
0.6987 1.2879 0.6048
0.6522 1.3123 0.6042
0.6048 1.3350 0.6037
0.5567 1.3560 0.6032
0.5078 1.3752 0.6027
0.4582 1.3927 0.6022
0.4081 1.4085 0.6017
0.3574 1.4224 0.6012
0.3063 1.4345 0.6007
0.2548 1.4448 0.6002
0.2029 1.4532 0.5997
0.1508 1.4598 0.5992
0.0985 1.4645 0.5987
0.0460 1.4674 0.5982
-0.0065 1.4683 0.5977
-0.0591 1.4674 0.5972
-0.1115 1.4647 0.5968
-0.1639 1.4600 0.5963
-0.2160 1.4535 0.5958
-0.2679 1.4451 0.5954
-0.3195 1.4349 0.5950
-0.3707 1.4229 0.5945
-0.4214 1.4090 0.5941
-0.4716 1.3933 0.5937
-0.5212 1.3759 0.5933
-0.5701 1.3566 0.5929
-0.6183 1.3357 0.5926
-0.6658 1.3130 0.5922
-0.7124 1.2887 0.5919
-0.7582 1.2627 0.5916
-0.8029 1.2351 0.5912
-0.8467 1.2059 0.5909
-0.8894 1.1751 0.5907
-2.7036 3.3188 1.7145
-2.8222 3.2223 1.7145
-2.9372 3.1214 1.7145
-3.0485 3.0163 1.7145
-3.1559 2.9071 1.7145
-3.2593 2.7941 1.7145
-3.3586 2.6773 1.7145
-3.4536 2.5569 1.7145
-3.5441 2.4331 1.7145
-3.6301 2.3060 1.7145
-3.7113 2.1758 1.7145
-3.7878 2.0427 1.7145
-3.8594 1.9068 1.7145
-3.9259 1.7683 1.7145
-3.9874 1.6275 1.7145
-4.0436 1.4845 1.7145
-4.0946 1.3395 1.7145
-4.1402 1.1927 1.7145
-4.1804 1.0444 1.7145
-4.2151 0.8946 1.7145
-4.2444 0.7437 1.7145
-4.2680 0.5919 1.7145
-4.2861 0.4392 1.7145
-4.2986 0.2860 1.7145
-4.3054 0.1325 1.7145
-4.3066 -0.0212 1.7145
-4.3022 -0.1748 1.7145
-4.2921 -0.3280 1.7145
-4.2764 -0.4808 1.7145
-4.2552 -0.6329 1.7145
-4.2284 -0.7840 1.7145
-4.1961 -0.9340 1.7145
-4.1583 -1.0826 1.7145
-4.1151 -1.2298 1.7145
-4.0666 -1.3752 1.7145
-4.0129 -1.5186 1.7145
-3.9539 -1.6600 1.7145
-3.8899 -1.7990 1.7145
-3.8209 -1.9355 1.7145
-3.7469 -2.0694 1.7145
-3.6682 -2.2003 1.7145
-3.5848 -2.3283 1.7145
-3.4969 -2.4531 1.7145
-3.4045 -2.5745 1.7145
-3.3078 -2.6923 1.7145
-3.2070 -2.8066 1.7145
-3.1022 -2.9170 1.7145
-2.9935 -3.0234 1.7145
-2.8811 -3.1258 1.7145
-2.7651 -3.2239 1.7145
-2.6458 -3.3178 1.7145
-2.5232 -3.4071 1.7145
-2.3976 -3.4919 1.7145
-2.2691 -3.5721 1.7145
-2.1379 -3.6475 1.7145
-2.0041 -3.7181 1.7145
3.5951 0.2451 1.6112
3.5848 0.3743 1.6112
3.5701 0.5031 1.6112
3.5509 0.6314 1.6112
3.5271 0.7589 1.6112
3.4989 0.8856 1.6112
3.4663 1.0112 1.6112
3.4292 1.1357 1.6112
3.3878 1.2588 1.6112
3.3421 1.3804 1.6112
3.2920 1.5005 1.6112
3.2378 1.6187 1.6112
3.1795 1.7350 1.6112
3.1170 1.8493 1.6112
3.0505 1.9613 1.6112
2.9801 2.0710 1.6112
2.9058 2.1782 1.6112
2.8277 2.2827 1.6112
2.7460 2.3845 1.6112
2.6606 2.4835 1.6112
2.5717 2.5794 1.6112
2.4795 2.6722 1.6112
2.3839 2.7617 1.6112
0.8609 1.0728 0.6070
0.8219 1.1031 0.6065
0.7819 1.1320 0.6060
0.7409 1.1594 0.6056
0.6989 1.1854 0.6051
0.6560 1.2099 0.6046
0.6123 1.2327 0.6042
0.5678 1.2541 0.6037
0.5225 1.2738 0.6032
0.4766 1.2919 0.6027
0.4301 1.3083 0.6022
0.3830 1.3231 0.6018
0.3354 1.3362 0.6013
0.2874 1.3475 0.6008
0.2390 1.3572 0.6003
0.1903 1.3651 0.5998
0.1413 1.3713 0.5994
0.0922 1.3757 0.5989
0.0429 1.3784 0.5985
-0.0065 1.3793 0.5980
-0.0558 1.3785 0.5976
-0.1051 1.3759 0.5971
-0.1543 1.3715 0.5967
-0.2033 1.3654 0.5963
-0.2520 1.3575 0.5958
-0.3005 1.3479 0.5954
-0.3485 1.3366 0.5950
-0.3961 1.3235 0.5946
-0.4433 1.3088 0.5943
-0.4899 1.2924 0.5939
-0.5358 1.2744 0.5935
-0.5811 1.2547 0.5932
-0.6257 1.2334 0.5929
-0.6695 1.2105 0.5925
-0.7125 1.1860 0.5922
-0.7545 1.1601 0.5919
-0.7956 1.1327 0.5917
-0.8357 1.1038 0.5914
-0.8748 1.0735 0.5911
-2.6482 3.0227 1.7145
-2.7560 2.9279 1.7145
-2.8603 2.8293 1.7145
-2.9610 2.7268 1.7145
-3.0579 2.6208 1.7145
-3.1509 2.5111 1.7145
-3.2399 2.3982 1.7145
-3.3247 2.2820 1.7145
-3.4053 2.1628 1.7145
-3.4814 2.0406 1.7145
-3.5531 1.9158 1.7145
-3.6202 1.7883 1.7145
-3.6825 1.6584 1.7145
-3.7401 1.5264 1.7145
-3.7928 1.3922 1.7145
-3.8406 1.2563 1.7145
-3.8833 1.1186 1.7145
-3.9210 0.9795 1.7145
-3.9536 0.8391 1.7145
-3.9810 0.6976 1.7145
-4.0032 0.5552 1.7145
-4.0201 0.4120 1.7145
-4.0318 0.2684 1.7145
-4.0383 0.1244 1.7145
-4.0394 -0.0196 1.7145
-4.0353 -0.1637 1.7145
-4.0259 -0.3074 1.7145
-4.0113 -0.4507 1.7145
-3.9914 -0.5933 1.7145
-3.9664 -0.7350 1.7145
-3.9362 -0.8757 1.7145
-3.9008 -1.0152 1.7145
-3.8604 -1.1532 1.7145
-3.8151 -1.2896 1.7145
-3.7647 -1.4241 1.7145
-3.7096 -1.5568 1.7145
-3.6496 -1.6872 1.7145
-3.5850 -1.8153 1.7145
-3.5158 -1.9409 1.7145
-3.4420 -2.0639 1.7145
-3.3639 -2.1840 1.7145
-3.2816 -2.3011 1.7145
-3.1950 -2.4151 1.7145
-3.1045 -2.5258 1.7145
-3.0100 -2.6331 1.7145
-2.9118 -2.7368 1.7145
-2.8099 -2.8368 1.7145
-2.7046 -2.9330 1.7145
-2.5959 -3.0252 1.7145
-2.4840 -3.1134 1.7145
-2.3691 -3.1974 1.7145
-2.2513 -3.2772 1.7145
-2.1308 -3.3526 1.7145
-2.0077 -3.4235 1.7145
-1.8823 -3.4899 1.7145
3.3882 0.2312 1.6112
3.3785 0.3531 1.6112
3.3646 0.4745 1.6112
3.3464 0.5954 1.6112
3.3239 0.7156 1.6112
3.2973 0.8349 1.6112
3.2664 0.9533 1.6112
3.2314 1.0706 1.6112
3.1923 1.1867 1.6112
3.1491 1.3013 1.6112
3.1019 1.4144 1.6112
3.0507 1.5258 1.6112
2.9956 1.6354 1.6112
2.9367 1.7430 1.6112
2.8739 1.8485 1.6112
2.8075 1.9518 1.6112
2.7374 2.0528 1.6112
2.6637 2.1512 1.6112
2.5866 2.2471 1.6112
2.5060 2.3402 1.6112
2.4222 2.4305 1.6112
0.8806 0.9495 0.6076
0.8460 0.9806 0.6072
0.8104 1.0104 0.6067
0.7737 1.0389 0.6063
0.7360 1.0661 0.6059
0.6973 1.0920 0.6054
0.6578 1.1164 0.6050
0.6174 1.1394 0.6045
0.5763 1.1610 0.6041
0.5343 1.1810 0.6036
0.4917 1.1996 0.6032
0.4485 1.2167 0.6027
0.4047 1.2321 0.6023
0.3603 1.2461 0.6018
0.3155 1.2584 0.6014
0.2703 1.2691 0.6009
0.2247 1.2782 0.6005
0.1789 1.2856 0.6000
0.1327 1.2914 0.5996
0.0865 1.2956 0.5991
0.0400 1.2981 0.5987
-0.0064 1.2990 0.5983
-0.0529 1.2982 0.5979
-0.0993 1.2957 0.5974
-0.1456 1.2916 0.5970
-0.1918 1.2858 0.5966
-0.2377 1.2784 0.5962
-0.2833 1.2694 0.5959
-0.3285 1.2587 0.5955
-0.3734 1.2464 0.5951
-0.4178 1.2326 0.5948
-0.4616 1.2171 0.5944
-0.5049 1.2001 0.5941
-0.5476 1.1815 0.5938
-0.5896 1.1615 0.5934
-0.6308 1.1400 0.5931
-0.6712 1.1169 0.5928
-0.7108 1.0925 0.5926
-0.7495 1.0667 0.5923
-0.7873 1.0394 0.5921
-0.8241 1.0109 0.5918
-0.8598 0.9810 0.5916
-0.8944 0.9499 0.5914
-2.6910 2.6611 1.7145
-2.7856 2.5647 1.7145
-2.8767 2.4648 1.7145
-2.9641 2.3617 1.7145
-3.0477 2.2554 1.7145
-3.1275 2.1461 1.7145
-3.2031 2.0339 1.7145
-3.2747 1.9191 1.7145
-3.3420 1.8016 1.7145
-3.4050 1.6817 1.7145
-3.4636 1.5596 1.7145
-3.5177 1.4354 1.7145
-3.5672 1.3093 1.7145
-3.6121 1.1814 1.7145
-3.6523 1.0520 1.7145
-3.6877 0.9212 1.7145
-3.7183 0.7892 1.7145
-3.7441 0.6561 1.7145
-3.7650 0.5222 1.7145
-3.7810 0.3876 1.7145
-3.7920 0.2526 1.7145
-3.7981 0.1172 1.7145
-3.7992 -0.0183 1.7145
-3.7954 -0.1537 1.7145
-3.7866 -0.2889 1.7145
-3.7729 -0.4236 1.7145
-3.7543 -0.5577 1.7145
-3.7308 -0.6910 1.7145
-3.7024 -0.8233 1.7145
-3.6693 -0.9544 1.7145
-3.6314 -1.0843 1.7145
-3.5888 -1.2126 1.7145
-3.5415 -1.3391 1.7145
-3.4897 -1.4639 1.7145
-3.4335 -1.5867 1.7145
-3.3728 -1.7072 1.7145
-3.3078 -1.8254 1.7145
-3.2385 -1.9411 1.7145
-3.1652 -2.0541 1.7145
-3.0878 -2.1644 1.7145
-3.0065 -2.2717 1.7145
-2.9214 -2.3759 1.7145
-2.8327 -2.4769 1.7145
-2.7404 -2.5745 1.7145
-2.6446 -2.6687 1.7145
-2.5456 -2.7593 1.7145
-2.4435 -2.8463 1.7145
-2.3383 -2.9294 1.7145
-2.2303 -3.0085 1.7145
-2.1195 -3.0837 1.7145
-2.0062 -3.1548 1.7145
-1.8905 -3.2218 1.7145
-1.7725 -3.2844 1.7145
3.2000 0.2186 1.6112
3.1908 0.3337 1.6112
3.1776 0.4484 1.6112
3.1604 0.5626 1.6112
3.1392 0.6762 1.6112
3.1139 0.7889 1.6112
3.0847 0.9007 1.6112
3.0516 1.0115 1.6112
3.0146 1.1211 1.6112
2.9737 1.2293 1.6112
2.9291 1.3361 1.6112
2.8807 1.4413 1.6112
2.8285 1.5448 1.6112
2.7728 1.6464 1.6112
2.7134 1.7460 1.6112
2.6506 1.8435 1.6112
2.5843 1.9388 1.6112
2.5147 2.0317 1.6112
2.4417 2.1222 1.6112
0.8928 0.8341 0.6081
0.8624 0.8657 0.6077
0.8308 0.8962 0.6073
0.7982 0.9255 0.6069
0.7645 0.9537 0.6065
0.7299 0.9806 0.6061
0.6943 1.0063 0.6057
0.6578 1.0307 0.6053
0.6205 1.0538 0.6048
0.5824 1.0755 0.6044
0.5436 1.0959 0.6040
0.5040 1.1148 0.6036
0.4638 1.1323 0.6031
0.4230 1.1484 0.6027
0.3816 1.1630 0.6023
0.3398 1.1761 0.6019
0.2975 1.1878 0.6014
0.2548 1.1979 0.6010
0.2118 1.2065 0.6006
0.1685 1.2135 0.6002
0.1250 1.2190 0.5998
0.0813 1.2229 0.5993
0.0375 1.2253 0.5989
-0.0064 1.2261 0.5985
-0.0503 1.2253 0.5981
-0.0941 1.2230 0.5977
-0.1378 1.2191 0.5974
-0.1813 1.2137 0.5970
-0.2246 1.2067 0.5966
-0.2677 1.1981 0.5962
-0.3104 1.1880 0.5959
-0.3527 1.1765 0.5955
-0.3946 1.1634 0.5952
-0.4360 1.1488 0.5949
-0.4769 1.1327 0.5946
-0.5171 1.1152 0.5943
-0.5567 1.0963 0.5940
-0.5957 1.0759 0.5937
-0.6338 1.0542 0.5934
-0.6712 1.0311 0.5931
-0.7077 1.0067 0.5929
-0.7433 0.9810 0.5927
-0.7780 0.9541 0.5924
-0.8117 0.9259 0.5922
-0.8444 0.8966 0.5920
-0.8761 0.8660 0.5918
-0.9066 0.8344 0.5917
-2.7127 2.3237 1.7145
-2.7950 2.2264 1.7145
-2.8738 2.1262 1.7145
-2.9489 2.0231 1.7145
-3.0202 1.9174 1.7145
-3.0876 1.8090 1.7145
-3.1510 1.6983 1.7145
-3.2103 1.5853 1.7145
-3.2655 1.4702 1.7145
-3.3165 1.3531 1.7145
-3.3631 1.2342 1.7145
-3.4054 1.1137 1.7145
-3.4433 0.9917 1.7145
-3.4767 0.8684 1.7145
-3.5055 0.7440 1.7145
-3.5298 0.6186 1.7145
-3.5495 0.4924 1.7145
-3.5645 0.3655 1.7145
-3.5750 0.2382 1.7145
-3.5807 0.1106 1.7145
-3.5818 -0.0171 1.7145
-3.5782 -0.1447 1.7145
-3.5700 -0.2721 1.7145
-3.5571 -0.3991 1.7145
-3.5396 -0.5255 1.7145
-3.5175 -0.6511 1.7145
-3.4909 -0.7759 1.7145
-3.4597 -0.8995 1.7145
-3.4240 -1.0219 1.7145
-3.3839 -1.1428 1.7145
-3.3395 -1.2622 1.7145
-3.2908 -1.3798 1.7145
-3.2378 -1.4956 1.7145
-3.1806 -1.6093 1.7145
-3.1194 -1.7207 1.7145
-3.0543 -1.8299 1.7145
-2.9852 -1.9365 1.7145
-2.9123 -2.0405 1.7145
-2.8358 -2.1418 1.7145
-2.7556 -2.2401 1.7145
-2.6720 -2.3354 1.7145
-2.5851 -2.4276 1.7145
-2.4949 -2.5165 1.7145
-2.4016 -2.6021 1.7145
-2.3054 -2.6841 1.7145
-2.2063 -2.7626 1.7145
-2.1044 -2.8374 1.7145
-2.0001 -2.9084 1.7145
-1.8933 -2.9756 1.7145
-1.7842 -3.0389 1.7145
-1.6730 -3.0981 1.7145
3.0280 0.2071 1.6112
3.0193 0.3160 1.6112
3.0068 0.4246 1.6112
2.9904 0.5326 1.6112
2.9703 0.6401 1.6112
2.9463 0.7468 1.6112
2.9187 0.8527 1.6112
2.8873 0.9575 1.6112
2.8522 1.0612 1.6112
2.8135 1.1636 1.6112
2.7711 1.2646 1.6112
2.7253 1.3641 1.6112
2.6759 1.4620 1.6112
2.6230 1.5581 1.6112
2.5668 1.6524 1.6112
2.5073 1.7446 1.6112
2.4445 1.8347 1.6112
2.3785 1.9226 1.6112
0.8717 0.7580 0.6082
0.8440 0.7889 0.6078
