ply
format ascii 1.0
element vertex 2152
property float32 x
property float32 y
property float32 z
end_header
9.8822 -0.7718 0.9338
9.8753 -0.4162 0.9340
8.6759 8.2250 1.4792
8.3590 8.5139 1.4792
8.0330 8.7912 1.4792
7.6464 8.9955 1.4692
7.3058 9.2472 1.4692
7.0603 9.6267 1.4909
7.3164 10.7650 1.6282
6.7778 10.7849 1.5960
3.3224 5.7331 0.8315
5.9697 11.2093 1.5960
5.5562 11.4004 1.5960
5.1371 11.5771 1.5960
4.7129 11.7393 1.5960
4.2840 11.8869 1.5960
3.8508 12.0199 1.5960
3.4139 12.1380 1.5960
3.0481 12.5474 1.6359
2.6945 13.1274 1.6992
2.2203 13.2055 1.6992
1.7441 13.2676 1.6992
1.2665 13.3137 1.6992
0.7878 13.3438 1.6992
0.3087 13.3578 1.6992
-0.1705 13.3557 1.6992
-0.6491 13.3376 1.6992
-1.1268 13.3035 1.6992
-1.6031 13.2534 1.6992
-2.0773 13.1874 1.6992
-2.5491 13.1056 1.6992
-3.0180 13.0080 1.6992
-3.4834 12.8947 1.6992
-3.9450 12.7659 1.6992
-4.4021 12.6217 1.6992
-4.8544 12.4621 1.6992
-4.9935 11.5739 1.6006
-5.3941 11.3637 1.5962
-5.8025 11.1715 1.5962
-6.2046 10.9655 1.5962
-6.6000 10.7459 1.5962
-6.9881 10.5129 1.5962
-7.3686 10.2667 1.5962
-5.5672 7.1973 1.1479
-5.5841 6.7077 1.0997
-8.4598 9.4512 1.5962
-8.8055 9.1545 1.5962
-9.8450 9.5267 1.7190
-8.9444 8.0548 1.5080
-8.9409 7.4889 1.4588
-14.3351 11.1576 2.2684
-14.7852 10.6793 2.2736
-8.9035 5.9572 1.3330
-8.9018 5.5047 1.3000
-16.0338 9.1372 2.2878
-8.8851 4.6496 1.2407
-16.8113 8.0435 2.3011
-17.1614 7.4674 2.3060
-17.5756 6.9094 2.3219
-8.8552 3.1196 1.1518
-8.8276 2.0779 1.1050
-8.8157 1.0957 1.0747
-8.7785 -0.8043 1.0506
-8.7723 -1.1219 1.0513
-19.2711 -5.3440 2.3531
-18.5771 -5.8758 2.2867
-18.2036 -6.4836 2.2621
-17.8680 -7.0949 2.2449
-17.6611 -7.7561 2.2467
-17.4286 -8.4109 2.2484
-17.1701 -9.0581 2.2498
-16.8677 -9.6861 2.2487
-16.5411 -10.3033 2.2475
-16.1909 -10.9088 2.2462
-15.5993 -11.3429 2.2139
-14.9429 -11.7060 2.1738
-14.1551 -11.9309 2.1152
-13.3796 -12.1226 2.0583
-12.6717 -12.3356 2.0117
-11.9541 -12.5014 1.9635
-8.6048 -9.6692 1.4663
-10.0576 -12.1512 1.7833
-9.4725 -12.3167 1.7532
-8.2317 -11.5355 1.5960
-7.8278 -11.8445 1.5960
-7.4118 -12.1384 1.5960
-6.9844 -12.4169 1.5961
-6.5460 -12.6794 1.5961
-6.0973 -12.9255 1.5961
-4.9733 -11.6018 1.4077
-5.1716 -13.3665 1.5961
-4.6959 -13.5605 1.5962
-4.4846 -14.6235 1.6992
-3.9627 -14.7910 1.6992
-3.4343 -14.9386 1.6992
-2.9001 -15.0659 1.6992
-2.3610 -15.1727 1.6992
-1.8178 -15.2588 1.6992
-1.2713 -15.3240 1.6992
-0.7224 -15.3682 1.6992
-0.1720 -15.3912 1.6992
0.3791 -15.3930 1.6992
0.9300 -15.3736 1.6992
1.4799 -15.3329 1.6992
2.0278 -15.2711 1.6992
2.5730 -15.1883 1.6992
3.1145 -15.0844 1.6992
3.6516 -14.9598 1.6992
4.0247 -14.2532 1.6348
4.4227 -13.7591 1.5960
4.9097 -13.5849 1.5960
5.3895 -13.3921 1.5960
5.8611 -13.1813 1.5960
6.3240 -12.9526 1.5960
6.7775 -12.7065 1.5960
7.2208 -12.4434 1.5960
7.4808 -11.8897 1.5600
7.4836 -11.0000 1.4792
7.8095 -10.6393 1.4692
8.1744 -10.3391 1.4692
8.5271 -10.0256 1.4692
8.9275 -9.7653 1.4792
9.2567 -9.4246 1.4792
9.5723 -9.0722 1.4792
9.8739 -8.7086 1.4792
10.1610 -8.3346 1.4792
10.4334 -7.9506 1.4792
10.6906 -7.5574 1.4792
10.9325 -7.1556 1.4792
11.1588 -6.7457 1.4792
11.3691 -6.3285 1.4792
9.9518 -5.0817 1.2731
9.9526 -4.6407 1.2539
9.8994 -4.1912 1.2302
9.4104 -3.5925 1.1554
9.0369 -3.0839 1.0978
11.5244 -3.4774 1.3873
8.9856 -2.3638 1.0734
11.5043 -2.5897 1.3656
11.4957 -2.1584 1.3579
11.4878 -1.7336 1.3521
9.3497 -1.0701 1.0980
9.3445 -0.7316 1.0964
9.3382 -0.3953 1.0961
7.3204 6.9378 1.4792
7.1070 7.2365 1.4901
7.0967 7.7642 1.5479
7.0145 8.2498 1.5960
6.7040 8.4830 1.5960
6.3861 8.7051 1.5960
6.0613 8.9159 1.5960
5.7299 9.1151 1.5960
3.2859 5.6686 0.9725
5.0491 9.4782 1.5960
4.7004 9.6418 1.5960
4.3468 9.7932 1.5960
3.9886 9.9323 1.5960
3.6262 10.0590 1.5960
3.2601 10.1732 1.5960
3.0770 10.9368 1.6988
2.6813 11.0342 1.6992
2.2822 11.1152 1.6992
1.8809 11.1827 1.6992
1.4777 11.2365 1.6992
1.0732 11.2765 1.6992
0.6678 11.3029 1.6992
0.2618 11.3154 1.6992
-0.1441 11.3142 1.6992
-0.5498 11.2993 1.6992
-0.9545 11.2707 1.6992
-1.3581 11.2284 1.6992
-1.7600 11.1725 1.6992
-2.1597 11.1030 1.6992
-2.5570 11.0201 1.6992
-2.9512 10.9237 1.6992
-3.3421 10.8140 1.6992
-3.7292 10.6910 1.6992
-4.1121 10.5550 1.6992
-4.4903 10.4061 1.6992
-4.8634 10.2443 1.6992
-4.9518 9.5320 1.6085
-5.2537 9.2833 1.5962
-5.5876 9.0961 1.5962
-5.9153 8.8975 1.5962
-5.7609 8.0253 1.4745
-6.5504 8.4668 1.5962
-5.5812 6.7028 1.2992
-7.1560 7.9929 1.5962
-5.5494 5.7681 1.1895
-5.5229 5.3432 1.1405
-5.5203 4.9700 1.1010
-5.5738 4.6674 1.0761
-8.5222 6.6313 1.5962
-8.7674 6.3308 1.5962
-8.9034 5.9554 1.5786
-13.0091 8.0419 2.2504
-13.3417 7.6004 2.2556
-8.8846 4.6476 1.4705
-13.9268 6.6607 2.2601
-8.8696 3.8577 1.4135
-14.3994 5.6580 2.2569
-14.6022 5.1415 2.2542
-14.7972 4.6211 2.2530
-8.8415 2.4170 1.3296
-8.8276 2.0763 1.3129
-15.2688 3.0182 2.2488
-15.3873 2.4723 2.2472
-15.4860 1.9218 2.2455
-15.5647 1.3674 2.2437
-15.6328 0.8103 2.2432
-15.6865 0.2502 2.2434
-15.7200 -0.3127 2.2436
-15.7329 -0.8776 2.2437
-15.7096 -1.4423 2.2415
-15.6656 -2.0065 2.2392
-15.6024 -2.5695 2.2371
-15.5339 -3.1335 2.2371
-15.4450 -3.6959 2.2371
-15.3358 -4.2559 2.2371
-15.2063 -4.8128 2.2371
-15.0564 -5.3658 2.2371
-14.8863 -5.9142 2.2371
-14.6961 -6.4572 2.2371
-14.4868 -6.9945 2.2372
-14.2654 -7.5290 2.2386
-14.0095 -8.0482 2.2376
-13.7368 -8.5599 2.2371
-13.4484 -9.0644 2.2371
-8.6706 -6.3070 1.4760
-12.8140 -10.0417 2.2368
-12.4525 -10.4992 2.2337
-12.0741 -10.9432 2.2305
-8.3687 -8.1493 1.5960
-8.0861 -8.4588 1.5960
-7.7916 -8.7580 1.5960
-7.4858 -9.0466 1.5960
-7.1689 -9.3240 1.5961
-6.8377 -9.5847 1.5952
-6.5037 -9.8436 1.5961
-6.1563 -10.0849 1.5961
-5.7995 -10.3133 1.5961
-5.4340 -10.5285 1.5961
-5.0602 -10.7300 1.5961
-4.6786 -10.9174 1.5962
-4.5405 -11.7385 1.6894
-4.1458 -11.9755 1.6992
-3.7183 -12.1282 1.6992
-3.2850 -12.2649 1.6992
-2.8464 -12.3851 1.6992
-2.4032 -12.4887 1.6992
-1.9561 -12.5754 1.6992
-1.5058 -12.6452 1.6992
-1.0529 -12.6978 1.6992
-0.5981 -12.7332 1.6992
-0.1421 -12.7513 1.6992
0.3143 -12.7520 1.6992
0.7706 -12.7354 1.6992
1.2260 -12.7014 1.6992
1.6798 -12.6500 1.6992
2.1313 -12.5815 1.6992
2.5799 -12.4958 1.6992
3.0248 -12.3930 1.6992
3.4654 -12.2735 1.6992
3.6639 -11.3998 1.5960
4.0677 -11.2565 1.5960
4.4656 -11.0980 1.5960
4.8570 -10.9246 1.5960
5.2413 -10.7366 1.5960
5.6179 -10.5342 1.5960
5.9864 -10.3179 1.5960
6.3460 -10.0880 1.5960
6.6965 -9.8448 1.5960
7.0371 -9.5888 1.5960
7.3675 -9.3204 1.5960
7.4189 -8.7244 1.5403
7.4109 -8.1082 1.4792
7.6343 -7.7745 1.4692
7.8967 -7.4859 1.4692
8.1478 -7.1881 1.4692
8.3873 -6.8816 1.4692
8.6734 -6.6113 1.4792
8.8901 -6.2865 1.4792
9.0943 -5.9543 1.4792
9.2857 -5.6153 1.4792
9.4640 -5.2700 1.4792
9.6292 -4.9189 1.4792
9.7810 -4.5625 1.4792
9.8994 -4.1931 1.4763
10.0439 -3.8363 1.4792
9.0321 -3.0840 1.3157
10.2520 -3.0954 1.4792
10.3353 -2.7208 1.4792
10.4047 -2.3441 1.4792
10.4603 -1.9660 1.4792
10.5019 -1.5868 1.4792
10.5297 -1.2071 1.4792
10.5437 -0.8275 1.4792
10.5440 -0.4484 1.4792
6.8251 6.4664 1.5960
6.5793 6.6972 1.5960
6.3260 6.9189 1.5960
6.0655 7.1315 1.5960
5.7982 7.3347 1.5960
5.5243 7.5282 1.5960
5.2443 7.7120 1.5960
4.9585 7.8857 1.5960
3.2831 5.6622 1.1227
4.3708 8.2027 1.5960
4.0696 8.3456 1.5960
3.7640 8.4779 1.5960
3.4543 8.5996 1.5960
3.1409 8.7104 1.5960
3.0069 9.3804 1.6992
2.6665 9.4751 1.6992
2.3233 9.5581 1.6992
1.9777 9.6293 1.6992
1.6301 9.6885 1.6992
1.2809 9.7359 1.6992
0.9304 9.7712 1.6992
0.5790 9.7946 1.6992
0.2272 9.8060 1.6992
-0.1247 9.8053 1.6992
-0.4763 9.7927 1.6992
-0.8272 9.7680 1.6992
-1.1770 9.7315 1.6992
-1.5254 9.6830 1.6992
-1.8719 9.6227 1.6992
-2.2162 9.5506 1.6992
-2.5579 9.4667 1.6992
-2.8966 9.3713 1.6992
-3.2319 9.2643 1.6992
-3.5636 9.1459 1.6992
-3.8911 9.0162 1.6992
-4.2142 8.8753 1.6992
-4.5324 8.7234 1.6992
-4.8455 8.5606 1.6992
-4.9188 8.0059 1.6220
-5.1237 7.7053 1.5962
-5.2569 7.3217 1.5535
-5.2538 6.7895 1.4784
-5.7908 6.9532 1.5568
-5.4012 6.0316 1.3917
-5.5488 5.7661 1.3740
-5.5211 5.3401 1.3175
-5.4949 4.9459 1.2666
-5.5728 4.6653 1.2437
-5.4993 4.2780 1.1908
-5.4529 3.9363 1.1479
-5.4394 3.6372 1.1154
-5.5714 3.4430 1.1149
-5.6998 3.2459 1.1150
-8.3331 4.3574 1.5962
-8.4967 4.0620 1.5962
-8.6502 3.7605 1.5962
-8.7933 3.4534 1.5962
-12.5193 4.4057 2.2388
-12.6940 3.9618 2.2395
-12.8530 3.5112 2.2401
-8.8276 2.0746 1.5220
-13.1080 2.5886 2.2387
-13.2074 2.1195 2.2373
-8.8152 1.0923 1.4831
-8.8089 0.7722 1.4737
-8.8027 0.4546 1.4664
-8.7965 0.1386 1.4609
-8.7996 -0.1767 1.4588
-13.5003 -0.7556 2.2371
-13.4896 -1.2411 2.2371
-8.7787 -1.1261 1.4588
-8.7656 -1.4453 1.4616
-8.7593 -1.7686 1.4674
-8.7528 -2.0962 1.4752
-8.7463 -2.4290 1.4851
-13.0600 -4.1362 2.2371
-12.9275 -4.6099 2.2371
-12.7777 -5.0792 2.2371
-12.6106 -5.5437 2.2371
-12.4266 -6.0026 2.2371
-12.2256 -6.4553 2.2371
-8.5669 -4.9235 1.5960
-8.3999 -5.2363 1.5960
-8.2213 -5.5433 1.5960
-8.0313 -5.8441 1.5960
-7.8301 -6.1381 1.5960
-7.6179 -6.4251 1.5960
-7.3949 -6.7044 1.5960
-7.1614 -6.9758 1.5961
-6.9178 -7.2388 1.5961
-6.6642 -7.4930 1.5961
-6.4011 -7.7380 1.5961
-6.1287 -7.9734 1.5961
-5.8474 -8.1988 1.5961
-5.5575 -8.4138 1.5961
-5.2595 -8.6182 1.5961
-4.9537 -8.8116 1.5961
-4.6406 -8.9936 1.5962
-4.5628 -9.6779 1.6857
-4.2519 -9.9244 1.6992
-3.8979 -10.0801 1.6992
-3.5380 -10.2225 1.6992
-3.1726 -10.3514 1.6992
-2.8025 -10.4666 1.6992
-2.4280 -10.5678 1.6992
-2.0497 -10.6550 1.6992
-1.6681 -10.7279 1.6992
-1.2839 -10.7865 1.6992
-0.8976 -10.8305 1.6992
-0.5097 -10.8600 1.6992
-0.1209 -10.8748 1.6992
0.2683 -10.8750 1.6992
0.6573 -10.8604 1.6992
1.0456 -10.8312 1.6992
1.4325 -10.7874 1.6992
1.8174 -10.7290 1.6992
2.1999 -10.6560 1.6992
2.5793 -10.5688 1.6992
2.9551 -10.4673 1.6992
3.3267 -10.3517 1.6992
3.4973 -9.6793 1.6090
3.8087 -9.4666 1.5960
4.1428 -9.3195 1.5960
4.4710 -9.1601 1.5960
4.7928 -8.9884 1.5960
5.1077 -8.8049 1.5960
5.4153 -8.6099 1.5960
5.7151 -8.4036 1.5960
6.0067 -8.1863 1.5960
6.2897 -7.9585 1.5960
6.5638 -7.7205 1.5960
6.8285 -7.4726 1.5960
7.0835 -7.2153 1.5960
7.3284 -6.9489 1.5960
7.3756 -6.5085 1.5564
7.3666 -6.0457 1.5098
7.4147 -5.6535 1.4792
7.5504 -5.3406 1.4692
7.7256 -5.0598 1.4692
7.8901 -4.7730 1.4692
8.0436 -4.4807 1.4692
8.1861 -4.1834 1.4692
8.3173 -3.8814 1.4692
8.4371 -3.5754 1.4692
8.6037 -3.2878 1.4792
8.7011 -2.9726 1.4792
8.7868 -2.6547 1.4792
8.8607 -2.3343 1.4792
8.9228 -2.0119 1.4792
8.9730 -1.6881 1.4792
9.0114 -1.3633 1.4792
9.0379 -1.0378 1.4792
9.0526 -0.7122 1.4792
9.0555 -0.3868 1.4792
6.0035 5.6861 1.5960
5.7882 5.8901 1.5960
5.5663 6.0862 1.5960
5.3380 6.2743 1.5960
5.1035 6.4541 1.5960
4.8632 6.6254 1.5960
4.6174 6.7881 1.5960
4.3664 6.9421 1.5960
3.2803 5.6557 1.2737
3.8499 7.2230 1.5960
3.5850 7.3497 1.5960
3.3162 7.4672 1.5960
3.1382 7.8103 1.6455
2.9469 8.1700 1.6992
2.6500 8.2646 1.6992
0.8602 3.0558 0.6220
0.7500 3.0847 0.6223
0.6389 3.1096 0.6227
0.5269 3.1306 0.6230
0.4143 3.1476 0.6233
0.3011 3.1606 0.6236
0.1875 3.1696 0.6238
0.0736 3.1745 0.6241
-0.0403 3.1753 0.6242
-0.1542 3.1722 0.6244
-0.2680 3.1649 0.6246
-0.3814 3.1537 0.6247
-0.4944 3.1384 0.6247
-0.6068 3.1191 0.6248
-0.7184 3.0958 0.6248
-0.8292 3.0685 0.6248
-2.5536 8.2606 1.6992
-2.8491 8.1660 1.6992
-3.1414 8.0612 1.6992
-3.4299 7.9465 1.6992
-3.7145 7.8218 1.6992
-3.9948 7.6874 1.6992
-4.2704 7.5433 1.6992
-4.5411 7.3898 1.6992
-4.8065 7.2269 1.6992
-4.8912 6.8111 1.6405
-4.9974 6.4569 1.5962
-5.2301 6.2786 1.5962
-5.2278 5.8367 1.5292
-5.2441 5.4483 1.4745
-5.7454 5.5557 1.5568
-5.4952 4.9449 1.4386
-5.5746 4.6656 1.4131
-5.4996 4.2771 1.3528
-5.5597 4.0122 1.3298
-5.6656 3.7873 1.3202
-5.5659 3.4384 1.2659
-7.1780 4.0861 1.5962
-7.3294 3.8311 1.5962
-7.4719 3.5706 1.5962
-7.6055 3.3049 1.5962
-7.7299 3.0343 1.5962
-7.8449 2.7592 1.5962
-7.9503 2.4798 1.5962
-8.0460 2.1965 1.5962
-8.1318 1.9095 1.5962
-8.2076 1.6193 1.5962
-8.2732 1.3261 1.5962
-8.3285 1.0304 1.5962
-8.3733 0.7324 1.5962
-8.4076 0.4326 1.5962
-8.4314 0.1313 1.5962
-8.4444 -0.1712 1.5962
-8.4466 -0.4744 1.5962
-8.4381 -0.7780 1.5962
-8.4187 -1.0816 1.5962
-8.3884 -1.3847 1.5962
-8.3472 -1.6871 1.5962
-8.2944 -1.9881 1.5960
-8.2314 -2.2877 1.5960
-8.1576 -2.5853 1.5960
-8.0730 -2.8805 1.5960
-7.9777 -3.1729 1.5960
-7.8717 -3.4622 1.5960
-7.7551 -3.7478 1.5960
-7.6280 -4.0295 1.5960
-7.4906 -4.3067 1.5960
-7.3430 -4.5793 1.5960
-7.1853 -4.8466 1.5961
-7.0178 -5.1084 1.5961
-6.8405 -5.3642 1.5961
-6.6538 -5.6138 1.5961
-6.4577 -5.8567 1.5961
-6.2526 -6.0925 1.5961
-6.0387 -6.3209 1.5961
-5.8163 -6.5416 1.5961
-5.5856 -6.7542 1.5961
-5.3470 -6.9584 1.5961
-5.1007 -7.1538 1.5961
-4.8470 -7.3402 1.5962
-4.6123 -7.5599 1.6052
-4.5904 -8.1676 1.6964
-4.3066 -8.3487 1.6992
-4.0090 -8.5056 1.6992
-3.7055 -8.6515 1.6992
-3.3966 -8.7861 1.6992
-3.0825 -8.9092 1.6992
-2.7639 -9.0205 1.6992
-2.4412 -9.1199 1.6992
-2.1147 -9.2073 1.6992
-1.7850 -9.2825 1.6992
-1.4526 -9.3453 1.6992
-1.1179 -9.3957 1.6992
-0.7814 -9.4335 1.6992
-0.4436 -9.4587 1.6992
-0.1050 -9.4712 1.6992
0.2339 -9.4710 1.6992
0.5726 -9.4581 1.6992
0.9106 -9.4326 1.6992
1.2475 -9.3943 1.6992
1.5827 -9.3435 1.6992
1.9157 -9.2801 1.6992
2.2461 -9.2043 1.6992
2.5734 -9.1162 1.6992
2.8971 -9.0159 1.6992
3.2167 -8.9036 1.6992
3.4663 -8.6168 1.6678
3.6083 -8.1184 1.5960
3.8945 -7.9801 1.5960
4.1751 -7.8312 1.5960
4.4498 -7.6721 1.5960
4.7182 -7.5029 1.5960
4.9799 -7.3239 1.5960
5.2346 -7.1354 1.5960
5.4819 -6.9377 1.5960
5.7215 -6.7311 1.5960
5.9530 -6.5159 1.5960
6.1762 -6.2925 1.5960
6.3907 -6.0612 1.5960
6.5963 -5.8223 1.5960
6.7926 -5.5762 1.5960
6.9796 -5.3232 1.5960
7.1569 -5.0639 1.5960
7.3243 -4.7985 1.5960
7.3352 -4.4388 1.5648
7.3282 -4.0836 1.5332
7.3216 -3.7430 1.5048
7.3152 -3.4152 1.4795
7.4208 -3.1461 1.4792
7.4668 -2.8549 1.4692
7.5530 -2.5818 1.4692
7.6290 -2.3063 1.4692
7.6948 -2.0286 1.4692
7.7504 -1.7491 1.4692
7.7957 -1.4682 1.4692
7.8308 -1.1862 1.4692
7.8556 -0.9036 1.4692
7.8701 -0.6206 1.4692
7.8744 -0.3379 1.4692
5.3536 5.0689 1.5960
5.1623 5.2515 1.5960
4.9650 5.4272 1.5960
4.7620 5.5956 1.5960
4.5534 5.7567 1.5960
4.3395 5.9102 1.5960
4.1206 6.0561 1.5960
3.8971 6.1942 1.5960
3.2774 5.6492 1.4256
3.1645 5.9355 1.4695
3.2007 6.5600 1.5960
3.1520 7.0956 1.6990
2.8937 7.1998 1.6992
2.6317 7.2940 1.6992
0.8628 2.6901 0.6195
0.7657 2.7193 0.6198
0.6677 2.7450 0.6202
0.5687 2.7672 0.6205
0.4691 2.7859 0.6208
0.3688 2.8010 0.6211
0.2681 2.8125 0.6213
0.1670 2.8205 0.6215
0.0656 2.8248 0.6217
-0.0358 2.8256 0.6219
-0.1372 2.8227 0.6220
-0.2384 2.8162 0.6222
-0.3394 2.8062 0.6223
-0.4399 2.7925 0.6223
-0.5399 2.7753 0.6224
-0.6393 2.7545 0.6224
-0.7378 2.7302 0.6224
-0.8355 2.7024 0.6224
-2.5451 7.2936 1.6992
-2.8060 7.1997 1.6992
-3.0637 7.0969 1.6992
-3.3177 6.9853 1.6992
-3.5679 6.8648 1.6992
-3.8139 6.7358 1.6992
-4.0554 6.5982 1.6992
-4.2921 6.4523 1.6992
-4.5238 6.2982 1.6992
-4.7501 6.1361 1.6992
-4.8710 5.8462 1.6651
-4.8744 5.4409 1.5972
-5.0673 5.2634 1.5962
-5.2123 5.0389 1.5824
-5.2053 4.6828 1.5269
-5.2057 4.3557 1.4788
-5.4987 4.2751 1.5160
-5.7801 4.1700 1.5497
-5.7768 3.8603 1.5091
-5.5716 3.4408 1.4208
-6.4013 3.6427 1.5962
-6.5354 3.4148 1.5962
-6.6616 3.1820 1.5962
-6.7798 2.9447 1.5962
-6.8896 2.7031 1.5962
-6.9911 2.4575 1.5962
-7.0840 2.2082 1.5962
-7.1681 1.9554 1.5962
-7.2434 1.6995 1.5962
-7.3097 1.4407 1.5962
-7.3669 1.1794 1.5962
-7.4149 0.9160 1.5962
-7.4536 0.6505 1.5962
-7.4829 0.3836 1.5962
-7.5027 0.1154 1.5962
-7.5130 -0.1538 1.5962
-7.5137 -0.4235 1.5962
-7.5048 -0.6934 1.5962
-7.4862 -0.9633 1.5962
-7.4579 -1.2327 1.5962
-7.4200 -1.5012 1.5962
-7.3724 -1.7687 1.5962
-7.3146 -2.0344 1.5961
-7.2478 -2.2985 1.5961
-7.1713 -2.5603 1.5961
-7.0854 -2.8196 1.5961
-6.9900 -3.0760 1.5961
-6.8853 -3.3290 1.5961
-6.7713 -3.5785 1.5961
-6.6482 -3.8240 1.5961
-6.5161 -4.0652 1.5961
-6.3751 -4.3017 1.5961
-6.2254 -4.5333 1.5961
-6.0672 -4.7595 1.5961
-5.9006 -4.9800 1.5961
-5.7258 -5.1946 1.5961
-5.5432 -5.4029 1.5961
-5.3527 -5.6046 1.5961
-5.1548 -5.7993 1.5961
-4.9497 -5.9869 1.5961
-4.7375 -6.1670 1.5962
-4.6254 -6.4891 1.6339
-4.5706 -6.9236 1.6992
-4.3243 -7.0897 1.6992
-4.0717 -7.2467 1.6992
-3.8133 -7.3944 1.6992
-3.5494 -7.5326 1.6992
-3.2804 -7.6610 1.6992
-3.0065 -7.7794 1.6992
-2.7283 -7.8876 1.6992
-2.4461 -7.9855 1.6992
-2.1602 -8.0729 1.6992
-1.8712 -8.1496 1.6992
-1.5793 -8.2156 1.6992
-1.2851 -8.2707 1.6992
-0.9889 -8.3149 1.6992
-0.6911 -8.3479 1.6992
-0.3922 -8.3699 1.6992
-0.0927 -8.3807 1.6992
0.2071 -8.3803 1.6992
0.5068 -8.3688 1.6992
0.8058 -8.3461 1.6992
1.1038 -8.3122 1.6992
1.4003 -8.2673 1.6992
1.6950 -8.2113 1.6992
1.9873 -8.1444 1.6992
2.2769 -8.0666 1.6992
2.5633 -7.9781 1.6992
2.8461 -7.8790 1.6992
3.1250 -7.7695 1.6992
3.3995 -7.6497 1.6992
3.4493 -7.0690 1.5974
3.6949 -6.9316 1.5960
3.9382 -6.7912 1.5960
4.1761 -6.6420 1.5960
4.4081 -6.4841 1.5960
4.6339 -6.3179 1.5960
4.8533 -6.1434 1.5960
5.0659 -5.9611 1.5960
5.2714 -5.7712 1.5960
5.4696 -5.5740 1.5960
5.6603 -5.3697 1.5960
5.8431 -5.1588 1.5960
6.0178 -4.9414 1.5960
6.1842 -4.7179 1.5960
6.3421 -4.4887 1.5960
6.4913 -4.2541 1.5960
6.6317 -4.0145 1.5960
6.7630 -3.7701 1.5960
6.8851 -3.5213 1.5960
6.9979 -3.2685 1.5960
7.1013 -3.0121 1.5960
7.1951 -2.7524 1.5960
7.2793 -2.4898 1.5960
7.2915 -2.2057 1.5825
7.2860 -1.9222 1.5675
7.2805 -1.6444 1.5548
7.2752 -1.3715 1.5444
7.2700 -1.1026 1.5361
7.2648 -0.8370 1.5299
7.2596 -0.5739 1.5257
7.2545 -0.3127 1.5235
4.8261 4.5681 1.5960
4.6543 4.7332 1.5960
4.4769 4.8921 1.5960
4.2942 5.0444 1.5960
4.1065 5.1902 1.5960
3.9140 5.3292 1.5960
3.7170 5.4613 1.5960
3.5156 5.5863 1.5960
3.2745 5.6426 1.5788
3.1771 5.9574 1.6352
3.0750 6.3006 1.6992
2.8449 6.4023 1.6992
2.6115 6.4959 1.6992
0.8631 2.3915 0.6175
0.7767 2.4209 0.6178
0.6893 2.4471 0.6181
0.6010 2.4703 0.6184
0.5120 2.4902 0.6187
0.4223 2.5070 0.6190
0.3320 2.5206 0.6192
0.2413 2.5310 0.6194
0.1503 2.5381 0.6196
0.0591 2.5420 0.6198
-0.0322 2.5427 0.6200
-0.1234 2.5401 0.6201
-0.2145 2.5342 0.6202
-0.3054 2.5251 0.6203
-0.3959 2.5128 0.6204
-0.4859 2.4973 0.6204
-0.5753 2.4786 0.6204
-0.6640 2.4566 0.6204
-0.7518 2.4316 0.6204
-0.8388 2.4034 0.6204
-2.5330 6.4984 1.6992
-2.7655 6.4053 1.6992
-2.9948 6.3043 1.6992
-3.2205 6.1953 1.6992
-3.4423 6.0785 1.6992
-3.6601 5.9541 1.6992
-3.8735 5.8220 1.6992
-4.0824 5.6826 1.6992
-4.2864 5.5360 1.6992
-4.4853 5.3822 1.6992
-4.6789 5.2215 1.6992
-4.8553 5.0420 1.6952
-4.8515 4.6890 1.6327
-4.9083 4.4145 1.5962
-5.0679 4.2392 1.5962
-5.1927 4.0360 1.5874
-5.1869 3.7409 1.5421
-5.1814 3.4614 1.5011
-5.2133 3.2184 1.4745
-5.4355 3.0920 1.5034
-5.8911 3.0769 1.5962
-6.0042 2.8668 1.5962
-6.1100 2.6526 1.5962
-6.2083 2.4345 1.5962
-6.2989 2.2129 1.5962
-6.3818 1.9881 1.5962
-6.4568 1.7601 1.5962
-6.5238 1.5294 1.5962
-6.5826 1.2962 1.5962
-6.6333 1.0607 1.5962
-6.6756 0.8233 1.5962
-6.7095 0.5843 1.5962
-6.7350 0.3439 1.5962
-6.7519 0.1025 1.5962
-6.7602 -0.1397 1.5962
-6.7599 -0.3823 1.5962
-6.7509 -0.6251 1.5962
-6.7332 -0.8677 1.5962
-6.7068 -1.1099 1.5962
-6.6717 -1.3512 1.5962
-6.6280 -1.5915 1.5962
-6.5756 -1.8303 1.5962
-6.5142 -2.0673 1.5961
-6.4446 -2.3023 1.5961
-6.3665 -2.5349 1.5961
-6.2799 -2.7649 1.5961
-6.1849 -2.9918 1.5961
-6.0817 -3.2155 1.5961
-5.9703 -3.4355 1.5961
-5.8508 -3.6516 1.5961
-5.7235 -3.8635 1.5961
-5.5883 -4.0709 1.5961
-5.4456 -4.2734 1.5961
-5.2954 -4.4708 1.5961
-5.1379 -4.6628 1.5961
-4.9734 -4.8491 1.5961
-4.8019 -5.0294 1.5962
-4.6554 -5.2391 1.6071
-4.6385 -5.6123 1.6678
-4.5229 -5.8894 1.6992
-4.3135 -6.0533 1.6992
-4.0980 -6.2095 1.6992
-3.8767 -6.3577 1.6992
-3.6500 -6.4979 1.6992
-3.4180 -6.6297 1.6992
-3.1812 -6.7530 1.6992
-2.9398 -6.8675 1.6992
-2.6942 -6.9731 1.6992
-2.4446 -7.0696 1.6992
-2.1916 -7.1568 1.6992
-1.9353 -7.2347 1.6992
-1.6763 -7.3030 1.6992
-1.4147 -7.3618 1.6992
-1.1510 -7.4108 1.6992
-0.8856 -7.4500 1.6992
-0.6189 -7.4794 1.6992
-0.3512 -7.4988 1.6992
-0.0828 -7.5083 1.6992
0.1857 -7.5078 1.6992
0.4541 -7.4974 1.6992
0.7220 -7.4769 1.6992
0.9889 -7.4466 1.6992
1.2545 -7.4063 1.6992
1.5184 -7.3563 1.6992
1.7802 -7.2964 1.6992
2.0396 -7.2269 1.6992
2.2962 -7.1478 1.6992
2.5497 -7.0593 1.6992
2.7996 -6.9614 1.6992
3.0456 -6.8543 1.6992
3.2874 -6.7383 1.6992
3.4241 -6.4247 1.6508
3.5287 -6.0861 1.5960
3.7421 -5.9528 1.5960
3.9502 -5.8117 1.5960
4.1529 -5.6631 1.5960
4.3498 -5.5072 1.5960
4.5407 -5.3442 1.5960
4.7253 -5.1745 1.5960
4.9034 -4.9981 1.5960
5.0748 -4.8155 1.5960
5.2391 -4.6268 1.5960
5.3963 -4.4323 1.5960
5.5461 -4.2324 1.5960
5.6884 -4.0273 1.5960
5.8229 -3.8173 1.5960
5.9494 -3.6027 1.5960
6.0680 -3.3839 1.5960
6.1783 -3.1611 1.5960
6.2803 -2.9346 1.5960
6.3739 -2.7048 1.5960
6.4589 -2.4720 1.5960
6.5353 -2.2366 1.5960
6.6030 -1.9988 1.5960
6.6620 -1.7589 1.5960
6.7122 -1.5174 1.5960
6.7535 -1.2745 1.5960
6.7860 -1.0305 1.5960
6.8097 -0.7859 1.5960
6.8244 -0.5408 1.5960
6.8303 -0.2957 1.5960
4.3891 4.1531 1.5960
4.2332 4.3037 1.5960
4.0722 4.4485 1.5960
3.9064 4.5875 1.5960
3.7360 4.7205 1.5960
3.5612 4.8474 1.5960
3.4039 4.9998 1.6063
3.2035 5.0889 1.5982
3.1835 5.4843 1.6866
3.0048 5.6328 1.6992
2.7988 5.7330 1.6992
2.5895 5.8260 1.6992
0.8615 2.1423 0.6158
0.7840 2.1718 0.6161
0.7055 2.1984 0.6164
0.6262 2.2223 0.6167
0.5460 2.2433 0.6170
0.4651 2.2614 0.6173
0.3836 2.2767 0.6175
0.3016 2.2890 0.6177
0.2193 2.2984 0.6179
0.1366 2.3049 0.6181
0.0538 2.3084 0.6183
-0.0291 2.3090 0.6184
-0.1120 2.3066 0.6185
-0.1948 2.3013 0.6186
-0.2773 2.2930 0.6187
-0.3595 2.2818 0.6188
-0.4412 2.2676 0.6188
-0.5224 2.2506 0.6188
-0.6030 2.2307 0.6188
-0.6827 2.2079 0.6188
-0.7617 2.1823 0.6187
-0.8397 2.1539 0.6187
-2.5178 5.8308 1.6992
-2.7265 5.7386 1.6992
-2.9319 5.6392 1.6992
-3.1337 5.5327 1.6992
-3.3319 5.4191 1.6992
-3.5260 5.2987 1.6992
-3.7160 5.1715 1.6992
-3.9014 5.0377 1.6992
-4.0823 4.8975 1.6992
-4.2582 4.7509 1.6992
-4.4290 4.5982 1.6992
-4.5945 4.4396 1.6992
-4.7545 4.2751 1.6992
-4.8358 4.0440 1.6740
-4.8351 3.7570 1.6247
-4.8839 3.5213 1.5962
-5.0149 3.3491 1.5972
-5.1331 3.1678 1.5962
-5.2484 2.9844 1.5962
-5.3573 2.7970 1.5962
-5.4597 2.6056 1.5962
-5.5553 2.4106 1.5962
-5.6441 2.2122 1.5962
-5.7259 2.0105 1.5962
-5.8007 1.8059 1.5962
-5.8683 1.5985 1.5962
-5.9285 1.3887 1.5962
-5.9814 1.1766 1.5962
-6.0267 0.9625 1.5962
-6.0645 0.7468 1.5962
-6.0946 0.5296 1.5962
-6.1170 0.3112 1.5962
-6.1317 0.0919 1.5962
-6.1385 -0.1281 1.5962
-6.1375 -0.3484 1.5962
-6.1286 -0.5687 1.5962
-6.1119 -0.7889 1.5962
-6.0872 -1.0086 1.5962
-6.0547 -1.2275 1.5962
-6.0142 -1.4454 1.5962
-5.9659 -1.6619 1.5962
-5.9099 -1.8767 1.5962
-5.8459 -2.0897 1.5961
-5.7743 -2.3004 1.5961
-5.6951 -2.5087 1.5961
-5.6083 -2.7142 1.5961
-5.5141 -2.9167 1.5961
-5.4125 -3.1159 1.5961
-5.3036 -3.3114 1.5961
-5.1876 -3.5031 1.5961
-5.0645 -3.6906 1.5961
-4.9346 -3.8738 1.5962
-4.7980 -4.0522 1.5962
-4.6757 -4.2447 1.6033
-4.6598 -4.5448 1.6509
-4.6305 -4.8513 1.6992
-4.4583 -5.0188 1.6992
-4.2799 -5.1799 1.6992
-4.0956 -5.3346 1.6992
-3.9057 -5.4825 1.6992
-3.7102 -5.6235 1.6992
-3.5096 -5.7573 1.6992
-3.3040 -5.8837 1.6992
-3.0938 -6.0026 1.6992
-2.8792 -6.1138 1.6992
-2.6606 -6.2170 1.6992
-2.4381 -6.3122 1.6992
-2.2122 -6.3991 1.6992
-1.9830 -6.4777 1.6992
-1.7511 -6.5478 1.6992
-1.5166 -6.6094 1.6992
-1.2798 -6.6622 1.6992
-1.0412 -6.7063 1.6992
-0.8011 -6.7416 1.6992
-0.5597 -6.7680 1.6992
-0.3175 -6.7854 1.6992
-0.0747 -6.7938 1.6992
0.1682 -6.7933 1.6992
0.4110 -6.7837 1.6992
0.6533 -6.7652 1.6992
0.8947 -6.7377 1.6992
1.1350 -6.7013 1.6992
1.3738 -6.6561 1.6992
1.6107 -6.6020 1.6992
1.8454 -6.5392 1.6992
2.0775 -6.4678 1.6992
2.3069 -6.3878 1.6992
2.5330 -6.2995 1.6992
2.7557 -6.2028 1.6992
2.9746 -6.0981 1.6992
3.1894 -5.9853 1.6992
3.3998 -5.8648 1.6992
3.4143 -5.4324 1.6091
3.5749 -5.2606 1.5960
3.7586 -5.1264 1.5960
3.9370 -4.9857 1.5960
4.1101 -4.8385 1.5960
4.2775 -4.6851 1.5960
4.4390 -4.5258 1.5960
4.5945 -4.3608 1.5960
4.7437 -4.1903 1.5960
4.8864 -4.0146 1.5960
5.0225 -3.8339 1.5960
5.1517 -3.6485 1.5960
5.2740 -3.4586 1.5960
5.3891 -3.2646 1.5960
5.4970 -3.0666 1.5960
5.5975 -2.8651 1.5960
5.6905 -2.6602 1.5960
5.7759 -2.4522 1.5960
5.8536 -2.2415 1.5960
5.9235 -2.0284 1.5960
5.9855 -1.8130 1.5960
6.0396 -1.5958 1.5960
6.0858 -1.3770 1.5960
6.1240 -1.1569 1.5960
6.1542 -0.9358 1.5960
6.1763 -0.7140 1.5960
6.1904 -0.4918 1.5960
6.1965 -0.2695 1.5960
4.0208 3.8033 1.5960
3.8783 3.9416 1.5960
3.7311 4.0746 1.5960
3.5795 4.2022 1.5960
3.4235 4.3244 1.5960
3.2635 4.4409 1.5960
3.1989 4.6974 1.6471
3.1219 4.9578 1.6992
2.9399 5.0631 1.6992
2.7544 5.1619 1.6992
2.5657 5.2540 1.6992
0.8583 1.9306 0.6144
0.7884 1.9600 0.6147
0.7175 1.9869 0.6150
0.6457 2.0113 0.6153
0.5731 2.0332 0.6155
0.4997 2.0524 0.6158
0.4257 2.0690 0.6160
0.3511 2.0829 0.6162
0.2761 2.0942 0.6164
0.2007 2.1028 0.6166
0.1251 2.1087 0.6168
0.0493 2.1119 0.6169
-0.0266 2.1124 0.6171
-0.1024 2.1102 0.6172
-0.1782 2.1053 0.6173
-0.2537 2.0978 0.6173
-0.3289 2.0875 0.6174
-0.4037 2.0745 0.6174
-0.4780 2.0589 0.6174
-0.5517 2.0407 0.6174
-0.6247 2.0198 0.6174
-0.6969 1.9963 0.6174
-0.7682 1.9703 0.6173
-0.8386 1.9418 0.6173
-2.4999 5.2608 1.6992
-2.6881 5.1695 1.6992
-2.8731 5.0717 1.6992
-3.0547 4.9674 1.6992
-3.2326 4.8568 1.6992
-3.4066 4.7400 1.6992
-3.5764 4.6171 1.6992
-3.7420 4.4883 1.6992
-3.9031 4.3538 1.6992
-4.0595 4.2136 1.6992
-4.2110 4.0679 1.6992
-4.3573 3.9169 1.6992
-4.4984 3.7608 1.6992
-4.6340 3.5997 1.6992
-4.7640 3.4338 1.6992
-4.8196 3.2176 1.6754
-4.8174 2.9719 1.6351
-4.8209 2.7403 1.6004
-4.9074 2.5611 1.5962
-5.0007 2.3856 1.5962
-5.0879 2.2068 1.5962
-5.1689 2.0248 1.5962
-5.2434 1.8400 1.5962
-5.3114 1.6525 1.5962
-5.3728 1.4625 1.5962
-5.4274 1.2702 1.5962
-5.4753 1.0760 1.5962
-5.5163 0.8799 1.5962
-5.5504 0.6824 1.5962
-5.5774 0.4835 1.5962
-5.5974 0.2836 1.5962
-5.6103 0.0829 1.5962
-5.6160 -0.1183 1.5962
-5.6145 -0.3198 1.5962
-5.6058 -0.5214 1.5962
-5.5899 -0.7227 1.5962
-5.5668 -0.9235 1.5962
-5.5365 -1.1236 1.5962
-5.4990 -1.3227 1.5962
-5.4543 -1.5205 1.5962
-5.4025 -1.7168 1.5962
-5.3435 -1.9113 1.5961
-5.2776 -2.1038 1.5961
-5.2047 -2.2939 1.5961
-5.1249 -2.4815 1.5961
-5.0383 -2.6663 1.5961
-4.9450 -2.8480 1.5962
-4.8451 -3.0264 1.5962
-4.7386 -3.2012 1.5962
-4.6885 -3.4179 1.6178
-4.6767 -3.6726 1.6564
-4.6646 -3.9409 1.6992
-4.5250 -4.1092 1.6992
-4.3792 -4.2725 1.6992
-4.2275 -4.4305 1.6992
-4.0699 -4.5830 1.6992
-3.9068 -4.7298 1.6992
-3.7383 -4.8706 1.6992
-3.5646 -5.0053 1.6992
-3.3860 -5.1336 1.6992
-3.2027 -5.2554 1.6992
-3.0149 -5.3704 1.6992
-2.8229 -5.4785 1.6992
-2.6269 -5.5796 1.6992
-2.4273 -5.6735 1.6992
-2.2242 -5.7601 1.6992
-2.0180 -5.8391 1.6992
-1.8089 -5.9105 1.6992
-1.5972 -5.9743 1.6992
-1.3832 -6.0302 1.6992
-1.1672 -6.0782 1.6992
-0.9496 -6.1182 1.6992
-0.7305 -6.1502 1.6992
-0.5103 -6.1741 1.6992
-0.2894 -6.1898 1.6992
-0.0680 -6.1974 1.6992
0.1536 -6.1968 1.6992
0.3750 -6.1881 1.6992
0.5960 -6.1711 1.6992
0.8162 -6.1461 1.6992
1.0353 -6.1129 1.6992
1.2531 -6.0716 1.6992
1.4691 -6.0224 1.6992
1.6832 -5.9652 1.6992
1.8950 -5.9001 1.6992
2.1042 -5.8273 1.6992
2.3105 -5.7469 1.6992
2.5137 -5.6589 1.6992
2.7134 -5.5635 1.6992
2.9094 -5.4608 1.6992
3.1015 -5.3511 1.6992
3.2892 -5.2344 1.6992
3.3958 -4.9980 1.6617
3.4292 -4.6781 1.5960
3.6005 -4.5604 1.5997
3.7503 -4.4159 1.5960
3.9032 -4.2762 1.5960
4.0509 -4.1311 1.5960
4.1930 -3.9808 1.5960
4.3294 -3.8254 1.5960
4.4600 -3.6653 1.5960
4.5845 -3.5006 1.5960
4.7029 -3.3316 1.5960
4.8149 -3.1586 1.5960
4.9204 -2.9817 1.5960
5.0193 -2.8012 1.5960
5.1115 -2.6174 1.5960
5.1968 -2.4305 1.5960
5.2752 -2.2408 1.5960
5.3467 -2.0485 1.5960
5.4110 -1.8540 1.5960
5.4682 -1.6574 1.5960
5.5181 -1.4591 1.5960
5.5608 -1.2593 1.5960
5.5963 -1.0583 1.5960
5.6244 -0.8563 1.5960
5.6451 -0.6537 1.5960
5.6586 -0.4507 1.5960
5.6647 -0.2475 1.5960
3.7059 3.5042 1.5960
3.5748 3.6319 1.5960
3.4393 3.7547 1.5960
3.2997 3.8726 1.5960
3.2164 4.0615 1.6264
3.2035 4.3579 1.6992
3.0429 4.4669 1.6992
2.8786 4.5701 1.6992
2.7109 4.6674 1.6992
2.5400 4.7587 1.6992
0.8538 1.7479 0.6132
0.7904 1.7773 0.6135
0.7261 1.8044 0.6138
0.6608 1.8292 0.6140
0.5946 1.8517 0.6143
0.5277 1.8718 0.6145
0.4602 1.8895 0.6148
0.3920 1.9047 0.6150
0.3233 1.9176 0.6152
0.2543 1.9280 0.6154
0.1849 1.9359 0.6155
0.1152 1.9413 0.6157
0.0454 1.9443 0.6158
-0.0244 1.9447 0.6159
-0.0943 1.9427 0.6160
-0.1640 1.9382 0.6161
-0.2335 1.9312 0.6162
-0.3028 1.9217 0.6162
-0.3716 1.9098 0.6163
-0.4400 1.8954 0.6163
-0.5079 1.8785 0.6163
-0.5751 1.8593 0.6163
-0.6416 1.8377 0.6162
-0.7073 1.8137 0.6162
-0.7721 1.7874 0.6161
-0.8359 1.7588 0.6160
-2.4793 4.7672 1.6992
-2.6499 4.6768 1.6992
-2.8173 4.5805 1.6992
-2.9812 4.4783 1.6992
-3.1416 4.3704 1.6992
-3.2982 4.2570 1.6992
-3.4507 4.1380 1.6992
-3.5991 4.0137 1.6992
-3.7431 3.8843 1.6992
-3.8826 3.7498 1.6992
-4.0174 3.6104 1.6992
-4.1472 3.4662 1.6992
-4.2720 3.3175 1.6992
-4.3916 3.1644 1.6992
-4.5058 3.0071 1.6992
-4.6145 2.8458 1.6992
-4.7176 2.6806 1.6992
-4.8057 2.5070 1.6961
-4.8015 2.2895 1.6630
-4.8002 2.0810 1.6342
-4.8020 1.8802 1.6093
-4.8310 1.6943 1.5962
-4.8933 1.5214 1.5962
-4.9494 1.3462 1.5962
-4.9994 1.1690 1.5962
-5.0431 0.9900 1.5962
-5.0805 0.8094 1.5962
-5.1115 0.6274 1.5962
-5.1360 0.4442 1.5962
-5.1539 0.2601 1.5962
-5.1654 0.0753 1.5962
-5.1702 -0.1100 1.5962
-5.1684 -0.2955 1.5962
-5.1600 -0.4810 1.5962
-5.1449 -0.6662 1.5962
-5.1232 -0.8510 1.5962
-5.0949 -1.0351 1.5962
-5.0600 -1.2182 1.5962
-5.0184 -1.4001 1.5962
-4.9703 -1.5806 1.5962
-4.9157 -1.7594 1.5962
-4.8547 -1.9363 1.5962
-4.7872 -2.1110 1.5962
-4.7155 -2.2844 1.5969
-4.7059 -2.4915 1.6211
-4.6958 -2.7057 1.6483
-4.6906 -2.9311 1.6806
-4.6381 -3.1345 1.6992
-4.5273 -3.3016 1.6992
-4.4104 -3.4648 1.6992
-4.2876 -3.6237 1.6992
-4.1590 -3.7781 1.6992
-4.0247 -3.9280 1.6992
-3.8850 -4.0729 1.6992
-3.7400 -4.2128 1.6992
-3.5898 -4.3474 1.6992
-3.4348 -4.4765 1.6992
-3.2750 -4.5999 1.6992
-3.1107 -4.7175 1.6992
-2.9421 -4.8291 1.6992
-2.7694 -4.9346 1.6992
-2.5929 -5.0336 1.6992
-2.4128 -5.1262 1.6992
-2.2293 -5.2122 1.6992
-2.0427 -5.2915 1.6992
-1.8532 -5.3639 1.6992
-1.6611 -5.4293 1.6992
-1.4666 -5.4876 1.6992
-1.2701 -5.5387 1.6992
-1.0717 -5.5827 1.6992
-0.8718 -5.6192 1.6992
-0.6706 -5.6485 1.6992
-0.4684 -5.6703 1.6992
-0.2656 -5.6847 1.6992
-0.0623 -5.6916 1.6992
0.1412 -5.6910 1.6992
0.3445 -5.6829 1.6992
0.5474 -5.6673 1.6992
0.7496 -5.6443 1.6992
0.9507 -5.6138 1.6992
1.1507 -5.5759 1.6992
1.3491 -5.5308 1.6992
1.5457 -5.4783 1.6992
1.7401 -5.4186 1.6992
1.9322 -5.3519 1.6992
2.1218 -5.2781 1.6992
2.3084 -5.1974 1.6992
2.4918 -5.1100 1.6992
2.6719 -5.0159 1.6992
2.8483 -4.9152 1.6992
3.0209 -4.8082 1.6992
3.1893 -4.6950 1.6992
3.3534 -4.5757 1.6992
3.3847 -4.2881 1.6372
3.4448 -4.0572 1.5960
3.5888 -3.9326 1.5974
3.7213 -3.7960 1.5960
3.8521 -3.6581 1.5960
3.9777 -3.5156 1.5960
4.0979 -3.3686 1.5960
4.2125 -3.2175 1.5960
4.3215 -3.0625 1.5960
4.4247 -2.9036 1.5960
4.5220 -2.7412 1.5960
4.6132 -2.5755 1.5960
4.6983 -2.4068 1.5960
4.7771 -2.2351 1.5960
4.8495 -2.0609 1.5960
4.9155 -1.8843 1.5960
4.9751 -1.7056 1.5960
5.0280 -1.5250 1.5960
5.0744 -1.3428 1.5960
5.1140 -1.1592 1.5960
5.1470 -0.9744 1.5960
5.1733 -0.7887 1.5960
5.1928 -0.6024 1.5960
5.2056 -0.4156 1.5960
5.2117 -0.2287 1.5960
3.4400 3.2517 1.5991
3.3119 3.3638 1.5960
3.2292 3.5242 1.6173
3.2169 3.7743 1.6792
3.1138 3.9308 1.6992
2.9687 4.0372 1.6992
2.8199 4.1384 1.6992
2.6678 4.2342 1.6992
0.9046 1.5570 0.6118
0.8480 1.5883 0.6121
0.7904 1.6176 0.6124
0.7317 1.6448 0.6127
0.6721 1.6699 0.6129
0.6117 1.6929 0.6132
0.5505 1.7137 0.6134
0.4886 1.7323 0.6137
0.4260 1.7487 0.6139
0.3629 1.7628 0.6141
0.2994 1.7747 0.6143
0.2354 1.7843 0.6144
0.1712 1.7916 0.6146
0.1067 1.7966 0.6147
0.0421 1.7994 0.6148
-0.0226 1.7998 0.6150
-0.0872 1.7979 0.6150
-0.1518 1.7937 0.6151
-0.2161 1.7872 0.6152
-0.2802 1.7784 0.6152
-0.3439 1.7674 0.6153
-0.4073 1.7540 0.6153
-0.4701 1.7385 0.6153
-0.5323 1.7206 0.6153
-0.5938 1.7006 0.6152
-0.6546 1.6784 0.6152
-0.7146 1.6540 0.6151
-0.7736 1.6275 0.6150
-0.8317 1.5989 0.6149
-0.8888 1.5683 0.6148
-2.6115 4.2450 1.6992
-2.7634 4.1502 1.6992
-2.9119 4.0501 1.6992
-3.0569 3.9448 1.6992
-3.1982 3.8344 1.6992
-3.3357 3.7191 1.6992
-3.4690 3.5989 1.6992
-3.5981 3.4741 1.6992
-3.7228 3.3448 1.6992
-3.8430 3.2111 1.6992
-3.9585 3.0731 1.6992
-4.0691 2.9311 1.6992
-4.1747 2.7852 1.6992
-4.2752 2.6355 1.6992
-4.3704 2.4823 1.6992
-4.4602 2.3258 1.6992
-4.5445 2.1660 1.6992
-4.6231 2.0032 1.6992
-4.6960 1.8377 1.6992
-4.7631 1.6695 1.6992
-4.7858 1.4870 1.6857
-4.7821 1.2997 1.6654
-4.7786 1.1164 1.6476
-4.7780 0.9370 1.6333
-4.7774 0.7601 1.6212
-4.7763 0.5853 1.6111
-4.7748 0.4120 1.6030
-4.7728 0.2399 1.5969
-4.7809 0.0687 1.5962
-4.7850 -0.1028 1.5962
-4.7831 -0.2744 1.5962
-4.7749 -0.4461 1.5962
-4.7606 -0.6175 1.5962
-4.7520 -0.7904 1.6001
-4.7468 -0.9654 1.6074
-4.7412 -1.1425 1.6167
-4.7351 -1.3221 1.6281
-4.7284 -1.5047 1.6416
-4.7237 -1.6917 1.6583
-4.7113 -1.8802 1.6749
-4.7069 -2.0767 1.6971
-4.6400 -2.2490 1.6992
-4.5609 -2.4159 1.6992
-4.4757 -2.5800 1.6992
-4.3846 -2.7411 1.6992
-4.2876 -2.8988 1.6992
-4.1849 -3.0531 1.6992
-4.0766 -3.2037 1.6992
-3.9629 -3.3504 1.6992
-3.8437 -3.4930 1.6992
-3.7194 -3.6312 1.6992
-3.5901 -3.7649 1.6992
-3.4559 -3.8940 1.6992
-3.3169 -4.0181 1.6992
-3.1735 -4.1372 1.6992
-3.0257 -4.2510 1.6992
-2.8737 -4.3595 1.6992
-2.7178 -4.4624 1.6992
-2.5582 -4.5595 1.6992
-2.3950 -4.6509 1.6992
-2.2285 -4.7362 1.6992
-2.0590 -4.8154 1.6992
-1.8865 -4.8884 1.6992
-1.7114 -4.9551 1.6992
-1.5339 -5.0154 1.6992
-1.3543 -5.0691 1.6992
-1.1728 -5.1162 1.6992
-0.9895 -5.1566 1.6992
-0.8049 -5.1903 1.6992
-0.6191 -5.2171 1.6992
-0.4324 -5.2372 1.6992
-0.2451 -5.2504 1.6992
-0.0574 -5.2567 1.6992
0.1305 -5.2561 1.6992
0.3182 -5.2486 1.6992
0.5056 -5.2342 1.6992
0.6923 -5.2129 1.6992
0.8780 -5.1848 1.6992
1.0627 -5.1498 1.6992
1.2459 -5.1081 1.6992
1.4274 -5.0597 1.6992
1.6070 -5.0047 1.6992
1.7844 -4.9431 1.6992
1.9595 -4.8751 1.6992
2.1318 -4.8007 1.6992
2.3013 -4.7201 1.6992
2.4677 -4.6333 1.6992
2.6307 -4.5404 1.6992
2.7901 -4.4417 1.6992
2.9458 -4.3373 1.6992
3.0974 -4.2273 1.6992
3.2449 -4.1118 1.6992
3.3747 -3.9754 1.6926
3.3759 -3.7003 1.6267
3.4378 -3.5076 1.5960
3.5766 -3.3973 1.6040
3.6749 -3.2489 1.5960
3.7862 -3.1133 1.5960
3.8923 -2.9739 1.5960
3.9933 -2.8307 1.5960
4.0888 -2.6841 1.5960
4.1789 -2.5342 1.5960
4.2635 -2.3812 1.5960
4.3424 -2.2254 1.5960
4.4155 -2.0669 1.5960
4.4827 -1.9060 1.5960
4.5440 -1.7429 1.5960
4.5994 -1.5778 1.5960
4.6486 -1.4109 1.5960
4.6918 -1.2425 1.5960
4.7288 -1.0728 1.5960
4.7596 -0.9020 1.5960
4.7843 -0.7304 1.5960
4.8027 -0.5581 1.5960
4.8149 -0.3854 1.5960
4.8208 -0.2126 1.5960
3.2382 3.0599 1.6177
3.2267 3.2761 1.6709
3.1573 3.4447 1.6992
3.0295 3.5533 1.6992
2.8980 3.6572 1.6992
2.7630 3.7564 1.6992
2.6247 3.8507 1.6992
0.8927 1.4164 0.6109
0.8412 1.4474 0.6112
0.7886 1.4765 0.6114
0.7350 1.5038 0.6117
0.6804 1.5291 0.6120
0.6250 1.5524 0.6122
0.5688 1.5738 0.6125
0.5119 1.5931 0.6127
0.4543 1.6104 0.6129
0.3962 1.6256 0.6131
0.3375 1.6388 0.6133
0.2784 1.6498 0.6134
0.2190 1.6588 0.6136
0.1592 1.6656 0.6138
0.0993 1.6702 0.6139
0.0392 1.6728 0.6140
-0.0209 1.6731 0.6141
-0.0811 1.6714 0.6142
-0.1411 1.6675 0.6143
-0.2009 1.6614 0.6143
-0.2605 1.6533 0.6144
-0.3198 1.6430 0.6144
-0.3786 1.6305 0.6144
-0.4370 1.6161 0.6144
-0.4948 1.5995 0.6144
-0.5521 1.5809 0.6144
-0.6086 1.5602 0.6143
-0.6643 1.5375 0.6142
-0.7192 1.5129 0.6142
-0.7733 1.4863 0.6141
-0.8263 1.4578 0.6140
-0.8783 1.4274 0.6139
-2.5725 3.8628 1.6992
-2.7107 3.7695 1.6992
-2.8457 3.6713 1.6992
-2.9771 3.5685 1.6992
-3.1049 3.4610 1.6992
-3.2289 3.3490 1.6992
-3.3490 3.2327 1.6992
-3.4650 3.1122 1.6992
-3.5767 2.9876 1.6992
-3.6840 2.8591 1.6992
-3.7868 2.7268 1.6992
-3.8849 2.5909 1.6992
-3.9782 2.4516 1.6992
-4.0666 2.3089 1.6992
-4.1500 2.1631 1.6992
-4.2282 2.0143 1.6992
-4.3011 1.8628 1.6992
-4.3687 1.7087 1.6992
-4.4309 1.5521 1.6992
-4.4875 1.3934 1.6992
-4.5384 1.2326 1.6992
-4.5837 1.0699 1.6992
-4.6232 0.9057 1.6992
-4.6569 0.7400 1.6992
-4.6847 0.5731 1.6992
-4.7065 0.4051 1.6992
-4.7223 0.2364 1.6992
-4.7322 0.0670 1.6992
-4.7360 -0.1027 1.6992
-4.7337 -0.2726 1.6992
-4.7253 -0.4424 1.6992
-4.7109 -0.6120 1.6992
-4.6904 -0.7811 1.6992
-4.6638 -0.9495 1.6992
-4.6312 -1.1170 1.6992
-4.5925 -1.2833 1.6992
-4.5479 -1.4483 1.6992
-4.4973 -1.6117 1.6992
-4.4409 -1.7733 1.6992
-4.3786 -1.9329 1.6992
-4.3105 -2.0903 1.6992
-4.2367 -2.2453 1.6992
-4.1574 -2.3976 1.6992
-4.0725 -2.5470 1.6992
-3.9822 -2.6934 1.6992
-3.8866 -2.8366 1.6992
-3.7858 -2.9763 1.6992
-3.6799 -3.1123 1.6992
-3.5691 -3.2445 1.6992
-3.4535 -3.3727 1.6992
-3.3332 -3.4967 1.6992
-3.2084 -3.6163 1.6992
-3.0793 -3.7314 1.6992
-2.9459 -3.8418 1.6992
-2.8086 -3.9473 1.6992
-2.6675 -4.0478 1.6992
-2.5226 -4.1431 1.6992
-2.3744 -4.2331 1.6992
-2.2228 -4.3177 1.6992
-2.0682 -4.3968 1.6992
-1.9107 -4.4702 1.6992
-1.7506 -4.5378 1.6992
-1.5881 -4.5995 1.6992
-1.4234 -4.6553 1.6992
-1.2566 -4.7050 1.6992
-1.0881 -4.7486 1.6992
-0.9181 -4.7860 1.6992
-0.7467 -4.8171 1.6992
-0.5743 -4.8420 1.6992
-0.4011 -4.8605 1.6992
-0.2273 -4.8727 1.6992
-0.0531 -4.8785 1.6992
0.1212 -4.8779 1.6992
0.2954 -4.8709 1.6992
0.4692 -4.8575 1.6992
0.6425 -4.8377 1.6992
0.8148 -4.8116 1.6992
0.9861 -4.7792 1.6992
1.1561 -4.7406 1.6992
1.3246 -4.6957 1.6992
1.4912 -4.6447 1.6992
1.6559 -4.5876 1.6992
1.8183 -4.5246 1.6992
1.9783 -4.4556 1.6992
2.1356 -4.3809 1.6992
2.2900 -4.3004 1.6992
2.4413 -4.2144 1.6992
2.5893 -4.1229 1.6992
2.7339 -4.0261 1.6992
2.8747 -3.9241 1.6992
3.0116 -3.8171 1.6992
3.1446 -3.7052 1.6992
3.2732 -3.5885 1.6992
3.3645 -3.4336 1.6827
3.3662 -3.1983 1.6263
3.4114 -3.0167 1.5960
3.5148 -2.8910 1.5960
3.6135 -2.7617 1.5960
3.7074 -2.6289 1.5960
3.7963 -2.4929 1.5960
3.8802 -2.3539 1.5960
3.9589 -2.2120 1.5960
4.0323 -2.0674 1.5960
4.1004 -1.9203 1.5960
4.1631 -1.7710 1.5960
4.2203 -1.6196 1.5960
4.2719 -1.4663 1.5960
4.3179 -1.3114 1.5960
4.3583 -1.1551 1.5960
4.3929 -0.9975 1.5960
4.4218 -0.8389 1.5960
4.4450 -0.6795 1.5960
4.4624 -0.5195 1.5960
4.4740 -0.3591 1.5960
4.4798 -0.1985 1.5960
3.1770 3.0011 1.6992
3.0651 3.1109 1.6992
2.9494 3.2167 1.6992
2.8301 3.3183 1.6992
2.7074 3.4155 1.6992
2.5814 3.5083 1.6992
0.8804 1.2912 0.6100
0.8333 1.3218 0.6103
0.7852 1.3507 0.6106
0.7361 1.3779 0.6109
0.6861 1.4034 0.6111
0.6352 1.4270 0.6114
0.5835 1.4488 0.6116
0.5310 1.4687 0.6118
0.4779 1.4868 0.6120
0.4241 1.5029 0.6122
0.3699 1.5171 0.6124
0.3151 1.5294 0.6126
0.2599 1.5397 0.6127
0.2044 1.5480 0.6129
0.1487 1.5544 0.6130
0.0927 1.5587 0.6131
0.0366 1.5611 0.6132
-0.0195 1.5614 0.6133
-0.0756 1.5598 0.6134
-0.1316 1.5561 0.6135
-0.1875 1.5505 0.6135
-0.2431 1.5428 0.6136
-0.2984 1.5332 0.6136
-0.3534 1.5216 0.6136
-0.4079 1.5081 0.6136
-0.4618 1.4926 0.6136
-0.5152 1.4752 0.6136
-0.5680 1.4559 0.6135
-0.6200 1.4348 0.6135
-0.6713 1.4117 0.6134
-0.7217 1.3869 0.6133
-0.7712 1.3603 0.6132
-0.8197 1.3319 0.6131
-0.8671 1.3018 0.6130
-2.5329 3.5214 1.6992
-2.6589 3.4296 1.6992
-2.7817 3.3334 1.6992
-2.9010 3.2329 1.6992
-3.0168 3.1282 1.6992
-3.1289 3.0194 1.6992
-3.2371 2.9067 1.6992
-3.3413 2.7902 1.6992
-3.4415 2.6701 1.6992
-3.5373 2.5464 1.6992
-3.6288 2.4193 1.6992
-3.7159 2.2890 1.6992
-3.7983 2.1557 1.6992
-3.8760 2.0194 1.6992
-3.9488 1.8804 1.6992
-4.0168 1.7388 1.6992
-4.0797 1.5947 1.6992
-4.1376 1.4485 1.6992
-4.1902 1.3002 1.6992
-4.2376 1.1500 1.6992
-4.2796 0.9981 1.6992
-4.3163 0.8446 1.6992
-4.3475 0.6899 1.6992
-4.3732 0.5340 1.6992
-4.3933 0.3772 1.6992
-4.4079 0.2197 1.6992
-4.4168 0.0616 1.6992
-4.4201 -0.0968 1.6992
-4.4178 -0.2553 1.6992
-4.4097 -0.4139 1.6992
-4.3960 -0.5721 1.6992
-4.3766 -0.7298 1.6992
-4.3516 -0.8869 1.6992
-4.3209 -1.0431 1.6992
-4.2846 -1.1983 1.6992
-4.2427 -1.3521 1.6992
-4.1953 -1.5045 1.6992
-4.1424 -1.6551 1.6992
-4.0840 -1.8039 1.6992
-4.0203 -1.9506 1.6992
-3.9513 -2.0950 1.6992
-3.8771 -2.2370 1.6992
-3.7977 -2.3762 1.6992
-3.7134 -2.5126 1.6992
-3.6240 -2.6460 1.6992
-3.5298 -2.7761 1.6992
-3.4310 -2.9028 1.6992
-3.3275 -3.0259 1.6992
-3.2195 -3.1453 1.6992
-3.1072 -3.2608 1.6992
-2.9908 -3.3721 1.6992
-2.8703 -3.4792 1.6992
-2.7459 -3.5820 1.6992
-2.6177 -3.6802 1.6992
-2.4861 -3.7737 1.6992
-2.3510 -3.8624 1.6992
-2.2127 -3.9462 1.6992
-2.0714 -4.0249 1.6992
-1.9273 -4.0984 1.6992
-1.7805 -4.1667 1.6992
-1.6312 -4.2295 1.6992
-1.4797 -4.2870 1.6992
-1.3262 -4.3388 1.6992
-1.1708 -4.3850 1.6992
-1.0137 -4.4256 1.6992
-0.8553 -4.4603 1.6992
-0.6956 -4.4893 1.6992
-0.5350 -4.5124 1.6992
-0.3736 -4.5296 1.6992
-0.2116 -4.5409 1.6992
-0.0493 -4.5462 1.6992
0.1131 -4.5456 1.6992
0.2754 -4.5391 1.6992
0.4373 -4.5266 1.6992
0.5987 -4.5082 1.6992
0.7593 -4.4839 1.6992
0.9189 -4.4537 1.6992
1.0773 -4.4177 1.6992
1.2342 -4.3759 1.6992
1.3895 -4.3284 1.6992
1.5429 -4.2753 1.6992
1.6943 -4.2166 1.6992
1.8434 -4.1524 1.6992
1.9900 -4.0828 1.6992
2.1339 -4.0080 1.6992
2.2749 -3.9279 1.6992
2.4129 -3.8427 1.6992
2.5476 -3.7526 1.6992
2.6789 -3.6577 1.6992
2.8066 -3.5581 1.6992
2.9306 -3.4539 1.6992
3.0506 -3.3453 1.6992
3.1665 -3.2324 1.6992
3.2782 -3.1155 1.6992
3.3553 -2.9679 1.6841
3.3556 -2.7608 1.6346
3.3684 -2.5751 1.5960
3.4560 -2.4515 1.5960
3.5560 -2.3359 1.6036
3.6174 -2.1953 1.5960
3.6909 -2.0631 1.5960
3.7596 -1.9284 1.5960
3.8232 -1.7913 1.5960
3.8819 -1.6522 1.5960
3.9354 -1.5111 1.5960
3.9837 -1.3683 1.5960
4.0268 -1.2239 1.5960
4.0647 -1.0781 1.5960
4.0972 -0.9312 1.5960
4.1244 -0.7833 1.5960
4.1462 -0.6347 1.5960
4.1627 -0.4855 1.5960
4.1737 -0.3358 1.5960
4.1794 -0.1860 1.5960
2.9773 2.8113 1.6992
2.8725 2.9144 1.6992
2.7641 3.0137 1.6992
2.6525 3.1090 1.6992
2.5375 3.2002 1.6992
0.8676 1.1787 0.6093
0.8246 1.2090 0.6096
0.7805 1.2377 0.6098
0.7355 1.2648 0.6101
0.6895 1.2902 0.6104
0.6426 1.3141 0.6106
0.5950 1.3362 0.6108
0.5465 1.3566 0.6110
0.4974 1.3753 0.6112
0.4476 1.3922 0.6114
0.3973 1.4073 0.6116
0.3464 1.4206 0.6118
0.2952 1.4321 0.6120
0.2435 1.4417 0.6121
0.1915 1.4495 0.6122
0.1393 1.4555 0.6124
0.0869 1.4596 0.6125
0.0344 1.4618 0.6126
-0.0182 1.4621 0.6127
-0.0708 1.4605 0.6127
-0.1232 1.4571 0.6128
-0.1755 1.4518 0.6129
-0.2276 1.4447 0.6129
-0.2794 1.4356 0.6129
-0.3309 1.4248 0.6129
-0.3819 1.4121 0.6129
-0.4325 1.3976 0.6129
-0.4825 1.3813 0.6129
-0.5319 1.3632 0.6129
-0.5806 1.3434 0.6128
-0.6286 1.3218 0.6127
-0.6758 1.2985 0.6127
-0.7222 1.2736 0.6126
-0.7676 1.2470 0.6125
-0.8120 1.2188 0.6123
-0.8555 1.1891 0.6122
-0.8978 1.1578 0.6121
-2.6075 3.1239 1.6992
-2.7193 3.0296 1.6992
-2.8277 2.9314 1.6992
-2.9327 2.8294 1.6992
-3.0340 2.7236 1.6992
-3.1317 2.6144 1.6992
-3.2254 2.5017 1.6992
-3.3151 2.3856 1.6992
-3.4008 2.2665 1.6992
-3.4822 2.1443 1.6992
-3.5593 2.0192 1.6992
-3.6320 1.8915 1.6992
-3.7001 1.7611 1.6992
-3.7636 1.6284 1.6992
-3.8224 1.4933 1.6992
-3.8765 1.3562 1.6992
-3.9256 1.2172 1.6992
-3.9698 1.0764 1.6992
-4.0091 0.9341 1.6992
-4.0432 0.7903 1.6992
-4.0722 0.6453 1.6992
-4.0961 0.4993 1.6992
-4.1148 0.3524 1.6992
-4.1282 0.2049 1.6992
-4.1364 0.0568 1.6992
-4.1393 -0.0915 1.6992
-4.1369 -0.2400 1.6992
-4.1291 -0.3884 1.6992
-4.1161 -0.5366 1.6992
-4.0977 -0.6843 1.6992
-4.0741 -0.8313 1.6992
-4.0451 -0.9775 1.6992
-4.0109 -1.1227 1.6992
-3.9715 -1.2666 1.6992
-3.9270 -1.4092 1.6992
-3.8772 -1.5502 1.6992
-3.8225 -1.6893 1.6992
-3.7626 -1.8266 1.6992
-3.6979 -1.9616 1.6992
-3.6282 -2.0944 1.6992
-3.5538 -2.2246 1.6992
-3.4747 -2.3521 1.6992
-3.3909 -2.4768 1.6992
-3.3027 -2.5984 1.6992
-3.2100 -2.7169 1.6992
-3.1130 -2.8320 1.6992
-3.0119 -2.9435 1.6992
-2.9067 -3.0514 1.6992
-2.7977 -3.1555 1.6992
-2.6848 -3.2556 1.6992
-2.5684 -3.3515 1.6992
-2.4485 -3.4433 1.6992
-2.3252 -3.5306 1.6992
-2.1988 -3.6134 1.6992
-2.0694 -3.6917 1.6992
-1.9372 -3.7652 1.6992
-1.8023 -3.8338 1.6992
-1.6650 -3.8976 1.6992
-1.5254 -3.9563 1.6992
-1.3836 -4.0099 1.6992
-1.2400 -4.0583 1.6992
-1.0947 -4.1014 1.6992
-0.9478 -4.1392 1.6992
-0.7996 -4.1716 1.6992
-0.6503 -4.1987 1.6992
-0.5001 -4.2202 1.6992
-0.3492 -4.2362 1.6992
-0.1977 -4.2467 1.6992
-0.0460 -4.2517 1.6992
0.1059 -4.2511 1.6992
0.2576 -4.2450 1.6992
0.4090 -4.2333 1.6992
0.5599 -4.2161 1.6992
0.7101 -4.1933 1.6992
0.8593 -4.1651 1.6992
1.0074 -4.1315 1.6992
1.1541 -4.0925 1.6992
1.2993 -4.0481 1.6992
1.4428 -3.9985 1.6992
1.5844 -3.9436 1.6992
1.7238 -3.8837 1.6992
1.8609 -3.8187 1.6992
1.9955 -3.7487 1.6992
2.1274 -3.6739 1.6992
2.2565 -3.5943 1.6992
2.3825 -3.5102 1.6992
2.5054 -3.4215 1.6992
2.6249 -3.3284 1.6992
2.7409 -3.2310 1.6992
2.8532 -3.1296 1.6992
2.9616 -3.0241 1.6992
3.0662 -2.9148 1.6992
3.1666 -2.8019 1.6992
3.2628 -2.6854 1.6992
3.3469 -2.5595 1.6953
3.3449 -2.3735 1.6512
3.3497 -2.2012 1.6148
3.3842 -2.0545 1.5960
3.4531 -1.9309 1.5960
3.5175 -1.8050 1.5960
3.5772 -1.6769 1.5960
3.6322 -1.5467 1.5960
3.6825 -1.4148 1.5960
3.7279 -1.2812 1.5960
3.7684 -1.1461 1.5960
3.8040 -1.0098 1.5960
3.8346 -0.8724 1.5960
3.8602 -0.7340 1.5960
3.8808 -0.5949 1.5960
3.8964 -0.4552 1.5960
3.9069 -0.3152 1.5960
3.9124 -0.1750 1.5960
2.7981 2.6412 1.6992
2.6997 2.7381 1.6992
2.5980 2.8315 1.6992
0.8926 1.0459 0.6084
0.8543 1.0771 0.6086
0.8150 1.1069 0.6089
0.7746 1.1353 0.6092
0.7332 1.1623 0.6094
0.6909 1.1877 0.6097
0.6477 1.2117 0.6099
0.6037 1.2340 0.6101
0.5589 1.2548 0.6103
0.5134 1.2740 0.6105
0.4673 1.2915 0.6107
0.4205 1.3074 0.6109
0.3732 1.3216 0.6111
0.3255 1.3341 0.6112
0.2773 1.3449 0.6114
0.2288 1.3540 0.6115
0.1799 1.3613 0.6117
0.1309 1.3669 0.6118
0.0816 1.3707 0.6119
0.0323 1.3727 0.6120
-0.0171 1.3731 0.6121
-0.0664 1.3716 0.6121
-0.1157 1.3684 0.6122
-0.1648 1.3634 0.6122
-0.2138 1.3567 0.6123
-0.2624 1.3482 0.6123
-0.3108 1.3380 0.6123
-0.3587 1.3261 0.6123
-0.4062 1.3124 0.6123
-0.4532 1.2971 0.6123
-0.4996 1.2801 0.6122
-0.5453 1.2615 0.6122
-0.5904 1.2412 0.6121
-0.6347 1.2194 0.6121
-0.6783 1.1959 0.6120
-0.7209 1.1710 0.6119
-0.7627 1.1445 0.6118
-0.8034 1.1165 0.6116
-0.8432 1.0871 0.6115
-0.8819 1.0563 0.6114
-2.5561 2.8471 1.6992
-2.6580 2.7548 1.6992
-2.7566 2.6588 1.6992
-2.8518 2.5593 1.6992
-2.9435 2.4565 1.6992
-3.0315 2.3505 1.6992
-3.1158 2.2414 1.6992
-3.1962 2.1293 1.6992
-3.2726 2.0144 1.6992
-3.3449 1.8968 1.6992
-3.4131 1.7767 1.6992
-3.4770 1.6541 1.6992
-3.5366 1.5293 1.6992
-3.5917 1.4024 1.6992
-3.6423 1.2735 1.6992
-3.6884 1.1428 1.6992
-3.7298 1.0105 1.6992
-3.7665 0.8767 1.6992
-3.7984 0.7416 1.6992
-3.8255 0.6054 1.6992
-3.8478 0.4682 1.6992
-3.8652 0.3302 1.6992
-3.8776 0.1916 1.6992
-3.8851 0.0525 1.6992
-3.8876 -0.0868 1.6992
-3.8852 -0.2263 1.6992
-3.8778 -0.3656 1.6992
-3.8653 -0.5047 1.6992
-3.8479 -0.6434 1.6992
-3.8255 -0.7815 1.6992
-3.7982 -0.9187 1.6992
-3.7659 -1.0550 1.6992
-3.7288 -1.1901 1.6992
-3.6868 -1.3239 1.6992
-3.6399 -1.4562 1.6992
-3.5883 -1.5868 1.6992
-3.5320 -1.7155 1.6992
-3.4711 -1.8422 1.6992
-3.4056 -1.9668 1.6992
-3.3356 -2.0889 1.6992
-3.2611 -2.2085 1.6992
-3.1824 -2.3254 1.6992
-3.0994 -2.4395 1.6992
-3.0123 -2.5506 1.6992
-2.9212 -2.6585 1.6992
-2.8262 -2.7631 1.6992
-2.7275 -2.8642 1.6992
-2.6250 -2.9617 1.6992
-2.5191 -3.0555 1.6992
-2.4097 -3.1455 1.6992
-2.2971 -3.2315 1.6992
-2.1814 -3.3133 1.6992
-2.0627 -3.3909 1.6992
-1.9413 -3.4642 1.6992
-1.8172 -3.5331 1.6992
-1.6906 -3.5974 1.6992
-1.5618 -3.6571 1.6992
-1.4308 -3.7121 1.6992
-1.2978 -3.7623 1.6992
-1.1630 -3.8076 1.6992
-1.0267 -3.8480 1.6992
-0.8889 -3.8834 1.6992
-0.7499 -3.9138 1.6992
-0.6099 -3.9390 1.6992
-0.4690 -3.9592 1.6992
-0.3274 -3.9742 1.6992
-0.1853 -3.9840 1.6992
-0.0430 -3.9886 1.6992
0.0994 -3.9880 1.6992
0.2417 -3.9823 1.6992
0.3837 -3.9713 1.6992
0.5253 -3.9551 1.6992
0.6661 -3.9338 1.6992
0.8061 -3.9074 1.6992
0.9450 -3.8759 1.6992
1.0826 -3.8393 1.6992
1.2188 -3.7977 1.6992
1.3534 -3.7512 1.6992
1.4862 -3.6998 1.6992
1.6169 -3.6436 1.6992
1.7456 -3.5827 1.6992
1.8718 -3.5171 1.6992
1.9956 -3.4470 1.6992
2.1167 -3.3724 1.6992
2.2350 -3.2935 1.6992
2.3503 -3.2104 1.6992
2.4625 -3.1231 1.6992
2.5713 -3.0319 1.6992
2.6767 -2.9368 1.6992
2.7786 -2.8379 1.6992
2.8767 -2.7355 1.6992
2.9710 -2.6296 1.6992
3.0614 -2.5203 1.6992
3.1477 -2.4080 1.6992
3.2298 -2.2926 1.6992
3.3077 -2.1744 1.6992
3.3372 -2.0268 1.6772
3.3359 -1.8662 1.6430
3.3330 -1.7111 1.6115
3.3572 -1.5745 1.5960
3.4089 -1.4524 1.5960
3.4562 -1.3286 1.5960
3.4990 -1.2033 1.5960
3.5371 -1.0766 1.5960
3.5707 -0.9487 1.5960
3.5996 -0.8197 1.5960
3.6238 -0.6898 1.5960
3.6433 -0.5593 1.5960
3.6581 -0.4282 1.5960
3.6681 -0.2968 1.5960
3.6734 -0.1651 1.5960
2.6363 2.4875 1.6992
2.5436 2.5790 1.6992
0.8756 0.9539 0.6078
0.8406 0.9846 0.6080
0.8046 1.0140 0.6083
0.7675 1.0421 0.6086
