ply
format ascii 1.0
element vertex 2124
property float32 x
property float32 y
property float32 z
end_header
8.5287 -5.4112 -0.8764
8.7221 -5.1038 -0.8763
8.9046 -4.7897 -0.8763
9.0761 -4.4691 -0.8762
9.2364 -4.1426 -0.8762
9.3851 -3.8104 -0.8762
9.5222 -3.4730 -0.8761
7.7673 -2.5205 -0.7054
9.8496 -2.8094 -0.8841
9.8439 -2.4289 -0.8745
10.7649 -2.2491 -0.9477
11.5923 -1.9902 -1.0128
11.5452 -1.5574 -1.0023
11.5947 -1.1416 -1.0015
11.5884 -0.7218 -0.9972
11.5669 -0.3039 -0.9928
11.5607 0.1118 -0.9911
11.5544 0.5274 -0.9906
11.5482 0.9438 -0.9914
11.5419 1.3623 -0.9935
11.5356 1.7839 -0.9968
11.4222 2.1892 -0.9922
11.4531 2.6250 -1.0014
11.5776 3.0953 -1.0203
11.4399 3.5034 -1.0176
11.5026 3.9800 -1.0341
11.4956 4.4461 -1.0461
11.4884 4.9249 -1.0598
11.4810 5.4179 -1.0753
11.3780 5.8781 -1.0836
11.4654 6.4554 -1.1121
11.3620 6.9462 -1.1244
11.3361 7.5028 -1.1466
9.6563 7.4407 -1.0261
11.1076 9.2136 -1.2134
10.3913 9.2694 -1.1696
9.7064 9.3058 -1.1283
-6.6685 11.5676 -1.0974
-18.9667 18.0420 -2.1553
-11.0823 9.8083 -1.2190
-11.1641 9.1872 -1.1914
-11.1542 8.5258 -1.1574
-11.1448 7.9010 -1.1268
-11.0438 7.2478 -1.0901
-11.1274 6.7436 -1.0743
-11.1193 6.2038 -1.0520
-11.1115 5.6860 -1.0319
-11.0123 5.1448 -1.0055
-11.0051 4.6674 -0.9896
-11.0898 4.2401 -0.9835
-11.0830 3.7871 -0.9710
-11.0764 3.3456 -0.9600
-10.9784 2.8900 -0.9426
-10.9721 2.4705 -0.9346
-11.6759 2.1915 -0.9880
-17.9062 2.6991 -1.5074
-18.3215 2.0917 -1.5364
-30.8636 2.4043 -2.5815
-30.8469 1.2905 -2.5770
-33.9692 0.1998 -2.8380
-33.9509 -1.0206 -2.8404
-33.9325 -2.2423 -2.8466
-13.1973 -1.3497 -1.1116
-9.9374 -1.3786 -0.8415
-9.9319 -1.7436 -0.8466
-9.9264 -2.1128 -0.8529
-9.9207 -2.4873 -0.8605
-9.9229 -2.8704 -0.8699
-9.9847 -3.2814 -0.8860
-9.9787 -3.6816 -0.8976
-9.9725 -4.0921 -0.9107
-15.4696 -36.9696 -2.5498
-15.4107 -40.8968 -2.7835
-15.3392 -45.6108 -3.0679
2.7759 -25.8779 -1.6740
6.7213 -46.7470 -3.0391
6.5252 -36.1168 -2.3627
7.6832 -35.2372 -2.3225
9.0071 -35.1829 -2.3395
10.3616 -35.1626 -2.3620
11.6181 -34.7665 -2.3625
10.1545 -27.1052 -1.8658
7.9565 -19.1172 -1.3349
10.0771 -21.9534 -1.5574
8.4409 -16.7716 -1.2105
8.4642 -15.4124 -1.1336
8.8280 -14.7892 -1.1103
9.5596 -14.7807 -1.1346
10.3254 -14.7722 -1.1615
11.1298 -14.7633 -1.1912
11.3811 -14.0188 -1.1631
11.4324 -13.0912 -1.1191
9.9669 -10.6175 -0.9373
9.9556 -9.8695 -0.9019
10.0169 -9.2407 -0.8764
9.8544 -8.4560 -0.8346
7.8231 -6.2391 -0.6428
9.9177 -7.3424 -0.7922
9.9095 -6.7991 -0.7710
9.9018 -6.2828 -0.7519
9.8944 -5.7902 -0.7345
9.8873 -5.3186 -0.7187
9.8337 -4.8426 -0.7011
9.8745 -4.4292 -0.6916
9.8683 -4.0070 -0.6801
9.8148 -3.5801 -0.6665
7.7673 -2.5209 -0.5204
9.8496 -2.8098 -0.6521
9.8439 -2.4293 -0.6448
9.8043 -2.0489 -0.6363
9.7989 -1.6827 -0.6309
9.7934 -1.3216 -0.6264
9.7881 -0.9642 -0.6227
9.7827 -0.6098 -0.6198
9.7774 -0.2574 -0.6177
9.7722 0.0940 -0.6165
9.7669 0.4453 -0.6160
9.7616 0.7973 -0.6162
9.7563 1.1510 -0.6173
9.7509 1.5074 -0.6192
9.7455 1.8673 -0.6218
9.7400 2.2318 -0.6253
9.7345 2.6019 -0.6297
9.7288 2.9788 -0.6350
9.7230 3.3636 -0.6412
9.7171 3.7577 -0.6484
11.4884 4.9241 -0.7767
11.4810 5.4172 -0.7878
11.3781 5.8774 -0.7936
11.4654 6.4545 -0.8142
11.3620 6.9454 -0.8228
11.3361 7.5019 -0.8388
9.6563 7.4399 -0.7500
11.2963 9.3691 -0.9017
9.7074 9.3059 -0.8239
-6.6685 11.5675 -0.7952
-18.4127 18.8197 -1.5711
-18.9603 18.0353 -1.5622
-11.0823 9.8079 -0.8840
-11.1641 9.1867 -0.8641
-11.1542 8.5254 -0.8396
-11.1448 7.9006 -0.8175
-11.0438 7.2473 -0.7911
-11.1274 6.7431 -0.7798
-11.1193 6.2034 -0.7637
-11.1115 5.6856 -0.7493
-11.0122 5.1443 -0.7304
-11.0051 4.6670 -0.7190
-11.0898 4.2396 -0.7148
-11.0830 3.7866 -0.7058
-11.0764 3.3451 -0.6980
-10.9784 2.8895 -0.6856
-10.9721 2.4700 -0.6800
-11.6785 2.1915 -0.7193
-17.9062 2.6983 -1.0974
-18.3282 2.0916 -1.1193
-30.8636 2.4028 -1.8807
-30.8468 1.2890 -1.8780
-33.9692 0.1981 -2.0690
-33.9509 -1.0223 -2.0715
-33.9325 -2.2440 -2.0767
-13.1894 -1.3496 -0.8107
-9.9374 -1.3792 -0.6143
-9.9319 -1.7442 -0.6183
-9.9264 -2.1133 -0.6232
-9.9207 -2.4879 -0.6289
-9.9229 -2.8710 -0.6361
-9.9847 -3.2820 -0.6481
-9.9787 -3.6822 -0.6568
-9.9725 -4.0928 -0.6666
-15.5113 -37.0735 -1.6494
-15.4521 -41.0119 -1.8016
-15.3391 -45.6164 -1.9814
2.7761 -25.8749 -1.0861
6.7206 -46.7365 -1.9720
6.5445 -36.2202 -1.5382
7.6970 -35.2981 -1.5106
9.0504 -35.3503 -1.5265
10.4112 -35.3299 -1.5414
11.7647 -35.2044 -1.5539
10.1545 -27.1047 -1.2120
7.9565 -19.1170 -0.8672
10.0771 -21.9534 -1.0118
8.4409 -16.7716 -0.7865
8.4643 -15.4127 -0.7365
8.8282 -14.7896 -0.7213
9.5597 -14.7811 -0.7371
10.3253 -14.7722 -0.7544
11.1295 -14.7633 -0.7736
11.3811 -14.0192 -0.7553
11.4387 -13.0988 -0.7270
9.9669 -10.6178 -0.6085
9.9556 -9.8698 -0.5853
10.0169 -9.2410 -0.5686
9.8544 -8.4563 -0.5414
7.8231 -6.2394 -0.4168
9.9177 -7.3428 -0.5135
9.9095 -6.7995 -0.4996
9.9018 -6.2832 -0.4870
9.8944 -5.7906 -0.4756
9.8873 -5.3191 -0.4652
9.8337 -4.8430 -0.4536
9.8795 -4.4319 -0.4475
9.8733 -4.0094 -0.4398
9.8148 -3.5805 -0.4305
7.7673 -2.5212 -0.3360
9.8496 -2.8102 -0.4208
9.8439 -2.4298 -0.4159
10.3650 -2.1665 -0.4336
11.5923 -1.9913 -0.4808
9.8184 -1.3254 -0.4043
11.6018 -1.1435 -0.4748
9.8077 -0.6118 -0.3995
11.5746 -0.3052 -0.4698
11.5607 0.1107 -0.4682
11.5545 0.5262 -0.4675
11.5482 0.9426 -0.4674
11.5419 1.3611 -0.4678
11.5356 1.7826 -0.4689
9.7704 1.8715 -0.3988
11.5227 2.6396 -0.4729
9.7594 2.6080 -0.4032
11.5094 3.5233 -0.4794
11.5026 3.9785 -0.4837
9.7682 3.7768 -0.4153
11.4884 4.9234 -0.4945
11.4810 5.4164 -0.5011
11.3781 5.8766 -0.5044
11.3702 6.4001 -0.5128
11.3620 6.9445 -0.5222
11.3361 7.5010 -0.5318
9.6563 7.4391 -0.4748
11.2975 9.3691 -0.5704
9.7085 9.3059 -0.5203
-15.2019 28.7061 -1.2011
-6.6972 11.6171 -0.4959
-18.8569 17.9362 -0.9662
-11.0823 9.8075 -0.5499
-11.1641 9.1863 -0.5377
-11.1542 8.5250 -0.5227
-11.1448 7.9001 -0.5091
-11.0438 7.2469 -0.4929
-11.1274 6.7427 -0.4861
-11.1193 6.2029 -0.4763
-11.1115 5.6851 -0.4676
-11.0122 5.1438 -0.4560
-11.0051 4.6665 -0.4491
-11.0898 4.2392 -0.4467
-11.0830 3.7861 -0.4414
-11.0764 3.3446 -0.4368
-10.9784 2.8890 -0.4293
-10.9721 2.4695 -0.4261
-11.6811 2.1915 -0.4511
-17.9062 2.6974 -0.6886
-18.3348 2.0915 -0.7031
-30.8636 2.4014 -1.1818
-30.8468 1.2876 -1.1810
-33.9692 0.1964 -1.3021
-33.9508 -1.0240 -1.3046
-33.9325 -2.2458 -1.3089
-13.1815 -1.3495 -0.5111
-9.9374 -1.3797 -0.3878
-9.9319 -1.7447 -0.3907
-9.9264 -2.1139 -0.3940
-9.9207 -2.4884 -0.3980
-9.9230 -2.8716 -0.4029
-9.9847 -3.2826 -0.4108
-9.9786 -3.6829 -0.4167
-9.9725 -4.0934 -0.4232
-15.7197 -37.5760 -0.7536
-15.4521 -41.0167 -0.8138
-15.3810 -45.7469 -0.8991
2.7762 -25.8718 -0.4994
6.7228 -46.7460 -0.9078
6.5449 -36.2193 -0.7085
7.6975 -35.2980 -0.6962
9.0508 -35.3503 -0.7040
10.4116 -35.3299 -0.7112
11.7650 -35.2044 -0.7172
10.1545 -27.1042 -0.5595
7.9565 -19.1168 -0.4005
10.0771 -21.9533 -0.4673
8.4409 -16.7716 -0.3632
8.4644 -15.4129 -0.3401
8.8283 -14.7900 -0.3331
9.5599 -14.7815 -0.3402
10.3253 -14.7726 -0.3482
11.1293 -14.7633 -0.3569
11.3811 -14.0195 -0.3482
11.4459 -13.1074 -0.3352
9.9669 -10.6181 -0.2802
9.9556 -9.8702 -0.2693
10.0169 -9.2414 -0.2614
9.8544 -8.4567 -0.2487
7.8231 -6.2397 -0.1913
9.9177 -7.3432 -0.2354
9.9095 -6.7999 -0.2287
9.9018 -6.2836 -0.2227
9.8944 -5.7910 -0.2171
9.8873 -5.3195 -0.2121
9.8338 -4.8434 -0.2065
9.8846 -4.4345 -0.2035
9.8782 -4.0119 -0.1997
9.8148 -3.5809 -0.1950
7.7673 -2.5216 -0.1519
9.8496 -2.8107 -0.1899
9.8439 -2.4302 -0.1873
10.3650 -2.1670 -0.1949
11.5923 -1.9918 -0.2157
9.8184 -1.3258 -0.1809
11.5941 -1.1432 -0.2119
9.8077 -0.6123 -0.1780
11.5747 -0.3058 -0.2088
11.5607 0.1101 -0.2076
11.5545 0.5256 -0.2068
11.5482 0.9420 -0.2062
11.5419 1.3605 -0.2059
11.5356 1.7820 -0.2058
9.7704 1.8710 -0.1745
11.5227 2.6390 -0.2064
9.7594 2.6075 -0.1755
11.5094 3.5226 -0.2081
11.5026 3.9778 -0.2093
9.7698 3.7768 -0.1792
11.4884 4.9226 -0.2128
11.4810 5.4156 -0.2150
11.4734 5.9250 -0.2176
11.4654 6.4529 -0.2205
11.4572 7.0018 -0.2239
11.3361 7.5001 -0.2254
28.9729 20.7030 -0.5875
9.6563 7.4383 -0.2000
11.2988 9.3691 -0.2396
21.2754 18.9724 -0.4629
9.7095 9.3059 -0.2173
22.4406 24.8370 -0.5352
21.3826 25.4474 -0.5287
15.5939 21.5252 -0.4186
14.5845 21.7347 -0.4102
14.2095 22.9143 -0.4205
14.1558 29.5100 -0.5034
4.9805 30.9022 -0.4662
-15.2326 28.7640 -0.4700
-6.7724 11.7474 -0.1959
-18.6506 17.7393 -0.3755
-11.0823 9.8071 -0.2164
-11.1641 9.1859 -0.2119
-11.1542 8.5245 -0.2063
-11.1448 7.8997 -0.2013
-11.0438 7.2464 -0.1952
-11.1274 6.7422 -0.1929
-11.1193 6.2024 -0.1893
-11.1115 5.6847 -0.1863
-11.0122 5.1434 -0.1820
-11.0051 4.6660 -0.1797
-11.0898 4.2387 -0.1792
-11.0830 3.7856 -0.1775
-11.0764 3.3441 -0.1761
-10.9784 2.8885 -0.1735
-10.9721 2.4690 -0.1726
-11.6838 2.1914 -0.1833
-17.9062 2.6966 -0.2805
-18.3415 2.0914 -0.2873
-30.8635 2.3999 -0.4841
-30.8468 1.2861 -0.4852
-33.9691 0.1947 -0.5365
-33.9508 -1.0257 -0.5391
-33.9325 -2.2475 -0.5425
-13.1736 -1.3493 -0.2123
-9.9374 -1.3802 -0.1617
-9.9319 -1.7452 -0.1634
-9.9263 -2.1145 -0.1653
-9.9207 -2.4890 -0.1675
-9.9230 -2.8722 -0.1700
-9.9846 -3.2832 -0.1739
-9.9786 -3.6835 -0.1769
-9.9725 -4.0940 -0.1803
-14.7337 -35.2233 0.1535
-14.7404 -39.1325 0.1655
-14.6405 -43.5501 0.1789
2.7764 -25.8687 0.0866
6.7127 -46.6702 0.1556
6.5453 -36.2185 0.1205
7.6980 -35.2980 0.1175
9.0244 -35.2456 0.1176
10.3811 -35.2252 0.1180
11.7653 -35.2044 0.1188
10.1545 -27.1037 0.0923
7.9565 -19.1166 0.0659
10.0771 -21.9532 0.0768
8.3172 -16.5259 0.0588
8.3732 -15.2469 0.0553
8.7566 -14.6699 0.0544
9.4805 -14.6590 0.0558
10.2377 -14.6475 0.0573
11.0327 -14.6355 0.0590
11.3811 -14.0199 0.0585
11.4484 -13.1106 0.0567
9.9669 -10.6185 0.0478
9.9557 -9.8706 0.0464
10.0169 -9.2418 0.0455
9.8544 -8.4571 0.0438
7.8231 -6.2400 0.0341
9.9177 -7.3436 0.0426
9.9095 -6.8003 0.0419
9.9018 -6.2840 0.0415
9.8944 -5.7914 0.0411
9.8873 -5.3199 0.0408
9.8338 -4.8438 0.0404
9.8896 -4.4372 0.0405
9.8832 -4.0143 0.0405
9.8148 -3.5814 0.0403
7.7673 -2.5219 0.0320
9.8496 -2.8111 0.0408
9.8439 -2.4306 0.0410
10.3650 -2.1674 0.0436
11.5923 -1.9923 0.0492
9.8185 -1.3263 0.0422
11.5862 -1.1430 0.0504
9.8077 -0.6128 0.0433
11.5736 -0.3063 0.0519
11.5607 0.1095 0.0528
11.5545 0.5250 0.0537
11.5482 0.9414 0.0548
11.5419 1.3599 0.0559
11.5356 1.7814 0.0571
9.7704 1.8705 0.0495
11.5227 2.6383 0.0598
9.7594 2.6069 0.0520
11.5095 3.5219 0.0630
11.5026 3.9771 0.0648
9.7715 3.7768 0.0567
11.4884 4.9219 0.0687
11.4810 5.4149 0.0709
11.4734 5.9242 0.0733
11.4654 6.4520 0.0758
11.4572 7.0009 0.0785
11.3361 7.4993 0.0807
11.3518 8.1106 0.0840
9.6563 7.4375 0.0745
9.6952 8.0386 0.0780
9.7106 9.3059 0.0856
4.9815 30.9022 0.2387
-4.0213 24.3602 0.1969
-4.9242 24.3498 0.1987
-6.7724 11.7474 0.1095
-18.6907 19.1019 0.2128
-18.8869 17.9633 0.2068
-11.0823 9.8067 0.1169
-11.1641 9.1854 0.1137
-11.1542 8.5241 0.1099
-11.1448 7.8992 0.1064
-11.0438 7.2460 0.1023
-11.1274 6.7417 0.1002
-11.1193 6.2020 0.0974
-11.1115 5.6842 0.0948
-11.0122 5.1429 0.0917
-11.0051 4.6656 0.0895
-11.0898 4.2382 0.0882
-11.0830 3.7851 0.0863
-11.0763 3.3436 0.0845
-10.9784 2.8880 0.0822
-10.9721 2.4685 0.0807
-11.6864 2.1914 0.0845
-17.9062 2.6958 0.1273
-18.3482 2.0913 0.1285
-30.8635 2.3984 0.2131
-30.8468 1.2845 0.2102
-33.9691 0.1930 0.2286
-33.9508 -1.0274 0.2259
-33.9324 -2.2492 0.2234
-13.1657 -1.3492 0.0859
-9.9374 -1.3807 0.0642
-9.9319 -1.7458 0.0637
-9.9263 -2.1150 0.0633
-9.9207 -2.4896 0.0629
-9.9230 -2.8728 0.0626
-9.9846 -3.2838 0.0628
-9.9786 -3.6841 0.0626
-9.9725 -4.0947 0.0625
-14.7328 -35.2253 1.0137
-14.7404 -39.1371 1.1075
-14.6405 -43.5555 1.2140
-3.5101 -48.1757 1.2580
-0.0253 -29.2839 0.7602
1.0280 -29.3017 0.7600
2.7766 -25.8657 0.6726
5.6066 -38.9755 1.0169
6.5457 -36.2176 0.9495
7.6985 -35.2979 0.9313
9.0517 -35.3503 0.9399
10.4123 -35.3299 0.9481
7.6237 -22.8112 0.6188
7.5851 -20.2455 0.5560
7.8342 -18.8227 0.5242
8.6346 -18.8107 0.5320
8.3172 -16.5260 0.4756
8.3732 -15.2471 0.4472
8.7569 -14.6706 0.4393
9.4804 -14.6590 0.4490
10.2372 -14.6470 0.4598
11.0321 -14.6350 0.4719
11.3811 -14.0203 0.4653
11.4429 -13.1047 0.4486
9.9669 -10.6188 0.3759
9.9557 -9.8709 0.3622
10.0169 -9.2422 0.3525
9.8544 -8.4575 0.3363
7.8231 -6.2403 0.2595
9.9177 -7.3440 0.3206
9.9095 -6.8007 0.3127
9.9018 -6.2844 0.3056
9.8944 -5.7918 0.2993
9.8873 -5.3203 0.2937
9.8338 -4.8443 0.2873
9.8947 -4.4399 0.2849
9.8882 -4.0167 0.2809
9.8148 -3.5818 0.2756
7.7673 -2.5223 0.2160
9.8496 -2.8115 0.2715
9.8439 -2.4311 0.2695
9.8920 -2.0690 0.2693
9.9274 -1.7067 0.2691
9.9421 -1.3435 0.2687
9.9534 -0.9824 0.2686
9.9545 -0.6224 0.2687
9.9417 -0.2636 0.2686
9.9150 0.0934 0.2686
9.8747 0.4482 0.2686
9.8210 0.8001 0.2685
9.7540 1.1487 0.2685
9.7201 1.5005 0.2697
9.7147 1.8592 0.2720
9.7092 2.2225 0.2748
9.7037 2.5914 0.2780
9.6980 2.9671 0.2816
9.6923 3.3506 0.2856
9.6864 3.7433 0.2901
9.6803 4.1466 0.2951
9.6741 4.5620 0.3007
9.6676 4.9911 0.3068
9.6610 5.4359 0.3136
9.6540 5.8984 0.3210
9.6468 6.3809 0.3292
9.6392 6.8862 0.3382
9.6312 7.4172 0.3481
9.6963 8.0386 0.3618
9.7116 9.3059 0.3887
21.6402 25.7486 0.9802
15.2376 21.0291 0.7609
21.6455 32.2509 1.1411
13.8314 22.2999 0.7729
15.8747 30.2487 1.0112
13.9405 31.9500 1.0367
5.9155 21.5695 0.6708
4.9825 30.9022 0.9439
4.4044 35.3596 1.0763
4.1164 46.6652 1.4173
1.8874 36.2326 1.0993
-4.7368 36.9075 1.1341
-3.9896 24.1711 0.7473
-4.8856 24.1606 0.7525
-10.7879 44.9664 1.4127
-10.6895 38.4151 1.2189
-14.1610 35.5356 1.1707
-17.1884 35.4838 1.2069
-16.5155 31.1862 1.0802
-6.7724 11.7474 0.4150
-19.5973 28.9647 1.0698
-25.8792 30.5596 1.2230
-24.7745 27.2091 1.1230
-25.0431 25.5932 1.0918
-19.0143 18.0838 0.7993
-11.0823 9.8062 0.4503
-11.1641 9.1850 0.4394
-11.1542 8.5237 0.4262
-11.1448 7.8988 0.4141
-11.0438 7.2456 0.3999
-11.1274 6.7413 0.3933
-11.1193 6.2015 0.3842
-11.1115 5.6837 0.3760
-11.0122 5.1424 0.3655
-11.0050 4.6651 0.3588
-11.0898 4.2377 0.3557
-11.0830 3.7847 0.3501
-11.0763 3.3431 0.3452
-10.9783 2.8875 0.3379
-10.9721 2.4680 0.3340
-11.6891 2.1914 0.3524
-17.9062 2.6949 0.5353
-18.3549 2.0912 0.5447
-30.8635 2.3969 0.9105
-30.8468 1.2830 0.9057
-33.9691 0.1914 0.9939
-33.9508 -1.0291 0.9911
-33.9324 -2.2510 0.9895
-13.1579 -1.3491 0.3838
-9.9374 -1.3813 0.2903
-9.9319 -1.7463 0.2909
-9.9263 -2.1156 0.2919
-9.9207 -2.4901 0.2933
-9.9231 -2.8734 0.2954
-9.9846 -3.2844 0.2996
-9.9786 -3.6847 0.3023
-9.9724 -4.0953 0.3054
-12.5949 -30.1171 1.6029
-11.5202 -30.5910 1.6029
-10.4273 -31.0254 1.6029
-6.1229 -20.6464 1.0534
-8.1250 -31.5090 1.5896
-6.9958 -31.8172 1.5896
-5.8548 -32.0835 1.5896
-5.0089 -34.4056 1.6929
-3.7734 -34.5980 1.6929
-2.5305 -34.7442 1.6929
-1.2818 -34.8438 1.6929
-0.0293 -34.8966 1.6929
1.0296 -29.3291 1.4226
2.3291 -32.7380 1.5898
2.7676 -25.7775 1.2550
3.1811 -22.1115 1.0807
5.8482 -32.3554 1.5898
7.1124 -32.6087 1.6130
8.2827 -32.3454 1.6130
6.7783 -22.9985 1.1579
7.0218 -21.0097 1.0695
7.0566 -18.8344 0.9708
7.8343 -18.8227 0.9840
8.6347 -18.8107 0.9988
8.3171 -16.5257 0.8928
8.3730 -15.2469 0.8394
8.7567 -14.6705 0.8246
9.4801 -14.6587 0.8427
10.2367 -14.6465 0.8628
11.0309 -14.6338 0.8851
11.0346 -13.5937 0.8460
11.0209 -12.6217 0.8100
9.9669 -10.6192 0.7043
9.9557 -9.8713 0.6784
9.9452 -9.1764 0.6552
9.9355 -8.5274 0.6344
7.8231 -6.2406 0.4852
9.9177 -7.3444 0.5989
9.9096 -6.8011 0.5837
9.9018 -6.2848 0.5701
9.8944 -5.7922 0.5579
9.8873 -5.3207 0.5469
9.8338 -4.8447 0.5346
9.8997 -4.4426 0.5297
9.8932 -4.0192 0.5219
9.8148 -3.5822 0.5113
7.7673 -2.5226 0.4001
9.8496 -2.8120 0.5025
9.8439 -2.4315 0.4982
9.7733 -2.0446 0.4912
9.7678 -1.6797 0.4883
9.7624 -1.3196 0.4861
9.7571 -0.9635 0.4845
9.7518 -0.6102 0.4836
9.7465 -0.2589 0.4833
9.7412 0.0913 0.4836
9.7360 0.4414 0.4846
9.7307 0.7923 0.4863
9.7254 1.1448 0.4886
9.7201 1.5000 0.4915
9.7147 1.8587 0.4951
9.7092 2.2220 0.4994
9.7037 2.5909 0.5045
9.6980 2.9665 0.5103
9.6923 3.3500 0.5169
9.6864 3.7427 0.5243
9.6803 4.1460 0.5327
9.6741 4.5613 0.5419
9.6676 4.9905 0.5522
9.6610 5.4352 0.5636
9.6540 5.8977 0.5762
9.6468 6.3802 0.5901
9.6392 6.8854 0.6054
9.6312 7.4164 0.6223
9.6974 8.0386 0.6459
23.4388 20.8949 1.6130
9.6383 9.2347 0.6868
21.8063 22.4504 1.6130
20.9519 23.1822 1.6130
20.0737 23.8823 1.6130
19.1729 24.5500 1.6130
18.2507 25.1848 1.6130
17.3082 25.7857 1.6130
16.3467 26.3524 1.6130
15.3673 26.8844 1.6130
14.3714 27.3811 1.6130
13.3603 27.8422 1.6130
12.3350 28.2671 1.6130
6.0191 15.2679 0.8594
10.2475 29.0074 1.6130
9.1877 29.3221 1.6130
5.9200 21.5829 1.1761
7.0425 29.8395 1.6130
5.7966 29.2207 1.5688
4.8014 29.7729 1.5898
3.7250 29.8979 1.5898
2.6459 29.9856 1.5898
1.5682 30.0886 1.5926
0.5162 31.9974 1.6929
-0.6333 31.9718 1.6929
-1.7806 31.9065 1.6929
-2.9240 31.8021 1.6929
-4.0625 31.6584 1.6929
-3.9079 23.6784 1.2735
-4.8842 24.1556 1.3084
-7.4356 30.9950 1.6929
-8.4676 30.4312 1.6782
-9.4153 29.6653 1.6540
-10.3901 29.0697 1.6410
-11.4465 28.7241 1.6439
-12.5712 28.5211 1.6572
-13.7959 28.4803 1.6827
-9.3148 17.5891 1.0583
-6.7725 11.7473 0.7209
-16.8862 26.9992 1.6929
-13.1093 19.3750 1.2434
-18.7901 25.7283 1.6929
-19.7086 25.0444 1.6929
-20.6035 24.3291 1.6929
-21.4736 23.5832 1.6929
-22.3180 22.8075 1.6929
-23.1358 22.0028 1.6929
-11.0823 9.8058 0.7841
-11.1641 9.1846 0.7656
-11.1541 8.5232 0.7429
-11.1447 7.8983 0.7223
-11.0438 7.2451 0.6978
-11.1274 6.7408 0.6868
-11.1193 6.2011 0.6714
-11.1115 5.6833 0.6576
-11.0122 5.1420 0.6397
-11.0050 4.6646 0.6284
-11.0898 4.2372 0.6235
-11.0830 3.7842 0.6143
-11.0763 3.3426 0.6062
-10.9783 2.8870 0.5940
-10.9720 2.4675 0.5877
-11.6917 2.1913 0.6208
-17.9061 2.6941 0.9438
-18.3616 2.0911 0.9618
-30.7431 2.3861 1.6026
-30.8467 1.2815 1.6022
-30.9274 0.1727 1.6026
-30.9612 -0.9401 1.6026
-30.9559 -2.0551 1.6026
-13.1500 -1.3490 0.6817
-9.9374 -1.3818 0.5166
-9.9319 -1.7468 0.5184
-9.9263 -2.1161 0.5209
-9.9207 -2.4907 0.5241
-9.9231 -2.8740 0.5284
-9.9846 -3.2850 0.5367
-9.9786 -3.6853 0.5422
-9.9724 -4.0960 0.5486
-8.5524 -20.4531 1.5896
-7.8193 -20.7662 1.5896
-7.0746 -21.0523 1.5896
-6.1224 -20.6475 1.5401
-5.8837 -22.8206 1.6840
-5.0909 -23.1574 1.6929
-4.2590 -23.3431 1.6929
-3.4202 -23.4980 1.6929
-2.5756 -23.6219 1.6929
-1.7265 -23.7145 1.6929
-0.8740 -23.7758 1.6929
-0.0194 -23.8055 1.6929
0.8362 -23.8035 1.6929
1.6916 -23.7698 1.6929
2.3905 -22.2609 1.5898
3.1899 -22.1697 1.5898
3.9857 -22.0489 1.5898
4.7767 -21.8986 1.5898
5.5618 -21.7190 1.5898
6.4323 -21.8236 1.6130
6.4157 -19.1959 1.4346
7.0567 -18.8344 1.4254
7.8344 -18.8227 1.4448
8.6347 -18.8107 1.4666
8.3169 -16.5253 1.3109
8.3723 -15.2456 1.2325
8.7538 -14.6658 1.2104
9.4762 -14.6530 1.2368
10.2322 -14.6404 1.2661
10.7125 -14.2116 1.2618
10.6978 -13.1792 1.2038
10.6849 -12.2373 1.1525
9.9669 -10.6195 1.0335
9.9557 -9.8717 0.9953
9.9452 -9.1767 0.9611
9.9355 -8.5278 0.9303
7.8231 -6.2409 0.7114
9.9177 -7.3448 0.8778
9.9096 -6.8015 0.8554
9.9018 -6.2852 0.8352
9.8944 -5.7927 0.8171
9.8873 -5.3211 0.8007
9.8338 -4.8451 0.7824
9.8942 -4.4406 0.7746
9.8883 -4.0176 0.7629
9.8148 -3.5827 0.7475
7.7673 -2.5229 0.5847
9.8496 -2.8124 0.7341
9.8439 -2.4320 0.7274
9.7733 -2.0450 0.7169
9.7678 -1.6801 0.7123
9.7624 -1.3201 0.7087
9.7571 -0.9640 0.7061
9.7518 -0.6107 0.7044
9.7465 -0.2594 0.7037
9.7412 0.0908 0.7038
9.7360 0.4409 0.7049
9.7307 0.7918 0.7070
9.7254 1.1443 0.7099
9.7201 1.4995 0.7138
9.7147 1.8582 0.7187
9.7092 2.2214 0.7246
9.7037 2.5903 0.7315
9.6981 2.9659 0.7396
9.6923 3.3494 0.7487
9.6864 3.7421 0.7591
9.6803 4.1453 0.7707
9.6741 4.5607 0.7837
9.6677 4.9898 0.7982
9.6610 5.4345 0.8142
9.6540 5.8969 0.8319
9.6468 6.3794 0.8516
9.6392 6.8846 0.8732
9.6312 7.4156 0.8971
9.6258 7.9783 0.9238
16.2760 14.5079 1.6130
9.7137 9.3059 0.9963
15.1575 15.6036 1.6130
14.5708 16.1201 1.6130
13.9668 16.6149 1.6130
13.3463 17.0875 1.6130
12.7102 17.5374 1.6130
12.0592 17.9640 1.6130
11.3944 18.3670 1.6130
10.7164 18.7458 1.6130
10.0261 19.1002 1.6130
9.3245 19.4298 1.6130
8.6125 19.7342 1.6130
6.0197 15.2676 1.2305
7.1604 20.2662 1.6130
6.4222 20.4934 1.6130
5.6772 20.6943 1.6130
4.8554 20.5695 1.5898
4.1101 20.7155 1.5898
3.3607 20.8352 1.5898
2.6081 20.9286 1.5898
1.8532 20.9955 1.5898
1.1681 22.4002 1.6929
0.3622 22.4152 1.6929
-0.4432 22.4022 1.6929
-1.2474 22.3610 1.6929
-2.0492 22.2919 1.6929
-2.8478 22.1951 1.6929
-3.6422 22.0704 1.6929
-4.4315 21.9182 1.6929
-5.2148 21.7388 1.6929
-5.9912 21.5321 1.6929
-6.7597 21.2987 1.6929
-7.5195 21.0388 1.6929
-8.2697 20.7526 1.6929
-9.0095 20.4406 1.6929
-9.1445 18.8779 1.5897
-9.3838 17.7193 1.5196
-6.7725 11.7473 1.0276
-11.1246 17.7869 1.5897
-11.7581 17.3777 1.5897
-12.3770 16.9468 1.5897
-12.9806 16.4945 1.5896
-13.6801 16.1534 1.6027
-14.2561 15.6561 1.6027
-14.8145 15.1389 1.6027
-15.3548 14.6024 1.6027
-11.0823 9.8054 1.1188
-11.1641 9.1841 1.0925
-11.1541 8.5228 1.0603
-11.1447 7.8979 1.0312
-11.0438 7.2447 0.9965
-11.1274 6.7404 0.9810
-11.1193 6.2006 0.9593
-11.1115 5.6828 0.9398
-11.0122 5.1415 0.9145
-11.0050 4.6641 0.8987
-11.0898 4.2368 0.8919
-11.0830 3.7837 0.8791
-11.0763 3.3421 0.8678
-10.9783 2.8865 0.8507
-10.9720 2.4671 0.8420
-11.6944 2.1913 0.8900
-17.9061 2.6933 1.3532
-18.3684 2.0910 1.3802
-21.4227 1.6617 1.6026
-21.4907 0.8918 1.6026
-21.5316 0.1192 1.6026
-21.5451 -0.6553 1.6026
-21.5311 -1.4305 1.6026
-13.1422 -1.3489 0.9801
-9.9374 -1.3823 0.7434
-9.9319 -1.7474 0.7464
-9.9263 -2.1167 0.7504
-9.9207 -2.4913 0.7553
-9.9188 -2.8733 0.7617
-9.9124 -3.2618 0.7688
-9.9057 -3.6591 0.7770
-9.8989 -4.0664 0.7865
-6.4969 -15.5392 1.5896
-5.9961 -15.9262 1.6050
-5.7208 -17.0260 1.6929
-5.1088 -17.2318 1.6929
-4.4894 -17.4151 1.6929
-3.8632 -17.5757 1.6929
-3.2312 -17.7134 1.6929
-2.5943 -17.8279 1.6929
-1.9532 -17.9189 1.6929
-1.3090 -17.9864 1.6929
-0.6623 -18.0302 1.6929
-0.0143 -18.0502 1.6929
0.6344 -18.0464 1.6929
1.2827 -18.0187 1.6929
1.9297 -17.9672 1.6929
2.4179 -16.8023 1.5898
3.0207 -16.7093 1.5898
3.6199 -16.5941 1.5898
4.2145 -16.4568 1.5898
4.8037 -16.2978 1.5898
5.3868 -16.1170 1.5898
5.9630 -15.9149 1.5898
6.6265 -15.9203 1.6130
7.1943 -15.6727 1.6130
7.7528 -15.4044 1.6130
8.3009 -15.1156 1.6130
8.7523 -14.6633 1.5973
9.3632 -14.4785 1.6130
9.8760 -14.1310 1.6130
10.1211 -13.4274 1.5734
10.3788 -12.7865 1.5413
10.3669 -11.8735 1.4756
9.9669 -10.6199 1.3638
9.9557 -9.8720 1.3132
9.9452 -9.1771 1.2679
9.9355 -8.5282 1.2272
7.8231 -6.2413 0.9384
9.9177 -7.3452 1.1577
9.9096 -6.8019 1.1280
9.9018 -6.2856 1.1012
9.8944 -5.7931 1.0771
9.8873 -5.3215 1.0553
9.8338 -4.8455 1.0310
9.8869 -4.4377 1.0197
9.8810 -4.0151 1.0042
9.8148 -3.5831 0.9844
7.7673 -2.5233 0.7699
9.8497 -2.8129 0.9664
9.8439 -2.4324 0.9573
9.7733 -2.0455 0.9434
9.7679 -1.6806 0.9371
9.7624 -1.3206 0.9321
9.7571 -0.9644 0.9285
9.7518 -0.6112 0.9260
9.7465 -0.2599 0.9248
9.7413 0.0903 0.9248
9.7360 0.4404 0.9260
9.7307 0.7913 0.9284
9.7254 1.1438 0.9320
9.7201 1.4989 0.9369
9.7147 1.8576 0.9430
9.7092 2.2209 0.9505
9.7037 2.5898 0.9593
9.6981 2.9653 0.9696
9.6923 3.3488 0.9813
9.6864 3.7415 0.9946
9.6804 4.1447 1.0095
9.6741 4.5600 1.0263
9.6677 4.9891 1.0449
9.6610 5.4338 1.0656
9.6540 5.8962 1.0885
9.6468 6.3787 1.1139
9.6392 6.8838 1.1419
9.6312 7.4148 1.1728
9.6257 7.9774 1.2074
9.6176 8.5719 1.2453
9.7147 9.3060 1.3015
11.6070 11.9474 1.6130
11.1607 12.3461 1.6130
10.7008 12.7284 1.6130
10.2280 13.0937 1.6130
9.7429 13.4418 1.6130
9.2462 13.7721 1.6130
8.7385 14.0844 1.6130
6.0745 10.6248 1.1919
7.6928 14.6534 1.6130
7.1560 14.9095 1.6130
6.6110 15.1463 1.6130
6.0583 15.3635 1.6130
5.4197 15.3377 1.5898
4.8620 15.5126 1.5898
4.2988 15.6676 1.5898
3.7263 15.7836 1.5879
3.1587 15.9175 1.5898
2.5833 16.0120 1.5898
2.0052 16.0863 1.5898
1.5175 17.1867 1.6929
0.8985 17.2222 1.6929
0.2790 17.2360 1.6929
-0.3405 17.2280 1.6929
-0.9590 17.1983 1.6929
-1.5759 17.1469 1.6929
-2.1904 17.0739 1.6929
-2.8017 16.9794 1.6929
-3.4093 16.8636 1.6929
-4.0122 16.7265 1.6929
-4.6099 16.5685 1.6929
-5.2015 16.3896 1.6929
-5.7864 16.1902 1.6929
-6.3640 15.9704 1.6929
-6.5249 14.8037 1.5932
-7.0376 14.5285 1.5898
-7.5551 14.2662 1.5898
-6.7725 11.7473 1.3353
-8.5610 13.6879 1.5897
-9.0483 13.3726 1.5897
-9.5242 13.0405 1.5897
-9.9882 12.6917 1.5897
-10.5257 12.4284 1.6027
-10.9681 12.0449 1.6027
-11.3969 11.6461 1.6027
-11.8115 11.2323 1.6027
-11.0823 9.8050 1.4545
-11.1641 9.1837 1.4205
-11.1541 8.5223 1.3788
-11.1447 7.8975 1.3411
-11.0438 7.2442 1.2962
-11.1274 6.7399 1.2761
-11.1192 6.2001 1.2482
-11.1115 5.6823 1.2229
-11.0122 5.1410 1.1902
-11.0050 4.6637 1.1699
-11.0897 4.2363 1.1613
-11.0829 3.7832 1.1448
-11.0763 3.3417 1.1303
-10.9783 2.8860 1.1082
-10.9720 2.4665 1.0972
-11.6970 2.1912 1.1602
-16.2672 2.4460 1.6026
-16.3570 1.8613 1.6026
-16.4261 1.2733 1.6026
-16.4743 0.6828 1.6026
-16.5016 0.0905 1.6026
-16.5078 -0.5029 1.6026
-16.4929 -1.0966 1.6026
-13.1342 -1.3488 1.2790
-9.9373 -1.3829 0.9711
-9.9319 -1.7479 0.9752
-9.9263 -2.1172 0.9806
-9.9207 -2.4918 0.9874
-9.9150 -2.8728 0.9955
-9.9091 -3.2614 1.0052
-9.9032 -3.6587 1.0163
-9.8970 -4.0663 1.0291
-5.5734 -13.3319 1.6929
-5.0938 -13.5312 1.6929
-4.6070 -13.7130 1.6929
-4.1136 -13.8769 1.6929
-3.6143 -14.0229 1.6929
-3.1098 -14.1505 1.6929
-2.6007 -14.2598 1.6929
-2.0878 -14.3504 1.6929
-1.5717 -14.4222 1.6929
-1.0530 -14.4752 1.6929
-0.5326 -14.5091 1.6929
-0.0111 -14.5240 1.6929
0.5107 -14.5198 1.6929
1.0323 -14.4965 1.6929
1.5527 -14.4540 1.6929
2.0325 -14.1222 1.6611
2.4300 -13.4405 1.5898
2.9118 -13.3472 1.5898
3.3899 -13.2363 1.5898
3.8637 -13.1079 1.5898
4.3325 -12.9622 1.5898
4.7957 -12.7994 1.5898
5.2527 -12.6197 1.5898
5.7028 -12.4234 1.5898
6.2349 -12.3885 1.6130
6.6757 -12.1563 1.6130
7.1077 -11.9082 1.6130
7.5303 -11.6443 1.6130
7.9429 -11.3652 1.6130
8.3449 -11.0711 1.6130
8.7358 -10.7626 1.6130
9.1150 -10.4399 1.6130
9.4822 -10.1037 1.6130
9.8366 -9.7543 1.6130
9.9452 -9.1775 1.5761
9.9355 -8.5285 1.5254
7.8231 -6.2416 1.1663
9.9177 -7.3456 1.4387
9.9096 -6.8023 1.4017
9.9018 -6.2860 1.3683
9.8944 -5.7935 1.3382
9.8873 -5.3219 1.3111
9.8338 -4.8459 1.2806
9.8795 -4.4348 1.2656
9.8737 -4.0126 1.2462
9.8148 -3.5835 1.2223
7.7673 -2.5236 0.9559
9.8497 -2.8133 1.1997
9.8439 -2.4329 1.1882
9.7733 -2.0459 1.1708
9.7679 -1.6810 1.1628
9.7625 -1.3210 1.1565
9.7571 -0.9649 1.1518
9.7518 -0.6117 1.1485
9.7465 -0.2604 1.1468
9.7413 0.0898 1.1466
9.7360 0.4399 1.1479
9.7307 0.7907 1.1507
9.7254 1.1433 1.1550
9.7201 1.4984 1.1609
9.7147 1.8571 1.1683
9.7093 2.2203 1.1774
9.7037 2.5892 1.1881
9.6981 2.9648 1.2006
9.6923 3.3482 1.2149
9.6864 3.7409 1.2311
9.6804 4.1441 1.2494
9.6741 4.5594 1.2699
9.6677 4.9884 1.2927
9.6610 5.4331 1.3181
9.6541 5.8955 1.3462
9.6468 6.3779 1.3773
9.6392 6.8830 1.4117
9.6312 7.4139 1.4497
9.6257 7.9765 1.4921
9.6176 8.5710 1.5388
9.7158 9.3060 1.6082
9.3966 9.6711 1.6130
9.0367 9.9955 1.6130
8.6657 10.3066 1.6130
8.2842 10.6042 1.6130
2.3154 3.1941 0.4732
7.4913 11.1570 1.6130
7.0810 11.4117 1.6130
6.6622 11.6515 1.6130
6.2354 11.8762 1.6130
5.8012 12.0854 1.6130
5.2832 12.1028 1.5898
4.8421 12.2779 1.5898
4.3954 12.4373 1.5898
3.9436 12.5806 1.5898
3.4872 12.7078 1.5898
3.0268 12.8188 1.5898
2.5630 12.9133 1.5898
2.0964 12.9913 1.5898
1.6275 13.0528 1.5898
1.2319 13.9470 1.6929
0.7296 13.9770 1.6929
0.2268 13.9893 1.6929
-0.2760 13.9839 1.6929
-0.7782 13.9607 1.6929
-1.2790 13.9199 1.6929
-1.7780 13.8614 1.6929
-2.2745 13.7854 1.6929
-2.7679 13.6920 1.6929
-3.2576 13.5813 1.6929
-3.7430 13.4534 1.6929
-4.2235 13.3085 1.6929
-4.6986 13.1469 1.6929
-5.1677 12.9686 1.6929
-5.6302 12.7739 1.6929
-6.0855 12.5631 1.6929
-6.4069 12.0980 1.6602
-6.5479 11.3575 1.5898
-6.9522 11.1154 1.5898
-7.3477 10.8592 1.5898
-7.7341 10.5892 1.5898
-8.1106 10.3058 1.5897
-8.4771 10.0091 1.5897
-8.8329 9.6998 1.5897
-9.1777 9.3780 1.5897
-9.5110 9.0442 1.5897
-9.8325 8.6989 1.5897
-10.1416 8.3422 1.5897
-10.5239 8.0404 1.6027
-10.8097 7.6596 1.6027
-11.0438 7.2438 1.5972
-11.1273 6.7395 1.5726
-11.1192 6.1997 1.5383
-11.1115 5.6818 1.5074
-11.0122 5.1406 1.4672
-11.0050 4.6632 1.4423
-11.0897 4.2358 1.4318
-11.0829 3.7827 1.4117
-11.0763 3.3412 1.3939
-10.9783 2.8855 1.3669
-10.9720 2.4660 1.3534
-11.6997 2.1912 1.4317
-13.1835 1.9817 1.6026
-13.2544 1.5076 1.6026
-13.3084 1.0310 1.6026
-13.3455 0.5525 1.6026
-13.3655 0.0726 1.6026
-13.3685 -0.4080 1.6026
-13.3543 -0.8887 1.6026
-13.1263 -1.3486 1.5789
-9.9373 -1.3834 1.1997
-9.9319 -1.7485 1.2050
-9.9263 -2.1178 1.2119
-9.9207 -2.4924 1.2204
-9.9149 -2.8734 1.2307
-9.9091 -3.2619 1.2429
-9.9032 -3.6593 1.2569
-9.8970 -4.0669 1.2729
-4.6619 -11.1528 1.6929
-4.2603 -11.3184 1.6929
-3.8528 -11.4694 1.6929
-3.4398 -11.6056 1.6929
-3.0220 -11.7267 1.6929
-2.6000 -11.8325 1.6929
-2.1741 -11.9230 1.6929
-1.7451 -11.9978 1.6929
-1.3135 -12.0571 1.6929
-0.8799 -12.1005 1.6929
-0.4449 -12.1282 1.6929
-0.0090 -12.1399 1.6929
0.4271 -12.1357 1.6929
0.8630 -12.1157 1.6929
1.2979 -12.0796 1.6929
1.7313 -12.0278 1.6929
2.0309 -11.2318 1.5898
2.4334 -11.1535 1.5898
2.8328 -11.0605 1.5898
3.2286 -10.9529 1.5898
3.6202 -10.8310 1.5898
4.0072 -10.6948 1.5898
4.3890 -10.5445 1.5898
4.7650 -10.3804 1.5898
5.1348 -10.2026 1.5898
5.4978 -10.0115 1.5898
5.8536 -9.8072 1.5898
6.2921 -9.7297 1.6130
6.6369 -9.4967 1.6130
6.9729 -9.2512 1.6130
7.2997 -8.9936 1.6130
7.6169 -8.7243 1.6130
7.9239 -8.4436 1.6130
8.2204 -8.1519 1.6130
8.5060 -7.8497 1.6130
8.7803 -7.5373 1.6130
7.8231 -6.2419 1.3954
8.3289 -6.1692 1.4455
8.5425 -5.8643 1.4455
8.7448 -5.5518 1.4455
8.9355 -5.2324 1.4455
9.1144 -4.9063 1.4455
9.2812 -4.5740 1.4455
9.4357 -4.2360 1.4455
9.5777 -3.8927 1.4455
9.7072 -3.5446 1.4455
7.7673 -2.5240 1.1429
9.8497 -2.8138 1.4342
9.8440 -2.4333 1.4204
9.7733 -2.0464 1.3994
9.7679 -1.6815 1.3898
9.7625 -1.3215 1.3821
9.7571 -0.9653 1.3763
9.7518 -0.6121 1.3723
9.7465 -0.2609 1.3701
9.7413 0.0893 1.3697
9.7360 0.4394 1.3711
9.7307 0.7902 1.3743
9.7254 1.1428 1.3793
9.7201 1.4979 1.3861
9.7147 1.8565 1.3948
9.7093 2.2198 1.4054
9.7037 2.5886 1.4180
9.6981 2.9642 1.4328
9.6923 3.3476 1.4497
9.6864 3.7403 1.4689
9.6804 4.1435 1.4905
9.6741 4.5587 1.5148
9.6677 4.9878 1.5418
9.6610 5.4324 1.5719
9.7005 5.9231 1.6130
9.4755 6.2638 1.6130
9.2385 6.5961 1.6130
8.9900 6.9195 1.6130
8.7301 7.2336 1.6130
8.4594 7.5380 1.6130
8.1781 7.8323 1.6130
7.8867 8.1162 1.6130
7.5855 8.3894 1.6130
7.2749 8.6516 1.6130
6.9553 8.9023 1.6130
2.3141 3.1920 0.5632
6.2910 9.3684 1.6130
5.9471 9.5832 1.6130
5.5156 9.6452 1.5898
5.1628 9.8321 1.5898
4.8037 10.0062 1.5898
4.4389 10.1674 1.5898
4.0687 10.3155 1.5898
3.6937 10.4503 1.5898
3.3143 10.5716 1.5898
2.9310 10.6793 1.5898
2.5442 10.7734 1.5898
2.1546 10.8536 1.5898
1.7625 10.9200 1.5898
1.4571 11.6839 1.6929
1.0359 11.7248 1.6929
0.6137 11.7507 1.6929
0.1910 11.7617 1.6929
-0.2318 11.7577 1.6929
-0.6541 11.7388 1.6929
-1.0753 11.7050 1.6929
-1.4949 11.6562 1.6929
-1.9125 11.5928 1.6929
-2.3275 11.5146 1.6929
-2.7395 11.4218 1.6929
-3.1478 11.3145 1.6929
-3.5520 11.1929 1.6929
-3.9517 11.0571 1.6929
-4.3463 10.9072 1.6929
-4.7353 10.7436 1.6929
-5.1183 10.5663 1.6929
-5.4948 10.3755 1.6929
-5.8643 10.1716 1.6929
-6.2264 9.9548 1.6929
-6.3670 9.4097 1.6379
-6.5048 8.9059 1.5898
-6.8214 8.6674 1.5898
-7.1294 8.4177 1.5898
-7.4285 8.1573 1.5898
-7.7182 7.8864 1.5898
-7.9982 7.6054 1.5897
-8.2682 7.3146 1.5897
-8.5278 7.0144 1.5897
-8.7767 6.7051 1.5897
-9.0145 6.3872 1.5897
-9.2410 6.0609 1.5897
-9.4559 5.7267 1.5897
-9.6589 5.3850 1.5897
-9.8497 5.0362 1.5897
-10.0281 4.6808 1.5897
-10.1939 4.3191 1.5896
-10.4309 3.9837 1.6026
-10.5719 3.6078 1.6026
-10.6995 3.2270 1.6026
-10.8136 2.8417 1.6026
-10.9140 2.4525 1.6026
-11.0005 2.0597 1.6026
-11.0730 1.6639 1.6026
-11.1315 1.2656 1.6026
-11.1758 0.8652 1.6026
-11.2058 0.4633 1.6026
-11.2214 0.0604 1.6026
-11.2227 -0.3430 1.6026
-11.2096 -0.7465 1.6026
-11.1821 -1.1495 1.6026
-9.9373 -1.3839 1.4295
-9.9318 -1.7490 1.4360
-9.9263 -2.1184 1.4444
-9.9207 -2.4930 1.4548
-9.9149 -2.8740 1.4672
-9.9091 -3.2626 1.4818
-9.9031 -3.6600 1.4987
-9.8970 -4.0676 1.5180
-4.0029 -9.5774 1.6929
-3.6578 -9.7191 1.6929
-3.3077 -9.8481 1.6929
-2.9530 -9.9644 1.6929
-2.5941 -10.0677 1.6929
-2.2316 -10.1580 1.6929
-1.8660 -10.2351 1.6929
-1.4977 -10.2988 1.6929
-1.1272 -10.3491 1.6929
-0.7550 -10.3860 1.6929
-0.3815 -10.4092 1.6929
-0.0075 -10.4189 1.6929
0.3668 -10.4149 1.6929
0.7408 -10.3973 1.6929
1.1140 -10.3661 1.6929
1.4858 -10.3213 1.6929
1.8558 -10.2629 1.6929
2.0881 -9.5705 1.5898
2.4308 -9.4905 1.5898
2.7704 -9.3981 1.5898
3.1064 -9.2934 1.5898
3.4384 -9.1764 1.5898
3.7659 -9.0474 1.5898
4.0885 -8.9066 1.5898
4.4057 -8.7540 1.5898
4.7172 -8.5901 1.5898
5.0225 -8.4148 1.5898
5.3212 -8.2286 1.5898
5.6129 -8.0316 1.5898
5.8971 -7.8241 1.5898
6.2636 -7.7172 1.6130
6.5358 -7.4863 1.6130
6.7994 -7.2456 1.6130
7.0541 -6.9955 1.6130
7.2994 -6.7364 1.6130
7.5350 -6.4686 1.6130
7.7393 -6.1753 1.6085
7.7326 -5.7278 1.5637
7.7262 -5.3042 1.5233
7.7202 -4.9017 1.4868
7.7144 -4.5177 1.4539
7.8237 -4.2118 1.4455
7.9673 -3.9268 1.4455
8.1004 -3.6369 1.4455
8.2228 -3.3424 1.4455
8.3344 -3.0437 1.4455
7.7673 -2.5243 1.3311
8.5246 -2.4356 1.4455
9.3365 -2.3083 1.5688
9.6744 -2.0261 1.6130
9.7367 -1.6766 1.6130
9.7862 -1.3252 1.6130
9.8229 -0.9723 1.6130
9.8468 -0.6186 1.6130
9.8579 -0.2643 1.6130
9.8562 0.0899 1.6130
9.8416 0.4437 1.6130
9.8143 0.7965 1.6130
9.7743 1.1480 1.6130
9.7216 1.4975 1.6130
9.6564 1.8448 1.6130
9.5788 2.1894 1.6130
9.4888 2.5307 1.6130
9.3867 2.8684 1.6130
9.2726 3.2020 1.6130
9.1465 3.5312 1.6130
9.0088 3.8554 1.6130
8.8596 4.1743 1.6130
8.6991 4.4874 1.6130
8.5276 4.7944 1.6130
8.3453 5.0949 1.6130
8.1524 5.3885 1.6130
7.9492 5.6749 1.6130
7.7360 5.9536 1.6130
7.5131 6.2244 1.6130
7.2807 6.4869 1.6130
7.0392 6.7408 1.6130
6.7889 6.9858 1.6130
6.5302 7.2215 1.6130
6.2633 7.4477 1.6130
5.9887 7.6642 1.6130
2.3128 3.1899 0.6537
5.3397 7.9510 1.5898
5.0482 8.1339 1.5898
4.7505 8.3063 1.5898
4.4469 8.4678 1.5898
4.1379 8.6184 1.5898
3.8239 8.7579 1.5898
3.5053 8.8860 1.5898
3.1824 9.0027 1.5898
2.8557 9.1077 1.5898
2.5256 9.2011 1.5898
2.1925 9.2826 1.5898
1.8690 9.4130 1.6001
1.6176 10.0201 1.6929
1.2560 10.0686 1.6929
0.8931 10.1043 1.6929
0.5292 10.1271 1.6929
0.1649 10.1370 1.6929
-0.1995 10.1339 1.6929
-0.5635 10.1180 1.6929
-0.9266 10.0891 1.6929
-1.2884 10.0475 1.6929
-1.6484 9.9930 1.6929
-2.0062 9.9258 1.6929
-2.3614 9.8460 1.6929
-2.7134 9.7537 1.6929
-3.0620 9.6490 1.6929
-3.4066 9.5320 1.6929
-3.7468 9.4029 1.6929
-4.0822 9.2619 1.6929
-4.4124 9.1090 1.6929
-4.7370 8.9446 1.6929
-5.0555 8.7688 1.6929
-5.3677 8.5818 1.6929
-5.6730 8.3838 1.6929
-5.9712 8.1752 1.6929
-6.2618 7.9561 1.6929
-6.3377 7.4827 1.6394
-6.4037 7.0317 1.5898
-6.6533 6.7981 1.5898
-6.8945 6.5557 1.5898
-7.1270 6.3048 1.5898
-7.3506 6.0458 1.5898
-7.5648 5.7790 1.5898
-7.7695 5.5048 1.5898
-7.9644 5.2233 1.5897
-8.1493 4.9351 1.5897
-8.3239 4.6404 1.5897
-8.4879 4.3396 1.5897
-8.6412 4.0330 1.5897
-8.7832 3.7210 1.5896
-8.9145 3.4042 1.5896
-9.0345 3.0828 1.5896
-9.1430 2.7571 1.5896
-9.2399 2.4278 1.5896
-9.3251 2.0950 1.5896
-9.3984 1.7593 1.5896
-9.4597 1.4211 1.5896
-9.5090 1.0807 1.5896
-9.5461 0.7386 1.5896
-9.5710 0.3953 1.5896
-9.5837 0.0511 1.5896
-9.5840 -0.2934 1.5896
-9.5721 -0.6380 1.5896
-9.5478 -0.9820 1.5896
-9.5113 -1.3251 1.5896
-9.4625 -1.6669 1.5896
-9.4014 -2.0069 1.5896
-9.3282 -2.3447 1.5896
-9.2429 -2.6797 1.5896
-9.1456 -3.0117 1.5896
-9.0364 -3.3402 1.5896
-8.9154 -3.6647 1.5896
-3.5038 -8.3844 1.6929
-3.2016 -8.5080 1.6929
-2.8950 -8.6205 1.6929
-2.5844 -8.7219 1.6929
-2.2702 -8.8120 1.6929
-1.9529 -8.8906 1.6929
-1.6328 -8.9577 1.6929
-1.3104 -9.0131 1.6929
-0.9861 -9.0568 1.6929
-0.6604 -9.0887 1.6929
-0.3336 -9.1088 1.6929
-0.0063 -9.1169 1.6929
0.3212 -9.1132 1.6929
0.6484 -9.0975 1.6929
0.9749 -9.0700 1.6929
1.3002 -9.0306 1.6929
1.6239 -8.9794 1.6929
1.9455 -8.9164 1.6929
2.1369 -8.3425 1.5973
2.4239 -8.2223 1.5898
2.7178 -8.1306 1.5898
3.0082 -8.0282 1.5898
3.2947 -7.9153 1.5898
3.5769 -7.7921 1.5898
3.8544 -7.6587 1.5898
4.1269 -7.5152 1.5898
4.3940 -7.3619 1.5898
4.6554 -7.1990 1.5898
4.9106 -7.0268 1.5898
5.1593 -6.8453 1.5898
5.4013 -6.6550 1.5898
5.6361 -6.4559 1.5898
5.8636 -6.2485 1.5898
6.1719 -6.1209 1.6130
6.3867 -5.8943 1.6130
6.5930 -5.6601 1.6130
6.7907 -5.4186 1.6130
6.9794 -5.1701 1.6130
7.1589 -4.9150 1.6130
7.3290 -4.6536 1.6130
7.4894 -4.3862 1.6130
7.6400 -4.1133 1.6130
7.7036 -3.7972 1.5970
7.6985 -3.4568 1.5697
7.6935 -3.1276 1.5452
7.6887 -2.8083 1.5235
7.6841 -2.4976 1.5044
8.1406 -2.3263 1.5769
8.4037 -2.0781 1.6130
8.4697 -1.7742 1.6130
8.5247 -1.4683 1.6130
8.5685 -1.1607 1.6130
8.6011 -0.8518 1.6130
8.6225 -0.5421 1.6130
8.6328 -0.2319 1.6130
8.6318 0.0783 1.6130
8.6195 0.3881 1.6130
8.5962 0.6972 1.6130
8.5617 1.0051 1.6130
8.5160 1.3114 1.6130
8.4595 1.6157 1.6130
8.3920 1.9176 1.6130
8.3137 2.2168 1.6130
8.2248 2.5129 1.6130
8.1253 2.8054 1.6130
8.0154 3.0940 1.6130
7.8953 3.3783 1.6130
7.7650 3.6580 1.6130
7.6249 3.9327 1.6130
7.4750 4.2021 1.6130
7.3157 4.4658 1.6130
7.1471 4.7235 1.6130
6.9694 4.9748 1.6130
6.7829 5.2195 1.6130
6.5879 5.4573 1.6130
6.3845 5.6878 1.6130
6.1732 5.9108 1.6130
5.9540 6.1260 1.6130
5.6453 6.2423 1.5898
5.4149 6.4382 1.5898
5.1778 6.6257 1.5898
2.3115 3.1877 0.7448
4.6845 6.9746 1.5898
4.4290 7.1355 1.5898
4.1680 7.2871 1.5898
3.9019 7.4292 1.5898
3.6310 7.5617 1.5898
3.3556 7.6845 1.5898
3.0762 7.7973 1.5898
2.7930 7.9000 1.5898
2.5064 7.9926 1.5898
0.8414 3.0648 0.6034
0.7307 3.0931 0.6036
0.6191 3.1174 0.6038
0.5066 3.1377 0.6040
0.3936 3.1540 0.6042
0.2800 3.1663 0.6044
0.1660 3.1745 0.6045
0.0518 3.1787 0.6047
-0.0625 3.1788 0.6049
-0.1767 3.1748 0.6051
-0.2908 3.1668 0.6053
-0.4045 3.1546 0.6054
-0.5177 3.1385 0.6056
-0.6302 3.1183 0.6058
-0.7420 3.0941 0.6059
-0.8529 3.0659 0.6061
-2.6883 8.4716 1.6929
-2.9909 8.3690 1.6929
-3.2896 8.2557 1.6929
-3.5841 8.1319 1.6929
-3.8741 7.9977 1.6929
-4.1590 7.8533 1.6929
-4.4387 7.6989 1.6929
-4.7128 7.5347 1.6929
-4.9808 7.3608 1.6929
-5.2426 7.1775 1.6929
-5.4977 6.9851 1.6929
-5.7458 6.7837 1.6929
-5.9867 6.5736 1.6929
-6.2200 6.3551 1.6929
-6.3154 6.0048 1.6588
-6.3180 5.5889 1.6053
-6.4531 5.3074 1.5898
-6.6410 5.0730 1.5898
-6.8205 4.8321 1.5898
-6.9914 4.5849 1.5898
-7.1534 4.3317 1.5898
-7.3064 4.0728 1.5898
-7.4496 3.8084 1.5896
-7.5838 3.5392 1.5896
-7.7085 3.2654 1.5896
-7.8234 2.9872 1.5896
-7.9283 2.7050 1.5896
-8.0232 2.4191 1.5896
-8.1079 2.1299 1.5896
-8.1822 1.8379 1.5896
-8.2461 1.5432 1.5896
-8.2995 1.2464 1.5896
-8.3422 0.9477 1.5896
-8.3743 0.6475 1.5896
-8.3957 0.3463 1.5896
-8.4063 0.0444 1.5896
-8.4061 -0.2578 1.5896
-8.3952 -0.5600 1.5896
-8.3734 -0.8617 1.5896
-8.3408 -1.1625 1.5896
-8.2975 -1.4622 1.5896
-8.2434 -1.7602 1.5896
-8.1787 -2.0562 1.5896
-8.1034 -2.3499 1.5896
-8.0176 -2.6408 1.5896
-7.9213 -2.9286 1.5896
-7.8148 -3.2128 1.5896
-3.1125 -7.4488 1.6929
-2.8439 -7.5583 1.6929
-2.5714 -7.6579 1.6929
-2.2954 -7.7477 1.6929
-2.0162 -7.8274 1.6929
-1.7343 -7.8970 1.6929
-1.4500 -7.9563 1.6929
-1.1636 -8.0053 1.6929
-0.8756 -8.0439 1.6929
-0.5863 -8.0720 1.6929
-0.2961 -8.0896 1.6929
-0.0054 -8.0967 1.6929
0.2854 -8.0931 1.6929
0.5760 -8.0791 1.6929
0.8659 -8.0545 1.6929
1.1547 -8.0193 1.6929
1.4421 -7.9737 1.6929
1.7277 -7.9177 1.6929
1.9362 -7.5588 1.6298
2.1524 -7.3012 1.5898
2.4134 -7.2197 1.5898
2.6712 -7.1288 1.5898
2.9256 -7.0285 1.5898
3.1762 -6.9191 1.5898
3.4226 -6.8006 1.5898
3.6646 -6.6732 1.5898
3.9017 -6.5371 1.5898
4.1338 -6.3925 1.5898
4.3604 -6.2396 1.5898
4.5813 -6.0786 1.5898
4.7962 -5.9096 1.5898
5.0048 -5.7329 1.5898
5.2068 -5.5489 1.5898
5.4020 -5.3576 1.5898
5.5901 -5.1594 1.5898
5.7708 -4.9545 1.5898
6.0305 -4.8123 1.6130
6.1983 -4.5918 1.6130
6.3578 -4.3653 1.6130
6.5091 -4.1332 1.6130
6.6517 -3.8959 1.6130
6.7857 -3.6536 1.6130
6.9107 -3.4067 1.6130
7.0267 -3.1554 1.6130
7.1334 -2.9002 1.6130
7.2308 -2.6413 1.6130
7.3188 -2.3792 1.6130
7.3971 -2.1142 1.6130
7.4658 -1.8465 1.6130
7.5248 -1.5766 1.6130
7.5739 -1.3049 1.6130
7.6132 -1.0316 1.6130
7.6425 -0.7573 1.6130
7.6619 -0.4821 1.6130
7.6713 -0.2065 1.6130
7.6708 0.0692 1.6130
7.6603 0.3445 1.6130
7.6399 0.6192 1.6130
7.6096 0.8929 1.6130
7.5695 1.1652 1.6130
7.5195 1.4357 1.6130
7.4599 1.7042 1.6130
7.3907 1.9703 1.6130
7.3121 2.2335 1.6130
7.2240 2.4937 1.6130
7.1266 2.7504 1.6130
7.0202 3.0034 1.6130
6.9047 3.2522 1.6130
6.7805 3.4967 1.6130
6.6476 3.7364 1.6130
6.5062 3.9711 1.6130
6.3566 4.2005 1.6130
6.1989 4.4243 1.6130
6.0333 4.6422 1.6130
5.8601 4.8539 1.6130
5.5980 4.9866 1.5898
5.4130 5.1824 1.5898
5.2211 5.3714 1.5898
5.0227 5.5532 1.5898
4.8179 5.7278 1.5898
4.6072 5.8950 1.5898
2.3102 3.1855 0.8365
4.1687 6.2059 1.5898
3.9415 6.3493 1.5898
3.7094 6.4845 1.5898
3.4727 6.6113 1.5898
3.2318 6.7295 1.5898
2.9868 6.8390 1.5898
2.7382 6.9397 1.5898
2.4862 7.0314 1.5898
0.8465 2.6990 0.6032
0.7490 2.7277 0.6033
0.6504 2.7529 0.6035
0.5511 2.7745 0.6037
0.4510 2.7926 0.6038
0.3504 2.8071 0.6040
0.2492 2.8180 0.6042
0.1478 2.8253 0.6044
0.0462 2.8290 0.6045
-0.0556 2.8290 0.6047
-0.1572 2.8254 0.6048
-0.2587 2.8182 0.6050
-0.3599 2.8074 0.6051
-0.4606 2.7930 0.6053
-0.5608 2.7750 0.6054
-0.6603 2.7534 0.6056
-0.7589 2.7283 0.6057
-0.8566 2.6996 0.6059
-2.6631 7.4519 1.6929
-2.9291 7.3511 1.6929
-3.1914 7.2408 1.6929
-3.4496 7.1213 1.6929
-3.7033 6.9928 1.6929
-3.9524 6.8553 1.6929
-4.1964 6.7090 1.6929
-4.4351 6.5542 1.6929
-4.6681 6.3909 1.6929
-4.8952 6.2195 1.6929
-5.1161 6.0401 1.6929
-5.3305 5.8529 1.6929
-5.5382 5.6583 1.6929
-5.7388 5.4563 1.6929
-5.9321 5.2473 1.6929
-6.1180 5.0315 1.6929
-6.2960 4.8093 1.6929
-6.2922 4.4575 1.6474
-6.2954 4.1282 1.6079
-6.3678 3.8557 1.5896
-6.5039 3.6252 1.5896
-6.6316 3.3900 1.5896
-6.7510 3.1502 1.5896
-6.8617 2.9063 1.5896
-6.9638 2.6586 1.5896
-7.0569 2.4073 1.5896
-7.1411 2.1528 1.5896
-7.2162 1.8954 1.5896
-7.2820 1.6353 1.5896
-7.3386 1.3731 1.5896
-7.3858 1.1088 1.5896
-7.4236 0.8430 1.5896
-7.4518 0.5758 1.5896
-7.4705 0.3078 1.5896
-7.4796 0.0391 1.5896
-7.4791 -0.2298 1.5896
-7.4690 -0.4986 1.5896
-7.4492 -0.7670 1.5896
-7.4199 -1.0346 1.5896
-7.3810 -1.3011 1.5896
-7.3325 -1.5661 1.5896
-7.2746 -1.8294 1.5896
-7.2073 -2.0904 1.5896
-7.1305 -2.3491 1.5896
-7.0446 -2.6049 1.5896
-6.9495 -2.8575 1.5896
-2.7970 -6.6947 1.6929
-2.5555 -6.7928 1.6929
-2.3106 -6.8822 1.6929
-2.0625 -6.9627 1.6929
-1.8116 -7.0341 1.6929
-1.5582 -7.0964 1.6929
-1.3027 -7.1495 1.6929
-1.0454 -7.1934 1.6929
-0.7865 -7.2279 1.6929
-0.5266 -7.2530 1.6929
-0.2658 -7.2686 1.6929
-0.0047 -7.2748 1.6929
0.2566 -7.2715 1.6929
0.5177 -7.2588 1.6929
0.7781 -7.2366 1.6929
1.0376 -7.2049 1.6929
1.2958 -7.1638 1.6929
1.5523 -7.1134 1.6929
1.8069 -7.0537 1.6929
1.9338 -6.5595 1.5898
2.1682 -6.4862 1.5898
2.3999 -6.4045 1.5898
2.6284 -6.3144 1.5898
2.8535 -6.2160 1.5898
3.0748 -6.1096 1.5898
3.2922 -5.9952 1.5898
3.5053 -5.8730 1.5898
3.7137 -5.7431 1.5898
3.9174 -5.6057 1.5898
4.1158 -5.4611 1.5898
4.3089 -5.3093 1.5898
4.4964 -5.1507 1.5898
4.6779 -4.9854 1.5898
4.8533 -4.8136 1.5898
5.0224 -4.6356 1.5898
5.1848 -4.4516 1.5898
5.3404 -4.2618 1.5898
5.4891 -4.0666 1.5898
5.6305 -3.8661 1.5898
5.7645 -3.6607 1.5898
5.8910 -3.4506 1.5898
6.0974 -3.2833 1.6130
6.2099 -3.0614 1.6130
6.3142 -2.8358 1.6130
6.4103 -2.6065 1.6130
6.4981 -2.3740 1.6130
6.5773 -2.1385 1.6130
6.6479 -1.9003 1.6130
6.7099 -1.6599 1.6130
6.7631 -1.4173 1.6130
6.8074 -1.1732 1.6130
6.8430 -0.9276 1.6130
6.8696 -0.6810 1.6130
6.8873 -0.4337 1.6130
6.8960 -0.1860 1.6130
6.8958 0.0618 1.6130
6.8866 0.3094 1.6130
6.8685 0.5563 1.6130
6.8416 0.8024 1.6130
6.8058 1.0472 1.6130
6.7611 1.2905 1.6130
6.7078 1.5320 1.6130
6.6459 1.7713 1.6130
6.5754 2.0081 1.6130
6.4965 2.2421 1.6130
6.4092 2.4731 1.6130
6.3137 2.7007 1.6130
6.2102 2.9246 1.6130
6.0987 3.1446 1.6130
5.9794 3.3604 1.6130
5.7685 3.5204 1.5898
5.6360 3.7239 1.5898
5.4964 3.9225 1.5898
5.3499 4.1159 1.5898
5.1965 4.3038 1.5898
5.0366 4.4860 1.5898
4.8703 4.6623 1.5898
4.6979 4.8325 1.5898
4.5195 4.9964 1.5898
4.3355 5.1537 1.5898
2.3781 3.0425 0.9119
2.2665 3.1249 0.9119
3.7516 5.5845 1.5898
3.5473 5.7137 1.5898
3.3386 5.8356 1.5898
3.1257 5.9499 1.5898
2.9089 6.0565 1.5898
2.6885 6.1553 1.5898
2.4648 6.2461 1.5898
0.8488 2.4003 0.6030
0.7620 2.4293 0.6031
0.6742 2.4550 0.6033
0.5855 2.4777 0.6034
0.4961 2.4972 0.6036
0.4060 2.5135 0.6037
0.3154 2.5265 0.6039
0.2244 2.5363 0.6040
0.1331 2.5429 0.6042
0.0416 2.5461 0.6043
-0.0500 2.5462 0.6045
-0.1415 2.5429 0.6046
-0.2328 2.5364 0.6048
-0.3238 2.5266 0.6049
-0.4145 2.5136 0.6050
-0.5047 2.4974 0.6052
-0.5942 2.4779 0.6053
-0.6830 2.4553 0.6054
-0.7709 2.4295 0.6056
-0.8579 2.4005 0.6057
-2.6373 6.6188 1.6929
-2.8734 6.5196 1.6929
-3.1059 6.4120 1.6929
-3.3344 6.2962 1.6929
-3.5587 6.1724 1.6929
-3.7784 6.0406 1.6929
-3.9933 5.9012 1.6929
-4.2031 5.7542 1.6929
-4.4076 5.5998 1.6929
-4.6064 5.4382 1.6929
-4.7994 5.2696 1.6929
-4.9863 5.0942 1.6929
-5.1669 4.9123 1.6929
-5.3409 4.7241 1.6929
-5.5081 4.5298 1.6929
-5.6683 4.3295 1.6929
-5.8214 4.1237 1.6929
-5.9670 3.9126 1.6929
-6.1050 3.6963 1.6929
-6.2353 3.4753 1.6929
-6.2746 3.2072 1.6708
-6.2704 2.9257 1.6402
-6.2728 2.6566 1.6144
-6.2748 2.3953 1.5913
-6.3520 2.1666 1.5896
-6.4276 1.9374 1.5896
-6.4950 1.7056 1.5896
-6.5541 1.4715 1.5896
-6.6048 1.2354 1.5896
-6.6470 0.9976 1.5896
-6.6808 0.7583 1.5896
-6.7060 0.5179 1.5896
-6.7225 0.2766 1.5896
-6.7305 0.0349 1.5896
-6.7298 -0.2071 1.5896
-6.7204 -0.4490 1.5896
-6.7024 -0.6904 1.5896
-6.6757 -0.9312 1.5896
-6.6405 -1.1709 1.5896
-6.5966 -1.4093 1.5896
-6.5442 -1.6461 1.5896
-6.4834 -1.8809 1.5896
-6.4141 -2.1135 1.5896
-6.3365 -2.3435 1.5896
-6.2507 -2.5706 1.5896
-2.5371 -6.0733 1.6929
-2.3180 -6.1622 1.6929
-2.0957 -6.2431 1.6929
-1.8707 -6.3159 1.6929
-1.6430 -6.3806 1.6929
-1.4132 -6.4370 1.6929
-1.1814 -6.4850 1.6929
-0.9480 -6.5247 1.6929
-0.7132 -6.5558 1.6929
-0.4774 -6.5785 1.6929
-0.2409 -6.5925 1.6929
-0.0040 -6.5981 1.6929
0.2329 -6.5950 1.6929
0.4696 -6.5833 1.6929
0.7058 -6.5631 1.6929
0.9411 -6.5343 1.6929
1.1753 -6.4970 1.6929
1.4079 -6.4512 1.6929
1.6388 -6.3970 1.6929
1.8676 -6.3345 1.6929
1.9664 -5.8823 1.5898
2.1764 -5.8081 1.5898
2.3836 -5.7264 1.5898
2.5878 -5.6372 1.5898
2.7885 -5.5407 1.5898
2.9856 -5.4369 1.5898
3.1788 -5.3261 1.5898
3.3679 -5.2084 1.5898
3.5526 -5.0838 1.5898
3.7326 -4.9527 1.5898
3.9077 -4.8151 1.5898
4.0777 -4.6713 1.5898
4.2424 -4.5214 1.5898
4.4015 -4.3657 1.5898
4.5549 -4.2043 1.5898
4.7023 -4.0375 1.5898
4.8435 -3.8655 1.5898
4.9784 -3.6884 1.5898
5.1067 -3.5067 1.5898
5.2284 -3.3205 1.5898
5.3432 -3.1300 1.5898
5.4510 -2.9355 1.5898
5.5517 -2.7372 1.5898
5.6451 -2.5355 1.5898
5.7312 -2.3306 1.5898
5.8097 -2.1228 1.5898
5.9664 -1.9401 1.6130
6.0306 -1.7242 1.6130
6.0870 -1.5060 1.6130
6.1354 -1.2861 1.6130
6.1759 -1.0646 1.6130
6.2082 -0.8419 1.6130
6.2326 -0.6182 1.6130
6.2488 -0.3938 1.6130
6.2569 -0.1691 1.6130
6.2569 0.0558 1.6130
6.2488 0.2804 1.6130
6.2326 0.5045 1.6130
6.2083 0.7278 1.6130
6.1761 0.9500 1.6130
6.1358 1.1708 1.6130
6.0876 1.3900 1.6130
6.0316 1.6072 1.6130
5.9678 1.8222 1.6130
5.8964 2.0347 1.6130
5.7339 2.2122 1.5898
5.6487 2.4159 1.5898
5.5562 2.6163 1.5898
5.4566 2.8132 1.5898
5.3501 3.0063 1.5898
5.2367 3.1955 1.5898
5.1167 3.3803 1.5898
4.9901 3.5607 1.5898
4.8572 3.7364 1.5898
4.7182 3.9071 1.5898
4.5731 4.0727 1.5898
4.4223 4.2330 1.5898
4.2658 4.3876 1.5898
4.1040 4.5366 1.5898
3.9370 4.6795 1.5898
2.3610 3.0202 0.9969
2.2338 3.0796 0.9897
3.4072 5.0712 1.5898
3.2217 5.1888 1.5898
3.0323 5.2996 1.5898
2.8390 5.4035 1.5898
2.6422 5.5005 1.5898
2.4421 5.5903 1.5898
0.8489 2.1510 0.6028
0.7711 2.1801 0.6030
0.6922 2.2063 0.6031
0.6124 2.2298 0.6032
0.5319 2.2504 0.6034
0.4506 2.2680 0.6035
0.3688 2.2828 0.6037
0.2865 2.2946 0.6038
0.2039 2.3035 0.6039
0.1209 2.3095 0.6041
0.0378 2.3125 0.6042
-0.0453 2.3125 0.6043
-0.1284 2.3095 0.6045
-0.2114 2.3036 0.6046
-0.2941 2.2947 0.6047
-0.3764 2.2828 0.6048
-0.4583 2.2680 0.6050
-0.5396 2.2503 0.6051
-0.6202 2.2297 0.6052
-0.7000 2.2063 0.6053
-0.7790 2.1800 0.6054
-0.8570 2.1508 0.6055
-2.6106 5.9232 1.6929
-2.8218 5.8254 1.6929
-3.0294 5.7202 1.6929
-3.2332 5.6077 1.6929
-3.4328 5.4880 1.6929
-3.6280 5.3613 1.6929
-3.8186 5.2277 1.6929
-4.0044 5.0874 1.6929
-4.1850 4.9405 1.6929
-4.3603 4.7873 1.6929
-4.5301 4.6280 1.6929
-4.6941 4.4626 1.6929
-4.8521 4.2916 1.6929
-5.0040 4.1149 1.6929
-5.1495 3.9330 1.6929
-5.2884 3.7460 1.6929
-5.4206 3.5541 1.6929
-5.5459 3.3576 1.6929
-5.6641 3.1567 1.6929
-5.7752 2.9516 1.6929
-5.8788 2.7427 1.6929
-5.9750 2.5302 1.6929
-6.0635 2.3144 1.6929
