ply
format ascii 1.0
element vertex 2198
property float32 x
property float32 y
property float32 z
end_header
2.0938 -8.3509 1.5905
2.3927 -8.2708 1.5905
2.6885 -8.1798 1.5905
2.9808 -8.0781 1.5905
3.2691 -7.9658 1.5905
3.5532 -7.8430 1.5905
3.8325 -7.7098 1.5905
4.1068 -7.5666 1.5905
4.3756 -7.4135 1.5905
4.6387 -7.2506 1.5905
4.8956 -7.0783 1.5905
5.1459 -6.8967 1.5905
5.2405 -5.6382 1.4237
5.1749 -5.1811 1.3547
5.2263 -4.8693 1.3218
5.2399 -4.5414 1.2835
5.2353 -4.2177 1.2448
5.2310 -3.9128 1.2099
5.2269 -3.6243 1.1784
5.2230 -3.3502 1.1501
5.2193 -3.0889 1.1245
5.2157 -2.8388 1.1015
5.2123 -2.5986 1.0808
5.2090 -2.3672 1.0622
5.2059 -2.1435 1.0456
5.2028 -1.9266 1.0309
5.1998 -1.7156 1.0179
5.1969 -1.5098 1.0066
5.1940 -1.3086 0.9967
5.1565 -1.1036 0.9818
5.1885 -0.9168 0.9815
5.1857 -0.7252 0.9759
5.1830 -0.5357 0.9717
5.1804 -0.3478 0.9688
5.1777 -0.1610 0.9671
5.1751 0.0252 0.9668
5.1724 0.2113 0.9676
5.1698 0.3977 0.9698
5.1671 0.5850 0.9732
5.1645 0.7737 0.9779
5.1618 0.9642 0.9839
5.1590 1.1570 0.9913
5.1562 1.3528 1.0000
5.1534 1.5521 1.0103
5.1505 1.7556 1.0221
5.1476 1.9638 1.0355
5.1445 2.1777 1.0506
5.1414 2.3978 1.0676
5.1382 2.6253 1.0865
5.0620 2.8203 1.0918
5.1314 3.1058 1.1308
5.1277 3.3614 1.1566
5.1240 3.6289 1.1852
5.1200 3.9099 1.2167
5.1158 4.2064 1.2516
5.1113 4.5204 1.2902
5.0811 4.8302 1.3264
5.0450 5.1538 1.3653
4.9449 6.7701 1.5905
4.6958 6.9400 1.5905
4.4409 7.1008 1.5905
4.1806 7.2525 1.5905
3.9152 7.3947 1.5905
3.6450 7.5273 1.5905
3.3704 7.6501 1.5905
3.0917 7.7631 1.5905
2.8093 7.8661 1.5905
2.5236 7.9589 1.5905
0.8509 3.0617 0.6056
0.7402 3.0904 0.6058
0.6286 3.1151 0.6060
0.5161 3.1357 0.6062
0.4030 3.1524 0.6064
0.2893 3.1650 0.6066
0.1753 3.1736 0.6068
0.0610 3.1781 0.6070
-0.0533 3.1785 0.6072
-0.1677 3.1748 0.6074
-0.2818 3.1671 0.6076
-0.3956 3.1553 0.6077
-0.5089 3.1394 0.6079
-0.6217 3.1195 0.6081
-0.7336 3.0956 0.6082
-0.8446 3.0677 0.6083
-2.6570 8.4498 1.6936
-2.9592 8.3485 1.6936
-3.2576 8.2366 1.6936
-3.5518 8.1142 1.6936
-3.8416 7.9815 1.6936
-4.1265 7.8386 1.6936
-4.4062 7.6857 1.6936
-4.6803 7.5230 1.6936
-4.9486 7.3506 1.6936
-5.2106 7.1689 1.6936
-5.4660 6.9780 1.6936
-5.7146 6.7781 1.6936
-5.9560 6.5695 1.6936
-6.1899 6.3524 1.6936
-6.4160 6.1272 1.6936
-6.6341 5.8940 1.6936
-6.8438 5.6532 1.6936
-6.9855 5.3594 1.6793
-6.9816 4.9679 1.6338
-6.9865 4.6020 1.5946
-7.1311 4.3378 1.5904
-7.2853 4.0800 1.5904
-7.4303 3.8168 1.5904
-7.5659 3.5485 1.5904
-7.6920 3.2755 1.5904
-7.8084 2.9981 1.5904
-7.9148 2.7165 1.5904
-8.0112 2.4312 1.5904
-8.0975 2.1426 1.5904
-8.1734 1.8509 1.5904
-8.2389 1.5565 1.5904
-8.2940 1.2599 1.5904
-8.3384 0.9613 1.5904
-8.3722 0.6611 1.5904
-8.3953 0.3598 1.5904
-8.4076 0.0577 1.5904
-8.4091 -0.2449 1.5904
-8.3997 -0.5474 1.5904
-8.3796 -0.8496 1.5904
-7.2813 -1.0040 1.3870
-8.3068 -1.4515 1.5904
-8.2543 -1.7503 1.5904
-8.1911 -2.0472 1.5904
-8.1172 -2.3419 1.5904
-8.0327 -2.6338 1.5904
-7.9377 -2.9228 1.5904
-7.8323 -3.2083 1.5904
-7.7167 -3.4899 1.5904
-7.5909 -3.7675 1.5904
0.5362 -8.1146 1.6936
0.8275 -8.0914 1.6936
1.1179 -8.0575 1.6936
1.3212 -7.5254 1.5905
1.5909 -7.4738 1.5905
1.8586 -7.4124 1.5905
2.1239 -7.3412 1.5905
2.3864 -7.2605 1.5905
2.6457 -7.1702 1.5905
2.9017 -7.0705 1.5905
3.1538 -6.9615 1.5905
3.4017 -6.8434 1.5905
3.6452 -6.7163 1.5905
3.8839 -6.5805 1.5905
4.1174 -6.4360 1.5905
4.3454 -6.2831 1.5905
4.5677 -6.1221 1.5905
4.7840 -5.9530 1.5905
4.9939 -5.7762 1.5905
5.1972 -5.5919 1.5905
5.1749 -5.1814 1.5260
5.1782 -4.1720 1.3868
5.1748 -3.8710 1.3481
5.2075 -3.6111 1.3224
5.2230 -3.3505 1.2953
5.2193 -3.0892 1.2664
5.2157 -2.8391 1.2404
5.2123 -2.5989 1.2171
5.2090 -2.3675 1.1961
5.2059 -2.1438 1.1774
5.2028 -1.9269 1.1608
5.1998 -1.7160 1.1461
5.1969 -1.5102 1.1332
5.1940 -1.3089 1.1221
5.1561 -1.1039 1.1051
5.1885 -0.9171 1.1048
5.1857 -0.7255 1.0985
5.1830 -0.5360 1.0937
5.1804 -0.3481 1.0903
5.1777 -0.1613 1.0884
5.1751 0.0249 1.0879
5.1724 0.2109 1.0888
5.1698 0.3974 1.0911
5.1671 0.5847 1.0949
5.1645 0.7733 1.1001
5.1618 0.9638 1.1068
5.1590 1.1566 1.1150
5.1563 1.3524 1.1248
5.1534 1.5517 1.1363
5.1505 1.7551 1.1495
5.1476 1.9634 1.1645
5.1445 2.1772 1.1814
5.1414 2.3974 1.2004
5.1382 2.6248 1.2216
5.0618 2.8197 1.2274
5.1314 3.1053 1.2713
5.1278 3.3609 1.3002
5.0994 3.6109 1.3258
5.0645 3.8670 1.3528
5.0604 4.1603 1.3915
5.0322 5.5243 1.5905
4.8280 5.6989 1.5905
4.6176 5.8660 1.5905
4.4016 6.0255 1.5905
4.1801 6.1770 1.5905
3.9534 6.3206 1.5905
3.7219 6.4559 1.5905
3.4858 6.5828 1.5905
3.2454 6.7012 1.5905
3.0011 6.8109 1.5905
2.7531 6.9118 1.5905
2.5017 7.0038 1.5905
0.8550 2.6959 0.6051
0.7574 2.7249 0.6053
0.6589 2.7504 0.6055
0.5595 2.7724 0.6057
0.4594 2.7908 0.6058
0.3587 2.8056 0.6060
0.2576 2.8168 0.6062
0.1561 2.8244 0.6064
0.0544 2.8284 0.6066
-0.0474 2.8287 0.6067
-0.1492 2.8254 0.6069
-0.2508 2.8185 0.6070
-0.3520 2.8079 0.6072
-0.4529 2.7938 0.6073
-0.5532 2.7760 0.6075
-0.6528 2.7547 0.6076
-0.7516 2.7298 0.6077
-0.8494 2.7014 0.6079
-2.6359 7.4366 1.6936
-2.9017 7.3369 1.6936
-3.1639 7.2278 1.6936
-3.4220 7.1095 1.6936
-3.6758 6.9822 1.6936
-3.9249 6.8459 1.6936
-4.1690 6.7009 1.6936
-4.4079 6.5473 1.6936
-4.6412 6.3853 1.6936
-4.8687 6.2151 1.6936
-5.0900 6.0370 1.6936
-5.3049 5.8510 1.6936
-5.5131 5.6576 1.6936
-5.7144 5.4568 1.6936
-5.9084 5.2489 1.6936
-6.0950 5.0343 1.6936
-6.2739 4.8131 1.6936
-6.4449 4.5856 1.6936
-6.6078 4.3522 1.6936
-6.7623 4.1130 1.6936
-6.9082 3.8684 1.6936
-6.9602 3.5749 1.6731
-6.9557 3.2619 1.6421
-6.9578 2.9624 1.6158
-6.9597 2.6718 1.5922
-7.0460 2.4179 1.5904
-7.1526 2.1702 1.5951
-7.2079 1.9067 1.5904
-7.2751 1.6470 1.5904
-7.3330 1.3849 1.5904
-7.3816 1.1208 1.5904
-7.4207 0.8550 1.5904
-7.4504 0.5878 1.5904
-7.4704 0.3197 1.5904
-7.4809 0.0508 1.5904
-7.4818 -0.2184 1.5904
-7.4731 -0.4876 1.5904
-7.4546 -0.7564 1.5904
-7.2741 -1.0035 1.5577
-7.3890 -1.2916 1.5904
-7.3418 -1.5573 1.5904
-7.2850 -1.8213 1.5904
-7.2188 -2.0833 1.5904
-7.1432 -2.3428 1.5904
-7.0583 -2.5995 1.5904
-6.9641 -2.8532 1.5904
-6.8771 -3.1109 1.5941
-6.8667 -3.4087 1.6182
0.4817 -7.2883 1.6936
0.7434 -7.2673 1.6936
1.0041 -7.2368 1.6936
1.2373 -7.0467 1.6583
1.4289 -6.7124 1.5905
1.6693 -6.6572 1.5905
1.9075 -6.5932 1.5905
2.1432 -6.5207 1.5905
2.3762 -6.4396 1.5905
2.6060 -6.3500 1.5905
2.8324 -6.2522 1.5905
3.0551 -6.1462 1.5905
3.2738 -6.0321 1.5905
3.4881 -5.9101 1.5905
3.6979 -5.7804 1.5905
3.9027 -5.6432 1.5905
4.1024 -5.4986 1.5905
4.2967 -5.3469 1.5905
4.4853 -5.1882 1.5905
4.6680 -5.0228 1.5905
4.8445 -4.8509 1.5905
5.0146 -4.6727 1.5905
5.1781 -4.4884 1.5905
5.1631 -3.0563 1.3945
5.1580 -2.8080 1.3654
5.1614 -2.5739 1.3414
5.1851 -2.3569 1.3252
5.2059 -2.1441 1.3104
5.2028 -1.9272 1.2918
5.1998 -1.7163 1.2754
5.1969 -1.5105 1.2611
5.1940 -1.3092 1.2487
5.1558 -1.1041 1.2296
5.1885 -0.9175 1.2293
5.1857 -0.7259 1.2222
5.1831 -0.5364 1.2168
5.1804 -0.3485 1.2130
5.1777 -0.1617 1.2108
5.1751 0.0245 1.2102
5.1725 0.2106 1.2111
5.1698 0.3970 1.2137
5.1672 0.5843 1.2178
5.1645 0.7729 1.2235
5.1618 0.9634 1.2309
5.1590 1.1562 1.2400
5.1563 1.3520 1.2508
5.1534 1.5513 1.2635
5.1505 1.7547 1.2781
5.1476 1.9630 1.2947
5.1446 2.1768 1.3135
5.1141 2.3842 1.3274
5.0843 2.5968 1.3437
5.0616 2.8191 1.3643
5.0765 3.0716 1.3979
5.0453 4.4608 1.5905
4.8793 4.6372 1.5905
4.7072 4.8074 1.5905
4.5292 4.9714 1.5905
4.3455 5.1288 1.5905
4.1564 5.2794 1.5905
3.9621 5.4232 1.5905
3.7629 5.5599 1.5905
3.5591 5.6893 1.5905
3.3508 5.8113 1.5905
3.1384 5.9258 1.5905
2.9220 6.0326 1.5905
2.7022 6.1316 1.5905
2.4790 6.2227 1.5905
0.8564 2.3972 0.6047
0.7696 2.4264 0.6048
0.6818 2.4525 0.6050
0.5931 2.4755 0.6052
0.5037 2.4952 0.6054
0.4136 2.5118 0.6055
0.3230 2.5251 0.6057
0.2319 2.5352 0.6059
0.1406 2.5420 0.6060
0.0490 2.5456 0.6062
-0.0426 2.5458 0.6063
-0.1342 2.5428 0.6065
-0.2256 2.5366 0.6066
-0.3167 2.5271 0.6067
-0.4075 2.5143 0.6069
-0.4978 2.4983 0.6070
-0.5874 2.4790 0.6071
-0.6763 2.4566 0.6072
-0.7644 2.4310 0.6073
-0.8515 2.4023 0.6074
-2.6135 6.6080 1.6936
-2.8496 6.5098 1.6936
-3.0821 6.4032 1.6936
-3.3106 6.2885 1.6936
-3.5350 6.1657 1.6936
-3.7549 6.0350 1.6936
-3.9700 5.8966 1.6936
-4.1801 5.7506 1.6936
-4.3849 5.5973 1.6936
-4.5841 5.4367 1.6936
-4.7776 5.2692 1.6936
-4.9650 5.0948 1.6936
-5.1462 4.9139 1.6936
-5.3208 4.7266 1.6936
-5.4887 4.5332 1.6936
-5.6497 4.3339 1.6936
-5.8035 4.1289 1.6936
-5.9500 3.9186 1.6936
-6.0889 3.7031 1.6936
-6.2202 3.4827 1.6936
-6.3435 3.2577 1.6936
-6.4588 3.0285 1.6936
-6.5659 2.7951 1.6936
-6.6646 2.5581 1.6936
-6.7549 2.3175 1.6936
-6.8365 2.0739 1.6936
-6.9095 1.8274 1.6936
-6.9317 1.5688 1.6834
-6.9280 1.3080 1.6693
-6.9244 1.0509 1.6575
-6.9208 0.7969 1.6480
-6.9172 0.5453 1.6407
-6.9148 0.2954 1.6358
-6.9120 0.0465 1.6329
-6.9087 -0.2021 1.6320
-6.9049 -0.4510 1.6331
-6.9006 -0.7007 1.6362
-6.8959 -0.9518 1.6414
-6.8923 -1.2053 1.6490
-6.8887 -1.4617 1.6588
-6.8850 -1.7219 1.6709
-6.8813 -1.9864 1.6854
-6.8421 -2.2446 1.6936
-6.7603 -2.4904 1.6936
-6.6698 -2.7332 1.6936
-6.5706 -2.9728 1.6936
-6.4627 -3.2087 1.6936
0.4369 -6.6082 1.6936
0.6741 -6.5891 1.6936
0.9106 -6.5614 1.6936
1.1458 -6.5251 1.6936
1.2956 -6.0858 1.5905
1.5135 -6.0358 1.5905
1.7295 -5.9778 1.5905
1.9432 -5.9120 1.5905
2.1544 -5.8384 1.5905
2.3627 -5.7573 1.5905
2.5680 -5.6686 1.5905
2.7699 -5.5725 1.5905
2.9681 -5.4691 1.5905
3.1625 -5.3585 1.5905
3.3527 -5.2410 1.5905
3.5385 -5.1167 1.5905
3.7195 -4.9856 1.5905
3.8957 -4.8481 1.5905
4.0668 -4.7043 1.5905
4.2325 -4.5544 1.5905
4.3926 -4.3986 1.5905
4.5469 -4.2371 1.5905
4.6952 -4.0702 1.5905
4.8373 -3.8980 1.5905
4.9730 -3.7207 1.5905
5.1022 -3.5387 1.5905
5.1773 -1.9182 1.4173
5.1435 -1.6980 1.3909
5.1390 -1.4940 1.3748
5.1369 -1.2951 1.3614
5.1352 -1.1001 1.3502
5.1373 -0.9088 1.3418
5.1435 -0.7203 1.3363
5.1478 -0.5331 1.3321
5.1500 -0.3468 1.3292
5.1502 -0.1612 1.3274
5.1484 0.0240 1.3269
5.1447 0.2091 1.3276
5.1389 0.3943 1.3295
5.1312 0.5798 1.3326
5.1214 0.7661 1.3370
5.1095 0.9532 1.3426
5.1033 1.1433 1.3515
5.0994 1.3367 1.3630
5.0962 1.5336 1.3766
5.0950 1.7354 1.3929
5.1284 1.9552 1.4210
5.0615 2.8186 1.5027
4.9980 3.5380 1.5905
4.8654 3.7138 1.5905
4.7266 3.8847 1.5905
4.5818 4.0504 1.5905
4.4313 4.2108 1.5905
4.2751 4.3655 1.5905
4.1136 4.5146 1.5905
3.9470 4.6577 1.5905
3.7754 4.7948 1.5905
3.5990 4.9255 1.5905
3.4182 5.0499 1.5905
3.2331 5.1676 1.5905
3.0440 5.2787 1.5905
2.8512 5.3828 1.5905
2.6548 5.4801 1.5905
2.4551 5.5702 1.5905
0.8558 2.1479 0.6043
0.7779 2.1772 0.6045
0.6991 2.2038 0.6046
0.6194 2.2274 0.6048
0.5388 2.2483 0.6050
0.4576 2.2662 0.6051
0.3757 2.2812 0.6053
0.2934 2.2933 0.6054
0.2107 2.3025 0.6056
0.1277 2.3087 0.6057
0.0446 2.3119 0.6059
-0.0386 2.3121 0.6060
-0.1218 2.3094 0.6061
-0.2049 2.3037 0.6063
-0.2876 2.2950 0.6064
-0.3701 2.2834 0.6065
-0.4520 2.2688 0.6066
-0.5334 2.2513 0.6067
-0.6142 2.2309 0.6068
-0.6942 2.2077 0.6069
-0.7733 2.1816 0.6070
-0.8514 2.1526 0.6071
-2.5896 5.9157 1.6936
-2.8008 5.8189 1.6936
-3.0086 5.7146 1.6936
-3.2124 5.6030 1.6936
-3.4123 5.4842 1.6936
-3.6077 5.3583 1.6936
-3.7986 5.2256 1.6936
-3.9847 5.0862 1.6936
-4.1657 4.9402 1.6936
-4.3415 4.7879 1.6936
-4.5117 4.6294 1.6936
-4.6762 4.4649 1.6936
-4.8348 4.2946 1.6936
-4.9873 4.1187 1.6936
-5.1335 3.9375 1.6936
-5.2731 3.7512 1.6936
-5.4061 3.5600 1.6936
-5.5322 3.3641 1.6936
-5.6512 3.1638 1.6936
-5.7632 2.9593 1.6936
-5.8677 2.7509 1.6936
-5.9648 2.5389 1.6936
-6.0543 2.3234 1.6936
-6.1361 2.1049 1.6936
-6.2101 1.8835 1.6936
-6.2761 1.6594 1.6936
-6.3342 1.4331 1.6936
-6.3841 1.2048 1.6936
-6.4258 0.9748 1.6936
-6.4594 0.7434 1.6936
-6.4846 0.5107 1.6936
-6.5015 0.2773 1.6936
-6.5101 0.0433 1.6936
-6.5102 -0.1909 1.6936
-6.5020 -0.4251 1.6936
-6.4854 -0.6590 1.6936
-6.4604 -0.8922 1.6936
-6.4270 -1.1244 1.6936
-6.3854 -1.3554 1.6936
-6.3354 -1.5849 1.6936
-6.2772 -1.8125 1.6936
-6.2109 -2.0380 1.6936
-6.1364 -2.2611 1.6936
-6.0540 -2.4814 1.6936
-5.9636 -2.6987 1.6936
-5.8654 -2.9127 1.6936
0.3994 -6.0383 1.6936
0.6161 -6.0208 1.6936
0.8321 -5.9954 1.6936
1.0470 -5.9622 1.6936
1.2192 -5.7263 1.6379
1.3830 -5.5150 1.5905
1.5803 -5.4620 1.5905
1.7756 -5.4019 1.5905
1.9685 -5.3347 1.5905
2.1588 -5.2605 1.5905
2.3464 -5.1795 1.5905
2.5309 -5.0917 1.5905
2.7120 -4.9972 1.5905
2.8896 -4.8963 1.5905
3.0634 -4.7889 1.5905
3.2331 -4.6754 1.5905
3.3986 -4.5557 1.5905
3.5597 -4.4301 1.5905
3.7160 -4.2988 1.5905
3.8674 -4.1619 1.5905
4.0138 -4.0196 1.5905
4.1548 -3.8720 1.5905
4.2904 -3.7196 1.5905
4.4204 -3.5623 1.5905
4.5445 -3.4004 1.5905
4.6626 -3.2342 1.5905
4.7746 -3.0638 1.5905
4.8803 -2.8895 1.5905
4.9796 -2.7115 1.5905
5.0724 -2.5301 1.5905
5.1585 -2.3455 1.5905
5.1549 -1.1046 1.4827
5.0884 2.3713 1.5905
4.9977 2.5516 1.5905
4.9006 2.7285 1.5905
4.7973 2.9017 1.5905
4.6879 3.0711 1.5905
4.5725 3.2363 1.5905
4.4513 3.3973 1.5905
4.3245 3.5537 1.5905
4.1922 3.7054 1.5905
4.0546 3.8523 1.5905
3.9119 3.9940 1.5905
3.7642 4.1306 1.5905
3.6119 4.2617 1.5905
3.4549 4.3872 1.5905
3.2937 4.5070 1.5905
3.1283 4.6209 1.5905
2.9590 4.7288 1.5905
2.7860 4.8306 1.5905
2.6096 4.9261 1.5905
2.4299 5.0152 1.5905
0.8534 1.9360 0.6040
0.7832 1.9654 0.6042
0.7120 1.9922 0.6043
0.6398 2.0165 0.6045
0.5668 2.0382 0.6046
0.4931 2.0572 0.6048
0.4188 2.0737 0.6049
0.3439 2.0874 0.6051
0.2686 2.0985 0.6052
0.1929 2.1068 0.6053
0.1170 2.1125 0.6055
0.0409 2.1154 0.6056
-0.0353 2.1156 0.6057
-0.1114 2.1131 0.6058
-0.1874 2.1079 0.6060
-0.2631 2.0999 0.6061
-0.3386 2.0893 0.6062
-0.4136 2.0759 0.6063
-0.4881 2.0599 0.6064
-0.5619 2.0412 0.6065
-0.6351 2.0199 0.6066
-0.7075 1.9960 0.6067
-0.7789 1.9695 0.6067
-0.8494 1.9404 0.6068
-2.5641 5.3270 1.6936
-2.7543 5.2315 1.6936
-2.9409 5.1293 1.6936
-3.1238 5.0205 1.6936
-3.3027 4.9052 1.6936
-3.4775 4.7837 1.6936
-3.6478 4.6560 1.6936
-3.8135 4.5223 1.6936
-3.9743 4.3828 1.6936
-4.1301 4.2376 1.6936
-4.2807 4.0869 1.6936
-4.4258 3.9310 1.6936
-4.5653 3.7700 1.6936
-4.6990 3.6040 1.6936
-4.8268 3.4334 1.6936
-4.9484 3.2583 1.6936
-5.0637 3.0789 1.6936
-5.1726 2.8955 1.6936
-5.2749 2.7083 1.6936
-5.3704 2.5175 1.6936
-5.4592 2.3233 1.6936
-5.5410 2.1261 1.6936
-5.6157 1.9260 1.6936
-5.6832 1.7233 1.6936
-5.7435 1.5182 1.6936
-5.7964 1.3111 1.6936
-5.8419 1.1021 1.6936
-5.8799 0.8916 1.6936
-5.9104 0.6798 1.6936
-5.9333 0.4669 1.6936
-5.9486 0.2533 1.6936
-5.9562 0.0392 1.6936
-5.9562 -0.1751 1.6936
-5.9484 -0.3894 1.6936
-5.9330 -0.6033 1.6936
-5.9099 -0.8166 1.6936
-5.8792 -1.0290 1.6936
-5.8409 -1.2403 1.6936
-5.7950 -1.4502 1.6936
-5.7415 -1.6583 1.6936
-5.6806 -1.8645 1.6936
-5.6123 -2.0684 1.6936
-5.5367 -2.2699 1.6936
-5.4538 -2.4685 1.6936
-5.3639 -2.6641 1.6936
0.3674 -5.5533 1.6936
0.5667 -5.5371 1.6936
0.7654 -5.5138 1.6936
0.9630 -5.4832 1.6936
1.1594 -5.4454 1.6936
1.2719 -5.0719 1.5905
1.4534 -5.0231 1.5905
1.6329 -4.9678 1.5905
1.8103 -4.9060 1.5905
1.9854 -4.8378 1.5905
2.1578 -4.7633 1.5905
2.3274 -4.6826 1.5905
2.4940 -4.5957 1.5905
2.6574 -4.5029 1.5905
2.8172 -4.4042 1.5905
2.9733 -4.2998 1.5905
3.1255 -4.1898 1.5905
3.2736 -4.0744 1.5905
3.4175 -3.9536 1.5905
3.5568 -3.8278 1.5905
3.6914 -3.6969 1.5905
3.8212 -3.5613 1.5905
3.9459 -3.4211 1.5905
4.0655 -3.2765 1.5905
4.1797 -3.1277 1.5905
4.2884 -2.9749 1.5905
4.3915 -2.8182 1.5905
4.4888 -2.6580 1.5905
4.5803 -2.4943 1.5905
4.6657 -2.3276 1.5905
4.7450 -2.1578 1.5905
4.8181 -1.9854 1.5905
4.8848 -1.8104 1.5905
4.9452 -1.6332 1.5905
4.9991 -1.4540 1.5905
5.0465 -1.2730 1.5905
5.0873 -1.0905 1.5905
5.1215 -0.9066 1.5905
5.1489 -0.7218 1.5905
5.1268 0.7661 1.5905
5.0939 0.9495 1.5905
5.0545 1.1316 1.5905
5.0086 1.3121 1.5905
4.9561 1.4907 1.5905
4.8974 1.6672 1.5905
4.8324 1.8415 1.5905
4.7611 2.0132 1.5905
4.6838 2.1823 1.5905
4.6004 2.3483 1.5905
4.5112 2.5112 1.5905
4.4162 2.6708 1.5905
4.3156 2.8267 1.5905
4.2096 2.9790 1.5905
4.0981 3.1272 1.5905
3.9815 3.2713 1.5905
3.8598 3.4111 1.5905
3.7332 3.5464 1.5905
3.6019 3.6771 1.5905
3.4660 3.8029 1.5905
3.3258 3.9237 1.5905
3.1814 4.0394 1.5905
3.0330 4.1498 1.5905
2.8809 4.2548 1.5905
2.7250 4.3543 1.5905
2.5658 4.4481 1.5905
2.4034 4.5362 1.5905
0.8496 1.7532 0.6038
0.7859 1.7826 0.6039
0.7212 1.8096 0.6041
0.6556 1.8343 0.6042
0.5892 1.8567 0.6044
0.5220 1.8766 0.6045
0.4541 1.8942 0.6046
0.3857 1.9093 0.6048
0.3167 1.9220 0.6049
0.2473 1.9321 0.6050
0.1777 1.9398 0.6051
0.1077 1.9450 0.6053
0.0377 1.9477 0.6054
-0.0324 1.9479 0.6055
-0.1025 1.9456 0.6056
-0.1725 1.9407 0.6057
-0.2422 1.9334 0.6058
-0.3117 1.9236 0.6059
-0.3807 1.9113 0.6060
-0.4493 1.8965 0.6061
-0.5173 1.8793 0.6062
-0.5847 1.8596 0.6063
-0.6513 1.8376 0.6064
-0.7171 1.8132 0.6064
-0.7820 1.7864 0.6065
-0.8459 1.7574 0.6066
-2.5371 4.8188 1.6936
-2.7090 4.7246 1.6936
-2.8775 4.6244 1.6936
-3.0423 4.5182 1.6936
-3.2032 4.4062 1.6936
-3.3600 4.2885 1.6936
-3.5127 4.1653 1.6936
-3.6608 4.0368 1.6936
-3.8042 3.9030 1.6936
-3.9429 3.7642 1.6936
-4.0765 3.6205 1.6936
-4.2049 3.4721 1.6936
-4.3280 3.3192 1.6936
-4.4456 3.1620 1.6936
-4.5575 3.0006 1.6936
-4.6637 2.8354 1.6936
-4.7639 2.6664 1.6936
-4.8580 2.4939 1.6936
-4.9459 2.3181 1.6936
-5.0275 2.1393 1.6936
-5.1027 1.9576 1.6936
-5.1714 1.7733 1.6936
-5.2334 1.5866 1.6936
-5.2888 1.3977 1.6936
-5.3374 1.2069 1.6936
-5.3792 1.0145 1.6936
-5.4141 0.8206 1.6936
-5.4420 0.6255 1.6936
-5.4629 0.4295 1.6936
-5.4768 0.2328 1.6936
-5.4837 0.0357 1.6936
-5.4835 -0.1616 1.6936
-5.4762 -0.3589 1.6936
-5.4618 -0.5558 1.6936
-5.4404 -0.7521 1.6936
-5.4120 -0.9477 1.6936
-5.3765 -1.1421 1.6936
-5.3341 -1.3353 1.6936
-5.2847 -1.5268 1.6936
-5.2285 -1.7165 1.6936
-5.1655 -1.9042 1.6936
-5.0957 -2.0895 1.6936
-5.0193 -2.2723 1.6936
-4.9363 -2.4523 1.6936
0.3399 -5.1351 1.6936
0.5242 -5.1202 1.6936
0.7078 -5.0985 1.6936
0.8905 -5.0702 1.6936
1.0722 -5.0353 1.6936
1.2074 -4.8143 1.6328
1.3439 -4.6447 1.5905
1.5099 -4.5936 1.5905
1.6739 -4.5365 1.5905
1.8358 -4.4734 1.5905
1.9953 -4.4045 1.5905
2.1521 -4.3299 1.5905
2.3061 -4.2496 1.5905
2.4572 -4.1638 1.5905
2.6050 -4.0726 1.5905
2.7493 -3.9760 1.5905
2.8901 -3.8743 1.5905
3.0271 -3.7676 1.5905
3.1601 -3.6560 1.5905
3.2889 -3.5397 1.5905
3.4134 -3.4188 1.5905
3.5335 -3.2934 1.5905
3.6489 -3.1638 1.5905
3.7595 -3.0301 1.5905
3.8651 -2.8926 1.5905
3.9658 -2.7513 1.5905
4.0611 -2.6065 1.5905
4.1512 -2.4583 1.5905
4.2358 -2.3070 1.5905
4.3149 -2.1528 1.5905
4.3883 -1.9959 1.5905
4.4560 -1.8365 1.5905
4.5178 -1.6747 1.5905
4.5738 -1.5108 1.5905
4.6237 -1.3451 1.5905
4.6676 -1.1778 1.5905
4.7055 -1.0090 1.5905
4.7372 -0.8389 1.5905
4.7627 -0.6679 1.5905
4.7821 -0.4962 1.5905
4.7952 -0.3239 1.5905
4.8020 -0.1513 1.5905
4.8027 0.0214 1.5905
4.7971 0.1939 1.5905
4.7853 0.3661 1.5905
4.7673 0.5377 1.5905
4.7432 0.7084 1.5905
4.7129 0.8781 1.5905
4.6766 1.0466 1.5905
4.6342 1.2136 1.5905
4.5859 1.3789 1.5905
4.5316 1.5423 1.5905
4.4716 1.7036 1.5905
4.4057 1.8626 1.5905
4.3343 2.0190 1.5905
4.2573 2.1727 1.5905
4.1749 2.3236 1.5905
4.0871 2.4713 1.5905
3.9941 2.6157 1.5905
3.8960 2.7566 1.5905
3.7930 2.8939 1.5905
3.6851 3.0274 1.5905
3.5726 3.1568 1.5905
3.4555 3.2821 1.5905
3.3341 3.4032 1.5905
3.2084 3.5197 1.5905
3.0787 3.6316 1.5905
2.9451 3.7388 1.5905
2.8078 3.8411 1.5905
2.6670 3.9384 1.5905
2.5228 4.0306 1.5905
0.9012 1.5622 0.6034
0.8444 1.5935 0.6036
0.7865 1.6228 0.6037
0.7275 1.6499 0.6038
0.6677 1.6750 0.6040
0.6069 1.6979 0.6041
0.5454 1.7186 0.6042
0.4833 1.7370 0.6044
0.4204 1.7533 0.6045
0.3570 1.7673 0.6046
0.2932 1.7790 0.6047
0.2290 1.7884 0.6048
0.1645 1.7955 0.6050
0.0998 1.8003 0.6051
0.0349 1.8028 0.6052
-0.0300 1.8030 0.6053
-0.0949 1.8008 0.6054
-0.1596 1.7963 0.6055
-0.2242 1.7895 0.6056
-0.2885 1.7804 0.6057
-0.3524 1.7690 0.6058
-0.4158 1.7553 0.6059
-0.4788 1.7394 0.6059
-0.5412 1.7212 0.6060
-0.6028 1.7008 0.6061
-0.6637 1.6781 0.6062
-0.7238 1.6534 0.6062
-0.7829 1.6264 0.6063
-0.8410 1.5974 0.6063
-2.5084 4.3746 1.6936
-2.6644 4.2818 1.6936
-2.8170 4.1834 1.6936
-2.9660 4.0797 1.6936
-3.1112 3.9707 1.6936
-3.2525 3.8566 1.6936
-3.3896 3.7375 1.6936
-3.5224 3.6136 1.6936
-3.6507 3.4850 1.6936
-3.7744 3.3520 1.6936
-3.8933 3.2145 1.6936
-4.0072 3.0729 1.6936
-4.1160 2.9273 1.6936
-4.2196 2.7779 1.6936
-4.3178 2.6248 1.6936
-4.4105 2.4683 1.6936
-4.4975 2.3086 1.6936
-4.5789 2.1458 1.6936
-4.6543 1.9802 1.6936
-4.7238 1.8119 1.6936
-4.7873 1.6412 1.6936
-4.8447 1.4684 1.6936
-4.8958 1.2935 1.6936
-4.9407 1.1169 1.6936
-4.9793 0.9387 1.6936
-5.0114 0.7592 1.6936
-5.0372 0.5787 1.6936
-5.0564 0.3972 1.6936
-5.0691 0.2151 1.6936
-5.0754 0.0327 1.6936
-5.0750 -0.1499 1.6936
-5.0682 -0.3325 1.6936
-5.0548 -0.5148 1.6936
-5.0348 -0.6965 1.6936
-5.0083 -0.8774 1.6936
-4.9754 -1.0573 1.6936
-4.9360 -1.2360 1.6936
-4.8902 -1.4133 1.6936
-4.8380 -1.5888 1.6936
-4.7796 -1.7623 1.6936
-4.7149 -1.9338 1.6936
-4.6441 -2.1028 1.6936
-4.5672 -2.2693 1.6936
0.3159 -4.7705 1.6936
0.4871 -4.7566 1.6936
0.6576 -4.7365 1.6936
0.8274 -4.7101 1.6936
0.9961 -4.6777 1.6936
1.1635 -4.6391 1.6936
1.2485 -4.3148 1.5905
1.4027 -4.2673 1.5905
1.5551 -4.2143 1.5905
1.7054 -4.1557 1.5905
1.8536 -4.0917 1.5905
1.9993 -4.0224 1.5905
2.1423 -3.9478 1.5905
2.2826 -3.8681 1.5905
2.4199 -3.7834 1.5905
2.5540 -3.6938 1.5905
2.6848 -3.5993 1.5905
2.8121 -3.5002 1.5905
2.9356 -3.3966 1.5905
3.0554 -3.2885 1.5905
3.1710 -3.1762 1.5905
3.2826 -3.0598 1.5905
3.3899 -2.9394 1.5905
3.4926 -2.8153 1.5905
3.5908 -2.6875 1.5905
3.6843 -2.5563 1.5905
3.7730 -2.4218 1.5905
3.8567 -2.2842 1.5905
3.9354 -2.1437 1.5905
4.0089 -2.0005 1.5905
4.0772 -1.8547 1.5905
4.1402 -1.7066 1.5905
4.1977 -1.5563 1.5905
4.2498 -1.4041 1.5905
4.2963 -1.2502 1.5905
4.3372 -1.0947 1.5905
4.3724 -0.9378 1.5905
4.4019 -0.7799 1.5905
4.4258 -0.6210 1.5905
4.4438 -0.4614 1.5905
4.4561 -0.3013 1.5905
4.4626 -0.1409 1.5905
4.4633 0.0195 1.5905
4.4582 0.1799 1.5905
4.4474 0.3399 1.5905
4.4308 0.4994 1.5905
4.4085 0.6581 1.5905
4.3804 0.8158 1.5905
4.3467 0.9724 1.5905
4.3074 1.1277 1.5905
4.2626 1.2813 1.5905
4.2123 1.4332 1.5905
4.1565 1.5832 1.5905
4.0955 1.7310 1.5905
4.0292 1.8765 1.5905
3.9577 2.0194 1.5905
3.8811 2.1597 1.5905
3.7996 2.2971 1.5905
3.7133 2.4314 1.5905
3.6222 2.5624 1.5905
3.5264 2.6901 1.5905
3.4262 2.8143 1.5905
3.3217 2.9347 1.5905
3.2129 3.0513 1.5905
3.1001 3.1639 1.5905
2.9833 3.2723 1.5905
2.8628 3.3764 1.5905
2.7386 3.4762 1.5905
2.6110 3.5714 1.5905
2.4801 3.6619 1.5905
0.8898 1.4215 0.6033
0.8381 1.4525 0.6034
0.7852 1.4816 0.6035
0.7314 1.5088 0.6036
0.6765 1.5341 0.6038
0.6209 1.5573 0.6039
0.5644 1.5786 0.6040
0.5072 1.5979 0.6041
0.4494 1.6151 0.6043
0.3910 1.6302 0.6044
0.3320 1.6432 0.6045
0.2727 1.6540 0.6046
0.2130 1.6628 0.6047
0.1530 1.6694 0.6048
0.0928 1.6739 0.6049
0.0325 1.6762 0.6050
-0.0278 1.6763 0.6051
-0.0881 1.6743 0.6052
-0.1484 1.6701 0.6053
-0.2084 1.6638 0.6054
-0.2682 1.6553 0.6055
-0.3276 1.6447 0.6056
-0.3866 1.6320 0.6056
-0.4451 1.6171 0.6057
-0.5031 1.6002 0.6058
-0.5604 1.5812 0.6059
-0.6170 1.5602 0.6059
-0.6729 1.5371 0.6060
-0.7279 1.5121 0.6060
-0.7819 1.4851 0.6061
-0.8350 1.4561 0.6061
-0.8870 1.4253 0.6062
-2.6200 3.8908 1.6936
-2.7586 3.7943 1.6936
-2.8936 3.6929 1.6936
-3.0250 3.5867 1.6936
-3.1525 3.4759 1.6936
-3.2760 3.3607 1.6936
-3.3953 3.2410 1.6936
-3.5104 3.1172 1.6936
-3.6209 2.9894 1.6936
-3.7268 2.8576 1.6936
-3.8279 2.7222 1.6936
-3.9242 2.5831 1.6936
-4.0155 2.4408 1.6936
-4.1016 2.2952 1.6936
-4.1825 2.1466 1.6936
-4.2581 1.9952 1.6936
-4.3282 1.8411 1.6936
-4.3928 1.6846 1.6936
-4.4517 1.5259 1.6936
-4.5050 1.3651 1.6936
-4.5525 1.2025 1.6936
-4.5941 1.0382 1.6936
-4.6299 0.8725 1.6936
-4.6597 0.7056 1.6936
-4.6835 0.5377 1.6936
-4.7013 0.3690 1.6936
-4.7130 0.1997 1.6936
-4.7187 0.0300 1.6936
-4.7183 -0.1397 1.6936
-4.7118 -0.3095 1.6936
-4.6992 -0.4789 1.6936
-4.6806 -0.6478 1.6936
-4.6559 -0.8160 1.6936
-4.6251 -0.9833 1.6936
-4.5884 -1.1494 1.6936
-4.5457 -1.3141 1.6936
-4.4971 -1.4772 1.6936
-4.4426 -1.6385 1.6936
-4.3824 -1.7978 1.6936
-4.3165 -1.9549 1.6936
-4.2449 -2.1096 1.6936
0.2947 -4.4495 1.6936
0.4544 -4.4365 1.6936
0.6134 -4.4177 1.6936
0.7718 -4.3931 1.6936
0.9291 -4.3629 1.6936
1.0852 -4.3269 1.6936
1.1972 -4.1376 1.6352
1.3083 -3.9801 1.5905
1.4504 -3.9306 1.5905
1.5906 -3.8760 1.5905
1.7288 -3.8163 1.5905
1.8647 -3.7517 1.5905
1.9981 -3.6821 1.5905
2.1289 -3.6078 1.5905
2.2570 -3.5288 1.5905
2.3821 -3.4452 1.5905
2.5041 -3.3572 1.5905
2.6228 -3.2648 1.5905
2.7380 -3.1681 1.5905
2.8497 -3.0674 1.5905
2.9576 -2.9627 1.5905
3.0617 -2.8541 1.5905
3.1618 -2.7419 1.5905
3.2577 -2.6261 1.5905
3.3493 -2.5070 1.5905
3.4366 -2.3846 1.5905
3.5193 -2.2592 1.5905
3.5975 -2.1309 1.5905
3.6709 -1.9998 1.5905
3.7395 -1.8663 1.5905
3.8033 -1.7303 1.5905
3.8620 -1.5922 1.5905
3.9158 -1.4521 1.5905
3.9644 -1.3101 1.5905
4.0079 -1.1665 1.5905
4.0461 -1.0215 1.5905
4.0790 -0.8752 1.5905
4.1066 -0.7279 1.5905
4.1290 -0.5797 1.5905
4.1459 -0.4308 1.5905
4.1574 -0.2814 1.5905
4.1635 -0.1318 1.5905
4.1643 0.0179 1.5905
4.1596 0.1675 1.5905
4.1496 0.3168 1.5905
4.1342 0.4656 1.5905
4.1134 0.6137 1.5905
4.0873 0.7609 1.5905
4.0560 0.9070 1.5905
4.0194 1.0519 1.5905
3.9777 1.1953 1.5905
3.9308 1.3371 1.5905
3.8789 1.4771 1.5905
3.8220 1.6151 1.5905
3.7601 1.7508 1.5905
3.6935 1.8843 1.5905
3.6222 2.0152 1.5905
3.5462 2.1435 1.5905
3.4657 2.2689 1.5905
3.3807 2.3912 1.5905
3.2914 2.5105 1.5905
3.1980 2.6264 1.5905
3.1004 2.7388 1.5905
2.9990 2.8477 1.5905
2.8937 2.9528 1.5905
2.7848 3.0541 1.5905
2.6723 3.1514 1.5905
2.5565 3.2445 1.5905
2.4374 3.3334 1.5905
0.8779 1.2961 0.6031
0.8307 1.3267 0.6032
0.7823 1.3557 0.6034
0.7330 1.3829 0.6035
0.6827 1.4083 0.6036
0.6316 1.4319 0.6037
0.5796 1.4536 0.6038
0.5269 1.4735 0.6039
0.4735 1.4914 0.6040
0.4195 1.5075 0.6042
0.3650 1.5216 0.6043
0.3100 1.5337 0.6044
0.2546 1.5438 0.6045
0.1989 1.5520 0.6046
0.1429 1.5582 0.6047
0.0867 1.5623 0.6048
0.0304 1.5645 0.6049
-0.0259 1.5646 0.6050
-0.0822 1.5627 0.6050
-0.1385 1.5588 0.6051
-0.1945 1.5529 0.6052
-0.2503 1.5450 0.6053
-0.3058 1.5351 0.6054
-0.3608 1.5232 0.6054
-0.4154 1.5093 0.6055
-0.4696 1.4935 0.6056
-0.5231 1.4758 0.6056
-0.5759 1.4561 0.6057
-0.6280 1.4346 0.6058
-0.6793 1.4112 0.6058
-0.7298 1.3860 0.6059
-0.7793 1.3590 0.6059
-0.8278 1.3302 0.6059
-0.8752 1.2997 0.6060
-2.5755 3.5423 1.6936
-2.7016 3.4476 1.6936
-2.8243 3.3485 1.6936
-2.9433 3.2451 1.6936
-3.0586 3.1374 1.6936
-3.1700 3.0257 1.6936
-3.2773 2.9101 1.6936
-3.3805 2.7907 1.6936
-3.4793 2.6676 1.6936
-3.5737 2.5411 1.6936
-3.6636 2.4113 1.6936
-3.7487 2.2784 1.6936
-3.8291 2.1424 1.6936
-3.9045 2.0037 1.6936
-3.9750 1.8623 1.6936
-4.0404 1.7185 1.6936
-4.1006 1.5723 1.6936
-4.1556 1.4241 1.6936
-4.2053 1.2740 1.6936
-4.2495 1.1222 1.6936
-4.2883 0.9688 1.6936
-4.3216 0.8141 1.6936
-4.3494 0.6583 1.6936
-4.3715 0.5016 1.6936
-4.3881 0.3441 1.6936
-4.3990 0.1860 1.6936
-4.4042 0.0277 1.6936
-4.4037 -0.1308 1.6936
-4.3976 -0.2892 1.6936
-4.3857 -0.4473 1.6936
-4.3682 -0.6049 1.6936
-4.3451 -0.7619 1.6936
-4.3163 -0.9180 1.6936
-4.2819 -1.0729 1.6936
-4.2420 -1.2267 1.6936
-4.1965 -1.3789 1.6936
-4.1457 -1.5294 1.6936
-4.0894 -1.6780 1.6936
-4.0278 -1.8246 1.6936
-3.9609 -1.9688 1.6936
0.2759 -4.1645 1.6936
0.4254 -4.1523 1.6936
0.5742 -4.1347 1.6936
0.7224 -4.1116 1.6936
0.8696 -4.0833 1.6936
1.0157 -4.0496 1.6936
1.1605 -4.0107 1.6936
1.2245 -3.7251 1.5905
1.3574 -3.6787 1.5905
1.4887 -3.6276 1.5905
1.6180 -3.5718 1.5905
1.7451 -3.5113 1.5905
1.8700 -3.4462 1.5905
1.9925 -3.3767 1.5905
2.1123 -3.3028 1.5905
2.2294 -3.2246 1.5905
2.3436 -3.1422 1.5905
2.4547 -3.0557 1.5905
2.5626 -2.9653 1.5905
2.6671 -2.8710 1.5905
2.7681 -2.7730 1.5905
2.8656 -2.6714 1.5905
2.9592 -2.5664 1.5905
3.0490 -2.4581 1.5905
3.1348 -2.3466 1.5905
3.2165 -2.2321 1.5905
3.2940 -2.1148 1.5905
3.3672 -1.9947 1.5905
3.4359 -1.8721 1.5905
3.5002 -1.7471 1.5905
3.5599 -1.6199 1.5905
3.6150 -1.4906 1.5905
3.6653 -1.3594 1.5905
3.7109 -1.2266 1.5905
3.7516 -1.0922 1.5905
3.7874 -0.9565 1.5905
3.8183 -0.8195 1.5905
3.8443 -0.6816 1.5905
3.8652 -0.5429 1.5905
3.8811 -0.4036 1.5905
3.8920 -0.2638 1.5905
3.8978 -0.1237 1.5905
3.8986 0.0165 1.5905
3.8943 0.1565 1.5905
3.8849 0.2963 1.5905
3.8706 0.4356 1.5905
3.8512 0.5743 1.5905
3.8268 0.7121 1.5905
3.7976 0.8489 1.5905
3.7634 0.9846 1.5905
3.7244 1.1189 1.5905
3.6806 1.2517 1.5905
3.6320 1.3827 1.5905
3.5788 1.5120 1.5905
3.5210 1.6391 1.5905
3.4587 1.7641 1.5905
3.3919 1.8868 1.5905
3.3208 2.0069 1.5905
3.2455 2.1243 1.5905
3.1660 2.2390 1.5905
3.0824 2.3507 1.5905
2.9950 2.4593 1.5905
2.9037 2.5646 1.5905
2.8087 2.6666 1.5905
2.7102 2.7651 1.5905
2.6082 2.8600 1.5905
2.5029 2.9512 1.5905
2.3944 3.0384 1.5905
0.8655 1.1835 0.6030
0.8223 1.2138 0.6031
0.7780 1.2425 0.6032
0.7328 1.2696 0.6033
0.6865 1.2951 0.6034
0.6395 1.3189 0.6035
0.5916 1.3409 0.6036
0.5429 1.3613 0.6038
0.4935 1.3799 0.6039
0.4435 1.3967 0.6040
0.3930 1.4118 0.6041
0.3419 1.4250 0.6042
0.2904 1.4363 0.6043
0.2385 1.4458 0.6044
0.1863 1.4535 0.6045
0.1338 1.4593 0.6046
0.0812 1.4632 0.6046
0.0285 1.4652 0.6047
-0.0242 1.4653 0.6048
-0.0770 1.4635 0.6049
-0.1296 1.4598 0.6050
-0.1821 1.4543 0.6051
-0.2343 1.4469 0.6051
-0.2863 1.4376 0.6052
-0.3379 1.4264 0.6053
-0.3890 1.4135 0.6053
-0.4397 1.3986 0.6054
-0.4898 1.3820 0.6055
-0.5393 1.3636 0.6055
-0.5881 1.3434 0.6056
-0.6362 1.3215 0.6056
-0.6834 1.2979 0.6057
-0.7298 1.2726 0.6057
-0.7752 1.2456 0.6057
-0.8196 1.2171 0.6058
-0.8630 1.1869 0.6058
-2.5308 3.2294 1.6936
-2.6456 3.1365 1.6936
-2.7571 3.0396 1.6936
-2.8651 2.9387 1.6936
-2.9694 2.8341 1.6936
-3.0700 2.7257 1.6936
-3.1665 2.6139 1.6936
-3.2591 2.4986 1.6936
-3.3475 2.3801 1.6936
-3.4316 2.2585 1.6936
-3.5114 2.1339 1.6936
-3.5866 2.0065 1.6936
-3.6573 1.8765 1.6936
-3.7232 1.7441 1.6936
-3.7844 1.6093 1.6936
-3.8408 1.4724 1.6936
-3.8922 1.3336 1.6936
-3.9387 1.1930 1.6936
-3.9801 1.0507 1.6936
-4.0164 0.9071 1.6936
-4.0475 0.7622 1.6936
-4.0734 0.6162 1.6936
-4.0941 0.4694 1.6936
-4.1095 0.3219 1.6936
-4.1196 0.1739 1.6936
-4.1245 0.0256 1.6936
-4.1239 -0.1228 1.6936
-4.1181 -0.2711 1.6936
-4.1069 -0.4192 1.6936
-4.0905 -0.5668 1.6936
-4.0687 -0.7138 1.6936
-4.0417 -0.8599 1.6936
-4.0094 -1.0050 1.6936
-3.9720 -1.1489 1.6936
-3.9294 -1.2914 1.6936
-3.8816 -1.4323 1.6936
-3.8289 -1.5715 1.6936
-3.7711 -1.7087 1.6936
-3.7084 -1.8437 1.6936
0.2591 -3.9094 1.6936
0.3994 -3.8979 1.6936
0.5391 -3.8814 1.6936
0.6782 -3.8598 1.6936
0.8164 -3.8331 1.6936
0.9536 -3.8015 1.6936
1.0895 -3.7649 1.6936
1.1886 -3.6158 1.6446
1.2743 -3.4533 1.5905
1.3975 -3.4054 1.5905
1.5188 -3.3529 1.5905
1.6382 -3.2962 1.5905
1.7554 -3.2351 1.5905
1.8704 -3.1699 1.5905
1.9829 -3.1005 1.5905
2.0928 -3.0271 1.5905
2.2000 -2.9497 1.5905
2.3043 -2.8686 1.5905
2.4056 -2.7837 1.5905
2.5037 -2.6952 1.5905
2.5986 -2.6033 1.5905
2.6900 -2.5080 1.5905
2.7779 -2.4094 1.5905
2.8622 -2.3077 1.5905
2.9428 -2.2031 1.5905
3.0195 -2.0957 1.5905
3.0923 -1.9855 1.5905
3.1610 -1.8728 1.5905
3.2256 -1.7577 1.5905
3.2860 -1.6404 1.5905
3.3421 -1.5210 1.5905
3.3938 -1.3996 1.5905
3.4412 -1.2765 1.5905
3.4840 -1.1518 1.5905
3.5222 -1.0257 1.5905
3.5559 -0.8983 1.5905
3.5850 -0.7697 1.5905
3.6094 -0.6402 1.5905
3.6291 -0.5100 1.5905
3.6441 -0.3792 1.5905
3.6543 -0.2479 1.5905
3.6598 -0.1164 1.5905
3.6606 0.0152 1.5905
3.6566 0.1467 1.5905
3.6479 0.2779 1.5905
3.6345 0.4087 1.5905
3.6164 0.5390 1.5905
3.5936 0.6684 1.5905
3.5662 0.7969 1.5905
3.5342 0.9243 1.5905
3.4976 1.0504 1.5905
3.4564 1.1751 1.5905
3.4109 1.2983 1.5905
3.3610 1.4196 1.5905
3.3068 1.5391 1.5905
3.2483 1.6565 1.5905
3.1857 1.7717 1.5905
3.1189 1.8845 1.5905
3.0482 1.9949 1.5905
2.9736 2.1026 1.5905
2.8952 2.2075 1.5905
2.8131 2.3096 1.5905
2.7274 2.4086 1.5905
2.6382 2.5044 1.5905
2.5457 2.5969 1.5905
2.4500 2.6861 1.5905
0.8910 1.0504 0.6028
0.8526 1.0817 0.6029
0.8130 1.1116 0.6030
0.7724 1.1400 0.6031
0.7309 1.1670 0.6032
0.6883 1.1924 0.6033
0.6450 1.2164 0.6034
0.6007 1.2387 0.6035
0.5557 1.2595 0.6036
0.5100 1.2786 0.6037
0.4637 1.2961 0.6038
0.4167 1.3119 0.6039
0.3692 1.3260 0.6040
0.3212 1.3384 0.6041
0.2728 1.3491 0.6042
0.2241 1.3580 0.6043
0.1750 1.3652 0.6044
0.1258 1.3706 0.6044
0.0764 1.3743 0.6045
0.0268 1.3761 0.6046
-0.0227 1.3762 0.6047
-0.0723 1.3746 0.6048
-0.1217 1.3711 0.6049
-0.1710 1.3659 0.6049
-0.2201 1.3589 0.6050
-0.2689 1.3502 0.6051
-0.3173 1.3397 0.6051
-0.3654 1.3275 0.6052
-0.4130 1.3136 0.6052
-0.4600 1.2980 0.6053
-0.5065 1.2807 0.6054
-0.5523 1.2617 0.6054
-0.5975 1.2411 0.6055
-0.6419 1.2189 0.6055
-0.6854 1.1952 0.6055
-0.7280 1.1698 0.6056
-0.7698 1.1430 0.6056
-0.8105 1.1147 0.6056
-0.8502 1.0849 0.6056
-0.8889 1.0537 0.6057
-2.5902 2.8554 1.6936
-2.6917 2.7606 1.6936
-2.7897 2.6623 1.6936
-2.8840 2.5605 1.6936
-2.9748 2.4554 1.6936
-3.0617 2.3471 1.6936
-3.1447 2.2357 1.6936
-3.2237 2.1214 1.6936
-3.2986 2.0044 1.6936
-3.3693 1.8847 1.6936
-3.4356 1.7625 1.6936
-3.4975 1.6381 1.6936
-3.5550 1.5115 1.6936
-3.6079 1.3829 1.6936
-3.6562 1.2524 1.6936
-3.6997 1.1203 1.6936
-3.7386 0.9867 1.6936
-3.7726 0.8518 1.6936
-3.8018 0.7156 1.6936
-3.8261 0.5785 1.6936
-3.8455 0.4406 1.6936
-3.8599 0.3021 1.6936
-3.8693 0.1631 1.6936
-3.8738 0.0238 1.6936
-3.8733 -0.1156 1.6936
-3.8677 -0.2550 1.6936
-3.8572 -0.3940 1.6936
-3.8417 -0.5326 1.6936
-3.8212 -0.6707 1.6936
-3.7957 -0.8079 1.6936
-3.7654 -0.9442 1.6936
-3.7301 -1.0793 1.6936
-3.6900 -1.2131 1.6936
-3.6451 -1.3454 1.6936
-3.5955 -1.4760 1.6936
-3.5412 -1.6049 1.6936
-3.4823 -1.7317 1.6936
0.2440 -3.6796 1.6936
0.3760 -3.6688 1.6936
0.5075 -3.6532 1.6936
0.6384 -3.6329 1.6936
0.7685 -3.6078 1.6936
0.8975 -3.5780 1.6936
1.0255 -3.5436 1.6936
1.1520 -3.5046 1.6936
1.1994 -3.2503 1.5905
1.3153 -3.2051 1.5905
1.4295 -3.1558 1.5905
1.5419 -3.1024 1.5905
1.6522 -3.0449 1.5905
1.7604 -2.9835 1.5905
1.8663 -2.9182 1.5905
1.9697 -2.8492 1.5905
2.0706 -2.7764 1.5905
2.1688 -2.7000 1.5905
2.2641 -2.6202 1.5905
2.3565 -2.5369 1.5905
2.4458 -2.4504 1.5905
2.5319 -2.3607 1.5905
2.6146 -2.2679 1.5905
2.6940 -2.1723 1.5905
2.7699 -2.0738 1.5905
2.8421 -1.9727 1.5905
2.9106 -1.8690 1.5905
2.9753 -1.7630 1.5905
3.0361 -1.6547 1.5905
3.0930 -1.5443 1.5905
3.1458 -1.4319 1.5905
3.1946 -1.3177 1.5905
3.2391 -1.2018 1.5905
3.2795 -1.0845 1.5905
3.3155 -0.9657 1.5905
3.3473 -0.8458 1.5905
3.3747 -0.7248 1.5905
3.3977 -0.6029 1.5905
3.4163 -0.4804 1.5905
3.4304 -0.3572 1.5905
3.4401 -0.2337 1.5905
3.4454 -0.1099 1.5905
3.4462 0.0140 1.5905
3.4425 0.1378 1.5905
3.4343 0.2614 1.5905
3.4217 0.3845 1.5905
3.4047 0.5071 1.5905
3.3833 0.6290 1.5905
3.3575 0.7500 1.5905
3.3274 0.8699 1.5905
3.2930 0.9887 1.5905
3.2544 1.1061 1.5905
3.2116 1.2221 1.5905
3.1646 1.3363 1.5905
3.1136 1.4489 1.5905
3.0586 1.5594 1.5905
2.9996 1.6679 1.5905
2.9369 1.7742 1.5905
2.8703 1.8781 1.5905
2.8001 1.9796 1.5905
2.7263 2.0784 1.5905
2.6491 2.1745 1.5905
2.5684 2.2678 1.5905
2.4845 2.3580 1.5905
2.3974 2.4452 1.5905
0.8742 0.9584 0.6027
0.8391 0.9891 0.6028
0.8029 1.0186 0.6029
0.7657 1.0467 0.6030
0.7275 1.0735 0.6031
0.6883 1.0989 0.6032
0.6483 1.1229 0.6033
0.6074 1.1454 0.6034
0.5657 1.1664 0.6035
0.5234 1.1860 0.6035
0.4803 1.2040 0.6036
0.4367 1.2205 0.6037
0.3924 1.2353 0.6038
0.3477 1.2486 0.6039
0.3025 1.2603 0.6040
0.2570 1.2704 0.6041
0.2111 1.2788 0.6042
0.1649 1.2855 0.6043
0.1185 1.2906 0.6044
0.0720 1.2941 0.6044
0.0253 1.2958 0.6045
-0.0214 1.2959 0.6046
-0.0680 1.2944 0.6047
-0.1146 1.2911 0.6047
-0.1610 1.2862 0.6048
-0.2072 1.2796 0.6049
-0.2532 1.2714 0.6049
-0.2988 1.2615 0.6050
-0.3441 1.2500 0.6050
-0.3889 1.2369 0.6051
-0.4332 1.2222 0.6052
-0.4769 1.2059 0.6052
-0.5201 1.1880 0.6053
-0.5626 1.1686 0.6053
-0.6044 1.1477 0.6053
-0.6454 1.1254 0.6054
-0.6855 1.1015 0.6054
-0.7248 1.0762 0.6054
-0.7632 1.0495 0.6055
-0.8006 1.0215 0.6055
-0.8369 0.9921 0.6055
-0.8722 0.9615 0.6055
-2.5351 2.5999 1.6936
-2.6274 2.5073 1.6936
-2.7163 2.4114 1.6936
-2.8018 2.3123 1.6936
-2.8836 2.2103 1.6936
-2.9618 2.1054 1.6936
-3.0361 1.9978 1.6936
-3.1066 1.8875 1.6936
-3.1732 1.7748 1.6936
-3.2356 1.6597 1.6936
-3.2939 1.5425 1.6936
-3.3480 1.4232 1.6936
-3.3978 1.3021 1.6936
-3.4432 1.1792 1.6936
-3.4842 1.0548 1.6936
-3.5207 0.9290 1.6936
-3.5527 0.8018 1.6936
-3.5802 0.6736 1.6936
-3.6030 0.5445 1.6936
-3.6212 0.4147 1.6936
-3.6347 0.2842 1.6936
-3.6436 0.1533 1.6936
-3.6477 0.0221 1.6936
-3.6472 -0.1092 1.6936
-3.6419 -0.2404 1.6936
-3.6319 -0.3713 1.6936
-3.6173 -0.5018 1.6936
-3.5979 -0.6318 1.6936
-3.5739 -0.7610 1.6936
-3.5452 -0.8893 1.6936
-3.5120 -1.0165 1.6936
-3.4742 -1.1425 1.6936
-3.4319 -1.2670 1.6936
-3.3851 -1.3900 1.6936
-3.3339 -1.5113 1.6936
-3.2784 -1.6306 1.6936
0.2303 -3.4713 1.6936
0.3548 -3.4611 1.6936
0.4788 -3.4463 1.6936
0.6023 -3.4272 1.6936
0.7250 -3.4035 1.6936
0.8467 -3.3754 1.6936
0.9674 -3.3429 1.6936
1.0868 -3.3061 1.6936
1.1828 -3.2053 1.6626
1.2408 -3.0237 1.5905
1.3485 -2.9771 1.5905
1.4545 -2.9267 1.5905
1.5586 -2.8725 1.5905
1.6607 -2.8146 1.5905
1.7606 -2.7530 1.5905
1.8581 -2.6879 1.5905
1.9533 -2.6192 1.5905
2.0459 -2.5472 1.5905
2.1359 -2.4719 1.5905
2.2230 -2.3934 1.5905
2.3072 -2.3118 1.5905
2.3885 -2.2272 1.5905
2.4666 -2.1397 1.5905
2.5415 -2.0495 1.5905
2.6130 -1.9566 1.5905
2.6812 -1.8612 1.5905
2.7458 -1.7634 1.5905
2.8069 -1.6634 1.5905
2.8643 -1.5613 1.5905
2.9180 -1.4571 1.5905
2.9679 -1.3511 1.5905
3.0138 -1.2434 1.5905
3.0559 -1.1341 1.5905
3.0940 -1.0234 1.5905
3.1281 -0.9114 1.5905
3.1581 -0.7982 1.5905
3.1840 -0.6841 1.5905
3.2057 -0.5691 1.5905
3.2233 -0.4535 1.5905
3.2367 -0.3373 1.5905
3.2459 -0.2207 1.5905
3.2509 -0.1039 1.5905
3.2516 0.0130 1.5905
3.2482 0.1298 1.5905
3.2405 0.2464 1.5905
3.2287 0.3626 1.5905
3.2127 0.4782 1.5905
3.1926 0.5932 1.5905
3.1683 0.7074 1.5905
3.1399 0.8206 1.5905
3.1075 0.9327 1.5905
3.0711 1.0435 1.5905
3.0307 1.1529 1.5905
2.9864 1.2608 1.5905
2.9383 1.3670 1.5905
2.8865 1.4713 1.5905
2.8309 1.5737 1.5905
2.7717 1.6741 1.5905
2.7089 1.7722 1.5905
2.6427 1.8679 1.5905
2.5731 1.9613 1.5905
2.5002 2.0520 1.5905
2.4241 2.1400 1.5905
0.8882 0.8429 0.6025
0.8573 0.8742 0.6026
0.8252 0.9044 0.6027
0.7920 0.9334 0.6028
0.7578 0.9612 0.6029
0.7227 0.9878 0.6030
0.6866 1.0131 0.6030
0.6497 1.0371 0.6031
0.6119 1.0597 0.6032
0.5733 1.0810 0.6033
0.5340 1.1008 0.6034
0.4940 1.1193 0.6035
0.4534 1.1363 0.6036
0.4122 1.1518 0.6037
0.3704 1.1659 0.6038
0.3282 1.1784 0.6039
0.2856 1.1894 0.6039
0.2425 1.1989 0.6040
0.1992 1.2069 0.6041
0.1557 1.2132 0.6042
0.1119 1.2181 0.6043
0.0680 1.2213 0.6043
0.0239 1.2230 0.6044
-0.0201 1.2230 0.6045
-0.0642 1.2216 0.6046
-0.1081 1.2185 0.6046
-0.1519 1.2138 0.6047
-0.1955 1.2076 0.6047
-0.2389 1.1999 0.6048
-0.2820 1.1906 0.6049
-0.3247 1.1797 0.6049
-0.3670 1.1673 0.6050
-0.4088 1.1534 0.6050
-0.4501 1.1380 0.6051
-0.4908 1.1212 0.6051
-0.5309 1.1029 0.6052
-0.5703 1.0831 0.6052
-0.6090 1.0620 0.6052
-0.6470 1.0395 0.6053
-0.6840 1.0156 0.6053
-0.7202 0.9904 0.6053
-0.7555 0.9639 0.6053
-0.7898 0.9362 0.6053
-0.8232 0.9073 0.6054
-0.8554 0.8772 0.6054
-0.8865 0.8459 0.6054
-2.5640 2.2760 1.6936
-2.6447 2.1825 1.6936
-2.7219 2.0862 1.6936
-2.7957 1.9871 1.6936
-2.8659 1.8855 1.6936
-2.9324 1.7814 1.6936
-2.9951 1.6750 1.6936
-3.0541 1.5664 1.6936
-3.1091 1.4557 1.6936
-3.1601 1.3431 1.6936
-3.2070 1.2288 1.6936
-3.2499 1.1128 1.6936
-3.2886 0.9953 1.6936
-3.3230 0.8765 1.6936
-3.3531 0.7565 1.6936
-3.3790 0.6355 1.6936
-3.4005 0.5137 1.6936
-3.4176 0.3911 1.6936
-3.4304 0.2679 1.6936
-3.4387 0.1444 1.6936
-3.4426 0.0206 1.6936
-3.4420 -0.1033 1.6936
-3.4370 -0.2271 1.6936
-3.4275 -0.3507 1.6936
-3.4136 -0.4739 1.6936
-3.3953 -0.5965 1.6936
-3.3726 -0.7184 1.6936
-3.3455 -0.8395 1.6936
-3.3141 -0.9595 1.6936
-3.2784 -1.0784 1.6936
-3.2384 -1.1959 1.6936
-3.1942 -1.3120 1.6936
-3.1459 -1.4264 1.6936
-3.0935 -1.5390 1.6936
0.2177 -3.2814 1.6936
0.3354 -3.2717 1.6936
0.4527 -3.2578 1.6936
0.5694 -3.2396 1.6936
0.6854 -3.2173 1.6936
0.8004 -3.1907 1.6936
0.9145 -3.1600 1.6936
1.0274 -3.1252 1.6936
1.1389 -3.0863 1.6936
1.1858 -2.8896 1.6080
1.2747 -2.8142 1.5905
1.3749 -2.7666 1.5905
1.4733 -2.7154 1.5905
1.5698 -2.6606 1.5905
1.6642 -2.6025 1.5905
1.7564 -2.5409 1.5905
1.8464 -2.4760 1.5905
1.9339 -2.4079 1.5905
2.0189 -2.3367 1.5905
2.1013 -2.2625 1.5905
2.1810 -2.1854 1.5905
2.2578 -2.1054 1.5905
2.3316 -2.0228 1.5905
2.4024 -1.9375 1.5905
2.4701 -1.8497 1.5905
2.5345 -1.7596 1.5905
2.5957 -1.6672 1.5905
2.6534 -1.5726 1.5905
2.7077 -1.4761 1.5905
2.7585 -1.3776 1.5905
2.8056 -1.2774 1.5905
2.8491 -1.1756 1.5905
2.8889 -1.0723 1.5905
2.9250 -0.9677 1.5905
2.9572 -0.8618 1.5905
2.9855 -0.7548 1.5905
3.0101 -0.6470 1.5905
3.0306 -0.5383 1.5905
3.0473 -0.4290 1.5905
3.0600 -0.3191 1.5905
3.0687 -0.2089 1.5905
3.0735 -0.0985 1.5905
3.0742 0.0120 1.5905
3.0710 0.1224 1.5905
3.0638 0.2327 1.5905
3.0527 0.3425 1.5905
3.0376 0.4519 1.5905
3.0186 0.5606 1.5905
2.9957 0.6686 1.5905
2.9689 0.7756 1.5905
2.9383 0.8816 1.5905
2.9039 0.9864 1.5905
2.8657 1.0899 1.5905
2.8239 1.1919 1.5905
2.7785 1.2923 1.5905
2.7294 1.3910 1.5905
2.6769 1.4879 1.5905
2.6210 1.5827 1.5905
2.5616 1.6755 1.5905
2.4991 1.7661 1.5905
2.4333 1.8544 1.5905
0.8954 0.7347 0.6023
0.8683 0.7664 0.6024
0.8401 0.7970 0.6025
0.8107 0.8267 0.6026
0.7804 0.8552 0.6027
0.7490 0.8826 0.6028
0.7167 0.9090 0.6029
0.6835 0.9341 0.6029
0.6494 0.9580 0.6030
0.6144 0.9807 0.6031
0.5787 1.0021 0.6032
0.5422 1.0222 0.6033
0.5050 1.0410 0.6034
0.4672 1.0584 0.6035
0.4288 1.0745 0.6036
0.3898 1.0892 0.6036
0.3504 1.1025 0.6037
0.3104 1.1143 0.6038
0.2701 1.1247 0.6039
0.2294 1.1337 0.6040
0.1884 1.1412 0.6040
0.1473 1.1473 0.6041
0.1058 1.1518 0.6042
0.0643 1.1549 0.6043
0.0227 1.1565 0.6043
-0.0190 1.1565 0.6044
-0.0607 1.1551 0.6045
-0.1022 1.1522 0.6045
-0.1436 1.1478 0.6046
-0.1849 1.1419 0.6046
-0.2259 1.1346 0.6047
-0.2666 1.1258 0.6048
-0.3070 1.1155 0.6048
-0.3470 1.1038 0.6049
-0.3866 1.0907 0.6049
-0.4256 1.0761 0.6049
-0.4641 1.0601 0.6050
-0.5020 1.0428 0.6050
-0.5393 1.0242 0.6051
-0.5759 1.0042 0.6051
-0.6117 0.9829 0.6051
-0.6468 0.9603 0.6051
-0.6811 0.9365 0.6052
-0.7144 0.9114 0.6052
-0.7469 0.8852 0.6052
-0.7783 0.8579 0.6052
-0.8088 0.8294 0.6052
-0.8383 0.7998 0.6052
-0.8666 0.7692 0.6052
-0.8939 0.7376 0.6052
-2.5743 1.9729 1.6936
-2.6441 1.8792 1.6936
-2.7104 1.7830 1.6936
-2.7733 1.6846 1.6936
-2.8326 1.5839 1.6936
-2.8883 1.4812 1.6936
-2.9403 1.3765 1.6936
-2.9886 1.2700 1.6936
-3.0330 1.1618 1.6936
-3.0734 1.0521 1.6936
-3.1100 0.9410 1.6936
-3.1425 0.8287 1.6936
-3.1710 0.7152 1.6936
-3.1954 0.6008 1.6936
-3.2158 0.4855 1.6936
-3.2319 0.3696 1.6936
-3.2439 0.2531 1.6936
-3.2518 0.1363 1.6936
-3.2554 0.0192 1.6936
-3.2548 -0.0980 1.6936
-3.2500 -0.2150 1.6936
-3.2410 -0.3319 1.6936
-3.2279 -0.4484 1.6936
-3.2105 -0.5643 1.6936
-3.1890 -0.6796 1.6936
-3.1633 -0.7941 1.6936
-3.1336 -0.9076 1.6936
-3.0998 -1.0200 1.6936
-3.0620 -1.1311 1.6936
-3.0202 -1.2408 1.6936
-2.9744 -1.3489 1.6936
-2.9248 -1.4554 1.6936
0.2063 -3.1074 1.6936
0.3177 -3.0982 1.6936
0.4288 -3.0850 1.6936
0.5393 -3.0679 1.6936
0.6491 -3.0467 1.6936
0.7580 -3.0215 1.6936
0.8660 -2.9924 1.6936
0.9729 -2.9595 1.6936
1.0785 -2.9227 1.6936
1.1780 -2.8707 1.6869
1.2072 -2.6650 1.5905
1.3020 -2.6199 1.5905
1.3952 -2.5714 1.5905
1.4865 -2.5196 1.5905
1.5759 -2.4645 1.5905
1.6633 -2.4062 1.5905
1.7484 -2.3448 1.5905
1.8313 -2.2803 1.5905
1.9119 -2.2129 1.5905
1.9899 -2.1427 1.5905
2.0653 -2.0696 1.5905
2.1380 -1.9939 1.5905
2.2079 -1.9157 1.5905
2.2750 -1.8349 1.5905
2.3391 -1.7518 1.5905
2.4001 -1.6665 1.5905
2.4580 -1.5790 1.5905
2.5128 -1.4895 1.5905
2.5642 -1.3980 1.5905
2.6123 -1.3048 1.5905
2.6569 -1.2099 1.5905
2.6981 -1.1135 1.5905
2.7359 -1.0157 1.5905
2.7700 -0.9166 1.5905
2.8006 -0.8164 1.5905
2.8275 -0.7151 1.5905
2.8507 -0.6129 1.5905
2.8702 -0.5100 1.5905
2.8860 -0.4065 1.5905
2.8981 -0.3025 1.5905
2.9064 -0.1981 1.5905
2.9109 -0.0935 1.5905
2.9117 0.0111 1.5905
2.9087 0.1157 1.5905
2.9019 0.2201 1.5905
2.8914 0.3242 1.5905
2.8771 0.4278 1.5905
2.8591 0.5308 1.5905
2.8374 0.6330 1.5905
2.8121 0.7344 1.5905
2.7831 0.8348 1.5905
2.7506 0.9341 1.5905
2.7145 1.0321 1.5905
2.6749 1.1287 1.5905
2.6319 1.2238 1.5905
2.5855 1.3173 1.5905
2.5358 1.4091 1.5905
2.4828 1.4990 1.5905
2.4266 1.5869 1.5905
0.8963 0.6333 0.6022
0.8728 0.6651 0.6023
0.8483 0.6960 0.6024
0.8226 0.7259 0.6024
0.7959 0.7550 0.6025
0.7681 0.7830 0.6026
0.7393 0.8101 0.6027
0.7096 0.8361 0.6028
0.6790 0.8610 0.6029
0.6476 0.8848 0.6029
0.6152 0.9075 0.6030
0.5821 0.9289 0.6031
0.5483 0.9492 0.6032
0.5137 0.9683 0.6033
0.4785 0.9861 0.6033
0.4427 1.0026 0.6034
0.4063 1.0178 0.6035
0.3693 1.0318 0.6036
0.3319 1.0443 0.6037
0.2941 1.0556 0.6037
0.2559 1.0654 0.6038
0.2174 1.0739 0.6039
0.1785 1.0810 0.6040
0.1395 1.0868 0.6040
0.1003 1.0911 0.6041
0.0609 1.0940 0.6042
0.0215 1.0955 0.6042
-0.0180 1.0955 0.6043
-0.0574 1.0942 0.6044
-0.0968 1.0915 0.6044
-0.1360 1.0873 0.6045
-0.1751 1.0817 0.6045
-0.2139 1.0747 0.6046
-0.2525 1.0664 0.6047
-0.2908 1.0566 0.6047
-0.3287 1.0456 0.6047
-0.3661 1.0331 0.6048
-0.4031 1.0193 0.6048
-0.4396 1.0042 0.6049
-0.4755 0.9878 0.6049
-0.5108 0.9701 0.6049
-0.5455 0.9511 0.6050
-0.5795 0.9310 0.6050
-0.6127 0.9096 0.6050
-0.6451 0.8870 0.6050
-0.6767 0.8633 0.6051
-0.7074 0.8385 0.6051
-0.7373 0.8125 0.6051
-0.7661 0.7855 0.6051
-0.7940 0.7575 0.6051
-0.8209 0.7285 0.6051
-0.8467 0.6986 0.6051
-0.8714 0.6677 0.6051
-0.8950 0.6360 0.6051
-2.5679 1.6891 1.6936
-2.6274 1.5957 1.6936
-2.6836 1.5004 1.6936
-2.7364 1.4030 1.6936
-2.7856 1.3038 1.6936
-2.8313 1.2029 1.6936
-2.8733 1.1005 1.6936
-2.9116 0.9965 1.6936
-2.9462 0.8913 1.6936
-2.9770 0.7848 1.6936
-3.0040 0.6773 1.6936
-3.0271 0.5689 1.6936
-3.0463 0.4597 1.6936
-3.0616 0.3498 1.6936
-3.0729 0.2395 1.6936
-3.0803 0.1288 1.6936
-3.0837 0.0179 1.6936
-3.0831 -0.0930 1.6936
-3.0786 -0.2040 1.6936
-3.0700 -0.3147 1.6936
-3.0575 -0.4250 1.6936
-3.0410 -0.5348 1.6936
-3.0207 -0.6440 1.6936
-2.9963 -0.7524 1.6936
-2.9681 -0.8599 1.6936
-2.9360 -0.9664 1.6936
-2.9002 -1.0716 1.6936
-2.8606 -1.1755 1.6936
-2.8172 -1.2779 1.6936
-2.7702 -1.3787 1.6936
0.1957 -2.9473 1.6936
0.3014 -2.9386 1.6936
0.4067 -2.9260 1.6936
0.5115 -2.9097 1.6936
0.6157 -2.8896 1.6936
0.7190 -2.8658 1.6936
0.8214 -2.8382 1.6936
0.9228 -2.8069 1.6936
1.0229 -2.7720 1.6936
1.1217 -2.7335 1.6936
1.1758 -2.5958 1.6334
1.2349 -2.4849 1.5905
1.3232 -2.4389 1.5905
1.4099 -2.3897 1.5905
1.4946 -2.3375 1.5905
1.5775 -2.2822 1.5905
1.6583 -2.2240 1.5905
1.7369 -2.1629 1.5905
1.8133 -2.0990 1.5905
1.8873 -2.0323 1.5905
1.9588 -1.9631 1.5905
2.0278 -1.8913 1.5905
2.0941 -1.8171 1.5905
2.1577 -1.7405 1.5905
2.2185 -1.6617 1.5905
2.2764 -1.5808 1.5905
2.3314 -1.4978 1.5905
2.3833 -1.4129 1.5905
2.4320 -1.3262 1.5905
2.4777 -1.2378 1.5905
2.5201 -1.1478 1.5905
2.5592 -1.0564 1.5905
2.5949 -0.9636 1.5905
2.6274 -0.8696 1.5905
2.6564 -0.7746 1.5905
2.6819 -0.6785 1.5905
2.7040 -0.5816 1.5905
2.7225 -0.4840 1.5905
2.7375 -0.3858 1.5905
2.7490 -0.2871 1.5905
2.7569 -0.1882 1.5905
2.7612 -0.0890 1.5905
2.7620 0.0103 1.5905
2.7591 0.1095 1.5905
2.7527 0.2085 1.5905
2.7428 0.3073 1.5905
2.7292 0.4055 1.5905
2.7122 0.5032 1.5905
2.6917 0.6002 1.5905
2.6677 0.6964 1.5905
2.6402 0.7917 1.5905
2.6094 0.8859 1.5905
2.5752 0.9788 1.5905
2.5377 1.0705 1.5905
2.4969 1.1608 1.5905
2.4529 1.2495 1.5905
2.4057 1.3366 1.5905
0.8916 0.5382 0.6021
0.8716 0.5699 0.6021
0.8504 0.6008 0.6022
0.8282 0.6309 0.6023
0.8049 0.6602 0.6024
0.7805 0.6887 0.6025
0.7551 0.7162 0.6025
0.7288 0.7428 0.6026
0.7015 0.7685 0.6027
0.6733 0.7932 0.6028
0.6443 0.8168 0.6028
0.6144 0.8394 0.6029
0.5837 0.8609 0.6030
0.5524 0.8813 0.6031
0.5202 0.9005 0.6032
0.4874 0.9186 0.6032
0.4540 0.9355 0.6033
0.4200 0.9512 0.6034
0.3855 0.9656 0.6035
0.3504 0.9788 0.6035
0.3150 0.9908 0.6036
0.2791 1.0014 0.6037
0.2428 1.0108 0.6038
0.2063 1.0188 0.6038
0.1695 1.0256 0.6039
0.1324 1.0310 0.6040
0.0952 1.0351 0.6040
0.0579 1.0379 0.6041
0.0205 1.0393 0.6042
-0.0170 1.0393 0.6042
-0.0544 1.0381 0.6043
-0.0918 1.0355 0.6043
-0.1290 1.0315 0.6044
-0.1661 1.0262 0.6045
-0.2030 1.0196 0.6045
-0.2396 1.0117 0.6046
-0.2759 1.0024 0.6046
-0.3118 0.9919 0.6046
-0.3473 0.9801 0.6047
-0.3825 0.9670 0.6047
-0.4171 0.9527 0.6048
-0.4512 0.9371 0.6048
-0.4846 0.9203 0.6048
-0.5175 0.9023 0.6049
-0.5497 0.8832 0.6049
-0.5812 0.8629 0.6049
-0.6120 0.8415 0.6049
-0.6420 0.8189 0.6049
-0.6711 0.7954 0.6050
-0.6994 0.7708 0.6050
-0.7268 0.7452 0.6050
-0.7532 0.7186 0.6050
-0.7788 0.6911 0.6050
-0.8032 0.6627 0.6050
-0.8267 0.6334 0.6050
-0.8491 0.6033 0.6050
-0.8704 0.5724 0.6050
-0.8905 0.5408 0.6050
-2.5463 1.4234 1.6936
