ply
format ascii 1.0
element vertex 2190
property float32 x
property float32 y
property float32 z
end_header
7.1848 -2.6548 1.6138
7.2614 -2.3908 1.6135
7.3285 -2.1247 1.6133
7.3862 -1.8570 1.6130
7.4343 -1.5879 1.6129
7.4735 -1.3178 1.6129
7.5053 -1.0473 1.6133
7.0896 -0.7311 1.5199
7.0992 -0.4754 1.5199
7.0998 -0.2199 1.5199
7.0913 0.0350 1.5199
7.0739 0.2890 1.5199
7.0476 0.5419 1.5199
7.0124 0.7933 1.5199
6.9685 1.0429 1.5199
6.9159 1.2905 1.5199
6.8548 1.5356 1.5199
6.7852 1.7782 1.5199
6.7314 2.0251 1.5254
6.4321 2.1899 1.4765
6.4741 2.4670 1.5076
6.4753 2.7377 1.5319
6.4765 3.0169 1.5588
6.4778 3.3057 1.5887
6.3792 3.5498 1.5967
6.2402 3.7723 1.5967
6.0939 3.9896 1.5967
5.9402 4.2015 1.5967
5.7795 4.4078 1.5967
5.6119 4.6081 1.5967
5.4377 4.8024 1.5967
5.2570 4.9904 1.5967
5.0701 5.1719 1.5967
4.8773 5.3467 1.5967
4.6786 5.5146 1.5967
4.4745 5.6755 1.5967
4.2650 5.8292 1.5967
4.0506 5.9755 1.5967
2.6954 4.3016 1.1233
2.4882 4.3076 1.1013
3.3794 6.3688 1.5967
3.1473 6.4842 1.5967
2.9115 6.5915 1.5967
2.6721 6.6907 1.5967
2.1386 -7.1997 1.6999
2.3916 -7.1085 1.6991
2.4828 -6.5889 1.5967
2.7144 -6.4892 1.5967
2.9420 -6.3811 1.5967
3.1651 -6.2648 1.5967
3.3836 -6.1405 1.5967
3.5972 -6.0083 1.5967
3.8054 -5.8685 1.5967
4.0082 -5.7212 1.5967
4.2052 -5.5668 1.5967
4.3961 -5.4054 1.5967
4.5808 -5.2374 1.5967
4.7589 -5.0629 1.5967
4.9303 -4.8823 1.5967
5.0948 -4.6957 1.5967
5.2522 -4.5036 1.5967
5.4022 -4.3061 1.5967
5.5448 -4.1035 1.5967
5.6797 -3.8962 1.5967
5.8068 -3.6845 1.5967
5.9260 -3.4686 1.5967
6.0372 -3.2488 1.5967
6.1401 -3.0255 1.5967
6.2349 -2.7990 1.5967
6.3212 -2.5695 1.5967
6.3992 -2.3374 1.5967
6.5480 -2.1289 1.6163
6.6087 -1.8894 1.6160
6.6609 -1.6483 1.6158
6.7045 -1.4059 1.6157
6.7395 -1.1625 1.6155
6.5141 -0.8842 1.5553
6.5245 -0.6482 1.5537
6.5302 -0.4128 1.5528
6.5310 -0.1779 1.5529
6.5270 0.0566 1.5538
6.5183 0.2908 1.5555
6.5048 0.5247 1.5581
6.4866 0.7584 1.5615
6.4635 0.9921 1.5657
6.4356 1.2259 1.5708
6.4029 1.4597 1.5768
6.3653 1.6938 1.5836
6.3226 1.9281 1.5913
6.2625 2.1585 1.5967
6.1732 2.3791 1.5967
6.0764 2.5962 1.5967
5.9722 2.8096 1.5967
5.8607 3.0189 1.5967
5.7422 3.2240 1.5967
5.6167 3.4246 1.5967
5.4844 3.6206 1.5967
5.3456 3.8117 1.5967
5.2003 3.9976 1.5967
5.0488 4.1783 1.5967
4.8913 4.3534 1.5967
4.7279 4.5228 1.5967
4.5589 4.6864 1.5967
4.3845 4.8439 1.5967
4.2048 4.9952 1.5967
4.0201 5.1401 1.5967
3.8307 5.2785 1.5967
3.6366 5.4102 1.5967
2.6691 4.2968 1.2395
2.4830 4.3378 1.2252
3.0295 5.7637 1.5967
2.8195 5.8673 1.5967
2.6061 5.9636 1.5967
2.4532 6.2135 1.6391
0.8476 2.3955 0.6236
0.7609 2.4244 0.6236
0.6732 2.4503 0.6236
0.5847 2.4729 0.6236
0.4954 2.4924 0.6235
0.4055 2.5087 0.6235
0.3150 2.5218 0.6234
0.2241 2.5317 0.6232
0.1330 2.5383 0.6231
0.0416 2.5417 0.6229
-0.0498 2.5418 0.6227
-0.1412 2.5386 0.6225
-0.2324 2.5322 0.6222
-0.3233 2.5226 0.6219
-0.4138 2.5097 0.6216
-0.5039 2.4936 0.6213
-0.5933 2.4742 0.6209
-0.6820 2.4518 0.6205
-0.7698 2.4261 0.6201
-0.8567 2.3974 0.6197
-2.5871 6.4934 1.6999
-2.8215 6.4024 1.6999
-3.0528 6.3033 1.6999
-3.2808 6.1960 1.6999
-3.5052 6.0808 1.6999
-3.7256 5.9577 1.6999
-3.9419 5.8268 1.6999
-4.1537 5.6883 1.6999
-4.3607 5.5423 1.6999
-4.5628 5.3890 1.6999
-4.7597 5.2284 1.6999
-4.9510 5.0609 1.6999
-5.1366 4.8865 1.6999
-5.3162 4.7055 1.6999
-5.4895 4.5180 1.6999
-5.6034 4.2838 1.6840
-5.6067 3.9757 1.6386
-5.6170 3.6873 1.5995
-5.7448 3.4828 1.5968
-5.8750 3.2793 1.5968
-5.9982 3.0710 1.5968
-6.1140 2.8582 1.5968
-6.2223 2.6411 1.5968
-6.3230 2.4200 1.5968
-6.4158 2.1950 1.5968
-6.5007 1.9666 1.5968
-6.5775 1.7349 1.5968
-6.6460 1.5002 1.5968
-6.7061 1.2629 1.5968
-6.7577 1.0232 1.5968
-6.8008 0.7814 1.5968
-6.8351 0.5379 1.5968
-6.8607 0.2929 1.5968
-6.8774 0.0469 1.5968
-6.8852 -0.2000 1.5968
-6.8840 -0.4474 1.5968
-6.8739 -0.6949 1.5968
-6.8547 -0.9421 1.5968
-6.8264 -1.1889 1.5968
-6.7892 -1.4349 1.5968
-6.7429 -1.6796 1.5968
-6.6876 -1.9227 1.5968
-6.6233 -2.1640 1.5968
-6.5502 -2.4031 1.5968
-6.4682 -2.6396 1.5968
-6.3775 -2.8732 1.5968
-6.2781 -3.1035 1.5968
-6.1702 -3.3303 1.5968
-6.0538 -3.5532 1.5968
-5.9292 -3.7718 1.5968
-5.7964 -3.9859 1.5968
-5.6557 -4.1952 1.5968
-5.6451 -4.5094 1.6368
-5.6443 -4.8498 1.6844
-5.5223 -5.0999 1.6999
-5.3405 -5.2986 1.6999
-5.1513 -5.4906 1.6999
-4.9550 -5.6756 1.6999
-4.7518 -5.8532 1.6999
-4.5420 -6.0232 1.6999
-4.3258 -6.1853 1.6999
-4.1037 -6.3394 1.6999
-3.8758 -6.4851 1.6999
-3.6426 -6.6222 1.6999
-3.4044 -6.7505 1.6999
-3.1614 -6.8699 1.6999
-2.9141 -6.9801 1.6999
-2.6628 -7.0810 1.6999
-2.4079 -7.1724 1.6999
-2.1497 -7.2543 1.6999
-1.8886 -7.3264 1.6999
-1.6250 -7.3887 1.6999
-1.3593 -7.4410 1.6999
-1.0919 -7.4834 1.6999
-0.8231 -7.5157 1.6999
-0.5534 -7.5380 1.6999
-0.2831 -7.5501 1.6999
-0.0127 -7.5521 1.6999
0.2576 -7.5441 1.6999
0.5272 -7.5259 1.6999
0.7958 -7.4977 1.6999
1.0630 -7.4595 1.6999
1.3284 -7.4114 1.6999
1.5917 -7.3535 1.6999
1.8524 -7.2860 1.6999
2.1103 -7.2088 1.6999
2.3649 -7.1221 1.6999
2.4570 -6.5994 1.5967
2.6891 -6.5006 1.5967
2.9171 -6.3935 1.5967
3.1407 -6.2781 1.5967
3.3598 -6.1546 1.5967
3.5739 -6.0232 1.5967
3.7827 -5.8843 1.5967
3.9861 -5.7378 1.5967
4.1837 -5.5842 1.5967
4.3753 -5.4236 1.5967
4.5607 -5.2563 1.5967
4.7396 -5.0825 1.5967
4.9118 -4.9025 1.5967
5.0770 -4.7166 1.5967
5.2352 -4.5250 1.5967
5.3860 -4.3281 1.5967
5.5294 -4.1261 1.5967
5.6652 -3.9193 1.5967
5.7932 -3.7080 1.5967
5.9132 -3.4926 1.5967
6.0253 -3.2732 1.5967
6.1292 -3.0503 1.5967
6.2248 -2.8241 1.5967
6.3121 -2.5950 1.5967
6.3910 -2.3632 1.5967
6.5408 -2.1552 1.6163
6.6024 -1.9159 1.6160
6.6556 -1.6749 1.6158
6.7001 -1.4327 1.6157
6.7360 -1.1894 1.6155
6.5126 -0.9103 1.5555
6.5236 -0.6742 1.5538
6.5298 -0.4387 1.5529
6.5311 -0.2038 1.5528
6.5277 0.0308 1.5536
6.5195 0.2650 1.5553
6.5065 0.4989 1.5577
6.4888 0.7327 1.5610
6.4663 0.9664 1.5652
6.4389 1.2001 1.5702
6.4068 1.4339 1.5761
6.3697 1.6679 1.5828
6.3276 1.9022 1.5904
6.2718 2.1340 1.5967
6.1834 2.3550 1.5967
6.0874 2.5724 1.5967
5.9840 2.7862 1.5967
5.8734 2.9960 1.5967
5.7556 3.2016 1.5967
5.6308 3.4027 1.5967
5.4993 3.5992 1.5967
5.3612 3.7908 1.5967
5.2166 3.9774 1.5967
5.0658 4.1586 1.5967
4.9090 4.3343 1.5967
4.7462 4.5044 1.5967
4.5778 4.6687 1.5967
4.4040 4.8268 1.5967
4.2249 4.9788 1.5967
4.0407 5.1245 1.5967
3.8518 5.2636 1.5967
3.6583 5.3960 1.5967
2.6926 4.2965 1.2424
2.4832 4.2985 1.2168
3.0524 5.7519 1.5967
2.8428 5.8563 1.5967
2.6298 5.9534 1.5967
2.4565 6.1503 1.6250
1.9343 -6.5149 1.6999
2.1644 -6.4361 1.6999
2.3914 -6.3489 1.6999
2.4559 -5.8736 1.5967
2.6621 -5.7764 1.5967
2.8643 -5.6717 1.5967
3.0624 -5.5597 1.5967
3.2560 -5.4406 1.5967
3.4449 -5.3146 1.5967
3.6289 -5.1819 1.5967
3.8077 -5.0426 1.5967
3.9811 -4.8971 1.5967
4.1488 -4.7454 1.5967
4.3107 -4.5880 1.5967
4.4666 -4.4249 1.5967
4.6162 -4.2564 1.5967
4.7594 -4.0828 1.5967
4.8960 -3.9043 1.5967
5.0259 -3.7213 1.5967
5.1489 -3.5338 1.5967
5.2649 -3.3423 1.5967
5.3737 -3.1469 1.5967
5.4752 -2.9480 1.5967
5.5694 -2.7459 1.5967
5.6561 -2.5407 1.5967
5.7353 -2.3329 1.5967
5.8068 -2.1226 1.5967
5.8707 -1.9102 1.5967
5.9268 -1.6959 1.5967
5.9751 -1.4801 1.5967
6.0157 -1.2629 1.5967
6.0484 -1.0447 1.5967
6.0733 -0.8258 1.5967
6.0903 -0.6065 1.5967
6.0996 -0.3870 1.5967
6.1010 -0.1675 1.5967
6.0946 0.0515 1.5967
6.0805 0.2699 1.5967
6.0587 0.4874 1.5967
6.0293 0.7037 1.5967
5.9923 0.9185 1.5967
5.9478 1.1317 1.5967
5.8959 1.3429 1.5967
5.8366 1.5519 1.5967
5.7702 1.7584 1.5967
5.6966 1.9623 1.5967
5.6160 2.1632 1.5967
5.5285 2.3609 1.5967
5.4342 2.5553 1.5967
5.3333 2.7460 1.5967
5.2259 2.9330 1.5967
5.1121 3.1159 1.5967
4.9922 3.2945 1.5967
4.8662 3.4687 1.5967
4.7343 3.6383 1.5967
4.5967 3.8031 1.5967
4.4536 3.9628 1.5967
4.3051 4.1174 1.5967
4.1514 4.2666 1.5967
3.9928 4.4103 1.5967
3.8294 4.5484 1.5967
3.6614 4.6806 1.5967
3.4890 4.8068 1.5967
3.3124 4.9270 1.5967
2.6663 4.2917 1.3594
2.4780 4.3285 1.3424
2.7595 5.2496 1.5967
2.5683 5.3441 1.5967
2.4485 5.6025 1.6468
0.8474 2.1463 0.6216
0.7697 2.1753 0.6217
0.6909 2.2016 0.6217
0.6113 2.2250 0.6217
0.5309 2.2456 0.6217
0.4498 2.2633 0.6216
0.3681 2.2781 0.6216
0.2860 2.2900 0.6215
0.2034 2.2989 0.6214
0.1206 2.3050 0.6212
0.0377 2.3080 0.6210
-0.0454 2.3081 0.6209
-0.1284 2.3052 0.6206
-0.2112 2.2993 0.6204
-0.2938 2.2906 0.6202
-0.3760 2.2788 0.6199
-0.4578 2.2642 0.6196
-0.5390 2.2466 0.6193
-0.6195 2.2262 0.6189
-0.6993 2.2028 0.6185
-0.7781 2.1767 0.6182
-0.8561 2.1477 0.6178
-2.5689 5.8268 1.6999
-2.7792 5.7360 1.6999
-2.9865 5.6379 1.6999
-3.1904 5.5325 1.6999
-3.3907 5.4200 1.6999
-3.5871 5.3003 1.6999
-3.7794 5.1738 1.6999
-3.9674 5.0404 1.6999
-4.1508 4.9004 1.6999
-4.3294 4.7538 1.6999
-4.5029 4.6009 1.6999
-4.6711 4.4418 1.6999
-4.8338 4.2767 1.6999
-4.9908 4.1057 1.6999
-5.1418 3.9291 1.6999
-5.2867 3.7470 1.6999
-5.4252 3.5597 1.6999
-5.5572 3.3673 1.6999
-5.6086 3.1289 1.6778
-5.6104 2.8709 1.6441
-5.6181 2.6248 1.6154
-5.6510 2.3971 1.5968
-5.7417 2.1959 1.5968
-5.8252 1.9914 1.5968
-5.9014 1.7837 1.5968
-5.9703 1.5732 1.5968
-6.0316 1.3600 1.5968
-6.0853 1.1445 1.5968
-6.1314 0.9269 1.5968
-6.1695 0.7074 1.5968
-6.1998 0.4865 1.5968
-6.2222 0.2643 1.5968
-6.2365 0.0411 1.5968
-6.2427 -0.1827 1.5968
-6.2408 -0.4069 1.5968
-6.2307 -0.6312 1.5968
-6.2125 -0.8553 1.5968
-6.1861 -1.0788 1.5968
-6.1516 -1.3014 1.5968
-6.1089 -1.5230 1.5968
-6.0580 -1.7430 1.5968
-5.9991 -1.9614 1.5968
-5.9322 -2.1776 1.5968
-5.8573 -2.3915 1.5968
-5.7745 -2.6027 1.5968
-5.6839 -2.8110 1.5968
-5.6439 -3.0475 1.6135
-5.6383 -3.3105 1.6431
-5.6386 -3.5882 1.6779
-5.5843 -3.8413 1.6999
-5.4483 -4.0425 1.6999
-5.3047 -4.2387 1.6999
-5.1539 -4.4296 1.6999
-4.9960 -4.6149 1.6999
-4.8312 -4.7943 1.6999
-4.6597 -4.9677 1.6999
-4.4819 -5.1346 1.6999
-4.2978 -5.2950 1.6999
-4.1078 -5.4484 1.6999
-3.9122 -5.5948 1.6999
-3.7111 -5.7338 1.6999
-3.5050 -5.8653 1.6999
-3.2940 -5.9891 1.6999
-3.0784 -6.1049 1.6999
-2.8587 -6.2127 1.6999
-2.6351 -6.3122 1.6999
-2.4078 -6.4034 1.6999
-2.1773 -6.4860 1.6999
-1.9439 -6.5599 1.6999
-1.7079 -6.6251 1.6999
-1.4696 -6.6815 1.6999
-1.2294 -6.7289 1.6999
-0.9876 -6.7673 1.6999
-0.7446 -6.7967 1.6999
-0.5008 -6.8170 1.6999
-0.2564 -6.8283 1.6999
-0.0119 -6.8303 1.6999
0.2325 -6.8234 1.6999
0.4763 -6.8073 1.6999
0.7192 -6.7822 1.6999
0.9609 -6.7480 1.6999
1.2011 -6.7050 1.6999
1.4393 -6.6531 1.6999
1.6753 -6.5924 1.6999
1.9087 -6.5231 1.6999
2.1392 -6.4452 1.6999
2.3665 -6.3589 1.6999
2.4329 -5.8839 1.5967
2.6395 -5.7875 1.5967
2.8422 -5.6836 1.5967
3.0408 -5.5724 1.5967
3.2349 -5.4541 1.5967
3.4244 -5.3288 1.5967
3.6089 -5.1968 1.5967
3.7883 -5.0583 1.5967
3.9622 -4.9134 1.5967
4.1306 -4.7625 1.5967
4.2932 -4.6056 1.5967
4.4497 -4.4431 1.5967
4.6000 -4.2753 1.5967
4.7439 -4.1022 1.5967
4.8813 -3.9243 1.5967
5.0119 -3.7417 1.5967
5.1357 -3.5547 1.5967
5.2524 -3.3636 1.5967
5.3620 -3.1687 1.5967
5.4644 -2.9701 1.5967
5.5594 -2.7683 1.5967
5.6469 -2.5635 1.5967
5.7269 -2.3559 1.5967
5.7993 -2.1459 1.5967
5.8640 -1.9337 1.5967
5.9210 -1.7196 1.5967
5.9702 -1.5039 1.5967
6.0116 -1.2869 1.5967
6.0452 -1.0688 1.5967
6.0709 -0.8500 1.5967
6.0888 -0.6307 1.5967
6.0989 -0.4112 1.5967
6.1012 -0.1917 1.5967
6.0957 0.0274 1.5967
6.0824 0.2458 1.5967
6.0615 0.4634 1.5967
6.0329 0.6799 1.5967
5.9967 0.8949 1.5967
5.9531 1.1083 1.5967
5.9020 1.3197 1.5967
5.8435 1.5289 1.5967
5.7779 1.7357 1.5967
5.7050 1.9399 1.5967
5.6252 2.1412 1.5967
5.5384 2.3393 1.5967
5.4449 2.5340 1.5967
5.3447 2.7252 1.5967
5.2380 2.9125 1.5967
5.1250 3.0959 1.5967
5.0057 3.2750 1.5967
4.8803 3.4498 1.5967
4.7491 3.6198 1.5967
4.6121 3.7851 1.5967
4.4696 3.9454 1.5967
4.3217 4.1006 1.5967
4.1687 4.2504 1.5967
4.0106 4.3948 1.5967
3.8476 4.5334 1.5967
3.6801 4.6663 1.5967
3.5082 4.7932 1.5967
3.3320 4.9140 1.5967
2.6898 4.2914 1.3626
2.4807 4.2936 1.3345
2.7804 5.2387 1.5967
2.5895 5.3340 1.5967
2.4515 5.5492 1.6340
0.8559 2.1429 0.6216
1.7637 -5.9433 1.6999
1.9738 -5.8718 1.6999
2.1809 -5.7927 1.6999
2.3848 -5.7061 1.6999
2.4283 -5.2712 1.5967
2.6137 -5.1775 1.5971
2.7940 -5.0743 1.5967
2.9709 -4.9661 1.5967
3.1436 -4.8516 1.5967
3.3118 -4.7309 1.5967
3.4753 -4.6042 1.5967
3.6339 -4.4718 1.5967
3.7875 -4.3338 1.5967
3.9357 -4.1905 1.5967
4.0784 -4.0420 1.5967
4.2155 -3.8886 1.5967
4.3467 -3.7304 1.5967
4.4720 -3.5678 1.5967
4.5912 -3.4009 1.5967
4.7041 -3.2301 1.5967
4.8106 -3.0554 1.5967
4.9106 -2.8772 1.5967
5.0040 -2.6958 1.5967
5.0906 -2.5113 1.5967
5.1705 -2.3241 1.5967
5.2435 -2.1343 1.5967
5.3095 -1.9423 1.5967
5.3685 -1.7482 1.5967
5.4205 -1.5524 1.5967
5.4653 -1.3552 1.5967
5.5030 -1.1566 1.5967
5.5336 -0.9572 1.5967
5.5570 -0.7570 1.5967
5.5732 -0.5563 1.5967
5.5823 -0.3555 1.5967
5.5842 -0.1546 1.5967
5.5790 0.0459 1.5967
5.5667 0.2458 1.5967
5.5473 0.4450 1.5967
5.5210 0.6431 1.5967
5.4877 0.8400 1.5967
5.4475 1.0353 1.5967
5.4004 1.2289 1.5967
5.3467 1.4204 1.5967
5.2863 1.6098 1.5967
5.2193 1.7967 1.5967
5.1459 1.9810 1.5967
5.0662 2.1624 1.5967
4.9802 2.3407 1.5967
4.8881 2.5158 1.5967
4.7901 2.6873 1.5967
4.6861 2.8552 1.5967
4.5765 3.0192 1.5967
4.4613 3.1792 1.5967
4.3407 3.3349 1.5967
4.2148 3.4862 1.5967
4.0838 3.6329 1.5967
3.9478 3.7748 1.5967
3.8071 3.9119 1.5967
3.6618 4.0439 1.5967
3.5121 4.1707 1.5967
3.3581 4.2921 1.5967
3.2001 4.4081 1.5967
3.0382 4.5185 1.5967
2.6635 4.2865 1.4804
2.4730 4.3191 1.4605
2.5313 4.8148 1.5967
2.4462 5.0895 1.6579
0.8455 1.9344 0.6199
0.7753 1.9636 0.6200
0.7042 1.9902 0.6201
0.6321 2.0142 0.6201
0.5593 2.0356 0.6201
0.4857 2.0544 0.6201
0.4115 2.0707 0.6200
0.3367 2.0842 0.6200
0.2615 2.0951 0.6199
0.1860 2.1033 0.6198
0.1102 2.1087 0.6196
0.0343 2.1115 0.6195
-0.0417 2.1116 0.6193
-0.1176 2.1089 0.6191
-0.1934 2.1036 0.6189
-0.2690 2.0955 0.6187
-0.3442 2.0847 0.6184
-0.4190 2.0713 0.6181
-0.4933 2.0552 0.6179
-0.5670 2.0365 0.6175
-0.6400 2.0151 0.6172
-0.7121 1.9912 0.6169
-0.7834 1.9647 0.6165
-0.8537 1.9356 0.6161
-2.5482 5.2572 1.6999
-2.7380 5.1668 1.6999
-2.9247 5.0698 1.6999
-3.1081 4.9662 1.6999
-3.2878 4.8562 1.6999
-3.4638 4.7398 1.6999
-3.6357 4.6172 1.6999
-3.8034 4.4884 1.6999
-3.9666 4.3537 1.6999
-4.1252 4.2133 1.6999
-4.2788 4.0671 1.6999
-4.4274 3.9155 1.6999
-4.5707 3.7585 1.6999
-4.7085 3.5964 1.6999
-4.8407 3.4293 1.6999
-4.9670 3.2574 1.6999
-5.0872 3.0809 1.6999
-5.2013 2.9001 1.6999
-5.3090 2.7151 1.6999
-5.4101 2.5261 1.6999
-5.5046 2.3335 1.6999
-5.5922 2.1373 1.6999
-5.6140 1.9177 1.6823
-5.6150 1.6957 1.6610
-5.6169 1.4787 1.6426
-5.6214 1.2661 1.6274
-5.6254 1.0566 1.6144
-5.6288 0.8496 1.6034
-5.6400 0.6454 1.5968
-5.6670 0.4433 1.5968
-5.6868 0.2402 1.5968
-5.6992 0.0362 1.5968
-5.7042 -0.1683 1.5968
-5.7018 -0.3731 1.5968
-5.6920 -0.5779 1.5968
-5.6748 -0.7825 1.5968
-5.6500 -0.9865 1.5968
-5.6382 -1.1940 1.6026
-5.6366 -1.4064 1.6135
-5.6345 -1.6224 1.6266
-5.6319 -1.8425 1.6420
-5.6318 -2.0686 1.6607
-5.6329 -2.3011 1.6824
-5.6106 -2.5301 1.6999
-5.5221 -2.7322 1.6999
-5.4261 -2.9310 1.6999
-5.3228 -3.1264 1.6999
-5.2123 -3.3181 1.6999
-5.0947 -3.5056 1.6999
-4.9702 -3.6889 1.6999
-4.8389 -3.8676 1.6999
-4.7010 -4.0414 1.6999
-4.5566 -4.2101 1.6999
-4.4061 -4.3735 1.6999
-4.2495 -4.5313 1.6999
-4.0871 -4.6833 1.6999
-3.9191 -4.8292 1.6999
-3.7457 -4.9689 1.6999
-3.5671 -5.1022 1.6999
-3.3837 -5.2287 1.6999
-3.1957 -5.3484 1.6999
-3.0032 -5.4611 1.6999
-2.8067 -5.5666 1.6999
-2.6063 -5.6647 1.6999
-2.4024 -5.7553 1.6999
-2.1952 -5.8383 1.6999
-1.9851 -5.9136 1.6999
-1.7723 -5.9810 1.6999
-1.5572 -6.0405 1.6999
-1.3400 -6.0919 1.6999
-1.1211 -6.1352 1.6999
-0.9007 -6.1703 1.6999
-0.6792 -6.1972 1.6999
-0.4569 -6.2159 1.6999
-0.2342 -6.2263 1.6999
-0.0112 -6.2284 1.6999
0.2115 -6.2222 1.6999
0.4338 -6.2078 1.6999
0.6553 -6.1852 1.6999
0.8758 -6.1544 1.6999
1.0948 -6.1155 1.6999
1.3121 -6.0685 1.6999
1.5274 -6.0135 1.6999
1.7404 -5.9507 1.6999
1.9507 -5.8801 1.6999
2.1582 -5.8018 1.6999
2.3625 -5.7160 1.6999
2.4118 -5.2905 1.5995
2.6107 -5.2228 1.6077
2.7742 -5.0859 1.5967
2.9516 -4.9784 1.5967
3.1247 -4.8645 1.5967
3.2935 -4.7445 1.5967
3.4575 -4.6185 1.5967
3.6167 -4.4867 1.5967
3.7708 -4.3493 1.5967
3.9196 -4.2066 1.5967
4.0629 -4.0586 1.5967
4.2006 -3.9057 1.5967
4.3325 -3.7481 1.5967
4.4585 -3.5860 1.5967
4.5783 -3.4196 1.5967
4.6919 -3.2491 1.5967
4.7991 -3.0749 1.5967
4.8999 -2.8971 1.5967
4.9940 -2.7160 1.5967
5.0814 -2.5318 1.5967
5.1620 -2.3448 1.5967
5.2358 -2.1553 1.5967
5.3025 -1.9635 1.5967
5.3623 -1.7697 1.5967
5.4151 -1.5741 1.5967
5.4607 -1.3770 1.5967
5.4992 -1.1786 1.5967
5.5306 -0.9792 1.5967
5.5548 -0.7791 1.5967
5.5718 -0.5785 1.5967
5.5817 -0.3776 1.5967
5.5844 -0.1768 1.5967
5.5799 0.0238 1.5967
5.5684 0.2238 1.5967
5.5498 0.4231 1.5967
5.5242 0.6213 1.5967
5.4917 0.8183 1.5967
5.4522 1.0138 1.5967
5.4060 1.2076 1.5967
5.3530 1.3994 1.5967
5.2933 1.5890 1.5967
5.2271 1.7762 1.5967
5.1544 1.9608 1.5967
5.0753 2.1425 1.5967
4.9900 2.3212 1.5967
4.8986 2.4966 1.5967
4.8012 2.6686 1.5967
4.6979 2.8369 1.5967
4.5889 3.0013 1.5967
4.4743 3.1617 1.5967
4.3542 3.3179 1.5967
4.2289 3.4697 1.5967
4.0985 3.6169 1.5967
3.9631 3.7594 1.5967
3.8229 3.8970 1.5967
3.6781 4.0296 1.5967
3.5288 4.1569 1.5967
3.3753 4.2790 1.5967
3.2177 4.3956 1.5967
3.0562 4.5066 1.5967
2.6870 4.2863 1.4840
2.4781 4.2885 1.4534
2.5504 4.8048 1.5967
2.4465 5.0389 1.6445
0.8532 1.9311 0.6199
0.7831 1.9605 0.6200
1.6191 -5.4584 1.6999
1.8120 -5.3931 1.6999
2.0024 -5.3208 1.6999
2.1898 -5.2416 1.6999
2.3740 -5.1556 1.6999
2.4126 -4.7811 1.6053
2.5661 -4.6623 1.5967
2.7288 -4.5633 1.5967
2.8877 -4.4584 1.5967
3.0424 -4.3479 1.5967
3.1929 -4.2318 1.5967
3.3390 -4.1105 1.5967
3.4803 -3.9841 1.5967
3.6169 -3.8527 1.5967
3.7484 -3.7165 1.5967
3.8747 -3.5758 1.5967
3.9958 -3.4308 1.5967
4.1113 -3.2816 1.5967
4.2213 -3.1284 1.5967
4.3255 -2.9716 1.5967
4.4239 -2.8112 1.5967
4.5163 -2.6476 1.5967
4.6026 -2.4810 1.5967
4.6828 -2.3115 1.5967
4.7568 -2.1395 1.5967
4.8244 -1.9650 1.5967
4.8856 -1.7885 1.5967
4.9404 -1.6101 1.5967
4.9887 -1.4301 1.5967
5.0305 -1.2486 1.5967
5.0657 -1.0660 1.5967
5.0944 -0.8824 1.5967
5.1164 -0.6982 1.5967
5.1319 -0.5135 1.5967
5.1407 -0.3285 1.5967
5.1430 -0.1436 1.5967
5.1386 0.0411 1.5967
5.1278 0.2253 1.5967
5.1104 0.4088 1.5967
5.0866 0.5914 1.5967
5.0563 0.7728 1.5967
5.0197 0.9529 1.5967
4.9768 1.1314 1.5967
4.9277 1.3080 1.5967
4.8724 1.4827 1.5967
4.8111 1.6551 1.5967
4.7438 1.8251 1.5967
4.6706 1.9925 1.5967
4.5917 2.1571 1.5967
4.5071 2.3187 1.5967
4.4169 2.4770 1.5967
4.3214 2.6320 1.5967
4.2205 2.7834 1.5967
4.1145 2.9311 1.5967
4.0035 3.0749 1.5967
3.8876 3.2146 1.5967
3.7669 3.3501 1.5967
3.6417 3.4813 1.5967
3.5120 3.6079 1.5967
3.3781 3.7298 1.5967
3.2401 3.8469 1.5967
3.0981 3.9591 1.5967
2.9524 4.0663 1.5967
2.8031 4.1683 1.5967
2.6553 4.2728 1.5996
2.4679 4.3097 1.5796
0.9046 1.7204 0.6184
0.8420 1.7517 0.6185
0.7784 1.7808 0.6186
0.7138 1.8076 0.6186
0.6483 1.8321 0.6187
0.5819 1.8542 0.6187
0.5148 1.8740 0.6187
0.4471 1.8913 0.6187
0.3787 1.9062 0.6187
0.3099 1.9187 0.6186
0.2407 1.9287 0.6185
0.1711 1.9362 0.6184
0.1014 1.9413 0.6183
0.0315 1.9438 0.6182
-0.0385 1.9439 0.6180
-0.1084 1.9414 0.6178
-0.1782 1.9365 0.6176
-0.2478 1.9290 0.6174
-0.3171 1.9191 0.6172
-0.3860 1.9067 0.6169
-0.4544 1.8919 0.6167
-0.5222 1.8746 0.6164
-0.5894 1.8550 0.6161
-0.6558 1.8329 0.6157
-0.7214 1.8084 0.6154
-0.7862 1.7817 0.6150
-0.8499 1.7526 0.6147
-2.5253 4.7635 1.6999
-2.6973 4.6737 1.6999
-2.8661 4.5779 1.6999
-3.0317 4.4761 1.6999
-3.1937 4.3684 1.6999
-3.3519 4.2550 1.6999
-3.5062 4.1361 1.6999
-3.6564 4.0116 1.6999
-3.8022 3.8818 1.6999
-3.9435 3.7468 1.6999
-4.0801 3.6067 1.6999
-4.2118 3.4618 1.6999
-4.3384 3.3121 1.6999
-4.4597 3.1578 1.6999
-4.5756 2.9992 1.6999
-4.6859 2.8364 1.6999
-4.7905 2.6696 1.6999
-4.8892 2.4990 1.6999
-4.9819 2.3247 1.6999
-5.0684 2.1471 1.6999
-5.1486 1.9663 1.6999
-5.2223 1.7825 1.6999
-5.2896 1.5961 1.6999
-5.3501 1.4071 1.6999
-5.4039 1.2158 1.6999
-5.4509 1.0225 1.6999
-5.4909 0.8274 1.6999
-5.5239 0.6308 1.6999
-5.5498 0.4329 1.6999
-5.5686 0.2339 1.6999
-5.5802 0.0342 1.6999
-5.5846 -0.1660 1.6999
-5.5818 -0.3665 1.6999
-5.5716 -0.5669 1.6999
-5.5542 -0.7671 1.6999
-5.5295 -0.9667 1.6999
-5.4976 -1.1655 1.6999
-5.4583 -1.3632 1.6999
-5.4119 -1.5595 1.6999
-5.3583 -1.7542 1.6999
-5.2975 -1.9469 1.6999
-5.2297 -2.1375 1.6999
-5.1549 -2.3257 1.6999
-5.0732 -2.5112 1.6999
-4.9846 -2.6937 1.6999
-4.8894 -2.8729 1.6999
-4.7875 -3.0487 1.6999
-4.6792 -3.2208 1.6999
-4.5646 -3.3888 1.6999
-4.4437 -3.5527 1.6999
-4.3168 -3.7121 1.6999
-4.1841 -3.8668 1.6999
-4.0456 -4.0166 1.6999
-3.9017 -4.1613 1.6999
-3.7524 -4.3007 1.6999
-3.5980 -4.4345 1.6999
-3.4387 -4.5625 1.6999
-3.2747 -4.6846 1.6999
-3.1062 -4.8006 1.6999
-2.9335 -4.9104 1.6999
-2.7568 -5.0137 1.6999
-2.5764 -5.1104 1.6999
-2.3925 -5.2003 1.6999
-2.2053 -5.2835 1.6999
-2.0151 -5.3596 1.6999
-1.8223 -5.4286 1.6999
-1.6270 -5.4905 1.6999
-1.4295 -5.5450 1.6999
-1.2302 -5.5923 1.6999
-1.0293 -5.6321 1.6999
-0.8270 -5.6644 1.6999
-0.6238 -5.6892 1.6999
-0.4198 -5.7064 1.6999
-0.2153 -5.7161 1.6999
-0.0107 -5.7182 1.6999
0.1938 -5.7127 1.6999
0.3978 -5.6997 1.6999
0.6012 -5.6792 1.6999
0.8036 -5.6511 1.6999
1.0047 -5.6156 1.6999
1.2042 -5.5728 1.6999
1.4020 -5.5226 1.6999
1.5976 -5.4652 1.6999
1.7909 -5.4007 1.6999
1.9815 -5.3291 1.6999
2.1693 -5.2507 1.6999
2.3539 -5.1654 1.6999
2.4097 -4.8227 1.6159
2.5479 -4.6729 1.5967
2.7110 -4.5745 1.5967
2.8703 -4.4702 1.5967
3.0256 -4.3603 1.5967
3.1766 -4.2449 1.5967
3.3231 -4.1241 1.5967
3.4650 -3.9983 1.5967
3.6020 -3.8674 1.5967
3.7341 -3.7318 1.5967
3.8611 -3.5916 1.5967
3.9827 -3.4470 1.5967
4.0989 -3.2982 1.5967
4.2094 -3.1455 1.5967
4.3143 -2.9891 1.5967
4.4133 -2.8291 1.5967
4.5064 -2.6658 1.5967
4.5934 -2.4995 1.5967
4.6743 -2.3303 1.5967
4.7489 -2.1586 1.5967
4.8172 -1.9844 1.5967
4.8792 -1.8081 1.5967
4.9347 -1.6299 1.5967
4.9837 -1.4500 1.5967
5.0262 -1.2687 1.5967
5.0622 -1.0862 1.5967
5.0915 -0.9027 1.5967
5.1143 -0.7185 1.5967
5.1305 -0.5339 1.5967
5.1401 -0.3489 1.5967
5.1430 -0.1640 1.5967
5.1394 0.0207 1.5967
5.1293 0.2050 1.5967
5.1126 0.3886 1.5967
5.0895 0.5713 1.5967
5.0600 0.7529 1.5967
5.0241 0.9331 1.5967
4.9819 1.1117 1.5967
4.9334 1.2886 1.5967
4.8788 1.4635 1.5967
4.8181 1.6362 1.5967
4.7515 1.8065 1.5967
4.6790 1.9742 1.5967
4.6006 2.1391 1.5967
4.5167 2.3010 1.5967
4.4271 2.4597 1.5967
4.3322 2.6151 1.5967
4.2319 2.7669 1.5967
4.1265 2.9150 1.5967
4.0160 3.0592 1.5967
3.9006 3.1994 1.5967
3.7805 3.3354 1.5967
3.6557 3.4670 1.5967
3.5266 3.5941 1.5967
3.3931 3.7166 1.5967
3.2555 3.8343 1.5967
3.1140 3.9470 1.5967
2.9687 4.0547 1.5967
2.8198 4.1573 1.5967
2.6674 4.2545 1.5967
2.4755 4.2834 1.5735
2.4440 4.6039 1.6583
0.8490 1.7484 0.6185
0.7855 1.7777 0.6186
0.7210 1.8048 0.6186
1.4947 -5.0416 1.6999
1.6730 -4.9816 1.6999
1.8488 -4.9150 1.6999
2.0220 -4.8421 1.6999
2.1923 -4.7630 1.6999
2.3595 -4.6777 1.6999
2.4098 -4.3801 1.6235
2.5205 -4.2166 1.5967
2.6674 -4.1200 1.5967
2.8106 -4.0182 1.5967
2.9499 -3.9113 1.5967
3.0850 -3.7994 1.5967
3.2159 -3.6829 1.5967
3.3423 -3.5617 1.5967
3.4641 -3.4361 1.5967
3.5812 -3.3064 1.5967
3.6934 -3.1725 1.5967
3.8005 -3.0348 1.5967
3.9024 -2.8935 1.5967
3.9991 -2.7487 1.5967
4.0904 -2.6007 1.5967
4.1762 -2.4496 1.5967
4.2564 -2.2957 1.5967
4.3310 -2.1391 1.5967
4.3997 -1.9802 1.5967
4.4627 -1.8190 1.5967
4.5197 -1.6558 1.5967
4.5708 -1.4909 1.5967
4.6159 -1.3244 1.5967
4.6550 -1.1566 1.5967
4.6880 -0.9877 1.5967
4.7149 -0.8179 1.5967
4.7357 -0.6474 1.5967
4.7504 -0.4765 1.5967
4.7589 -0.3053 1.5967
4.7614 -0.1341 1.5967
4.7578 0.0369 1.5967
4.7481 0.2075 1.5967
4.7324 0.3775 1.5967
4.7107 0.5466 1.5967
4.6830 0.7147 1.5967
4.6495 0.8815 1.5967
4.6101 1.0470 1.5967
4.5649 1.2107 1.5967
4.5140 1.3726 1.5967
4.4575 1.5325 1.5967
4.3954 1.6901 1.5967
4.3279 1.8454 1.5967
4.2550 1.9980 1.5967
4.1768 2.1479 1.5967
4.0936 2.2948 1.5967
4.0052 2.4385 1.5967
3.9119 2.5790 1.5967
3.8139 2.7161 1.5967
3.7111 2.8495 1.5967
3.6038 2.9792 1.5967
3.4921 3.1049 1.5967
3.3762 3.2266 1.5967
3.2561 3.3442 1.5967
3.1320 3.4573 1.5967
3.0042 3.5661 1.5967
2.8726 3.6702 1.5967
2.7376 3.7697 1.5967
2.5992 3.8644 1.5967
2.4576 3.9541 1.5967
0.8940 1.5610 0.6171
0.8372 1.5921 0.6172
0.7793 1.6211 0.6173
0.7204 1.6480 0.6174
0.6606 1.6728 0.6175
0.6000 1.6955 0.6175
0.5386 1.7160 0.6175
0.4765 1.7343 0.6175
0.4137 1.7503 0.6175
0.3505 1.7641 0.6175
0.2868 1.7757 0.6174
0.2227 1.7849 0.6174
0.1583 1.7919 0.6173
0.0937 1.7965 0.6172
0.0290 1.7989 0.6170
-0.0358 1.7989 0.6169
-0.1005 1.7966 0.6167
-0.1651 1.7921 0.6165
-0.2295 1.7852 0.6163
-0.2936 1.7760 0.6161
-0.3574 1.7645 0.6159
-0.4207 1.7508 0.6156
-0.4835 1.7348 0.6154
-0.5457 1.7165 0.6151
-0.6072 1.6961 0.6148
-0.6679 1.6735 0.6145
-0.7278 1.6487 0.6141
-0.7868 1.6218 0.6138
-0.8447 1.5927 0.6134
-2.5002 4.3304 1.6999
-2.6566 4.2413 1.6999
-2.8098 4.1468 1.6999
-2.9597 4.0467 1.6999
-3.1061 3.9414 1.6999
-3.2489 3.8309 1.6999
-3.3878 3.7153 1.6999
-3.5226 3.5948 1.6999
-3.6533 3.4695 1.6999
-3.7795 3.3395 1.6999
-3.9012 3.2050 1.6999
-4.0181 3.0661 1.6999
-4.1301 2.9231 1.6999
-4.2372 2.7759 1.6999
-4.3390 2.6250 1.6999
-4.4354 2.4703 1.6999
-4.5264 2.3122 1.6999
-4.6118 2.1507 1.6999
-4.6915 1.9861 1.6999
-4.7653 1.8186 1.6999
-4.8332 1.6484 1.6999
-4.8950 1.4757 1.6999
-4.9506 1.3007 1.6999
-4.9999 1.1236 1.6999
-5.0429 0.9447 1.6999
-5.0795 0.7641 1.6999
-5.1096 0.5822 1.6999
-5.1332 0.3991 1.6999
-5.1501 0.2151 1.6999
-5.1604 0.0304 1.6999
-5.1641 -0.1547 1.6999
-5.1610 -0.3400 1.6999
-5.1512 -0.5253 1.6999
-5.1347 -0.7103 1.6999
-5.1114 -0.8948 1.6999
-5.0815 -1.0784 1.6999
-5.0449 -1.2610 1.6999
-5.0016 -1.4423 1.6999
-4.9516 -1.6221 1.6999
-4.8951 -1.8001 1.6999
-4.8321 -1.9761 1.6999
-4.7627 -2.1498 1.6999
-4.6869 -2.3210 1.6999
-4.6048 -2.4894 1.6999
-4.5165 -2.6549 1.6999
-4.4222 -2.8171 1.6999
-4.3219 -2.9758 1.6999
-4.2158 -3.1309 1.6999
-4.1039 -3.2820 1.6999
-3.9866 -3.4291 1.6999
-3.8638 -3.5718 1.6999
-3.7358 -3.7099 1.6999
-3.6027 -3.8433 1.6999
-3.4648 -3.9718 1.6999
-3.3221 -4.0952 1.6999
-3.1749 -4.2133 1.6999
-3.0234 -4.3259 1.6999
-2.8678 -4.4329 1.6999
-2.7083 -4.5340 1.6999
-2.5452 -4.6293 1.6999
-2.3786 -4.7185 1.6999
-2.2087 -4.8015 1.6999
-2.0359 -4.8781 1.6999
-1.8604 -4.9484 1.6999
-1.6824 -5.0121 1.6999
-1.5021 -5.0691 1.6999
-1.3199 -5.1195 1.6999
-1.1359 -5.1631 1.6999
-0.9504 -5.1999 1.6999
-0.7638 -5.2298 1.6999
-0.5762 -5.2527 1.6999
-0.3879 -5.2687 1.6999
-0.1991 -5.2778 1.6999
-0.0103 -5.2799 1.6999
0.1785 -5.2750 1.6999
0.3669 -5.2631 1.6999
0.5547 -5.2443 1.6999
0.7415 -5.2186 1.6999
0.9273 -5.1860 1.6999
1.1115 -5.1467 1.6999
1.2942 -5.1006 1.6999
1.4749 -5.0478 1.6999
1.6534 -4.9885 1.6999
1.8296 -4.9227 1.6999
2.0031 -4.8505 1.6999
2.1737 -4.7720 1.6999
2.3412 -4.6874 1.6999
2.4071 -4.4165 1.6333
2.5041 -4.2270 1.5967
2.6514 -4.1309 1.5967
2.7950 -4.0297 1.5967
2.9347 -3.9233 1.5967
3.0703 -3.8120 1.5967
3.2017 -3.6959 1.5967
3.3286 -3.5753 1.5967
3.4509 -3.4502 1.5967
3.5685 -3.3209 1.5967
3.6812 -3.1875 1.5967
3.7889 -3.0502 1.5967
3.8915 -2.9093 1.5967
3.9887 -2.7649 1.5967
4.0806 -2.6172 1.5967
4.1670 -2.4664 1.5967
4.2479 -2.3128 1.5967
4.3230 -2.1565 1.5967
4.3924 -1.9978 1.5967
4.4560 -1.8369 1.5967
4.5137 -1.6739 1.5967
4.5655 -1.5092 1.5967
4.6112 -1.3429 1.5967
4.6510 -1.1752 1.5967
4.6846 -1.0064 1.5967
4.7122 -0.8367 1.5967
4.7337 -0.6662 1.5967
4.7490 -0.4953 1.5967
4.7583 -0.3242 1.5967
4.7614 -0.1530 1.5967
4.7585 0.0181 1.5967
4.7495 0.1887 1.5967
4.7344 0.3588 1.5967
4.7134 0.5280 1.5967
4.6864 0.6962 1.5967
4.6535 0.8632 1.5967
4.6147 1.0288 1.5967
4.5702 1.1927 1.5967
4.5199 1.3548 1.5967
4.4640 1.5150 1.5967
4.4025 1.6729 1.5967
4.3356 1.8284 1.5967
4.2633 1.9813 1.5967
4.1857 2.1315 1.5967
4.1030 2.2787 1.5967
4.0152 2.4228 1.5967
3.9225 2.5637 1.5967
3.8249 2.7011 1.5967
3.7227 2.8350 1.5967
3.6159 2.9651 1.5967
3.5047 3.0913 1.5967
3.3892 3.2134 1.5967
3.2695 3.3314 1.5967
3.1459 3.4451 1.5967
3.0185 3.5543 1.5967
2.8873 3.6590 1.5967
2.7526 3.7590 1.5967
2.6146 3.8542 1.5967
2.4734 3.9445 1.5967
0.9002 1.5575 0.6171
0.8435 1.5887 0.6172
0.7857 1.6180 0.6173
0.7270 1.6452 0.6174
0.6673 1.6702 0.6175
1.3865 -4.6791 1.6999
1.5520 -4.6236 1.6999
1.7153 -4.5621 1.6999
1.8761 -4.4946 1.6999
2.0342 -4.4214 1.6999
2.1894 -4.3425 1.6999
2.3416 -4.2580 1.6999
2.4064 -4.0275 1.6426
2.4757 -3.8255 1.5967
2.6186 -3.7453 1.6027
2.7382 -3.6321 1.5967
2.8639 -3.5285 1.5967
2.9856 -3.4205 1.5967
3.1031 -3.3083 1.5967
3.2165 -3.1919 1.5967
3.3254 -3.0716 1.5967
3.4298 -2.9475 1.5967
3.5295 -2.8198 1.5967
3.6245 -2.6887 1.5967
3.7146 -2.5544 1.5967
3.7997 -2.4171 1.5967
3.8797 -2.2769 1.5967
3.9545 -2.1340 1.5967
4.0240 -1.9887 1.5967
4.0882 -1.8412 1.5967
4.1470 -1.6915 1.5967
4.2003 -1.5400 1.5967
4.2481 -1.3868 1.5967
4.2904 -1.2322 1.5967
4.3270 -1.0763 1.5967
4.3580 -0.9193 1.5967
4.3834 -0.7615 1.5967
4.4030 -0.6030 1.5967
4.4170 -0.4441 1.5967
4.4253 -0.2849 1.5967
4.4279 -0.1258 1.5967
4.4249 0.0333 1.5967
4.4162 0.1920 1.5967
4.4019 0.3501 1.5967
4.3820 0.5074 1.5967
4.3565 0.6639 1.5967
4.3256 0.8191 1.5967
4.2892 0.9731 1.5967
4.2474 1.1255 1.5967
4.2003 1.2763 1.5967
4.1480 1.4251 1.5967
4.0904 1.5719 1.5967
4.0278 1.7165 1.5967
3.9602 1.8587 1.5967
3.8877 1.9983 1.5967
3.8103 2.1351 1.5967
3.7283 2.2691 1.5967
3.6416 2.4000 1.5967
3.5505 2.5277 1.5967
3.4550 2.6520 1.5967
3.3552 2.7729 1.5967
3.2513 2.8901 1.5967
3.1435 3.0035 1.5967
3.0318 3.1130 1.5967
2.9163 3.2185 1.5967
2.7973 3.3199 1.5967
2.6749 3.4170 1.5967
2.5492 3.5097 1.5967
2.4479 3.6388 1.6148
0.8829 1.4203 0.6160
0.8312 1.4511 0.6161
0.7783 1.4800 0.6162
0.7245 1.5070 0.6163
0.6698 1.5320 0.6164
0.6142 1.5551 0.6164
0.5578 1.5762 0.6165
0.5007 1.5952 0.6165
0.4429 1.6122 0.6165
0.3846 1.6271 0.6165
0.3258 1.6400 0.6164
0.2665 1.6507 0.6164
0.2069 1.6593 0.6163
0.1471 1.6658 0.6162
0.0870 1.6701 0.6161
0.0268 1.6723 0.6160
-0.0334 1.6723 0.6159
-0.0936 1.6702 0.6157
-0.1536 1.6659 0.6156
-0.2135 1.6595 0.6154
-0.2731 1.6509 0.6152
-0.3324 1.6403 0.6150
-0.3913 1.6275 0.6147
-0.4496 1.6126 0.6145
-0.5075 1.5956 0.6142
-0.5646 1.5766 0.6139
-0.6211 1.5555 0.6136
-0.6768 1.5325 0.6133
-0.7316 1.5074 0.6130
-0.7855 1.4805 0.6127
-0.8384 1.4516 0.6123
-0.8903 1.4208 0.6120
-2.6155 3.8584 1.6999
-2.7549 3.7652 1.6999
-2.8910 3.6669 1.6999
-3.0237 3.5639 1.6999
-3.1527 3.4561 1.6999
-3.2780 3.3437 1.6999
-3.3993 3.2269 1.6999
-3.5166 3.1058 1.6999
-3.6295 2.9804 1.6999
-3.7380 2.8511 1.6999
-3.8420 2.7178 1.6999
-3.9413 2.5808 1.6999
-4.0357 2.4402 1.6999
-4.1251 2.2962 1.6999
-4.2094 2.1489 1.6999
-4.2885 1.9986 1.6999
-4.3623 1.8455 1.6999
-4.4306 1.6896 1.6999
-4.4933 1.5313 1.6999
-4.5504 1.3706 1.6999
-4.6018 1.2078 1.6999
-4.6473 1.0432 1.6999
-4.6869 0.8768 1.6999
-4.7206 0.7090 1.6999
-4.7482 0.5399 1.6999
-4.7697 0.3697 1.6999
-4.7851 0.1987 1.6999
-4.7943 0.0271 1.6999
-4.7974 -0.1448 1.6999
-4.7942 -0.3170 1.6999
-4.7847 -0.4891 1.6999
-4.7691 -0.6608 1.6999
-4.7471 -0.8321 1.6999
-4.7190 -1.0026 1.6999
-4.6847 -1.1721 1.6999
-4.6442 -1.3403 1.6999
-4.5975 -1.5072 1.6999
-4.5448 -1.6723 1.6999
-4.4860 -1.8356 1.6999
-4.4213 -1.9967 1.6999
-4.3507 -2.1555 1.6999
-4.2742 -2.3117 1.6999
-4.1921 -2.4651 1.6999
-4.1043 -2.6155 1.6999
-4.0110 -2.7627 1.6999
-3.9124 -2.9064 1.6999
-3.8084 -3.0466 1.6999
-3.6993 -3.1829 1.6999
-3.5853 -3.3151 1.6999
-3.4664 -3.4432 1.6999
-3.3428 -3.5668 1.6999
-3.2147 -3.6859 1.6999
-3.0822 -3.8003 1.6999
-2.9456 -3.9097 1.6999
-2.8050 -4.0140 1.6999
-2.6606 -4.1132 1.6999
-2.5126 -4.2069 1.6999
-2.3612 -4.2952 1.6999
-2.2066 -4.3779 1.6999
-2.0491 -4.4548 1.6999
-1.8888 -4.5259 1.6999
-1.7260 -4.5910 1.6999
-1.5608 -4.6500 1.6999
-1.3936 -4.7030 1.6999
-1.2246 -4.7497 1.6999
-1.0539 -4.7902 1.6999
-0.8819 -4.8243 1.6999
-0.7088 -4.8521 1.6999
-0.5348 -4.8734 1.6999
-0.3601 -4.8884 1.6999
-0.1851 -4.8968 1.6999
-0.0099 -4.8989 1.6999
0.1653 -4.8944 1.6999
0.3400 -4.8835 1.6999
0.5142 -4.8662 1.6999
0.6876 -4.8426 1.6999
0.8599 -4.8125 1.6999
1.0309 -4.7762 1.6999
1.2004 -4.7336 1.6999
1.3682 -4.6848 1.6999
1.5339 -4.6300 1.6999
1.6974 -4.5691 1.6999
1.8585 -4.5023 1.6999
2.0169 -4.4298 1.6999
2.1725 -4.3515 1.6999
2.3250 -4.2676 1.6999
2.4052 -4.0618 1.6526
2.4608 -3.8356 1.5967
2.6165 -3.7739 1.6104
2.7241 -3.6433 1.5967
2.8502 -3.5402 1.5967
2.9723 -3.4327 1.5967
3.0904 -3.3208 1.5967
3.2042 -3.2049 1.5967
3.3136 -3.0850 1.5967
3.4185 -2.9613 1.5967
3.5188 -2.8341 1.5967
3.6143 -2.7034 1.5967
3.7049 -2.5694 1.5967
3.7905 -2.4324 1.5967
3.8711 -2.2925 1.5967
3.9465 -2.1499 1.5967
4.0166 -2.0049 1.5967
4.0814 -1.8575 1.5967
4.1408 -1.7081 1.5967
4.1947 -1.5568 1.5967
4.2431 -1.4038 1.5967
4.2860 -1.2493 1.5967
4.3233 -1.0935 1.5967
4.3549 -0.9367 1.5967
4.3808 -0.7789 1.5967
4.4011 -0.6205 1.5967
4.4157 -0.4617 1.5967
4.4247 -0.3025 1.5967
4.4279 -0.1433 1.5967
4.4255 0.0157 1.5967
4.4174 0.1745 1.5967
4.4037 0.3327 1.5967
4.3844 0.4901 1.5967
4.3596 0.6467 1.5967
4.3293 0.8021 1.5967
4.2935 0.9562 1.5967
4.2523 1.1088 1.5967
4.2058 1.2597 1.5967
4.1540 1.4088 1.5967
4.0970 1.5559 1.5967
4.0350 1.7007 1.5967
3.9679 1.8431 1.5967
3.8959 1.9830 1.5967
3.8191 2.1202 1.5967
3.7376 2.2545 1.5967
3.6514 2.3857 1.5967
3.5608 2.5138 1.5967
3.4657 2.6385 1.5967
3.3664 2.7597 1.5967
3.2630 2.8773 1.5967
3.1556 2.9912 1.5967
3.0443 3.1012 1.5967
2.9293 3.2071 1.5967
2.8106 3.3089 1.5967
2.6886 3.4065 1.5967
2.5632 3.4997 1.5967
2.4499 3.6107 1.6066
0.8886 1.4168 0.6160
0.8369 1.4478 0.6161
0.7842 1.4769 0.6162
0.7305 1.5041 0.6163
0.6759 1.5294 0.6164
0.6203 1.5526 0.6164
1.2915 -4.3606 1.6999
1.4458 -4.3090 1.6999
1.5979 -4.2519 1.6999
1.7478 -4.1892 1.6999
1.8953 -4.1212 1.6999
2.0400 -4.0478 1.6999
2.1819 -3.9693 1.6999
2.3207 -3.8857 1.6999
2.4068 -3.7205 1.6656
2.4313 -3.4788 1.5967
2.5521 -3.3866 1.5967
2.6693 -3.2903 1.5967
2.7830 -3.1898 1.5967
2.8927 -3.0853 1.5967
2.9986 -2.9769 1.5967
3.1003 -2.8650 1.5967
3.1978 -2.7494 1.5967
3.2911 -2.6306 1.5967
3.3798 -2.5085 1.5967
3.4641 -2.3834 1.5967
3.5436 -2.2554 1.5967
3.6185 -2.1248 1.5967
3.6885 -1.9917 1.5967
3.7536 -1.8563 1.5967
3.8138 -1.7187 1.5967
3.8689 -1.5792 1.5967
3.9189 -1.4379 1.5967
3.9637 -1.2951 1.5967
4.0034 -1.1509 1.5967
4.0379 -1.0054 1.5967
4.0671 -0.8590 1.5967
4.0910 -0.7118 1.5967
4.1096 -0.5639 1.5967
4.1229 -0.4156 1.5967
4.1309 -0.2670 1.5967
4.1336 -0.1184 1.5967
4.1311 0.0301 1.5967
4.1232 0.1782 1.5967
4.1101 0.3259 1.5967
4.0917 0.4729 1.5967
4.0682 0.6190 1.5967
4.0396 0.7640 1.5967
4.0058 0.9079 1.5967
3.9670 1.0503 1.5967
3.9232 1.1912 1.5967
3.8745 1.3303 1.5967
3.8210 1.4675 1.5967
3.7627 1.6027 1.5967
3.6997 1.7356 1.5967
3.6321 1.8661 1.5967
3.5600 1.9940 1.5967
3.4835 2.1193 1.5967
3.4026 2.2417 1.5967
3.3176 2.3611 1.5967
3.2285 2.4774 1.5967
3.1354 2.5904 1.5967
3.0384 2.7001 1.5967
2.9377 2.8062 1.5967
2.8334 2.9086 1.5967
2.7256 3.0073 1.5967
2.6144 3.1021 1.5967
2.5000 3.1930 1.5967
2.4412 3.3604 1.6360
0.8713 1.2950 0.6150
0.8240 1.3254 0.6151
0.7757 1.3541 0.6152
0.7264 1.3811 0.6153
0.6762 1.4063 0.6154
0.6251 1.4297 0.6155
0.5732 1.4512 0.6155
0.5205 1.4709 0.6156
0.4672 1.4887 0.6156
0.4133 1.5046 0.6156
0.3589 1.5185 0.6156
0.3040 1.5305 0.6155
0.2487 1.5405 0.6155
0.1931 1.5485 0.6154
0.1372 1.5545 0.6153
0.0811 1.5586 0.6152
0.0250 1.5606 0.6151
-0.0313 1.5606 0.6150
-0.0874 1.5586 0.6149
-0.1435 1.5546 0.6147
-0.1994 1.5486 0.6145
-0.2551 1.5406 0.6143
-0.3104 1.5307 0.6141
-0.3653 1.5187 0.6139
-0.4198 1.5048 0.6137
-0.4738 1.4890 0.6134
-0.5271 1.4712 0.6132
-0.5798 1.4516 0.6129
-0.6318 1.4300 0.6126
-0.6830 1.4066 0.6123
-0.7333 1.3814 0.6120
-0.7827 1.3545 0.6117
-0.8310 1.3257 0.6113
-0.8784 1.2953 0.6110
-2.5739 3.5163 1.6999
-2.7009 3.4244 1.6999
-2.8247 3.3279 1.6999
-2.9451 3.2271 1.6999
-3.0620 3.1220 1.6999
-3.1751 3.0127 1.6999
-3.2844 2.8994 1.6999
-3.3897 2.7822 1.6999
-3.4908 2.6612 1.6999
-3.5877 2.5366 1.6999
-3.6801 2.4085 1.6999
-3.7681 2.2771 1.6999
-3.8513 2.1425 1.6999
-3.9298 2.0049 1.6999
-4.0034 1.8645 1.6999
-4.0719 1.7214 1.6999
-4.1354 1.5759 1.6999
-4.1937 1.4280 1.6999
-4.2467 1.2779 1.6999
-4.2944 1.1260 1.6999
-4.3365 0.9723 1.6999
-4.3732 0.8170 1.6999
-4.4043 0.6604 1.6999
-4.4298 0.5025 1.6999
-4.4496 0.3438 1.6999
-4.4637 0.1843 1.6999
-4.4720 0.0242 1.6999
-4.4745 -0.1362 1.6999
-4.4713 -0.2967 1.6999
-4.4622 -0.4571 1.6999
-4.4473 -0.6173 1.6999
-4.4266 -0.7769 1.6999
-4.4001 -0.9358 1.6999
-4.3678 -1.0938 1.6999
-4.3298 -1.2506 1.6999
-4.2861 -1.4061 1.6999
-4.2367 -1.5599 1.6999
-4.1817 -1.7120 1.6999
-4.1211 -1.8621 1.6999
-4.0551 -2.0100 1.6999
-3.9836 -2.1555 1.6999
-3.9069 -2.2983 1.6999
-3.8249 -2.4384 1.6999
-3.7378 -2.5754 1.6999
-3.6457 -2.7092 1.6999
-3.5488 -2.8397 1.6999
-3.4470 -2.9666 1.6999
-3.3406 -3.0897 1.6999
-3.2297 -3.2089 1.6999
-3.1145 -3.3240 1.6999
-2.9950 -3.4348 1.6999
-2.8716 -3.5412 1.6999
-2.7442 -3.6431 1.6999
-2.6132 -3.7402 1.6999
-2.4786 -3.8324 1.6999
-2.3407 -3.9197 1.6999
-2.1997 -4.0019 1.6999
-2.0557 -4.0788 1.6999
-1.9089 -4.1504 1.6999
-1.7596 -4.2166 1.6999
-1.6079 -4.2772 1.6999
-1.4541 -4.3322 1.6999
-1.2983 -4.3815 1.6999
-1.1409 -4.4250 1.6999
-0.9820 -4.4627 1.6999
-0.8218 -4.4946 1.6999
-0.6605 -4.5204 1.6999
-0.4984 -4.5404 1.6999
-0.3357 -4.5544 1.6999
-0.1727 -4.5623 1.6999
-0.0095 -4.5643 1.6999
0.1536 -4.5603 1.6999
0.3164 -4.5502 1.6999
0.4787 -4.5342 1.6999
0.6402 -4.5123 1.6999
0.8008 -4.4844 1.6999
0.9601 -4.4507 1.6999
1.1181 -4.4112 1.6999
1.2744 -4.3659 1.6999
1.4288 -4.3150 1.6999
1.5813 -4.2585 1.6999
1.7314 -4.1964 1.6999
1.8791 -4.1290 1.6999
2.0242 -4.0562 1.6999
2.1664 -3.9782 1.6999
2.3056 -3.8952 1.6999
2.4066 -3.7527 1.6756
2.4202 -3.4922 1.5983
2.5389 -3.3970 1.5967
2.6566 -3.3011 1.5967
2.7706 -3.2010 1.5967
2.8808 -3.0970 1.5967
2.9871 -2.9891 1.5967
3.0893 -2.8775 1.5967
3.1873 -2.7623 1.5967
3.2810 -2.6438 1.5967
3.3703 -2.5221 1.5967
3.4550 -2.3973 1.5967
3.5351 -2.2697 1.5967
3.6105 -2.1393 1.5967
3.6810 -2.0065 1.5967
3.7467 -1.8713 1.5967
3.8074 -1.7340 1.5967
3.8630 -1.5947 1.5967
3.9136 -1.4536 1.5967
3.9591 -1.3109 1.5967
3.9993 -1.1668 1.5967
4.0343 -1.0215 1.5967
4.0641 -0.8752 1.5967
4.0886 -0.7280 1.5967
4.1078 -0.5802 1.5967
4.1217 -0.4319 1.5967
4.1303 -0.2834 1.5967
4.1336 -0.1348 1.5967
4.1316 0.0137 1.5967
4.1243 0.1619 1.5967
4.1118 0.3096 1.5967
4.0940 0.4567 1.5967
4.0711 0.6029 1.5967
4.0430 0.7481 1.5967
4.0098 0.8921 1.5967
3.9715 1.0347 1.5967
3.9283 1.1757 1.5967
3.8801 1.3151 1.5967
3.8271 1.4525 1.5967
3.7693 1.5879 1.5967
3.7069 1.7210 1.5967
3.6398 1.8518 1.5967
3.5682 1.9800 1.5967
3.4921 2.1056 1.5967
3.4118 2.2283 1.5967
3.3272 2.3481 1.5967
3.2385 2.4647 1.5967
3.1458 2.5781 1.5967
3.0493 2.6881 1.5967
2.9490 2.7946 1.5967
2.8450 2.8975 1.5967
2.7376 2.9966 1.5967
2.6476 3.1164 1.6093
2.5128 3.1832 1.5967
2.4431 3.3350 1.6283
0.8765 1.2915 0.6150
0.8293 1.3221 0.6151
0.7811 1.3510 0.6152
0.7319 1.3782 0.6153
0.6818 1.4036 0.6154
0.6308 1.4272 0.6155
0.5790 1.4489 0.6155
1.2073 -4.0783 1.6999
1.3516 -4.0302 1.6999
1.4939 -3.9769 1.6999
1.6342 -3.9185 1.6999
1.7721 -3.8550 1.6999
1.9075 -3.7866 1.6999
2.0403 -3.7133 1.6999
2.1702 -3.6353 1.6999
2.2972 -3.5526 1.6999
2.4080 -3.4469 1.6909
2.4168 -3.2085 1.6166
2.4968 -3.0789 1.5967
2.6207 -3.0051 1.6074
2.7060 -2.8874 1.5967
2.8052 -2.7862 1.5967
2.9005 -2.6816 1.5967
2.9920 -2.5736 1.5967
3.0793 -2.4625 1.5967
3.1626 -2.3484 1.5967
3.2416 -2.2315 1.5967
3.3162 -2.1119 1.5967
3.3865 -1.9897 1.5967
3.4522 -1.8652 1.5967
3.5134 -1.7386 1.5967
3.5699 -1.6099 1.5967
3.6217 -1.4794 1.5967
3.6687 -1.3472 1.5967
3.7110 -1.2135 1.5967
3.7483 -1.0786 1.5967
3.7808 -0.9424 1.5967
3.8084 -0.8054 1.5967
3.8310 -0.6675 1.5967
3.8486 -0.5291 1.5967
3.8613 -0.3902 1.5967
3.8691 -0.2511 1.5967
3.8718 -0.1119 1.5967
3.8696 0.0272 1.5967
3.8625 0.1660 1.5967
3.8504 0.3044 1.5967
3.8334 0.4421 1.5967
3.8116 0.5790 1.5967
3.7849 0.7150 1.5967
3.7535 0.8498 1.5967
3.7173 0.9833 1.5967
3.6764 1.1154 1.5967
3.6310 1.2458 1.5967
3.5810 1.3745 1.5967
3.5265 1.5012 1.5967
3.4676 1.6258 1.5967
3.4044 1.7482 1.5967
3.3369 1.8683 1.5967
3.2653 1.9858 1.5967
3.1896 2.1006 1.5967
3.1100 2.2126 1.5967
3.0266 2.3217 1.5967
2.9394 2.4278 1.5967
2.8485 2.5307 1.5967
2.7542 2.6302 1.5967
2.6564 2.7264 1.5967
2.5554 2.8190 1.5967
2.4512 2.9080 1.5967
0.9013 1.1508 0.6139
0.8591 1.1824 0.6141
0.8159 1.2125 0.6142
0.7717 1.2410 0.6143
0.7264 1.2679 0.6144
0.6803 1.2932 0.6145
0.6332 1.3168 0.6146
0.5853 1.3387 0.6147
0.5367 1.3588 0.6147
0.4874 1.3773 0.6147
0.4375 1.3939 0.6148
0.3870 1.4088 0.6148
0.3360 1.4218 0.6148
0.2846 1.4330 0.6147
0.2328 1.4424 0.6147
0.1807 1.4499 0.6146
0.1284 1.4556 0.6145
0.0759 1.4593 0.6145
0.0233 1.4612 0.6144
-0.0294 1.4613 0.6142
-0.0820 1.4594 0.6141
-0.1345 1.4557 0.6140
-0.1869 1.4500 0.6138
-0.2390 1.4425 0.6136
-0.2908 1.4332 0.6134
-0.3423 1.4220 0.6132
-0.3933 1.4090 0.6130
-0.4438 1.3941 0.6128
-0.4938 1.3775 0.6125
-0.5431 1.3591 0.6123
-0.5918 1.3389 0.6120
-0.6397 1.3170 0.6117
-0.6868 1.2934 0.6114
-0.7331 1.2681 0.6111
-0.7784 1.2412 0.6108
-0.8227 1.2126 0.6105
-0.8660 1.1825 0.6101
-2.5317 3.2084 1.6999
-2.6476 3.1178 1.6999
-2.7602 3.0232 1.6999
-2.8696 2.9245 1.6999
-2.9755 2.8220 1.6999
-3.0777 2.7157 1.6999
-3.1762 2.6057 1.6999
-3.2708 2.4922 1.6999
-3.3613 2.3753 1.6999
-3.4478 2.2552 1.6999
-3.5299 2.1320 1.6999
-3.6077 2.0058 1.6999
-3.6810 1.8769 1.6999
-3.7497 1.7452 1.6999
-3.8137 1.6111 1.6999
-3.8730 1.4747 1.6999
-3.9273 1.3361 1.6999
-3.9767 1.1956 1.6999
-4.0211 1.0532 1.6999
-4.0603 0.9093 1.6999
-4.0944 0.7638 1.6999
-4.1233 0.6171 1.6999
-4.1469 0.4694 1.6999
-4.1652 0.3208 1.6999
-4.1782 0.1715 1.6999
-4.1857 0.0216 1.6999
-4.1878 -0.1285 1.6999
-4.1845 -0.2787 1.6999
-4.1758 -0.4288 1.6999
-4.1616 -0.5786 1.6999
-4.1421 -0.7280 1.6999
-4.1170 -0.8766 1.6999
-4.0866 -1.0243 1.6999
-4.0509 -1.1710 1.6999
-4.0097 -1.3163 1.6999
-3.9633 -1.4602 1.6999
-3.9117 -1.6024 1.6999
-3.8549 -1.7427 1.6999
-3.7930 -1.8809 1.6999
-3.7260 -2.0169 1.6999
-3.6540 -2.1504 1.6999
-3.5772 -2.2813 1.6999
-3.4957 -2.4094 1.6999
-3.4094 -2.5344 1.6999
-3.3186 -2.6563 1.6999
-3.2233 -2.7749 1.6999
-3.1238 -2.8899 1.6999
-3.0200 -3.0012 1.6999
-2.9122 -3.1088 1.6999
-2.8004 -3.2123 1.6999
-2.6849 -3.3117 1.6999
-2.5658 -3.4068 1.6999
-2.4433 -3.4976 1.6999
-2.3174 -3.5837 1.6999
-2.1885 -3.6653 1.6999
-2.0566 -3.7420 1.6999
-1.9219 -3.8139 1.6999
-1.7847 -3.8808 1.6999
-1.6451 -3.9426 1.6999
-1.5033 -3.9993 1.6999
-1.3595 -4.0507 1.6999
-1.2140 -4.0967 1.6999
-1.0668 -4.1374 1.6999
-0.9182 -4.1727 1.6999
-0.7685 -4.2024 1.6999
-0.6177 -4.2267 1.6999
-0.4662 -4.2454 1.6999
-0.3142 -4.2585 1.6999
-0.1617 -4.2660 1.6999
-0.0092 -4.2679 1.6999
0.1433 -4.2642 1.6999
0.2955 -4.2549 1.6999
0.4472 -4.2401 1.6999
0.5983 -4.2196 1.6999
0.7484 -4.1937 1.6999
0.8974 -4.1623 1.6999
1.0451 -4.1255 1.6999
1.1913 -4.0833 1.6999
1.3357 -4.0358 1.6999
1.4783 -3.9831 1.6999
1.6188 -3.9252 1.6999
1.7570 -3.8623 1.6999
1.8927 -3.7944 1.6999
2.0258 -3.7216 1.6999
2.1560 -3.6441 1.6999
2.2833 -3.5619 1.6999
2.4074 -3.4752 1.6999
2.4148 -3.2324 1.6237
2.4848 -3.0890 1.5967
2.5916 -2.9956 1.5967
2.6949 -2.8984 1.5967
2.7944 -2.7976 1.5967
2.8902 -2.6933 1.5967
2.9821 -2.5857 1.5967
3.0699 -2.4749 1.5967
3.1536 -2.3611 1.5967
3.2331 -2.2445 1.5967
3.3082 -2.1252 1.5967
3.3790 -2.0033 1.5967
3.4452 -1.8791 1.5967
3.5069 -1.7526 1.5967
3.5639 -1.6242 1.5967
3.6162 -1.4939 1.5967
3.6638 -1.3619 1.5967
3.7065 -1.2283 1.5967
3.7444 -1.0935 1.5967
3.7775 -0.9575 1.5967
3.8056 -0.8205 1.5967
3.8287 -0.6828 1.5967
3.8469 -0.5444 1.5967
3.8602 -0.4055 1.5967
3.8684 -0.2664 1.5967
3.8717 -0.1272 1.5967
3.8701 0.0119 1.5967
3.8635 0.1507 1.5967
3.8519 0.2892 1.5967
3.8355 0.4269 1.5967
3.8142 0.5640 1.5967
3.7881 0.7000 1.5967
3.7572 0.8350 1.5967
3.7215 0.9687 1.5967
3.6812 1.1009 1.5967
3.6362 1.2315 1.5967
3.5867 1.3604 1.5967
3.5327 1.4873 1.5967
3.4743 1.6122 1.5967
3.4115 1.7349 1.5967
3.3445 1.8552 1.5967
3.2734 1.9729 1.5967
3.1982 2.0881 1.5967
3.1190 2.2004 1.5967
3.0360 2.3099 1.5967
2.9492 2.4162 1.5967
2.8587 2.5195 1.5967
2.7648 2.6194 1.5967
2.6674 2.7159 1.5967
2.5667 2.8089 1.5967
2.4629 2.8983 1.5967
2.4372 3.0868 1.6517
0.8638 1.1790 0.6140
0.8208 1.2092 0.6142
0.7766 1.2379 0.6143
0.7315 1.2650 0.6144
0.6854 1.2905 0.6145
0.6384 1.3142 0.6146
0.5907 1.3363 0.6147
0.5421 1.3567 0.6147
1.1321 -3.8261 1.6999
1.2674 -3.7812 1.6999
1.4010 -3.7313 1.6999
1.5326 -3.6766 1.6999
1.6620 -3.6172 1.6999
1.7891 -3.5531 1.6999
1.9138 -3.4845 1.6999
2.0357 -3.4114 1.6999
2.1549 -3.3340 1.6999
2.2711 -3.2523 1.6999
2.3842 -3.1665 1.6999
2.4110 -2.9744 1.6434
2.4424 -2.8019 1.5967
2.5390 -2.7105 1.5967
2.6322 -2.6156 1.5967
2.7218 -2.5175 1.5967
2.8078 -2.4163 1.5967
2.8899 -2.3122 1.5967
2.9682 -2.2052 1.5967
3.0425 -2.0955 1.5967
3.1128 -1.9834 1.5967
3.1789 -1.8688 1.5967
3.2407 -1.7520 1.5967
3.2983 -1.6332 1.5967
3.3516 -1.5125 1.5967
3.4004 -1.3900 1.5967
3.4447 -1.2660 1.5967
3.4846 -1.1405 1.5967
3.5198 -1.0138 1.5967
3.5505 -0.8860 1.5967
3.5766 -0.7573 1.5967
3.5980 -0.6279 1.5967
3.6148 -0.4979 1.5967
3.6269 -0.3674 1.5967
3.6343 -0.2368 1.5967
3.6371 -0.1060 1.5967
3.6352 0.0247 1.5967
3.6287 0.1551 1.5967
3.6175 0.2851 1.5967
3.6017 0.4145 1.5967
3.5814 0.5432 1.5967
3.5565 0.6710 1.5967
3.5271 0.7977 1.5967
3.4933 0.9232 1.5967
3.4550 1.0474 1.5967
3.4124 1.1700 1.5967
3.3656 1.2910 1.5967
3.3145 1.4102 1.5967
3.2592 1.5274 1.5967
3.1999 1.6425 1.5967
3.1366 1.7554 1.5967
3.0694 1.8659 1.5967
2.9984 1.9739 1.5967
2.9237 2.0793 1.5967
2.8453 2.1820 1.5967
2.7634 2.2817 1.5967
2.6781 2.3785 1.5967
2.5894 2.4722 1.5967
2.4976 2.5627 1.5967
2.4416 2.6928 1.6226
0.8849 1.0496 0.6131
0.8465 1.0807 0.6132
0.8069 1.1103 0.6134
0.7663 1.1386 0.6135
0.7248 1.1653 0.6136
0.6822 1.1906 0.6137
0.6389 1.2144 0.6138
0.5947 1.2365 0.6139
0.5497 1.2571 0.6139
0.5041 1.2761 0.6140
0.4578 1.2934 0.6140
0.4109 1.3090 0.6140
0.3634 1.3230 0.6140
0.3155 1.3352 0.6140
0.2672 1.3458 0.6140
0.2186 1.3545 0.6140
0.1696 1.3616 0.6139
0.1205 1.3669 0.6138
0.0712 1.3705 0.6137
0.0217 1.3722 0.6136
-0.0277 1.3722 0.6135
-0.0771 1.3705 0.6134
-0.1264 1.3670 0.6133
-0.1756 1.3617 0.6131
-0.2246 1.3546 0.6130
-0.2732 1.3458 0.6128
-0.3216 1.3353 0.6126
-0.3695 1.3231 0.6124
-0.4170 1.3091 0.6122
-0.4639 1.2935 0.6119
-0.5103 1.2762 0.6117
-0.5560 1.2572 0.6114
-0.6010 1.2366 0.6112
-0.6452 1.2145 0.6109
-0.6886 1.1907 0.6106
-0.7312 1.1654 0.6103
-0.7728 1.1386 0.6100
-0.8135 1.1103 0.6097
-0.8531 1.0806 0.6094
-0.8916 1.0495 0.6090
-2.5944 2.8403 1.6999
-2.6970 2.7474 1.6999
-2.7964 2.6509 1.6999
-2.8923 2.5509 1.6999
-2.9847 2.4474 1.6999
-3.0735 2.3407 1.6999
-3.1584 2.2308 1.6999
-3.2395 2.1178 1.6999
-3.3165 2.0020 1.6999
-3.3894 1.8833 1.6999
-3.4581 1.7621 1.6999
-3.5224 1.6384 1.6999
-3.5824 1.5123 1.6999
-3.6378 1.3841 1.6999
-3.6887 1.2539 1.6999
-3.7349 1.1218 1.6999
-3.7763 0.9881 1.6999
-3.8130 0.8528 1.6999
-3.8448 0.7162 1.6999
-3.8717 0.5785 1.6999
-3.8937 0.4397 1.6999
-3.9107 0.3002 1.6999
-3.9226 0.1600 1.6999
-3.9295 0.0193 1.6999
-3.9313 -0.1216 1.6999
-3.9280 -0.2626 1.6999
-3.9196 -0.4034 1.6999
-3.9061 -0.5440 1.6999
-3.8876 -0.6842 1.6999
-3.8639 -0.8236 1.6999
-3.8352 -0.9622 1.6999
-3.8014 -1.0998 1.6999
-3.7627 -1.2361 1.6999
-3.7190 -1.3711 1.6999
-3.6704 -1.5044 1.6999
-3.6169 -1.6360 1.6999
-3.5587 -1.7656 1.6999
-3.4957 -1.8931 1.6999
-3.4281 -2.0183 1.6999
-3.3559 -2.1410 1.6999
-3.2793 -2.2610 1.6999
-3.1983 -2.3783 1.6999
-3.1130 -2.4925 1.6999
-3.0235 -2.6036 1.6999
-2.9301 -2.7114 1.6999
-2.8327 -2.8158 1.6999
-2.7315 -2.9165 1.6999
-2.6266 -3.0136 1.6999
-2.5182 -3.1067 1.6999
-2.4065 -3.1959 1.6999
-2.2915 -3.2809 1.6999
-2.1735 -3.3617 1.6999
-2.0525 -3.4381 1.6999
-1.9288 -3.5100 1.6999
-1.8025 -3.5774 1.6999
-1.6738 -3.6401 1.6999
-1.5429 -3.6980 1.6999
-1.4100 -3.7511 1.6999
-1.2751 -3.7993 1.6999
-1.1386 -3.8425 1.6999
-1.0006 -3.8806 1.6999
-0.8613 -3.9137 1.6999
-0.7209 -3.9416 1.6999
-0.5796 -3.9644 1.6999
-0.4375 -3.9819 1.6999
-0.2949 -3.9943 1.6999
-0.1520 -4.0014 1.6999
-0.0089 -4.0032 1.6999
0.1341 -3.9998 1.6999
0.2768 -3.9912 1.6999
0.4191 -3.9773 1.6999
0.5608 -3.9583 1.6999
0.7016 -3.9340 1.6999
0.8413 -3.9047 1.6999
0.9799 -3.8703 1.6999
1.1170 -3.8308 1.6999
1.2526 -3.7864 1.6999
1.3863 -3.7370 1.6999
1.5182 -3.6829 1.6999
1.6478 -3.6240 1.6999
1.7752 -3.5604 1.6999
1.9001 -3.4923 1.6999
2.0224 -3.4197 1.6999
2.1419 -3.3427 1.6999
2.2584 -3.2615 1.6999
2.3718 -3.1762 1.6999
