ply
format ascii 1.0
element vertex 2157
property float32 x
property float32 y
property float32 z
end_header
-0.0597 13.1674 1.7479
-0.5111 12.6570 1.6447
-0.9862 12.9213 1.6447
-1.4823 13.1818 1.6447
-2.0002 13.4381 1.6447
-2.5412 13.6896 1.6447
-3.1060 13.9356 1.6447
-3.4909 13.3890 1.5535
-4.3119 14.4078 1.6447
-4.6310 13.6754 1.5371
-2.9023 7.6586 0.8484
-3.2295 7.6824 0.8394
-3.5480 7.6622 0.8266
-4.3016 8.4820 0.9043
-4.2514 7.6898 0.8112
-4.2082 7.0089 0.7323
-4.1706 6.4160 0.6649
-4.1375 5.8939 0.6065
-4.1080 5.4293 0.5557
-4.0815 5.0124 0.5110
-4.0576 4.6352 0.4716
-4.0358 4.2915 0.4365
-4.0158 3.9762 0.4052
-4.0012 3.6887 0.3775
-4.0226 3.4515 0.3556
-4.0430 3.2261 0.3356
-4.0960 3.0359 0.3199
-4.1571 2.8574 0.3062
-4.2171 2.6825 0.2934
-4.2774 2.5114 0.2817
-4.3576 2.3538 0.2722
-4.4377 2.1965 0.2635
-4.5178 2.0390 0.2555
-4.5982 1.8810 0.2482
-4.6867 1.7249 0.2421
-4.7787 1.5677 0.2367
-4.8722 1.4081 0.2320
-4.9674 1.2456 0.2281
-5.0643 1.0796 0.2248
-5.1633 0.9096 0.2222
-5.2648 0.7351 0.2203
-5.3694 0.5554 0.2193
-5.4707 0.3693 0.2187
-5.5683 0.1768 0.2187
-5.6692 -0.0222 0.2195
-5.7711 -0.2285 0.2212
-5.8745 -0.4428 0.2237
-5.9823 -0.6662 0.2272
-6.1084 -0.9018 0.2323
-6.2431 -1.1505 0.2387
-6.3890 -1.4146 0.2466
-6.5547 -1.6986 0.2565
-6.7330 -2.0035 0.2681
-5.8371 -1.9661 0.2375
-5.6264 -2.1213 0.2348
-5.4251 -2.2695 0.2332
-5.2323 -2.4115 0.2325
-5.0469 -2.5480 0.2326
-4.8682 -2.6797 0.2336
-4.6952 -2.8071 0.2354
-4.5273 -2.9307 0.2380
-4.3639 -3.0511 0.2413
-4.9424 -3.7247 0.2884
-6.1914 -5.0218 0.3824
-5.6691 -4.9434 0.3718
-23.5482 -22.0594 1.6449
-22.0394 -22.1727 1.6449
-20.5624 -22.2173 1.6449
-19.1227 -22.1991 1.6449
-17.7246 -22.1240 1.6449
-16.3713 -21.9979 1.6449
-15.0652 -21.8262 1.6449
-13.8067 -21.6118 1.6447
-12.5993 -21.3638 1.6447
-11.4420 -21.0844 1.6447
-10.3345 -20.7779 1.6447
-9.2765 -20.4480 1.6447
-8.2670 -20.0978 1.6447
-7.3049 -19.7306 1.6447
-6.3890 -19.3491 1.6447
-5.5177 -18.9556 1.6447
-4.6992 -18.5903 1.6480
-3.9111 -18.1786 1.6480
-3.1629 -17.7609 1.6480
-2.4481 -17.3034 1.6447
-1.7764 -16.8788 1.6447
-1.1275 -16.2770 1.6272
-0.5362 -16.0246 1.6447
0.0354 -15.5968 1.6447
0.5766 -15.1697 1.6447
1.0891 -14.7438 1.6447
1.6728 -15.2187 1.7479
2.1604 -14.7704 1.7479
2.6216 -14.3250 1.7479
3.0577 -13.8829 1.7479
3.4699 -13.4442 1.7479
3.8594 -13.0092 1.7479
4.2272 -12.5782 1.7479
4.5745 -12.1511 1.7479
4.9022 -11.7283 1.7479
5.2112 -11.3097 1.7479
5.5025 -10.8954 1.7479
5.7768 -10.4853 1.7479
6.0350 -10.0796 1.7479
6.2777 -9.6781 1.7479
6.5057 -9.2810 1.7479
6.7195 -8.8880 1.7479
6.9199 -8.4991 1.7479
7.1074 -8.1143 1.7479
7.2825 -7.7335 1.7479
4.9650 2.9066 1.2645
4.9475 3.1432 1.2817
4.8239 3.3167 1.2730
4.7766 3.5465 1.2858
4.8900 3.9141 1.3449
4.8690 4.1961 1.3705
6.0574 5.6160 1.7479
5.8970 5.8790 1.7479
5.7285 6.1410 1.7479
2.8974 3.3409 0.9122
2.6814 3.3281 0.8732
2.4792 3.3161 0.8376
2.2892 3.3048 0.8048
2.1097 3.2941 0.7745
1.9395 3.2840 0.7466
1.7776 3.2743 0.7206
1.6228 3.2652 0.6966
1.4744 3.2563 0.6741
1.3316 3.2479 0.6532
1.1937 3.2397 0.6336
1.1430 3.4840 0.6633
1.1196 3.8790 0.7196
1.0910 4.3633 0.7895
1.0550 4.9727 0.8784
1.0081 5.7653 0.9950
0.8787 6.3653 1.0743
1.0752 10.5814 1.7479
0.7071 10.8020 1.7479
0.3251 11.0180 1.7479
-0.0714 11.2289 1.7479
-0.4542 10.7588 1.6447
-0.8557 10.9463 1.6447
-1.2720 11.1276 1.6447
-1.7036 11.3020 1.6447
-2.1508 11.4689 1.6447
-2.6141 11.6277 1.6447
-3.0939 11.7777 1.6447
-3.5905 11.9179 1.6447
-4.1043 12.0476 1.6447
-2.9178 7.6576 1.0352
-3.2453 7.6814 1.0295
-3.5641 7.6612 1.0191
-4.2990 8.4399 1.1157
-4.2491 7.6543 1.0069
-4.2063 6.9786 0.9148
-4.1689 6.3898 0.8359
-4.1360 5.8710 0.7677
-4.1067 5.4093 0.7082
-4.0804 4.9947 0.6560
-4.0566 4.6194 0.6098
-4.0349 4.2774 0.5688
-4.0150 3.9635 0.5322
-4.0021 3.6788 0.5000
-4.0235 3.4424 0.4750
-4.0438 3.2177 0.4522
-4.0983 3.0292 0.4350
-4.1593 2.8511 0.4200
-4.2191 2.6765 0.4062
-4.2801 2.5061 0.3937
-4.3602 2.3488 0.3841
-4.4401 2.1917 0.3753
-4.5201 2.0345 0.3674
-4.6004 1.8767 0.3604
-4.6890 1.7209 0.3549
-4.7810 1.5639 0.3503
-4.8743 1.4045 0.3466
-4.9694 1.2422 0.3438
-5.0662 1.0764 0.3418
-5.1650 0.9066 0.3406
-5.2665 0.7323 0.3404
-5.3709 0.5529 0.3412
-5.4719 0.3670 0.3426
-5.5693 0.1748 0.3445
-5.6701 -0.0239 0.3476
-5.7718 -0.2299 0.3516
-5.8750 -0.4439 0.3567
-5.9826 -0.6669 0.3631
-6.1086 -0.9021 0.3717
-6.2430 -1.1503 0.3820
-6.3886 -1.4140 0.3943
-6.5539 -1.6973 0.4093
-6.7319 -2.0016 0.4266
-5.8388 -1.9648 0.3766
-5.6283 -2.1198 0.3707
-5.4274 -2.2679 0.3660
-5.2348 -2.4097 0.3626
-5.0497 -2.5460 0.3604
-4.8711 -2.6775 0.3592
-4.6983 -2.8048 0.3590
-4.5307 -2.9283 0.3599
-4.3674 -3.0485 0.3616
-4.5943 -3.4563 0.3977
-4.9107 -3.9758 0.4457
-5.0360 -4.3829 0.4808
-4.7740 -4.4631 0.4808
-15.4658 -15.5264 1.6480
-14.5695 -15.7070 1.6480
-13.6800 -15.8434 1.6480
-12.8007 -15.9382 1.6480
-11.9344 -15.9939 1.6480
-11.0836 -16.0128 1.6480
-10.2505 -15.9974 1.6480
-9.4368 -15.9503 1.6480
-8.6439 -15.8739 1.6480
-7.8731 -15.7705 1.6480
-7.1251 -15.6425 1.6480
-6.4006 -15.4919 1.6480
-5.7000 -15.3208 1.6480
-5.0235 -15.1313 1.6480
-4.3712 -14.9250 1.6480
-3.7430 -14.7038 1.6480
-3.1388 -14.4691 1.6480
-2.5530 -14.1936 1.6447
-1.9967 -13.9370 1.6447
-1.4633 -13.6710 1.6447
-0.9520 -13.3970 1.6447
-0.4625 -13.1158 1.6447
0.0058 -12.8285 1.6447
0.4536 -12.5360 1.6447
0.8815 -12.2390 1.6447
1.3710 -12.6878 1.7479
1.7853 -12.3649 1.7479
2.1804 -12.0394 1.7479
2.5569 -11.7118 1.7479
2.9155 -11.3826 1.7479
3.2568 -11.0523 1.7479
3.5814 -10.7213 1.7479
3.8899 -10.3899 1.7479
4.1830 -10.0584 1.7479
4.4610 -9.7272 1.7479
4.7247 -9.3965 1.7479
4.9744 -9.0665 1.7479
5.2108 -8.7374 1.7479
5.4343 -8.4093 1.7479
5.6453 -8.0824 1.7479
5.8443 -7.7569 1.7479
6.0317 -7.4327 1.7479
6.2079 -7.1101 1.7479
6.3732 -6.7890 1.7479
5.3044 3.1100 1.4973
4.9759 3.1663 1.4295
4.8365 3.3310 1.4161
4.8024 3.5720 1.4353
5.7205 4.5873 1.7479
5.5857 4.8232 1.7479
5.4440 5.0576 1.7479
5.2952 5.2905 1.7479
5.1393 5.5219 1.7479
2.8903 3.3407 1.0153
2.6744 3.3279 0.9728
2.4724 3.3159 0.9340
2.2825 3.3046 0.8983
2.1031 3.2939 0.8655
1.9331 3.2838 0.8352
1.7712 3.2741 0.8072
1.6165 3.2650 0.7812
1.4682 3.2561 0.7571
1.3255 3.2476 0.7346
1.1877 3.2395 0.7137
1.1420 3.5005 0.7519
1.1184 3.8994 0.8175
1.0895 4.3891 0.8989
1.0530 5.0061 1.0027
1.0054 5.8103 1.1392
0.8505 6.2431 1.1994
0.9258 9.2768 1.7479
0.6015 9.4501 1.7479
0.2662 9.6176 1.7479
-0.0801 9.7791 1.7479
-0.4119 9.3471 1.6447
-0.7592 9.4862 1.6447
-1.1176 9.6181 1.6447
-1.4870 9.7424 1.6447
-1.8678 9.8585 1.6447
-2.2599 9.9657 1.6447
-2.6635 10.0635 1.6447
-3.0786 10.1512 1.6447
-3.5053 10.2281 1.6447
-2.9334 7.6566 1.2234
-4.4023 10.3676 1.6480
-4.3546 9.3169 1.4754
-4.2963 8.3980 1.3265
-4.2469 7.6189 1.2022
-4.2043 6.9483 1.0969
-4.1673 6.3636 1.0067
-4.1346 5.8482 0.9287
-4.1054 5.3892 0.8607
-4.0793 4.9770 0.8009
-4.0556 4.6037 0.7481
-4.0340 4.2633 0.7012
-4.0142 3.9508 0.6593
-4.0030 3.6688 0.6228
-4.0243 3.4332 0.5947
-4.0445 3.2092 0.5690
-4.1006 3.0225 0.5504
-4.1615 2.8447 0.5342
-4.2212 2.6705 0.5194
-4.2828 2.5009 0.5062
-4.3627 2.3438 0.4963
-4.4425 2.1869 0.4876
-4.5225 2.0299 0.4798
-4.6026 1.8724 0.4731
-4.6914 1.7169 0.4681
-4.7832 1.5601 0.4644
-4.8765 1.4009 0.4616
-4.9714 1.2388 0.4599
-5.0681 1.0732 0.4592
-5.1668 0.9036 0.4595
-5.2681 0.7295 0.4609
-5.3724 0.5503 0.4636
-5.4730 0.3647 0.4668
-5.5704 0.1728 0.4707
-5.6710 -0.0257 0.4760
-5.7725 -0.2314 0.4824
-5.8756 -0.4450 0.4901
-5.9830 -0.6676 0.4994
-6.1088 -0.9024 0.5115
-6.2429 -1.1502 0.5257
-6.3882 -1.4133 0.5424
-6.5532 -1.6961 0.5624
-6.7307 -1.9997 0.5854
-5.8405 -1.9636 0.5162
-5.6303 -2.1184 0.5069
-5.4296 -2.2662 0.4993
-5.2373 -2.4078 0.4932
-5.0524 -2.5440 0.4885
-4.8741 -2.6754 0.4852
-4.7015 -2.8024 0.4831
-4.5340 -2.9258 0.4822
-4.3710 -3.0459 0.4824
-4.2690 -3.2060 0.4902
-4.1111 -3.3223 0.4926
-4.0801 -3.5441 0.5116
-5.7202 -5.3369 0.7528
-11.8968 -11.9181 1.6480
-11.2669 -12.1193 1.6480
-10.6356 -12.2885 1.6480
-10.0055 -12.4269 1.6480
-9.3786 -12.5355 1.6480
-8.7568 -12.6156 1.6480
-8.1418 -12.6685 1.6480
-7.5353 -12.6956 1.6480
-6.9386 -12.6984 1.6480
-6.3528 -12.6781 1.6480
-5.7790 -12.6361 1.6480
-5.2180 -12.5739 1.6480
-4.6706 -12.4929 1.6480
-4.1372 -12.3942 1.6480
-3.6185 -12.2793 1.6480
-3.1146 -12.1492 1.6480
-2.6205 -11.9808 1.6447
-2.1481 -11.8243 1.6447
-1.6909 -11.6561 1.6447
-1.2491 -11.4772 1.6447
-0.8226 -11.2886 1.6447
-0.4113 -11.0910 1.6447
-0.0150 -10.8854 1.6447
0.3665 -10.6725 1.6447
0.7335 -10.4530 1.6447
1.1542 -10.8697 1.7479
1.5139 -10.6246 1.7479
1.8590 -10.3746 1.7479
2.1897 -10.1201 1.7479
2.5065 -9.8617 1.7479
2.8096 -9.6000 1.7479
3.0993 -9.3353 1.7479
3.3761 -9.0680 1.7479
3.6403 -8.7986 1.7479
3.8921 -8.5273 1.7479
4.1320 -8.2545 1.7479
4.3603 -7.9805 1.7479
4.5773 -7.7055 1.7479
4.7832 -7.4297 1.7479
4.9785 -7.1534 1.7479
5.1634 -6.8768 1.7479
5.3381 -6.6000 1.7479
5.5030 -6.3231 1.7479
5.6584 -6.0464 1.7479
5.6351 3.3089 1.7479
5.0598 3.2249 1.5981
4.9051 3.3841 1.5797
5.3144 3.9599 1.7479
5.1951 4.1739 1.7479
5.0696 4.3862 1.7479
4.9376 4.5967 1.7479
4.7992 4.8055 1.7479
4.6543 5.0124 1.7479
2.8830 3.3405 1.1192
2.6673 3.3276 1.0732
2.4655 3.3156 1.0311
2.2757 3.3043 0.9926
2.0965 3.2937 0.9572
1.9266 3.2835 0.9246
1.7648 3.2739 0.8945
1.6102 3.2647 0.8666
1.4620 3.2559 0.8407
1.3193 3.2474 0.8167
1.1816 3.2392 0.7943
1.1410 3.5173 0.8420
0.8650 3.0352 0.7101
0.7555 3.0662 0.7018
0.6450 3.0933 0.6934
0.5336 3.1165 0.6848
0.4214 3.1356 0.6762
0.3087 3.1508 0.6675
0.1954 3.1619 0.6586
0.0819 3.1690 0.6497
-0.0319 3.1720 0.6408
-0.1457 3.1709 0.6318
-0.2593 3.1658 0.6227
-0.3728 3.1567 0.6136
-0.4858 3.1434 0.6045
-0.5983 3.1262 0.5954
-0.7102 3.1049 0.5863
-0.8212 3.0797 0.5772
-2.6963 8.8314 1.6447
-3.0604 8.8766 1.6447
-2.9491 7.6556 1.4130
-3.8126 8.9336 1.6447
-4.2000 8.9442 1.6447
-4.2936 8.3561 1.5369
-4.2446 7.5835 1.3973
-4.2024 6.9180 1.2790
-4.1656 6.3375 1.1775
-4.1331 5.8254 1.0898
-4.1042 5.3692 1.0133
-4.0782 4.9592 0.9460
-4.0546 4.5879 0.8866
-4.0331 4.2491 0.8337
-4.0134 3.9382 0.7866
-4.0039 3.6588 0.7459
-4.0251 3.4240 0.7147
-4.0453 3.2007 0.6861
-4.1029 3.0157 0.6663
-4.1637 2.8383 0.6489
-4.2232 2.6645 0.6330
-4.2854 2.4956 0.6191
-4.3653 2.3387 0.6091
-4.4450 2.1821 0.6003
-4.5248 2.0253 0.5927
-4.6049 1.8680 0.5862
-4.6938 1.7128 0.5819
-4.7855 1.5563 0.5789
-4.8786 1.3973 0.5771
-4.9734 1.2354 0.5765
-5.0700 1.0700 0.5771
-5.1685 0.9006 0.5789
-5.2697 0.7268 0.5820
-5.3739 0.5478 0.5864
-5.4742 0.3624 0.5916
-5.5714 0.1708 0.5975
-5.6719 -0.0274 0.6050
-5.7732 -0.2328 0.6138
-5.8761 -0.4461 0.6241
-5.9833 -0.6683 0.6362
-6.1089 -0.9027 0.6518
-6.2428 -1.1500 0.6699
-6.3878 -1.4126 0.6910
-6.5525 -1.6948 0.7161
-6.7295 -1.9977 0.7448
-5.8422 -1.9623 0.6563
-5.6323 -2.1169 0.6438
-5.4319 -2.2645 0.6332
-5.2398 -2.4060 0.6244
-5.0552 -2.5420 0.6173
-4.8770 -2.6732 0.6118
-4.7047 -2.8001 0.6077
-4.5374 -2.9233 0.6050
-4.3745 -3.0432 0.6037
-4.4037 -3.3013 0.6306
-4.8587 -3.9192 0.7238
-5.4557 -4.7298 0.8478
-5.7718 -5.3741 0.9383
-9.6621 -9.6586 1.6480
-9.1813 -9.8537 1.6480
-8.6967 -10.0244 1.6480
-8.2099 -10.1712 1.6480
-7.7225 -10.2946 1.6480
-7.2361 -10.3954 1.6480
-6.7519 -10.4743 1.6480
-6.2713 -10.5321 1.6480
-5.7954 -10.5697 1.6480
-5.3253 -10.5879 1.6480
-4.8617 -10.5876 1.6480
-4.4057 -10.5696 1.6480
-3.9579 -10.5351 1.6480
-3.5189 -10.4848 1.6480
-3.0894 -10.4196 1.6480
-2.6642 -10.3194 1.6447
-2.2555 -10.2274 1.6447
-1.8573 -10.1231 1.6447
-1.4698 -10.0073 1.6447
-1.0933 -9.8809 1.6447
-0.7278 -9.7445 1.6447
-0.3735 -9.5990 1.6447
-0.0303 -9.4450 1.6447
0.3016 -9.2831 1.6447
0.6225 -9.1139 1.6447
0.9340 -8.9553 1.6479
1.3082 -9.3059 1.7479
1.6142 -9.1067 1.7479
1.9087 -8.9020 1.7479
2.1920 -8.6924 1.7479
2.4641 -8.4783 1.7479
2.7254 -8.2602 1.7479
2.9759 -8.0384 1.7479
3.2159 -7.8133 1.7479
3.4455 -7.5853 1.7479
3.6650 -7.3547 1.7479
3.8746 -7.1217 1.7479
4.0745 -6.8867 1.7479
4.2649 -6.6499 1.7479
4.4459 -6.4116 1.7479
4.6179 -6.1719 1.7479
4.7810 -5.9311 1.7479
4.9353 -5.6893 1.7479
5.0811 -5.4468 1.7479
5.1642 3.0371 1.7479
5.0700 3.2367 1.7479
4.9700 3.4347 1.7479
4.8643 3.6311 1.7479
4.7528 3.8258 1.7479
4.6354 4.0186 1.7479
4.5122 4.2095 1.7479
4.3830 4.3984 1.7479
4.2478 4.5853 1.7479
2.8757 3.3402 1.2240
2.6602 3.3274 1.1745
2.4585 3.3154 1.1292
2.2689 3.3041 1.0878
2.0898 3.2934 1.0498
1.9200 3.2833 1.0148
1.7583 3.2737 0.9825
1.6038 3.2645 0.9527
1.4557 3.2557 0.9251
1.3131 3.2472 0.8995
1.1755 3.2390 0.8758
0.8610 2.6695 0.7053
0.7646 2.7006 0.6981
0.6672 2.7282 0.6907
0.5688 2.7523 0.6832
0.4697 2.7729 0.6756
0.3698 2.7900 0.6679
0.2695 2.8034 0.6601
0.1687 2.8133 0.6523
0.0676 2.8196 0.6444
-0.0336 2.8222 0.6364
-0.1349 2.8213 0.6283
-0.2361 2.8167 0.6203
-0.3370 2.8085 0.6122
-0.4376 2.7967 0.6041
-0.5378 2.7813 0.5960
-0.6373 2.7623 0.5879
-0.7361 2.7398 0.5798
-0.8341 2.7138 0.5717
-0.9310 2.6842 0.5637
-2.9649 7.6546 1.6043
-3.3678 7.8516 1.6447
-3.7012 7.8449 1.6447
-4.0393 7.8266 1.6447
-4.2424 7.5481 1.5923
-4.2005 6.8877 1.4611
-4.1639 6.3113 1.3485
-4.1317 5.8025 1.2511
-4.1029 5.3491 1.1661
-4.0770 4.9414 1.0914
-4.0536 4.5721 1.0254
-4.0322 4.2350 0.9667
-4.0126 3.9254 0.9143
-4.0048 3.6488 0.8696
-4.0260 3.4148 0.8351
-4.0461 3.1922 0.8038
-4.1052 3.0089 0.7828
-4.1659 2.8319 0.7642
-4.2253 2.6584 0.7472
-4.2881 2.4903 0.7327
-4.3679 2.3337 0.7225
-4.4475 2.1773 0.7137
-4.5271 2.0207 0.7061
-4.6071 1.8637 0.6999
-4.6961 1.7088 0.6963
-4.7877 1.5524 0.6941
-4.8807 1.3936 0.6933
-4.9754 1.2319 0.6938
-5.0718 1.0667 0.6956
-5.1703 0.8976 0.6989
-5.2713 0.7240 0.7036
-5.3754 0.5452 0.7100
-5.4754 0.3601 0.7170
-5.5724 0.1687 0.7249
-5.6728 -0.0291 0.7346
-5.7739 -0.2342 0.7458
-5.8766 -0.4471 0.7587
-5.9836 -0.6690 0.7737
-6.1091 -0.9030 0.7928
-6.2427 -1.1499 0.8148
-6.3874 -1.4119 0.8403
-6.5517 -1.6936 0.8705
-6.7284 -1.9958 0.9049
-5.8440 -1.9610 0.7972
-5.6344 -2.1154 0.7814
-5.4342 -2.2628 0.7678
-5.2424 -2.4041 0.7563
-5.0580 -2.5399 0.7467
-4.8800 -2.6710 0.7390
-4.7079 -2.7978 0.7330
-4.5408 -2.9208 0.7286
-4.3781 -3.0406 0.7257
-4.3941 -3.2883 0.7543
-4.8455 -3.9013 0.8636
-5.4370 -4.7044 1.0087
-5.8245 -5.4121 1.1279
-8.1299 -8.1095 1.6480
-7.7435 -8.2918 1.6480
-7.3524 -8.4547 1.6480
-6.9579 -8.5984 1.6480
-6.5612 -8.7232 1.6480
-6.1636 -8.8296 1.6480
-5.7660 -8.9178 1.6480
-5.3695 -8.9885 1.6480
-4.9751 -9.0422 1.6480
-4.5836 -9.0793 1.6480
-4.1960 -9.1006 1.6480
-3.8128 -9.1067 1.6480
-3.4349 -9.0981 1.6480
-3.0564 -9.0572 1.6447
-2.6913 -9.0215 1.6447
-2.3330 -8.9731 1.6447
-1.9818 -8.9127 1.6447
-1.6382 -8.8410 1.6447
-1.3024 -8.7586 1.6447
-0.9747 -8.6660 1.6447
-0.6553 -8.5640 1.6447
-0.3445 -8.4529 1.6447
-0.0422 -8.3336 1.6447
0.2513 -8.2063 1.6447
0.5361 -8.0718 1.6447
0.8120 -7.9304 1.6447
1.1469 -8.2713 1.7479
1.4214 -8.1080 1.7479
1.6866 -7.9390 1.7479
1.9424 -7.7645 1.7479
2.1891 -7.5851 1.7479
2.4266 -7.4012 1.7479
2.6551 -7.2130 1.7479
2.8746 -7.0210 1.7479
3.0853 -6.8254 1.7479
3.2872 -6.6266 1.7479
3.4806 -6.4250 1.7479
3.6655 -6.2206 1.7479
3.8421 -6.0138 1.7479
4.0105 -5.8049 1.7479
4.1708 -5.5941 1.7479
4.3232 -5.3815 1.7479
4.4678 -5.1674 1.7479
4.6047 -4.9519 1.7479
4.7608 2.8043 1.7479
4.6724 2.9879 1.7479
4.5786 3.1698 1.7479
4.4794 3.3500 1.7479
4.3749 3.5284 1.7479
4.2648 3.7048 1.7479
4.1494 3.8793 1.7479
4.0284 4.0517 1.7479
3.9018 4.2218 1.7479
2.8684 3.3400 1.3300
2.6530 3.3272 1.2768
2.4515 3.3152 1.2283
2.2620 3.3039 1.1839
2.0831 3.2932 1.1433
1.9134 3.2831 1.1059
1.7518 3.2735 1.0715
1.5974 3.2643 1.0397
1.4494 3.2555 1.0103
1.3069 3.2470 0.9832
0.8560 2.3709 0.7013
0.7702 2.4020 0.6949
0.6835 2.4300 0.6884
0.5957 2.4548 0.6817
0.5072 2.4765 0.6750
0.4180 2.4951 0.6681
0.3281 2.5104 0.6612
0.2378 2.5225 0.6542
0.1470 2.5314 0.6471
0.0561 2.5370 0.6400
-0.0350 2.5394 0.6328
-0.1262 2.5385 0.6256
-0.2173 2.5343 0.6183
-0.3081 2.5269 0.6111
-0.3987 2.5163 0.6038
-0.4888 2.5024 0.5965
-0.5784 2.4853 0.5892
-0.6673 2.4650 0.5819
-0.7554 2.4415 0.5746
-0.8427 2.4149 0.5674
-0.9290 2.3852 0.5602
-3.0159 6.9956 1.6447
-3.3079 6.9784 1.6447
-3.6032 6.9507 1.6447
-3.9013 6.9122 1.6447
-4.2103 6.8765 1.6480
-4.1623 6.2850 1.5199
-4.1302 5.7796 1.4128
-4.1016 5.3289 1.3194
-4.0759 4.9236 1.2373
-4.0526 4.5562 1.1647
-4.0313 4.2208 1.1001
-4.0118 3.9126 1.0425
-4.0057 3.6388 0.9938
-4.0268 3.4055 0.9562
-4.0469 3.1836 0.9220
-4.1076 3.0021 0.9000
-4.1681 2.8255 0.8801
-4.2274 2.6523 0.8621
-4.2909 2.4850 0.8470
-4.3704 2.3286 0.8366
-4.4499 2.1724 0.8278
-4.5295 2.0161 0.8204
-4.6093 1.8592 0.8144
-4.6985 1.7047 0.8114
-4.7900 1.5485 0.8101
-4.8829 1.3899 0.8102
-4.9775 1.2284 0.8118
-5.0737 1.0635 0.8150
-5.1720 0.8945 0.8197
-5.2730 0.7211 0.8261
-5.3769 0.5426 0.8343
-5.4766 0.3578 0.8432
-5.5735 0.1667 0.8531
-5.6737 -0.0309 0.8650
-5.7746 -0.2357 0.8786
-5.8771 -0.4482 0.8941
-5.9840 -0.6697 0.9120
-6.1093 -0.9033 0.9346
-6.2426 -1.1497 0.9605
-6.3870 -1.4113 0.9904
-6.5510 -1.6923 1.0257
-6.7272 -1.9938 1.0658
-5.8457 -1.9598 0.9390
-5.6364 -2.1139 0.9198
-5.4365 -2.2611 0.9032
-5.2449 -2.4022 0.8890
-5.0607 -2.5379 0.8770
-4.8830 -2.6687 0.8671
-4.7111 -2.7954 0.8591
-4.5442 -2.9183 0.8530
-4.3817 -3.0379 0.8485
-4.3845 -3.2753 0.8781
-4.8324 -3.8835 1.0033
-5.4184 -4.6791 1.1692
-5.8784 -5.4509 1.3219
-7.0130 -6.9803 1.6480
-6.6913 -7.1489 1.6480
-6.3648 -7.3014 1.6480
-6.0344 -7.4382 1.6480
-5.7011 -7.5593 1.6480
-5.3658 -7.6649 1.6480
-5.0295 -7.7552 1.6480
-4.6930 -7.8307 1.6480
-4.3572 -7.8916 1.6480
-4.0227 -7.9383 1.6480
-3.6903 -7.9712 1.6480
-3.3606 -7.9909 1.6480
-3.0281 -7.9814 1.6447
-2.7063 -7.9758 1.6447
-2.3888 -7.9583 1.6447
-2.0762 -7.9294 1.6447
-1.7688 -7.8896 1.6447
-1.4670 -7.8394 1.6447
-1.1711 -7.7792 1.6447
-0.8814 -7.7097 1.6447
-0.5981 -7.6312 1.6447
-0.3215 -7.5442 1.6447
-0.0517 -7.4492 1.6447
0.2112 -7.3466 1.6447
0.4669 -7.2369 1.6447
0.7154 -7.1205 1.6447
1.0168 -7.4371 1.7479
1.2655 -7.3003 1.7479
1.5064 -7.1577 1.7479
1.7394 -7.0096 1.7479
1.9647 -6.8564 1.7479
2.1822 -6.6984 1.7479
2.3919 -6.5359 1.7479
2.5939 -6.3693 1.7479
2.7882 -6.1989 1.7479
2.9750 -6.0250 1.7479
3.1542 -5.8478 1.7479
3.3260 -5.6676 1.7479
3.4903 -5.4846 1.7479
3.6474 -5.2991 1.7479
3.7973 -5.1114 1.7479
3.9400 -4.9215 1.7479
4.0758 -4.7297 1.7479
4.2046 -4.5362 1.7479
4.4111 2.6024 1.7479
4.3279 2.7722 1.7479
4.2396 2.9403 1.7479
4.1463 3.1066 1.7479
4.0479 3.2711 1.7479
3.9445 3.4336 1.7479
3.8360 3.5941 1.7479
3.7223 3.7524 1.7479
3.6035 3.9084 1.7479
2.8609 3.3398 1.4372
2.6458 3.3269 1.3803
2.4444 3.3149 1.3285
2.2551 3.3036 1.2812
2.0763 3.2930 1.2378
1.9067 3.2829 1.1980
1.7452 3.2733 1.1614
1.5909 3.2641 1.1277
1.4429 3.2553 1.0965
0.8499 2.1218 0.6978
0.7731 2.1527 0.6921
0.6952 2.1810 0.6863
0.6164 2.2064 0.6803
0.5367 2.2289 0.6743
0.4563 2.2486 0.6682
0.3752 2.2655 0.6620
0.2936 2.2794 0.6557
0.2116 2.2904 0.6493
0.1292 2.2984 0.6429
0.0465 2.3035 0.6364
-0.0362 2.3057 0.6299
-0.1190 2.3048 0.6233
-0.2017 2.3010 0.6167
-0.2842 2.2943 0.6101
-0.3665 2.2846 0.6035
-0.4483 2.2720 0.5969
-0.5297 2.2564 0.5902
-0.6104 2.2380 0.5836
-0.6905 2.2166 0.5770
-0.7697 2.1924 0.5705
-0.8481 2.1654 0.5639
-0.9254 2.1356 0.5574
-2.9898 6.2772 1.6447
-3.2513 6.2440 1.6447
-3.5146 6.2010 1.6447
-3.7793 6.1481 1.6447
-4.0450 6.0848 1.6447
-4.1288 5.7566 1.5751
-4.1003 5.3087 1.4733
-4.0748 4.9057 1.3838
-4.0516 4.5402 1.3046
-4.0304 4.2065 1.2342
-4.0110 3.8998 1.1713
-4.0066 3.6286 1.1188
-4.0276 3.3961 1.0781
-4.0482 3.1754 1.0412
-4.1099 2.9952 1.0180
-4.1703 2.8190 0.9969
-4.2295 2.6462 0.9779
-4.2936 2.4796 0.9621
-4.3731 2.3234 0.9516
-4.4524 2.1675 0.9427
-4.5319 2.0114 0.9355
-4.6116 1.8548 0.9298
-4.7010 1.7005 0.9275
-4.7923 1.5446 0.9269
-4.8851 1.3862 0.9280
-4.9795 1.2249 0.9308
-5.0757 1.0602 0.9352
-5.1738 0.8915 0.9414
-5.2746 0.7183 0.9495
-5.3784 0.5400 0.9595
-5.4778 0.3554 0.9703
-5.5745 0.1646 0.9822
-5.6745 -0.0327 0.9964
-5.7752 -0.2371 1.0124
-5.8777 -0.4493 1.0305
-5.9843 -0.6704 1.0513
-6.1094 -0.9036 1.0775
-6.2425 -1.1495 1.1073
-6.3866 -1.4106 1.1415
-6.5503 -1.6910 1.1820
-6.7260 -1.9918 1.2277
-5.8475 -1.9585 1.0818
-5.6384 -2.1124 1.0593
-5.4388 -2.2594 1.0397
-5.2475 -2.4003 1.0228
-5.0635 -2.5358 1.0083
-4.8861 -2.6665 0.9962
-4.7143 -2.7930 0.9862
-4.5476 -2.9158 0.9783
-4.3853 -3.0353 0.9723
-4.3749 -3.2623 1.0020
-4.8193 -3.8656 1.1430
-5.3997 -4.6538 1.3295
-5.9337 -5.4908 1.5206
-6.1620 -6.1198 1.6480
-5.8873 -6.2754 1.6480
-5.6078 -6.4175 1.6480
-5.3243 -6.5462 1.6480
-5.0377 -6.6617 1.6480
-4.7487 -6.7639 1.6480
-4.4580 -6.8530 1.6480
-4.1664 -6.9293 1.6480
-3.8746 -6.9929 1.6480
-3.5832 -7.0442 1.6480
-3.2928 -7.0835 1.6480
-2.9979 -7.0965 1.6447
-2.7118 -7.1125 1.6447
-2.4284 -7.1175 1.6447
-2.1480 -7.1118 1.6447
-1.8711 -7.0958 1.6447
-1.5981 -7.0699 1.6447
-1.3294 -7.0344 1.6447
-1.0652 -6.9898 1.6447
-0.8059 -6.9365 1.6447
-0.5517 -6.8749 1.6447
-0.3028 -6.8053 1.6447
-0.0594 -6.7281 1.6447
0.1783 -6.6436 1.6447
0.4102 -6.5524 1.6447
0.6361 -6.4547 1.6447
0.9096 -6.7495 1.7479
1.1366 -6.6330 1.7479
1.3571 -6.5107 1.7479
1.5709 -6.3829 1.7479
1.7780 -6.2499 1.7479
1.9783 -6.1122 1.7479
2.1719 -5.9700 1.7479
2.3588 -5.8235 1.7479
2.5389 -5.6730 1.7479
2.7124 -5.5189 1.7479
2.8791 -5.3614 1.7479
3.0393 -5.2007 1.7479
3.1928 -5.0370 1.7479
3.3398 -4.8706 1.7479
3.4803 -4.7017 1.7479
3.6143 -4.5304 1.7479
3.7420 -4.3571 1.7479
3.8633 -4.1817 1.7479
4.1046 2.4255 1.7479
4.0261 2.5833 1.7479
3.9428 2.7394 1.7479
3.8548 2.8937 1.7479
3.7621 3.0462 1.7479
3.6646 3.1966 1.7479
3.5623 3.3450 1.7479
3.4553 3.4912 1.7479
3.3434 3.6351 1.7479
3.2268 3.7766 1.7479
2.6384 3.3267 1.4851
2.4372 3.3147 1.4299
2.2480 3.3034 1.3796
2.0693 3.2928 1.3336
1.8999 3.2827 1.2913
1.7385 3.2730 1.2525
1.5843 3.2639 1.2167
0.8429 1.9101 0.6947
0.7737 1.9409 0.6896
0.7034 1.9693 0.6843
0.6321 1.9951 0.6790
0.5600 2.0183 0.6736
0.4871 2.0390 0.6681
0.4135 2.0570 0.6625
0.3393 2.0724 0.6568
0.2646 2.0852 0.6510
0.1895 2.0952 0.6452
0.1141 2.1026 0.6393
0.0385 2.1072 0.6334
-0.0372 2.1091 0.6274
-0.1130 2.1084 0.6214
-0.1886 2.1049 0.6154
-0.2642 2.0987 0.6093
-0.3394 2.0898 0.6033
-0.4143 2.0783 0.5972
-0.4887 2.0640 0.5911
-0.5626 2.0471 0.5851
-0.6359 2.0275 0.5790
-0.7084 2.0054 0.5730
-0.7800 1.9806 0.5671
-0.8508 1.9533 0.5611
-0.9205 1.9235 0.5552
-2.9611 5.6612 1.6447
-3.1966 5.6160 1.6447
-3.4327 5.5618 1.6447
-3.6692 5.4983 1.6447
-3.9055 5.4254 1.6447
-4.0990 5.2884 1.6279
-4.0736 4.8877 1.5310
-4.0506 4.5242 1.4453
-4.0295 4.1921 1.3690
-4.0102 3.8869 1.3010
-4.0075 3.6184 1.2447
-4.0285 3.3867 1.2008
-4.0507 3.1680 1.1615
-4.1123 2.9883 1.1369
-4.1725 2.8124 1.1147
-4.2316 2.6400 1.0946
-4.2964 2.4741 1.0783
-4.3757 2.3183 1.0676
-4.4549 2.1626 1.0587
-4.5343 2.0067 1.0515
-4.6138 1.8503 1.0461
-4.7034 1.6964 1.0445
-4.7946 1.5406 1.0448
-4.8873 1.3825 1.0468
-4.9816 1.2214 1.0507
-5.0776 1.0568 1.0565
-5.1756 0.8884 1.0642
-5.2763 0.7154 1.0739
-5.3799 0.5374 1.0859
-5.4790 0.3530 1.0985
-5.5756 0.1625 1.1125
-5.6755 -0.0345 1.1288
-5.7760 -0.2385 1.1472
-5.8782 -0.4504 1.1680
-5.9847 -0.6712 1.1917
-6.1096 -0.9039 1.2214
-6.2425 -1.1494 1.2552
-6.3862 -1.4099 1.2938
-6.5495 -1.6897 1.3394
-6.7248 -1.9898 1.3908
-5.8492 -1.9572 1.2257
-5.6405 -2.1109 1.1999
-5.4412 -2.2577 1.1773
-5.2501 -2.3984 1.1576
-5.0664 -2.5337 1.1407
-4.8891 -2.6643 1.1264
-4.7176 -2.7906 1.1144
-4.5511 -2.9132 1.1047
-4.3890 -3.0326 1.0971
-4.3653 -3.2492 1.1263
-4.8061 -3.8478 1.2829
-5.9528 -5.1202 1.6480
-5.7251 -5.2867 1.6480
-5.4913 -5.4418 1.6480
-5.2522 -5.5855 1.6480
-5.0085 -5.7178 1.6480
-4.7609 -5.8385 1.6480
-4.5100 -5.9477 1.6480
-4.2566 -6.0454 1.6480
-4.0012 -6.1318 1.6480
-3.7444 -6.2070 1.6480
-3.4869 -6.2710 1.6480
-3.2226 -6.3113 1.6447
-2.9658 -6.3536 1.6447
-2.7098 -6.3856 1.6447
-2.4551 -6.4073 1.6447
-2.2022 -6.4191 1.6447
-1.9515 -6.4212 1.6447
-1.7034 -6.4140 1.6447
-1.4582 -6.3978 1.6447
-1.2163 -6.3728 1.6447
-0.9780 -6.3395 1.6447
-0.7436 -6.2980 1.6447
-0.5132 -6.2488 1.6447
-0.2872 -6.1920 1.6447
-0.0658 -6.1282 1.6447
0.1509 -6.0576 1.6447
0.3628 -5.9805 1.6447
0.5695 -5.8971 1.6447
0.8196 -6.1725 1.7479
1.0283 -6.0718 1.7479
1.2313 -5.9654 1.7479
1.4286 -5.8537 1.7479
1.6200 -5.7369 1.7479
1.8055 -5.6154 1.7479
1.9851 -5.4894 1.7479
2.1588 -5.3591 1.7479
2.3265 -5.2249 1.7479
2.4882 -5.0869 1.7479
2.6440 -4.9455 1.7479
2.7938 -4.8008 1.7479
2.9376 -4.6531 1.7479
3.0755 -4.5025 1.7479
3.2076 -4.3492 1.7479
3.3337 -4.1936 1.7479
3.4541 -4.0356 1.7479
3.5686 -3.8756 1.7479
3.8336 2.2691 1.7479
3.7593 2.4163 1.7479
3.6806 2.5619 1.7479
3.5974 2.7057 1.7479
3.5098 2.8476 1.7479
3.4177 2.9875 1.7479
3.3211 3.1254 1.7479
3.2200 3.2611 1.7479
3.1144 3.3945 1.7479
3.0044 3.5255 1.7479
2.8900 3.6539 1.7479
2.6526 3.6182 1.6732
2.2409 3.3032 1.4794
2.0623 3.2925 1.4306
1.8930 3.2824 1.3858
1.7318 3.2728 1.3448
0.8351 1.7275 0.6918
0.7724 1.7582 0.6872
0.7086 1.7866 0.6825
0.6439 1.8127 0.6777
0.5783 1.8364 0.6728
0.5119 1.8579 0.6678
0.4447 1.8769 0.6627
0.3770 1.8935 0.6576
0.3086 1.9077 0.6523
0.2399 1.9194 0.6470
0.1707 1.9286 0.6417
0.1013 1.9354 0.6363
0.0317 1.9397 0.6308
-0.0381 1.9414 0.6253
-0.1078 1.9407 0.6198
-0.1775 1.9375 0.6142
-0.2470 1.9318 0.6087
-0.3163 1.9236 0.6031
-0.3853 1.9129 0.5975
-0.4538 1.8998 0.5919
-0.5218 1.8842 0.5863
-0.5893 1.8662 0.5808
-0.6560 1.8457 0.5752
-0.7220 1.8230 0.5697
-0.7871 1.7978 0.5643
-0.8513 1.7703 0.5589
-0.9145 1.7405 0.5535
-2.9301 5.1259 1.6447
-3.1429 5.0716 1.6447
-3.3556 5.0090 1.6447
-3.5677 4.9378 1.6447
-3.7790 4.8581 1.6447
-3.9970 4.7793 1.6480
-4.0495 4.5080 1.5869
-4.0286 4.1777 1.5048
-4.0093 3.8739 1.4315
-4.0085 3.6082 1.3716
-4.0294 3.3772 1.3245
-4.0532 3.1606 1.2830
-4.1147 2.9813 1.2570
-4.1748 2.8058 1.2335
-4.2338 2.6337 1.2124
-4.2992 2.4687 1.1956
-4.3784 2.3130 1.1847
-4.4575 2.1576 1.1758
-4.5367 2.0020 1.1687
-4.6161 1.8458 1.1636
-4.7059 1.6922 1.1627
-4.7970 1.5366 1.1638
-4.8895 1.3787 1.1668
-4.9837 1.2178 1.1719
-5.0796 1.0535 1.1789
-5.1775 0.8852 1.1881
-5.2780 0.7125 1.1995
-5.3814 0.5347 1.2134
-5.4802 0.3506 1.2279
-5.5767 0.1604 1.2439
-5.6764 -0.0363 1.2625
-5.7767 -0.2400 1.2833
-5.8787 -0.4516 1.3067
-5.9850 -0.6719 1.3334
-6.1098 -0.9042 1.3666
-6.2424 -1.1492 1.4044
-6.3858 -1.4092 1.4475
-6.5488 -1.6884 1.4982
-6.7236 -1.9878 1.5554
-5.8510 -1.9559 1.3711
-5.6426 -2.1094 1.3419
-5.4435 -2.2560 1.3162
-5.2527 -2.3965 1.2938
-5.0692 -2.5316 1.2744
-4.8922 -2.6620 1.2578
-4.7209 -2.7882 1.2439
-4.5546 -2.9106 1.2324
-4.3927 -3.0299 1.2232
-4.3557 -3.2361 1.2511
-4.7929 -3.8298 1.4232
-5.3556 -4.5973 1.6480
-5.1549 -4.7501 1.6480
-4.9487 -4.8932 1.6480
-4.7375 -5.0264 1.6480
-4.5219 -5.1496 1.6480
-4.3026 -5.2627 1.6480
-4.0800 -5.3657 1.6480
-3.8547 -5.4587 1.6480
-3.6273 -5.5416 1.6480
-3.3983 -5.6146 1.6480
-3.1618 -5.6662 1.6447
-2.9317 -5.7196 1.6447
-2.7014 -5.7633 1.6447
-2.4715 -5.7977 1.6447
-2.2424 -5.8229 1.6447
-2.0144 -5.8392 1.6447
-1.7880 -5.8466 1.6447
-1.5635 -5.8456 1.6447
-1.3413 -5.8363 1.6447
-1.1217 -5.8189 1.6447
-0.9049 -5.7938 1.6447
-0.6912 -5.7612 1.6447
-0.4808 -5.7213 1.6447
-0.2741 -5.6745 1.6447
-0.0712 -5.6210 1.6447
0.1277 -5.5611 1.6447
0.3225 -5.4950 1.6447
0.5177 -5.4726 1.6597
0.7430 -5.6810 1.7479
0.9358 -5.5929 1.7479
1.1238 -5.4993 1.7479
1.3067 -5.4005 1.7479
1.4845 -5.2968 1.7479
1.6570 -5.1885 1.7479
1.8244 -5.0758 1.7479
1.9864 -4.9589 1.7479
2.1431 -4.8381 1.7479
2.2944 -4.7136 1.7479
2.4404 -4.5855 1.7479
2.5810 -4.4542 1.7479
2.7161 -4.3198 1.7479
2.8459 -4.1826 1.7479
2.9703 -4.0426 1.7479
3.0893 -3.9001 1.7479
3.2030 -3.7553 1.7479
3.3113 -3.6083 1.7479
3.5919 2.1296 1.7479
3.5216 2.2675 1.7479
3.4471 2.4038 1.7479
3.3682 2.5383 1.7479
3.2852 2.6709 1.7479
3.1980 2.8016 1.7479
3.1066 2.9302 1.7479
3.0109 3.0566 1.7479
2.9111 3.1808 1.7479
2.8071 3.3026 1.7479
2.6989 3.4219 1.7479
2.5865 3.5386 1.7479
2.4701 3.6526 1.7479
2.0552 3.2923 1.5290
1.8860 3.2822 1.4818
0.8265 1.5680 0.6892
0.7695 1.5985 0.6851
0.7114 1.6269 0.6808
0.6524 1.6532 0.6765
0.5925 1.6773 0.6720
0.5317 1.6994 0.6675
0.4703 1.7192 0.6628
0.4081 1.7368 0.6581
0.3454 1.7521 0.6534
0.2822 1.7652 0.6485
0.2185 1.7761 0.6436
0.1545 1.7846 0.6386
0.0902 1.7909 0.6336
0.0258 1.7949 0.6286
-0.0388 1.7965 0.6235
-0.1033 1.7958 0.6184
-0.1679 1.7929 0.6132
-0.2322 1.7876 0.6081
-0.2964 1.7799 0.6029
-0.3602 1.7701 0.5977
-0.4236 1.7579 0.5926
-0.4866 1.7434 0.5874
-0.5490 1.7268 0.5823
-0.6108 1.7078 0.5771
-0.6718 1.6867 0.5721
-0.7321 1.6634 0.5670
-0.7915 1.6379 0.5620
-0.8500 1.6104 0.5570
-0.9075 1.5807 0.5521
-2.8967 4.6552 1.6447
-3.0897 4.5941 1.6447
-3.2818 4.5252 1.6447
-3.4728 4.4484 1.6447
-3.6623 4.3638 1.6447
-3.8499 4.2713 1.6447
-4.0434 4.1793 1.6480
-4.0085 3.8608 1.5631
-4.0094 3.5978 1.4996
-4.0302 3.3677 1.4494
-4.0558 3.1532 1.4058
-4.1171 2.9742 1.3783
-4.1771 2.7991 1.3536
-4.2360 2.6274 1.3314
-4.3020 2.4631 1.3141
-4.3811 2.3077 1.3031
-4.4601 2.1525 1.2941
-4.5391 1.9972 1.2872
-4.6185 1.8413 1.2823
-4.7083 1.6879 1.2822
-4.7993 1.5326 1.2841
-4.8917 1.3749 1.2881
-4.9858 1.2142 1.2943
-5.0815 1.0501 1.3027
-5.1793 0.8821 1.3134
-5.2797 0.7096 1.3265
-5.3830 0.5320 1.3423
-5.4814 0.3482 1.3587
-5.5777 0.1582 1.3767
-5.6773 -0.0381 1.3976
-5.7774 -0.2415 1.4209
-5.8793 -0.4527 1.4469
-5.9854 -0.6726 1.4765
-6.1099 -0.9045 1.5134
-6.2423 -1.1491 1.5551
-6.3854 -1.4085 1.6026
-6.5065 -1.6764 1.6480
-6.4357 -1.9011 1.6480
-6.3545 -2.1221 1.6480
-5.6447 -2.1078 1.4853
-5.4459 -2.2542 1.4566
-5.2554 -2.3945 1.4314
-5.0721 -2.5295 1.4096
-4.8953 -2.6597 1.3907
-4.7242 -2.7857 1.3748
-4.5581 -2.9080 1.3615
-4.3971 -3.0276 1.3509
-4.3460 -3.2230 1.3764
-5.0366 -4.0168 1.6480
-4.8633 -4.1662 1.6480
-4.6844 -4.3073 1.6480
-4.5003 -4.4398 1.6480
-4.3115 -4.5636 1.6480
-4.1186 -4.6786 1.6480
-3.9220 -4.7846 1.6480
-3.7223 -4.8818 1.6480
-3.5199 -4.9700 1.6480
-3.3086 -5.0390 1.6447
-3.1028 -5.1092 1.6447
-2.8957 -5.1707 1.6447
-2.6878 -5.2234 1.6447
-2.4794 -5.2675 1.6447
-2.2711 -5.3031 1.6447
-2.0631 -5.3304 1.6447
-1.8559 -5.3495 1.6447
-1.6497 -5.3606 1.6447
-1.4450 -5.3639 1.6447
-1.2421 -5.3596 1.6447
-1.0412 -5.3479 1.6447
-0.8425 -5.3290 1.6447
-0.6465 -5.3032 1.6447
-0.4532 -5.2706 1.6447
-0.2629 -5.2315 1.6447
-0.0758 -5.1861 1.6447
0.1078 -5.1346 1.6447
0.2879 -5.0774 1.6447
0.4643 -5.0145 1.6447
0.6368 -4.9463 1.6447
0.8559 -5.1789 1.7479
1.0307 -5.0958 1.7479
1.2011 -5.0077 1.7479
1.3668 -4.9149 1.7479
1.5280 -4.8175 1.7479
1.6844 -4.7158 1.7479
1.8362 -4.6101 1.7479
1.9831 -4.5005 1.7479
2.1251 -4.3873 1.7479
2.2623 -4.2706 1.7479
2.3945 -4.1506 1.7479
2.5219 -4.0276 1.7479
2.6443 -3.9017 1.7479
2.7618 -3.7731 1.7479
2.8743 -3.6420 1.7479
2.9818 -3.5084 1.7479
3.0845 -3.3727 1.7479
3.3750 2.0044 1.7479
3.3082 2.1340 1.7479
3.2375 2.2619 1.7479
3.1627 2.3881 1.7479
3.0839 2.5124 1.7479
3.0011 2.6349 1.7479
2.9144 2.7553 1.7479
2.8237 2.8736 1.7479
2.7291 2.9896 1.7479
2.6305 3.1033 1.7479
2.5281 3.2145 1.7479
2.4217 3.3232 1.7479
2.3115 3.4292 1.7479
2.1975 3.5324 1.7479
0.8171 1.4272 0.6867
0.7651 1.4574 0.6830
0.7121 1.4858 0.6791
0.6581 1.5122 0.6752
0.6033 1.5366 0.6711
0.5476 1.5591 0.6670
0.4911 1.5795 0.6628
0.4339 1.5980 0.6585
0.3761 1.6144 0.6541
0.3178 1.6286 0.6497
0.2590 1.6408 0.6452
0.1998 1.6509 0.6406
0.1403 1.6589 0.6360
0.0805 1.6647 0.6313
0.0206 1.6683 0.6266
-0.0394 1.6699 0.6219
-0.0995 1.6692 0.6171
-0.1594 1.6665 0.6124
-0.2193 1.6615 0.6076
-0.2789 1.6545 0.6028
-0.3382 1.6452 0.5979
-0.3972 1.6339 0.5931
-0.4558 1.6205 0.5883
-0.5138 1.6050 0.5836
-0.5712 1.5873 0.5788
-0.6280 1.5677 0.5741
-0.6841 1.5460 0.5694
-0.7393 1.5223 0.5647
-0.7937 1.4967 0.5601
-0.8471 1.4691 0.5555
-0.8995 1.4396 0.5510
-2.8611 4.2375 1.6447
-3.0364 4.1710 1.6447
-3.2104 4.0974 1.6447
-3.3828 4.0167 1.6447
-3.5532 3.9288 1.6447
-3.7213 3.8337 1.6447
-3.8867 3.7314 1.6447
-4.0103 3.5873 1.6290
-4.0311 3.3580 1.5756
-4.0584 3.1456 1.5299
-4.1196 2.9670 1.5010
-4.1794 2.7924 1.4751
-4.2381 2.6210 1.4518
-4.3048 2.4575 1.4341
-4.3838 2.3024 1.4229
-4.4626 2.1475 1.4139
-4.5416 1.9923 1.4071
-4.6212 1.8368 1.4026
-4.7109 1.6837 1.4031
-4.8017 1.5285 1.4058
-4.8940 1.3710 1.4109
-4.9879 1.2106 1.4182
-5.0835 1.0467 1.4279
-5.1812 0.8789 1.4401
-5.2814 0.7066 1.4550
-5.3846 0.5293 1.4726
-5.4827 0.3458 1.4910
-5.5788 0.1561 1.5110
-5.6782 -0.0399 1.5342
-5.7781 -0.2430 1.5599
-5.8798 -0.4538 1.5887
-5.9857 -0.6734 1.6213
-6.0599 -0.8974 1.6480
-6.0252 -1.1090 1.6480
-5.9807 -1.3186 1.6480
-5.9266 -1.5260 1.6480
-5.8629 -1.7305 1.6480
-5.7898 -1.9316 1.6480
-5.7077 -2.1289 1.6480
-5.6166 -2.3220 1.6480
-5.5170 -2.5103 1.6480
-5.4090 -2.6936 1.6480
-5.2930 -2.8714 1.6480
-5.1694 -3.0433 1.6480
-5.0386 -3.2091 1.6480
-4.4077 -3.0295 1.4822
-4.7566 -3.5208 1.6480
-4.6062 -3.6663 1.6480
-4.4503 -3.8045 1.6480
-4.2891 -3.9353 1.6480
-4.1231 -4.0584 1.6480
-3.9527 -4.1739 1.6480
-3.7785 -4.2814 1.6480
-3.6007 -4.3810 1.6480
-3.4200 -4.4727 1.6480
-3.2300 -4.5470 1.6447
-3.0448 -4.6224 1.6447
-2.8578 -4.6898 1.6447
-2.6694 -4.7493 1.6447
-2.4801 -4.8009 1.6447
-2.2901 -4.8446 1.6447
-2.0999 -4.8807 1.6447
-1.9098 -4.9091 1.6447
-1.7201 -4.9301 1.6447
-1.5311 -4.9437 1.6447
-1.3433 -4.9502 1.6447
-1.1567 -4.9496 1.6447
-0.9718 -4.9421 1.6447
-0.7888 -4.9280 1.6447
-0.6078 -4.9074 1.6447
-0.4292 -4.8805 1.6447
-0.2532 -4.8475 1.6447
-0.0799 -4.8086 1.6447
0.0905 -4.7640 1.6447
0.2578 -4.7140 1.6447
0.4219 -4.6586 1.6447
0.5825 -4.5981 1.6447
0.7861 -4.8173 1.7479
0.9493 -4.7428 1.7479
1.1085 -4.6636 1.7479
1.2637 -4.5798 1.7479
1.4147 -4.4917 1.7479
1.5615 -4.3994 1.7479
1.7039 -4.3031 1.7479
1.8420 -4.2031 1.7479
1.9757 -4.0995 1.7479
2.1050 -3.9925 1.7479
2.2298 -3.8823 1.7479
2.3500 -3.7690 1.7479
2.4657 -3.6529 1.7479
2.5769 -3.5341 1.7479
2.6834 -3.4128 1.7479
2.7854 -3.2891 1.7479
2.8828 -3.1632 1.7479
3.1789 1.8912 1.7479
3.1155 2.0133 1.7479
3.0482 2.1337 1.7479
2.9771 2.2525 1.7479
2.9022 2.3694 1.7479
2.8235 2.4845 1.7479
2.7411 2.5976 1.7479
2.6550 2.7085 1.7479
2.5651 2.8173 1.7479
2.4715 2.9238 1.7479
2.3743 3.0279 1.7479
2.2735 3.1295 1.7479
0.8534 1.2702 0.6877
0.8070 1.3018 0.6844
0.7595 1.3317 0.6810
0.7110 1.3599 0.6775
0.6615 1.3863 0.6739
0.6112 1.4110 0.6702
0.5599 1.4338 0.6665
0.5079 1.4548 0.6626
0.4552 1.4739 0.6587
0.4018 1.4911 0.6547
0.3479 1.5064 0.6506
0.2935 1.5197 0.6464
0.2386 1.5311 0.6422
0.1833 1.5405 0.6380
0.1278 1.5479 0.6337
0.0720 1.5533 0.6293
0.0161 1.5568 0.6249
-0.0400 1.5582 0.6205
-0.0960 1.5576 0.6161
-0.1520 1.5550 0.6116
-0.2079 1.5504 0.6071
-0.2635 1.5438 0.6026
-0.3189 1.5352 0.5981
-0.3740 1.5246 0.5937
-0.4286 1.5120 0.5892
-0.4828 1.4975 0.5847
-0.5364 1.4811 0.5803
-0.5894 1.4627 0.5759
-0.6417 1.4425 0.5715
-0.6932 1.4204 0.5671
-0.7440 1.3964 0.5628
-0.7938 1.3706 0.5585
-0.8427 1.3431 0.5543
-0.8907 1.3138 0.5502
-0.9375 1.2828 0.5461
-2.9829 3.7930 1.6447
-3.1408 3.7160 1.6447
-3.2966 3.6325 1.6447
-3.4501 3.5424 1.6447
-3.6010 3.4458 1.6447
-3.7489 3.3427 1.6447
-3.9014 3.2398 1.6480
-4.0426 3.1237 1.6480
-4.1221 2.9598 1.6253
-4.1818 2.7855 1.5980
-4.2404 2.6145 1.5737
-4.3077 2.4518 1.5556
-4.3865 2.2970 1.5442
-4.4653 2.1423 1.5352
-4.5441 1.9874 1.5285
-4.6239 1.8322 1.5244
-4.7134 1.6793 1.5256
-4.8041 1.5244 1.5292
-4.8963 1.3671 1.5352
-4.9901 1.2069 1.5437
-5.0855 1.0432 1.5548
-5.1831 0.8756 1.5685
-5.2831 0.7036 1.5851
-5.3862 0.5266 1.6047
-5.4839 0.3433 1.6250
-5.5833 0.1540 1.6480
-5.5959 -0.0412 1.6480
-5.5998 -0.2370 1.6480
-5.5947 -0.4329 1.6480
-5.5807 -0.6285 1.6480
-5.5578 -0.8233 1.6480
-5.5260 -1.0170 1.6480
-5.4855 -1.2089 1.6480
-5.4362 -1.3988 1.6480
-5.3784 -1.5861 1.6480
-5.3121 -1.7704 1.6480
-5.2377 -1.9514 1.6480
-5.1552 -2.1285 1.6480
-5.0650 -2.3016 1.6480
-4.9672 -2.4700 1.6480
-4.8622 -2.6336 1.6480
-4.7503 -2.7921 1.6480
-4.6318 -2.9450 1.6480
-4.5070 -3.0921 1.6480
-4.3762 -3.2332 1.6480
-4.2399 -3.3680 1.6480
-4.0983 -3.4964 1.6480
-3.9519 -3.6181 1.6480
-3.8011 -3.7329 1.6480
-3.6461 -3.8408 1.6480
-3.4875 -3.9417 1.6480
-3.3188 -4.0272 1.6447
-3.1543 -4.1135 1.6447
-2.9872 -4.1926 1.6447
-2.8180 -4.2644 1.6447
-2.6470 -4.3290 1.6447
-2.4745 -4.3864 1.6447
-2.3009 -4.4365 1.6447
-2.1266 -4.4795 1.6447
-1.9519 -4.5155 1.6447
-1.7583 -4.4967 1.6274
-1.5855 -4.5186 1.6274
-1.4282 -4.5819 1.6447
-1.2548 -4.5906 1.6447
-1.0824 -4.5927 1.6447
-0.9114 -4.5886 1.6447
-0.7419 -4.5782 1.6447
-0.5741 -4.5617 1.6447
-0.4083 -4.5394 1.6447
-0.2447 -4.5113 1.6447
-0.0834 -4.4777 1.6447
0.0753 -4.4387 1.6447
0.2313 -4.3945 1.6447
0.3845 -4.3453 1.6447
0.5347 -4.2913 1.6447
0.7245 -4.4983 1.7479
0.8774 -4.4311 1.7479
1.0267 -4.3594 1.7479
1.1724 -4.2833 1.7479
1.3143 -4.2030 1.7479
1.4524 -4.1187 1.7479
1.5865 -4.0305 1.7479
1.7167 -3.9387 1.7479
1.8429 -3.8434 1.7479
1.9649 -3.7448 1.7479
2.0829 -3.6431 1.7479
2.1967 -3.5384 1.7479
2.3063 -3.4308 1.7479
2.4116 -3.3206 1.7479
2.5127 -3.2079 1.7479
2.6096 -3.0928 1.7479
2.7022 -2.9756 1.7479
3.0007 1.7883 1.7479
2.9403 1.9036 1.7479
2.8762 2.0173 1.7479
2.8085 2.1293 1.7479
2.7372 2.2396 1.7479
2.6623 2.3480 1.7479
2.5839 2.4545 1.7479
2.5019 2.5589 1.7479
2.4164 2.6611 1.7479
2.3275 2.7612 1.7479
2.2351 2.8588 1.7479
0.8386 1.1579 0.6852
0.7962 1.1891 0.6822
0.7528 1.2187 0.6791
0.7083 1.2467 0.6759
0.6629 1.2731 0.6727
0.6166 1.2979 0.6693
0.5694 1.3210 0.6658
0.5214 1.3424 0.6623
0.4727 1.3620 0.6587
0.4233 1.3799 0.6550
0.3733 1.3960 0.6512
0.3228 1.4103 0.6474
0.2718 1.4228 0.6435
0.2204 1.4335 0.6396
0.1687 1.4423 0.6356
0.1166 1.4492 0.6316
0.0644 1.4543 0.6275
0.0120 1.4575 0.6234
-0.0405 1.4588 0.6193
-0.0930 1.4583 0.6151
-0.1454 1.4558 0.6109
-0.1977 1.4515 0.6067
-0.2498 1.4453 0.6025
-0.3017 1.4372 0.5983
-0.3533 1.4273 0.5941
-0.4044 1.4156 0.5899
-0.4552 1.4020 0.5857
-0.5054 1.3865 0.5816
-0.5550 1.3694 0.5774
-0.6040 1.3504 0.5733
-0.6523 1.3297 0.5693
-0.6998 1.3072 0.5652
-0.7465 1.2831 0.5612
-0.7923 1.2573 0.5573
-0.8371 1.2299 0.5534
-0.8810 1.2008 0.5496
-0.9238 1.1703 0.5458
-2.9289 3.4528 1.6447
-3.0722 3.3734 1.6447
-3.2133 3.2880 1.6447
-3.3517 3.1967 1.6447
-3.4873 3.0994 1.6447
-3.6197 2.9963 1.6447
-3.7486 2.8874 1.6447
-3.8816 2.7785 1.6480
-4.0028 2.6582 1.6480
-4.1196 2.5324 1.6480
-4.2317 2.4013 1.6480
-4.3388 2.2651 1.6480
-4.4405 2.1239 1.6480
-4.5366 1.9781 1.6480
-4.6269 1.8277 1.6480
-4.7109 1.6731 1.6480
-4.7886 1.5145 1.6480
-4.8595 1.3522 1.6480
-4.9236 1.1866 1.6480
-4.9807 1.0178 1.6480
-5.0303 0.8463 1.6480
-5.0726 0.6724 1.6480
-5.1071 0.4965 1.6480
-5.1340 0.3189 1.6480
-5.1529 0.1401 1.6480
-5.1639 -0.0397 1.6480
-5.1669 -0.2200 1.6480
-5.1617 -0.4004 1.6480
-5.1486 -0.5804 1.6480
-5.1273 -0.7598 1.6480
-5.0980 -0.9381 1.6480
-5.0608 -1.1148 1.6480
-5.0157 -1.2897 1.6480
-4.9628 -1.4623 1.6480
-4.9023 -1.6322 1.6480
-4.8344 -1.7990 1.6480
-4.7591 -1.9625 1.6480
-4.6768 -2.1223 1.6480
-4.5877 -2.2780 1.6480
-4.4920 -2.4293 1.6480
-4.3899 -2.5760 1.6480
-4.2818 -2.7177 1.6480
-4.1679 -2.8542 1.6480
-4.0485 -2.9853 1.6480
-3.9240 -3.1108 1.6480
-3.7946 -3.2304 1.6480
-3.6608 -3.3441 1.6480
-3.5228 -3.4515 1.6480
-3.3740 -3.5455 1.6447
-3.2290 -3.6401 1.6447
-3.0808 -3.7282 1.6447
-2.9299 -3.8098 1.6447
-2.7764 -3.8848 1.6447
-2.6209 -3.9532 1.6447
-2.4635 -4.0150 1.6447
-2.3047 -4.0702 1.6447
-2.1447 -4.1187 1.6447
-1.9634 -4.1179 1.6277
-1.8037 -4.1530 1.6277
-1.6437 -4.1818 1.6277
-1.4838 -4.2043 1.6277
-1.3241 -4.2206 1.6277
-1.1650 -4.2308 1.6277
-1.0172 -4.2791 1.6447
-0.8582 -4.2774 1.6447
-0.7005 -4.2700 1.6447
-0.5443 -4.2568 1.6447
-0.3898 -4.2382 1.6447
-0.2371 -4.2141 1.6447
-0.0865 -4.1849 1.6447
0.0619 -4.1505 1.6447
0.2079 -4.1113 1.6447
0.3513 -4.0673 1.6447
0.4922 -4.0186 1.6447
0.6698 -4.2146 1.7479
0.8134 -4.1536 1.7479
0.9538 -4.0883 1.7479
1.0909 -4.0188 1.7479
1.2246 -3.9452 1.7479
1.3548 -3.8678 1.7479
1.4815 -3.7867 1.7479
1.6045 -3.7020 1.7479
1.7238 -3.6139 1.7479
1.8393 -3.5227 1.7479
1.9511 -3.4283 1.7479
2.0589 -3.3311 1.7479
2.1629 -3.2311 1.7479
2.2630 -3.1285 1.7479
2.3591 -3.0234 1.7479
2.4512 -2.9160 1.7479
2.5393 -2.8064 1.7479
2.8378 1.6943 1.7479
2.7802 1.8034 1.7479
2.7191 1.9110 1.7479
2.6545 2.0169 1.7479
2.5866 2.1211 1.7479
2.5152 2.2234 1.7479
2.4404 2.3239 1.7479
2.3624 2.4224 1.7479
2.2809 2.5188 1.7479
2.1963 2.6130 1.7479
0.8235 1.0565 0.6827
0.7848 1.0872 0.6801
0.7450 1.1164 0.6773
0.7042 1.1442 0.6744
0.6624 1.1706 0.6714
0.6198 1.1954 0.6683
0.5762 1.2186 0.6651
0.5319 1.2403 0.6619
0.4869 1.2604 0.6586
0.4411 1.2789 0.6552
0.3947 1.2957 0.6517
0.3478 1.3108 0.6482
0.3003 1.3243 0.6446
0.2524 1.3360 0.6409
0.2041 1.3460 0.6372
0.1555 1.3543 0.6335
0.1066 1.3608 0.6297
0.0576 1.3656 0.6259
0.0084 1.3686 0.6220
-0.0409 1.3698 0.6181
-0.0902 1.3693 0.6142
-0.1395 1.3670 0.6103
-0.1886 1.3629 0.6064
-0.2376 1.3571 0.6024
-0.2863 1.3495 0.5985
-0.3347 1.3402 0.5945
-0.3828 1.3291 0.5906
-0.4304 1.3163 0.5867
-0.4776 1.3019 0.5827
-0.5242 1.2857 0.5789
-0.5702 1.2679 0.5750
-0.6156 1.2484 0.5712
-0.6602 1.2273 0.5674
-0.7040 1.2047 0.5636
-0.7471 1.1804 0.5599
-0.7892 1.1546 0.5563
-0.8304 1.1274 0.5527
-0.8705 1.0986 0.5492
-0.9097 1.0685 0.5457
-0.9477 1.0369 0.5423
-3.0044 3.0637 1.6447
-3.1322 2.9772 1.6447
-3.2571 2.8853 1.6447
-3.3790 2.7880 1.6447
-3.4976 2.6855 1.6447
-3.6125 2.5778 1.6447
-3.7236 2.4650 1.6447
-3.8383 2.3521 1.6480
-3.9410 2.2294 1.6480
-4.0390 2.1021 1.6480
-4.1320 1.9702 1.6480
-4.2198 1.8342 1.6480
-4.3021 1.6940 1.6480
-4.3788 1.5501 1.6480
-4.4495 1.4026 1.6480
-4.5140 1.2518 1.6480
-4.5722 1.0979 1.6480
-4.6240 0.9413 1.6480
-4.6690 0.7822 1.6480
-4.7071 0.6210 1.6480
-4.7383 0.4580 1.6480
-4.7624 0.2936 1.6480
-4.7792 0.1280 1.6480
-4.7888 -0.0384 1.6480
-4.7911 -0.2052 1.6480
-4.7860 -0.3721 1.6480
-4.7736 -0.5387 1.6480
-4.7538 -0.7047 1.6480
-4.7267 -0.8696 1.6480
-4.6923 -1.0332 1.6480
-4.6508 -1.1950 1.6480
-4.6021 -1.3548 1.6480
-4.5466 -1.5122 1.6480
-4.4842 -1.6668 1.6480
-4.4151 -1.8183 1.6480
-4.3396 -1.9665 1.6480
-4.2578 -2.1110 1.6480
-4.1700 -2.2516 1.6480
-4.0763 -2.3880 1.6480
-3.9771 -2.5198 1.6480
-3.8725 -2.6470 1.6480
-3.7629 -2.7693 1.6480
-3.6485 -2.8865 1.6480
-3.5296 -2.9984 1.6480
-3.3996 -3.0985 1.6447
-3.2729 -3.1991 1.6447
-3.1425 -3.2940 1.6447
-3.0089 -3.3831 1.6447
-2.8724 -3.4663 1.6447
-2.7331 -3.5436 1.6447
-2.5914 -3.6148 1.6447
-2.4477 -3.6799 1.6447
-2.3022 -3.7390 1.6447
-2.1553 -3.7919 1.6447
-1.9864 -3.7993 1.6277
-1.8389 -3.8397 1.6277
-1.6907 -3.8742 1.6277
-1.5422 -3.9028 1.6277
-1.3935 -3.9256 1.6277
-1.2450 -3.9426 1.6277
-1.0967 -3.9532 1.6274
-0.9593 -4.0010 1.6447
-0.8110 -4.0013 1.6447
-0.6638 -3.9961 1.6447
-0.5179 -3.9857 1.6447
-0.3733 -3.9700 1.6447
-0.2304 -3.9493 1.6447
-0.0893 -3.9237 1.6447
0.0498 -3.8933 1.6447
0.1869 -3.8582 1.6447
0.3217 -3.8185 1.6447
0.4541 -3.7746 1.6447
0.5840 -3.7263 1.6447
0.7560 -3.9047 1.7479
0.8883 -3.8449 1.7479
1.0177 -3.7811 1.7479
1.1440 -3.7134 1.7479
1.2671 -3.6420 1.7479
1.3869 -3.5670 1.7479
1.5033 -3.4886 1.7479
1.6164 -3.4069 1.7479
1.7259 -3.3221 1.7479
1.8319 -3.2343 1.7479
1.9344 -3.1437 1.7479
2.0332 -3.0504 1.7479
2.1283 -2.9545 1.7479
2.2198 -2.8562 1.7479
2.3075 -2.7556 1.7479
2.3915 -2.6529 1.7479
2.6882 1.6080 1.7479
2.6332 1.7114 1.7479
2.5748 1.8133 1.7479
2.5132 1.9137 1.7479
2.4484 2.0123 1.7479
2.3803 2.1092 1.7479
2.3089 2.2042 1.7479
2.2344 2.2973 1.7479
0.8424 0.9329 0.6827
0.8081 0.9643 0.6804
0.7727 0.9945 0.6780
0.7362 1.0233 0.6754
0.6988 1.0509 0.6728
0.6604 1.0771 0.6701
0.6210 1.1019 0.6673
0.5809 1.1252 0.6644
0.5399 1.1471 0.6614
0.4981 1.1676 0.6583
0.4557 1.1865 0.6552
0.4126 1.2039 0.6520
0.3689 1.2197 0.6487
0.3247 1.2339 0.6454
0.2800 1.2466 0.6420
0.2349 1.2577 0.6386
0.1894 1.2671 0.6351
0.1437 1.2749 0.6316
0.0977 1.2810 0.6280
0.0514 1.2855 0.6244
0.0051 1.2883 0.6208
-0.0413 1.2895 0.6171
-0.0878 1.2890 0.6134
-0.1341 1.2868 0.6097
-0.1804 1.2830 0.6060
-0.2265 1.2775 0.6023
-0.2724 1.2703 0.5986
-0.3180 1.2616 0.5949
-0.3633 1.2512 0.5912
-0.4081 1.2391 0.5875
-0.4525 1.2255 0.5838
-0.4964 1.2103 0.5801
-0.5398 1.1935 0.5765
-0.5825 1.1751 0.5729
-0.6245 1.1553 0.5693
-0.6658 1.1339 0.5658
-0.7063 1.1111 0.5623
-0.7459 1.0868 0.5589
-0.7847 1.0611 0.5555
-0.8225 1.0340 0.5522
-0.8594 1.0056 0.5489
-0.8952 0.9759 0.5457
-0.9299 0.9449 0.5426
-2.9370 2.7822 1.6447
-3.0527 2.6951 1.6447
-3.1655 2.6032 1.6447
-3.2750 2.5065 1.6447
-3.3812 2.4050 1.6447
-3.4836 2.2989 1.6447
-3.5822 2.1883 1.6447
-3.6766 2.0733 1.6447
-3.7665 1.9541 1.6447
-3.8597 1.8346 1.6480
-3.9404 1.7073 1.6480
-4.0159 1.5763 1.6480
-4.0862 1.4418 1.6480
-4.1510 1.3041 1.6480
-4.2101 1.1634 1.6480
-4.2633 1.0199 1.6480
-4.3105 0.8740 1.6480
-4.3515 0.7259 1.6480
-4.3862 0.5759 1.6480
-4.4145 0.4243 1.6480
-4.4362 0.2713 1.6480
-4.4514 0.1173 1.6480
-4.4598 -0.0373 1.6480
-4.4616 -0.1923 1.6480
-4.4566 -0.3474 1.6480
-4.4448 -0.5022 1.6480
-4.4263 -0.6564 1.6480
-4.4011 -0.8096 1.6480
-4.3693 -0.9616 1.6480
-4.3308 -1.1120 1.6480
-4.2859 -1.2605 1.6480
-4.2345 -1.4069 1.6480
-4.1769 -1.5507 1.6480
-4.1133 -1.6918 1.6480
-4.0436 -1.8298 1.6480
-3.9682 -1.9644 1.6480
-3.8872 -2.0955 1.6480
-3.8008 -2.2227 1.6480
-3.7092 -2.3459 1.6480
-3.6128 -2.4648 1.6480
-3.5116 -2.5792 1.6480
-3.3990 -2.6835 1.6447
-3.2894 -2.7883 1.6447
-3.1759 -2.8880 1.6447
-3.0587 -2.9826 1.6447
-2.9382 -3.0721 1.6447
-2.8145 -3.1561 1.6447
-2.6881 -3.2348 1.6447
-2.5590 -3.3080 1.6447
-2.4277 -3.3756 1.6447
-2.2943 -3.4377 1.6447
-2.1592 -3.4942 1.6447
-2.0227 -3.5450 1.6447
-1.8849 -3.5903 1.6447
-1.7282 -3.5925 1.6277
-1.5902 -3.6262 1.6277
-1.4518 -3.6544 1.6277
-1.3131 -3.6773 1.6277
-1.1743 -3.6940 1.6274
-1.0469 -3.7454 1.6447
-0.9075 -3.7525 1.6447
-0.7688 -3.7543 1.6447
-0.6309 -3.7510 1.6447
-0.4941 -3.7427 1.6447
-0.3586 -3.7296 1.6447
-0.2244 -3.7117 1.6447
-0.0918 -3.6891 1.6447
0.0390 -3.6619 1.6447
0.1680 -3.6304 1.6447
0.2950 -3.5946 1.6447
0.4198 -3.5546 1.6447
0.5423 -3.5105 1.6447
0.7041 -3.6800 1.7479
0.8292 -3.6250 1.7479
0.9515 -3.5662 1.7479
1.0710 -3.5036 1.7479
1.1876 -3.4375 1.7479
1.3011 -3.3679 1.7479
1.4116 -3.2951 1.7479
1.5188 -3.2190 1.7479
1.6229 -3.1400 1.7479
1.7237 -3.0580 1.7479
1.8211 -2.9733 1.7479
1.9151 -2.8859 1.7479
2.0057 -2.7961 1.7479
2.0929 -2.7039 1.7479
2.1766 -2.6094 1.7479
2.2567 -2.5128 1.7479
2.5502 1.5284 1.7479
2.4976 1.6266 1.7479
2.4419 1.7233 1.7479
2.3830 1.8185 1.7479
2.3210 1.9121 1.7479
2.2559 2.0039 1.7479
2.1878 2.0940 1.7479
0.8237 0.8492 0.6802
0.7924 0.8800 0.6781
0.7600 0.9097 0.6759
0.7266 0.9381 0.6736
0.6922 0.9654 0.6712
0.6569 0.9914 0.6688
0.6206 1.0161 0.6662
0.5835 1.0395 0.6635
0.5456 1.0616 0.6608
0.5069 1.0823 0.6580
0.4675 1.1015 0.6551
0.4274 1.1194 0.6522
0.3867 1.1358 0.6491
0.3455 1.1507 0.6461
0.3038 1.1642 0.6429
0.2616 1.1761 0.6397
0.2191 1.1866 0.6365
0.1761 1.1955 0.6332
0.1329 1.2028 0.6299
0.0895 1.2086 0.6265
0.0459 1.2128 0.6231
0.0021 1.2155 0.6197
-0.0417 1.2166 0.6162
-0.0855 1.2161 0.6127
-0.1293 1.2141 0.6092
-0.1730 1.2104 0.6057
-0.2165 1.2053 0.6022
-0.2598 1.1985 0.5987
-0.3028 1.1902 0.5952
-0.3456 1.1804 0.5917
-0.3879 1.1690 0.5882
-0.4298 1.1561 0.5848
-0.4712 1.1418 0.5813
-0.5121 1.1259 0.5779
-0.5524 1.1086 0.5745
-0.5921 1.0899 0.5711
-0.6310 1.0697 0.5678
-0.6693 1.0481 0.5645
-0.7067 1.0252 0.5612
-0.7433 1.0010 0.5581
-0.7790 0.9754 0.5549
-0.8137 0.9486 0.5518
-0.8475 0.9206 0.5488
-0.8803 0.8913 0.5459
-0.9120 0.8609 0.5430
-0.9426 0.8294 0.5402
-2.9746 2.4381 1.6447
-3.0763 2.3466 1.6447
-3.1747 2.2508 1.6447
-3.2696 2.1507 1.6447
-3.3608 2.0465 1.6447
-3.4481 1.9383 1.6447
-3.5313 1.8262 1.6447
-3.6101 1.7105 1.6447
-3.6844 1.5912 1.6447
-3.7540 1.4686 1.6447
-3.8263 1.3456 1.6480
-3.8860 1.2166 1.6480
-3.9403 1.0849 1.6480
-3.9892 0.9508 1.6480
-4.0325 0.8144 1.6480
-4.0701 0.6760 1.6480
-4.1018 0.5359 1.6480
-4.1276 0.3943 1.6480
-4.1474 0.2516 1.6480
-4.1611 0.1079 1.6480
-4.1686 -0.0363 1.6480
-4.1699 -0.1809 1.6480
-4.1650 -0.3255 1.6480
-4.1539 -0.4698 1.6480
-4.1366 -0.6136 1.6480
-4.1131 -0.7565 1.6480
-4.0834 -0.8983 1.6480
-4.0477 -1.0386 1.6480
-4.0060 -1.1771 1.6480
-3.9584 -1.3137 1.6480
-3.9050 -1.4480 1.6480
-3.8460 -1.5797 1.6480
-3.7814 -1.7087 1.6480
-3.7116 -1.8346 1.6480
-3.6365 -1.9572 1.6480
-3.5565 -2.0763 1.6480
-3.4646 -2.1872 1.6447
-3.3754 -2.2985 1.6447
-3.2818 -2.4056 1.6447
-3.1840 -2.5085 1.6447
-3.0824 -2.6070 1.6447
-2.9770 -2.7008 1.6447
-2.8683 -2.7901 1.6447
-2.7563 -2.8745 1.6447
-2.6414 -2.9540 1.6447
-2.5238 -3.0285 1.6447
-2.4038 -3.0979 1.6447
-2.2815 -3.1623 1.6447
