ply
format ascii 1.0
element vertex 2160
property float32 x
property float32 y
property float32 z
end_header
2.1257 10.9848 0.5814
1.7267 11.0352 0.5810
1.3286 11.0855 0.5813
0.9303 11.1358 0.5823
0.5308 11.1863 0.5841
0.3723 32.4170 1.6922
-0.7919 32.3840 1.6922
-1.9533 32.3104 1.6922
-2.9211 30.2350 1.5891
-4.0028 30.0904 1.5891
-2.0413 12.0230 0.6388
-2.3409 11.3090 0.6053
-7.1288 25.1717 1.3727
-7.4345 23.0572 1.2717
-7.6605 21.1272 1.1802
-7.8563 19.4557 1.1023
-8.0278 17.9904 1.0353
-8.1799 16.6922 0.9772
-8.3158 15.5313 0.9263
-8.4384 14.4844 0.8816
-8.5498 13.5332 0.8420
-8.6517 12.6629 0.8067
-8.7455 11.8617 0.7753
-8.8324 11.1199 0.7470
-8.9133 10.4292 0.7217
-8.9889 9.7831 0.6988
-9.0601 9.1758 0.6782
-9.1272 8.6025 0.6595
-9.1908 8.0590 0.6426
-9.2514 7.5418 0.6273
-9.3093 7.0478 0.6135
-9.3647 6.5742 0.6009
-9.4181 6.1186 0.5896
-9.4695 5.6790 0.5794
-9.5194 5.2535 0.5703
-9.5678 4.8402 0.5621
-9.6149 4.4377 0.5548
-9.6609 4.0445 0.5484
-9.7060 3.6594 0.5427
-9.7503 3.2811 0.5379
-9.7940 2.9085 0.5338
-9.8371 2.5406 0.5304
-9.8797 2.1763 0.5277
-9.9221 1.8145 0.5257
-9.9642 1.4545 0.5244
-9.9404 1.0879 0.5202
-10.0484 0.7357 0.5237
-10.0906 0.3750 0.5243
-10.1331 0.0124 0.5256
-10.1759 -0.3534 0.5276
-10.2192 -0.7232 0.5303
-10.2631 -1.0980 0.5337
-10.3078 -1.4790 0.5378
-10.3532 -1.8673 0.5427
-10.3997 -2.2642 0.5484
-10.4473 -2.6711 0.5549
-10.4963 -3.0893 0.5624
-10.5468 -3.5205 0.5708
-10.5990 -3.9666 0.5802
-10.6532 -4.4294 0.5908
-10.7096 -4.9112 0.6025
-10.7686 -5.4146 0.6156
-10.8304 -5.9423 0.6301
-6.9527 -4.1465 0.4124
-10.9642 -7.0849 0.6641
-11.0371 -7.7078 0.6839
-11.1149 -8.3718 0.7060
-11.1982 -9.0830 0.7306
-11.2879 -9.8486 0.7580
-11.3849 -10.6774 0.7887
-11.4907 -11.5799 0.8233
-11.6065 -12.5692 0.8622
-11.7344 -13.6612 0.9064
-11.8044 -14.7858 0.9510
-12.0364 -16.2403 1.0147
-12.2174 -17.7863 1.0818
-12.4250 -19.5585 1.1602
-12.6659 -21.6161 1.2528
-5.8453 -10.8516 0.6156
-5.4601 -11.0715 0.6158
-5.0667 -11.2780 0.6160
-4.6657 -11.4709 0.6162
-4.2575 -11.6497 0.6165
-4.1354 -12.7149 0.6638
-5.7718 -20.1843 1.0411
-5.2704 -21.2973 1.0869
-6.5640 -31.3078 1.5830
-5.8163 -33.7337 1.6922
-4.6054 -33.9547 1.6922
-3.3860 -34.1309 1.6922
-2.1598 -34.2623 1.6922
-0.8719 -32.2526 1.5890
0.2874 -32.2906 1.5890
1.4483 -32.2857 1.5890
2.6474 -32.7115 1.6123
3.8235 -32.6191 1.6123
4.9961 -32.4832 1.6123
5.5128 -28.8928 1.4421
5.4355 -23.8074 1.1965
6.3041 -23.6605 1.1991
5.9931 -19.6299 1.0046
6.8058 -19.7250 1.0208
6.1917 -16.0507 0.8413
6.8449 -16.0066 0.8510
6.5751 0.3303 0.4756
7.5579 0.6525 0.5485
7.3424 0.9006 0.5352
6.3698 1.0147 0.4671
7.0393 1.3823 0.5199
7.3504 1.7197 0.5476
7.8428 2.1348 0.5901
7.8773 2.4513 0.5995
7.9157 2.7789 0.6101
7.9556 3.1181 0.6220
7.8329 3.3995 0.6221
7.2569 3.4644 0.5864
6.7470 3.5240 0.5556
6.2896 3.5783 0.5287
5.8766 3.6288 0.5051
6.7028 4.4794 0.5901
2.4972 1.8019 0.2256
6.7973 5.2861 0.6314
6.8497 5.7333 0.6556
6.5136 5.8625 0.6438
6.0706 5.8720 0.6211
6.1783 6.4216 0.6559
7.3724 8.2353 0.8143
7.4569 8.9574 0.8594
7.5512 9.7638 0.9109
7.6576 10.6727 0.9703
7.7787 11.7077 1.0392
7.9182 12.9003 1.1200
7.3730 13.0407 1.1095
7.0079 13.5056 1.1278
6.8223 14.3901 1.1814
7.7510 17.9918 1.4545
7.4997 19.2877 1.5376
4.1364 11.8853 0.9358
6.2893 20.4054 1.5890
5.5481 20.6029 1.5890
4.8009 20.7740 1.5890
2.1262 10.9855 0.8345
1.7272 11.0359 0.8336
1.3290 11.0862 0.8338
0.9307 11.1365 0.8350
0.5312 11.1870 0.8374
0.2604 22.6187 1.6922
-0.5521 22.6010 1.6922
-1.3630 22.5547 1.6922
-2.1713 22.4800 1.6922
-2.9762 22.3769 1.6922
-2.0412 12.0238 0.9146
-2.3407 11.3091 0.8665
-5.0334 20.5656 1.5891
-5.7670 20.3643 1.5891
-6.4928 20.1375 1.5891
-7.2100 19.8854 1.5891
-3.2805 7.3517 0.6051
-3.5374 7.2187 0.6044
-8.2986 15.4993 1.3220
-8.4384 14.4846 1.2607
-8.5498 13.5333 1.2040
-8.6517 12.6630 1.1535
-8.7455 11.8617 1.1085
-8.8324 11.1199 1.0682
-8.9133 10.4292 1.0319
-8.9890 9.7831 0.9992
-9.0601 9.1757 0.9698
-9.1272 8.6024 0.9431
-9.1909 8.0589 0.9190
-9.2514 7.5417 0.8972
-9.3093 7.0476 0.8775
-9.3647 6.5740 0.8597
-9.4181 6.1185 0.8436
-9.4696 5.6788 0.8291
-9.5194 5.2533 0.8161
-9.5678 4.8400 0.8045
-9.6149 4.4375 0.7942
-9.6610 4.0443 0.7852
-9.7061 3.6592 0.7773
-9.7504 3.2809 0.7705
-9.7940 2.9083 0.7648
-9.8371 2.5404 0.7601
-9.8798 2.1760 0.7565
-9.9221 1.8143 0.7538
-9.9643 1.4542 0.7521
-9.9404 1.0877 0.7463
-10.0485 0.7353 0.7515
-10.0907 0.3747 0.7526
-10.1332 0.0120 0.7547
-10.1760 -0.3537 0.7578
-10.2193 -0.7236 0.7619
-10.2632 -1.0984 0.7671
-10.3078 -1.4794 0.7733
-10.3533 -1.8677 0.7806
-10.3998 -2.2647 0.7890
-10.4474 -2.6715 0.7988
-10.4964 -3.0897 0.8098
-10.5469 -3.5210 0.8222
-10.5991 -3.9671 0.8361
-10.6533 -4.4299 0.8517
-10.7097 -4.9118 0.8689
-10.7686 -5.4152 0.8881
-10.8305 -5.9430 0.9094
-6.9518 -4.1464 0.5953
-10.9643 -7.0856 0.9592
-11.0372 -7.7086 0.9883
-11.1150 -8.3726 1.0206
-11.1983 -9.0838 1.0566
-11.2880 -9.8495 1.0967
-11.3851 -10.6784 1.1417
-11.4908 -11.5810 1.1921
-11.6066 -12.5704 1.2491
-11.7345 -13.6626 1.3136
-11.8042 -14.7869 1.3788
-11.7243 -18.4572 1.5891
-5.5130 -9.4096 0.7919
-5.0950 -9.4596 0.7795
-4.6887 -9.5082 0.7685
-4.2925 -9.5556 0.7587
-3.9051 -9.6020 0.7501
-3.8868 -10.6366 0.8189
-4.1363 -12.7189 0.9663
-6.4435 -22.5360 1.6922
-5.2953 -21.4011 1.5905
-4.8161 -22.9744 1.6922
-3.9905 -23.1489 1.6922
-3.1586 -23.2932 1.6922
-2.3215 -23.4072 1.6922
-1.4802 -23.4904 1.6922
-0.6102 -22.5946 1.6241
0.1975 -22.1265 1.5890
0.9927 -22.1175 1.5890
1.7874 -22.0793 1.5890
2.5806 -22.0119 1.5890
3.3712 -21.9154 1.5890
4.2191 -22.1100 1.6123
5.0126 -21.9533 1.6123
5.8001 -21.7674 1.6123
5.9934 -19.6299 1.4685
6.8061 -19.7251 1.4925
6.1919 -16.0507 1.2301
6.2711 -14.6643 1.1401
6.5135 0.3270 0.6190
7.5579 0.6522 0.7205
7.3436 0.9005 0.7031
6.3699 1.0145 0.6134
7.2454 1.4225 0.7026
7.3512 1.7196 0.7189
7.8428 2.1345 0.7744
7.8786 2.4514 0.7867
7.9171 2.7790 0.8005
7.9570 3.1183 0.8159
7.8350 3.4000 0.8160
7.2588 3.4649 0.7690
6.7487 3.5245 0.7284
6.2902 3.5783 0.6928
5.8772 3.6288 0.6618
6.7028 4.4789 0.7729
2.4972 1.8017 0.2954
6.7972 5.2856 0.8267
6.8496 5.7327 0.8582
6.5142 5.8625 0.8426
6.0705 5.8714 0.8126
6.1782 6.4209 0.8580
7.3719 8.2341 1.0649
7.4563 8.9561 1.1236
7.5507 9.7623 1.1908
7.6570 10.6709 1.2681
7.7780 11.7057 1.3579
7.9175 12.8980 1.4632
7.3736 13.0407 1.4493
7.0077 13.5039 1.4728
6.8227 14.3895 1.5426
6.4865 15.0552 1.5890
5.9379 15.2692 1.5890
4.1327 11.8735 1.2201
4.8204 15.6377 1.5890
4.2531 15.7918 1.5890
3.9202 16.9605 1.6922
2.1267 10.9862 1.0884
1.7276 11.0366 1.0871
1.3295 11.0869 1.0872
0.9311 11.1372 1.0887
0.5315 11.1877 1.0915
0.2002 17.3552 1.6922
-0.4233 17.3438 1.6922
-1.0457 17.3104 1.6922
-1.6663 17.2550 1.6922
-2.2843 17.1778 1.6922
-2.0411 12.0247 1.1914
-2.3405 11.3091 1.1285
-4.0933 16.7258 1.6831
-1.9362 6.8376 0.6948
-2.0121 6.2407 0.6413
-2.1050 5.8059 0.6041
-2.3097 5.7201 0.6035
-2.5109 5.6272 0.6030
-2.7085 5.5273 0.6024
-2.9022 5.4205 0.6018
-3.0917 5.3070 0.6012
-3.2769 5.1870 0.6007
-3.4575 5.0606 0.6001
-3.6334 4.9280 0.5995
-3.8043 4.7895 0.5989
-3.9700 4.6451 0.5983
-8.9890 9.7830 1.3007
-9.0601 9.1756 1.2623
-9.1272 8.6023 1.2277
-9.1909 8.0588 1.1964
-9.2514 7.5415 1.1680
-9.3093 7.0475 1.1424
-9.3648 6.5738 1.1193
-9.4181 6.1183 1.0984
-9.4696 5.6786 1.0796
-9.5194 5.2530 1.0628
-9.5678 4.8398 1.0478
-9.6150 4.4372 1.0345
-9.6610 4.0441 1.0228
-9.7061 3.6589 1.0126
-9.7504 3.2806 1.0039
-9.7940 2.9080 0.9966
-9.8371 2.5401 0.9907
-9.8798 2.1757 0.9860
-9.9221 1.8139 0.9826
-9.9643 1.4539 0.9805
-9.9403 1.0873 0.9732
-10.0485 0.7351 0.9801
-10.0907 0.3744 0.9817
-10.1332 0.0117 0.9846
-10.1760 -0.3541 0.9888
-10.2193 -0.7239 0.9944
-10.2632 -1.0988 1.0012
-10.3078 -1.4798 1.0095
-10.3533 -1.8682 1.0192
-10.3998 -2.2651 1.0305
-10.4474 -2.6720 1.0434
-10.4964 -3.0902 1.0580
-10.5469 -3.5215 1.0745
-10.5992 -3.9676 1.0929
-10.6534 -4.4305 1.1134
-10.7098 -4.9124 1.1362
-10.7687 -5.4158 1.1616
-4.9460 -2.7143 0.5433
-4.8309 -2.8816 0.5413
-4.7108 -3.0446 0.5394
-4.5857 -3.2030 0.5375
-4.4560 -3.3568 0.5357
-4.3216 -3.5059 0.5340
-4.1828 -3.6501 0.5323
-4.0398 -3.7894 0.5308
-3.8927 -3.9236 0.5292
-3.7417 -4.0527 0.5278
-3.5869 -4.1766 0.5264
-10.3752 -12.9979 1.5891
-9.9085 -13.3715 1.5891
-9.4283 -13.7282 1.5891
-8.9351 -14.0675 1.5891
-5.5127 -9.4100 1.0392
-5.0948 -9.4600 1.0232
-4.6884 -9.5086 1.0089
-4.2922 -9.5560 0.9963
-3.9049 -9.6024 0.9853
-3.8319 -10.4875 1.0606
-4.1371 -12.7229 1.2701
-4.9026 -17.1493 1.6922
-4.2860 -17.3242 1.6922
-3.6630 -17.4767 1.6922
-3.0345 -17.6065 1.6922
-2.4014 -17.7134 1.6922
-1.7646 -17.7972 1.6922
-1.1247 -17.8578 1.6922
-0.4828 -17.8950 1.6922
0.1505 -16.8161 1.5890
0.7548 -16.8070 1.5890
1.3585 -16.7759 1.5890
1.9609 -16.7227 1.5890
2.5612 -16.6475 1.5890
3.1585 -16.5504 1.5890
3.7521 -16.4314 1.5890
4.4049 -16.5302 1.6123
4.9971 -16.3657 1.6123
5.5830 -16.1796 1.6123
6.1619 -15.9721 1.6123
6.2899 -14.7078 1.5062
6.5135 0.3267 0.7676
7.3544 0.6344 0.8692
7.3447 0.9003 0.8718
6.3708 1.0144 0.7604
8.2340 1.6162 0.9896
7.3521 1.7195 0.8909
7.8429 2.1341 0.9596
7.8800 2.4514 0.9748
7.9185 2.7791 0.9918
7.9583 3.1185 1.0108
7.8372 3.4006 1.0108
7.2606 3.4655 0.9524
6.7504 3.5250 0.9020
6.2913 3.5786 0.8578
5.8778 3.6288 0.8192
6.7027 4.4785 0.9565
2.4973 1.8016 0.3656
6.7972 5.2851 1.0228
6.8495 5.7322 1.0616
6.5147 5.8625 1.0423
6.0705 5.8709 1.0049
6.1782 6.4203 1.0609
7.3714 8.2329 1.3165
7.4559 8.9547 1.3890
7.5501 9.7607 1.4718
7.6564 10.6692 1.5671
7.3655 11.0838 1.5890
6.9588 11.3351 1.5890
6.5436 11.5716 1.5890
6.1204 11.7930 1.5890
5.6898 11.9991 1.5890
5.2524 12.1895 1.5890
4.8087 12.3642 1.5890
4.1291 11.8618 1.5051
3.9047 12.6655 1.5890
3.5688 13.2494 1.6458
3.1762 13.7397 1.6922
2.1272 10.9869 1.3435
1.7281 11.0373 1.3417
1.3299 11.0876 1.3417
0.9315 11.1379 1.3434
0.5318 11.1884 1.3468
0.1627 14.0673 1.6922
-0.3427 14.0592 1.6922
-0.8474 14.0332 1.6922
-1.3506 13.9893 1.6922
-1.8518 13.9276 1.6922
-2.3504 13.8483 1.6922
-2.3403 11.3092 1.3917
-3.3371 13.6369 1.6922
-1.9364 6.8385 0.8569
-2.0122 6.2415 0.7908
-2.0772 5.7296 0.7350
-2.1338 5.2846 0.6875
-2.1835 4.8935 0.6465
-2.2276 4.5460 0.6108
-2.3497 4.3887 0.6007
-2.5037 4.2977 0.6003
-2.6542 4.2014 0.5998
-2.8011 4.0998 0.5993
-2.9441 3.9932 0.5988
-3.0832 3.8817 0.5983
-3.2181 3.7654 0.5978
-3.3642 3.6613 0.6001
-3.6512 3.6977 0.6272
-3.9659 3.7377 0.6576
-9.2642 7.0132 1.4017
-9.3110 6.5359 1.3721
-9.3661 6.0843 1.3469
-9.4417 5.6617 1.3273
-9.5194 5.2529 1.3106
-9.5678 4.8396 1.2922
-9.6150 4.4370 1.2758
-9.6610 4.0438 1.2615
-9.7061 3.6587 1.2490
-9.7504 3.2804 1.2384
-9.7941 2.9078 1.2294
-9.8372 2.5398 1.2222
-9.8798 2.1754 1.2165
-9.9222 1.8137 1.2125
-9.9643 1.4536 1.2100
-9.9403 1.0870 1.2011
-10.0485 0.7347 1.2097
-10.0908 0.3740 1.2118
-10.1332 0.0113 1.2155
-10.1761 -0.3544 1.2209
-10.2194 -0.7243 1.2278
-4.7492 -0.5086 0.5721
-4.7127 -0.6767 0.5700
-4.6705 -0.8429 0.5679
-4.6228 -1.0071 0.5659
-4.5697 -1.1689 0.5639
-4.5113 -1.3284 0.5619
-4.4477 -1.4853 0.5600
-4.3791 -1.6394 0.5581
-4.3055 -1.7907 0.5562
-4.2270 -1.9390 0.5544
-4.1438 -2.0842 0.5527
-4.0560 -2.2261 0.5510
-3.9638 -2.3646 0.5493
-3.8672 -2.4996 0.5477
-3.7664 -2.6310 0.5462
-3.6615 -2.7586 0.5447
-3.5527 -2.8824 0.5432
-3.4401 -3.0022 0.5418
-3.3238 -3.1180 0.5405
-3.2040 -3.2297 0.5393
-3.0808 -3.3372 0.5380
-3.0450 -3.5459 0.5534
-3.0827 -3.8623 0.5848
-3.1251 -4.2176 0.6208
-7.6109 -11.0829 1.5891
-7.4411 -11.7164 1.6397
-5.5125 -9.4104 1.2877
-5.0945 -9.4604 1.2680
-4.6882 -9.5090 1.2504
-4.2920 -9.5564 1.2349
-3.9046 -9.6027 1.2214
-3.7607 -10.2939 1.2906
-4.2143 -12.9620 1.6043
-3.9531 -13.8296 1.6922
-3.4554 -13.9691 1.6922
-2.9528 -14.0906 1.6922
-2.4459 -14.1937 1.6922
-1.9353 -14.2785 1.6922
-1.4218 -14.3446 1.6922
-0.9060 -14.3921 1.6922
-0.3887 -14.4208 1.6922
0.1296 -14.4307 1.6922
0.6085 -13.5418 1.5890
1.0948 -13.5156 1.5890
1.5800 -13.4718 1.5890
2.0634 -13.4102 1.5890
2.5444 -13.3311 1.5890
3.0223 -13.2345 1.5890
3.4965 -13.1205 1.5890
3.9664 -12.9893 1.5890
4.4312 -12.8410 1.5890
4.9622 -12.8621 1.6123
5.4218 -12.6776 1.6123
6.5134 0.3265 0.9169
7.1510 0.6166 1.0095
7.1818 0.8801 1.0181
6.3717 1.0143 0.9082
8.2351 1.6161 1.1819
7.3530 1.7194 1.0639
7.8440 2.1341 1.1458
7.8813 2.4515 1.1639
7.9198 2.7792 1.1842
7.9597 3.1186 1.2067
7.8393 3.4011 1.2068
7.2625 3.4660 1.1370
6.7520 3.5255 1.0767
6.2928 3.5791 1.0238
5.8783 3.6288 0.9774
6.7027 4.4780 1.1411
2.4973 1.8015 0.4361
6.7971 5.2845 1.2200
6.8495 5.7316 1.2661
6.5153 5.8626 1.2431
6.0704 5.8703 1.1983
6.1781 6.4197 1.2649
7.3709 8.2316 1.5695
7.2601 8.7188 1.6123
6.8384 8.8399 1.5890
6.5134 9.0756 1.5890
6.1802 9.2994 1.5890
5.8395 9.5111 1.5890
5.4916 9.7104 1.5890
5.1369 9.8970 1.5890
4.7759 10.0708 1.5890
4.4091 10.2314 1.5890
4.0370 10.3789 1.5890
3.6600 10.5129 1.5890
3.2937 10.6823 1.5963
3.0814 11.4380 1.6922
2.6674 11.5369 1.6922
2.2503 11.6210 1.6922
1.8307 11.6902 1.6922
1.4090 11.7444 1.6922
0.9858 11.7835 1.6922
0.5616 11.8075 1.6922
0.1370 11.8165 1.6922
-0.2876 11.8103 1.6922
-0.7116 11.7891 1.6922
-1.1344 11.7528 1.6922
-1.5556 11.7015 1.6922
-1.9745 11.6354 1.6922
-2.3908 11.5544 1.6922
-2.8039 11.4587 1.6922
-1.9365 6.8394 1.0199
-2.0123 6.2422 0.9412
-2.0774 5.7302 0.8748
-2.1339 5.2852 0.8181
-2.1836 4.8939 0.7693
-2.2277 4.5464 0.7269
-2.2673 4.2349 0.6897
-2.3031 3.9533 0.6570
-2.3356 3.6971 0.6280
-2.4193 3.5411 0.6159
-2.6306 3.5679 0.6366
-2.8568 3.5966 0.6596
-3.1003 3.6275 0.6853
-3.3639 3.6610 0.7140
-3.6510 3.6974 0.7462
-3.9656 3.7374 0.7824
-8.3222 7.2969 1.5891
-8.5799 6.9938 1.5891
-8.8267 6.6818 1.5891
-9.0623 6.3612 1.5891
-9.2865 6.0324 1.5891
-4.0336 0.8880 0.5913
-4.0508 0.7403 0.5894
-4.0628 0.5925 0.5874
-4.0695 0.4449 0.5855
-4.0710 0.2975 0.5836
-4.0673 0.1506 0.5817
-4.0585 0.0044 0.5798
-4.0446 -0.1410 0.5780
-4.0256 -0.2855 0.5761
-4.0017 -0.4287 0.5743
-3.9730 -0.5707 0.5725
-3.9394 -0.7112 0.5707
-3.9011 -0.8500 0.5690
-3.8581 -0.9871 0.5673
-3.8106 -1.1222 0.5656
-3.7586 -1.2553 0.5640
-3.7022 -1.3862 0.5624
-3.6415 -1.5148 0.5608
-3.5766 -1.6409 0.5593
-3.5076 -1.7644 0.5578
-3.4346 -1.8853 0.5563
-3.3578 -2.0033 0.5549
-3.2771 -2.1184 0.5535
-3.1928 -2.2305 0.5522
-3.1049 -2.3395 0.5509
-3.0136 -2.4452 0.5497
-2.9268 -2.5545 0.5500
-2.9525 -2.7700 0.5729
-2.9805 -3.0047 0.5986
-3.0112 -3.2620 0.6276
-3.0450 -3.5463 0.6605
-3.0828 -3.8627 0.6980
-3.1251 -4.2181 0.7411
-6.7889 -9.8868 1.6922
-6.4323 -10.1289 1.6922
-6.0671 -10.3582 1.6922
-5.6938 -10.5742 1.6922
-5.3126 -10.7767 1.6922
-4.9243 -10.9653 1.6922
-4.1921 -10.3107 1.5663
-3.7833 -10.3568 1.5510
-3.7209 -11.4458 1.6922
-3.3087 -11.5767 1.6922
-2.8919 -11.6926 1.6922
-2.4710 -11.7934 1.6922
-2.0466 -11.8789 1.6922
-1.6192 -11.9490 1.6922
-1.1894 -12.0036 1.6922
-0.7578 -12.0426 1.6922
-0.3249 -12.0659 1.6922
0.1087 -12.0734 1.6922
0.5424 -12.0653 1.6922
0.9184 -11.3351 1.5930
1.3219 -11.2694 1.5890
1.7262 -11.2174 1.5890
2.1285 -11.1507 1.5890
2.5281 -11.0695 1.5890
2.9246 -10.9737 1.5890
3.3174 -10.8636 1.5890
3.7061 -10.7392 1.5890
4.0900 -10.6008 1.5890
4.4686 -10.4484 1.5890
6.5134 0.3263 1.0672
7.0300 0.6059 1.1550
7.0011 0.8577 1.1550
6.3725 1.0142 1.0570
8.2361 1.6160 1.3754
7.3538 1.7193 1.2381
7.8453 2.1341 1.3334
7.8827 2.4516 1.3544
7.9212 2.7793 1.3778
7.9611 3.1188 1.4039
7.8415 3.4017 1.4041
7.2645 3.4665 1.3227
6.7537 3.5260 1.2525
6.2943 3.5796 1.1909
5.8789 3.6288 1.1367
6.7026 4.4776 1.3268
2.4973 1.8013 0.5071
6.7971 5.2840 1.4184
6.8494 5.7311 1.4719
6.5159 5.8626 1.4452
6.0703 5.8697 1.3929
6.1780 6.4191 1.4702
6.4208 7.1700 1.5890
6.1566 7.3930 1.5890
5.8846 7.6062 1.5890
5.6053 7.8096 1.5890
5.3190 8.0027 1.5890
5.0260 8.1854 1.5890
4.7269 8.3574 1.5890
4.4218 8.5185 1.5890
4.1114 8.6686 1.5890
3.7959 8.8075 1.5890
3.4757 8.9349 1.5890
3.1514 9.0508 1.5890
3.0066 9.7499 1.6922
2.6535 9.8483 1.6922
2.2971 9.9340 1.6922
1.9381 10.0069 1.6922
1.5768 10.0670 1.6922
1.2137 10.1141 1.6922
0.8493 10.1483 1.6922
0.4840 10.1694 1.6922
0.1182 10.1775 1.6922
-0.2474 10.1726 1.6922
-0.6127 10.1547 1.6922
-0.9769 10.1238 1.6922
-1.3398 10.0800 1.6922
-1.7008 10.0233 1.6922
-2.0594 9.9538 1.6922
-2.4154 9.8717 1.6922
-1.9367 6.8404 1.1840
-2.0125 6.2430 1.0925
-2.0775 5.7308 1.0155
-2.1340 5.2857 0.9497
-2.1837 4.8944 0.8930
-2.2279 4.5468 0.8437
-2.2674 4.2352 0.8006
-2.3032 3.9536 0.7626
-2.3357 3.6973 0.7289
-2.4192 3.5408 0.7148
-2.6304 3.5676 0.7388
-2.8566 3.5964 0.7655
-3.1001 3.6273 0.7953
-3.3637 3.6607 0.8286
-3.6507 3.6971 0.8659
-3.9653 3.7370 0.9081
-7.1705 6.2869 1.5891
-7.3924 6.0257 1.5891
-7.6050 5.7568 1.5891
-7.8078 5.4804 1.5891
-8.0008 5.1970 1.5891
-8.1835 4.9069 1.5891
-8.3559 4.6104 1.5891
-8.5176 4.3079 1.5891
-8.6685 3.9998 1.5891
-8.8084 3.6865 1.5891
-8.9371 3.3683 1.5891
-9.0544 3.0457 1.5891
-9.1602 2.7191 1.5891
-9.2543 2.3888 1.5891
-3.4696 0.7637 0.5905
-3.4859 0.6370 0.5889
-3.4976 0.5100 0.5872
-3.5048 0.3830 0.5856
-3.5075 0.2562 0.5839
-3.5057 0.1297 0.5823
-3.4995 0.0037 0.5807
-3.4889 -0.1218 0.5790
-3.4739 -0.2465 0.5775
-3.4546 -0.3702 0.5759
-3.4310 -0.4930 0.5743
-3.4032 -0.6145 0.5728
-3.3713 -0.7347 0.5713
-3.3354 -0.8535 0.5698
-3.2954 -0.9706 0.5684
-3.2515 -1.0861 0.5669
-3.2037 -1.1997 0.5655
-3.1522 -1.3114 0.5642
-3.0970 -1.4210 0.5628
-3.0382 -1.5284 0.5615
-2.9758 -1.6336 0.5603
-2.9100 -1.7363 0.5590
-2.8413 -1.8368 0.5579
-2.8605 -1.9986 0.5752
-2.8811 -2.1710 0.5944
-2.9031 -2.3558 0.6157
-2.9268 -2.5548 0.6396
-2.9525 -2.7702 0.6662
-2.9805 -3.0050 0.6962
-3.0112 -3.2623 0.7299
-3.0451 -3.5466 0.7682
-3.0828 -3.8631 0.8119
-3.1252 -4.2185 0.8621
-5.8354 -8.4989 1.6922
-5.5285 -8.7065 1.6922
-5.2143 -8.9030 1.6922
-4.8931 -9.0881 1.6922
-4.5653 -9.2616 1.6922
-4.2312 -9.4231 1.6922
-3.8915 -9.5726 1.6922
-3.5465 -9.7097 1.6922
-3.1966 -9.8343 1.6922
-2.8423 -9.9462 1.6922
-2.4841 -10.0453 1.6922
-2.1224 -10.1313 1.6922
-1.7577 -10.2043 1.6922
-1.3905 -10.2640 1.6922
-1.0213 -10.3104 1.6922
-0.6506 -10.3434 1.6922
-0.2787 -10.3629 1.6922
0.0936 -10.3689 1.6922
0.4661 -10.3615 1.6922
0.8311 -10.2538 1.6780
1.1354 -9.6773 1.5890
1.4825 -9.6323 1.5890
1.8279 -9.5748 1.5890
2.1709 -9.5047 1.5890
2.5113 -9.4222 1.5890
2.8485 -9.3274 1.5890
3.1821 -9.2205 1.5890
3.5116 -9.1014 1.5890
3.8366 -8.9705 1.5890
6.5134 0.3260 1.2185
6.9475 0.5985 1.3033
6.9775 0.8545 1.3143
6.3735 1.0141 1.2070
8.2372 1.6159 1.5705
7.3547 1.7192 1.4136
7.5898 2.0643 1.4726
7.5102 2.3354 1.4730
7.4211 2.6035 1.4734
7.3226 2.8683 1.4739
7.2138 3.1290 1.4742
7.0941 3.3849 1.4742
6.7554 3.5266 1.4298
6.2958 3.5801 1.3593
5.8795 3.6289 1.2973
6.5357 4.3656 1.4763
2.4974 1.8012 0.5786
6.1955 4.8159 1.4750
6.0135 5.0312 1.4743
6.0169 5.4131 1.5224
6.0705 5.8694 1.5890
5.8536 6.0814 1.5890
5.6293 6.2855 1.5890
5.3978 6.4813 1.5890
5.1597 6.6686 1.5890
4.9150 6.8472 1.5890
4.6642 7.0169 1.5890
4.4075 7.1774 1.5890
4.1454 7.3286 1.5890
3.8781 7.4703 1.5890
3.6060 7.6022 1.5890
3.3294 7.7243 1.5890
3.0488 7.8365 1.5890
2.9440 8.4543 1.6922
2.6375 8.5520 1.6922
0.8270 3.0691 0.6012
0.7162 3.0969 0.6014
0.6045 3.1207 0.6016
0.4920 3.1405 0.6018
0.3789 3.1563 0.6019
0.2652 3.1680 0.6021
0.1512 3.1757 0.6023
0.0370 3.1794 0.6025
-0.0772 3.1789 0.6027
-0.1915 3.1744 0.6029
-0.3054 3.1658 0.6031
-0.4190 3.1532 0.6033
-0.5321 3.1365 0.6035
-0.6446 3.1158 0.6036
-0.7562 3.0911 0.6038
-0.8670 3.0624 0.6040
-2.0126 6.2438 1.2451
-2.0777 5.7314 1.1572
-2.1342 5.2862 1.0822
-2.1838 4.8948 1.0176
-2.2280 4.5471 0.9615
-2.2675 4.2355 0.9123
-2.3033 3.9539 0.8689
-2.3358 3.6975 0.8306
-2.4190 3.5406 0.8143
-2.6302 3.5674 0.8417
-2.8564 3.5961 0.8722
-3.0999 3.6270 0.9061
-3.3634 3.6604 0.9440
-3.6504 3.6968 0.9866
-3.9650 3.7367 1.0346
-6.2930 5.5175 1.5891
-6.4877 5.2882 1.5891
-6.6742 5.0521 1.5891
-6.8521 4.8095 1.5891
-7.0214 4.5607 1.5891
-7.1816 4.3060 1.5891
-7.3327 4.0457 1.5891
-7.4745 3.7802 1.5891
-7.6068 3.5097 1.5891
-7.7294 3.2347 1.5891
-7.8421 2.9554 1.5891
-7.9448 2.6723 1.5891
-8.0374 2.3856 1.5891
-3.0219 0.7799 0.5914
-3.0411 0.6694 0.5900
-3.0564 0.5584 0.5885
-3.0676 0.4472 0.5870
-3.0749 0.3360 0.5856
-3.0782 0.2248 0.5842
-3.0776 0.1138 0.5827
-3.0731 0.0031 0.5813
-3.0647 -0.1071 0.5799
-3.0524 -0.2167 0.5785
-3.0363 -0.3255 0.5771
-3.0164 -0.4335 0.5757
-2.9929 -0.5405 0.5744
-2.9656 -0.6464 0.5730
-2.9347 -0.7511 0.5717
-2.9003 -0.8544 0.5705
-2.8624 -0.9563 0.5692
-2.8211 -1.0566 0.5680
-2.7764 -1.1552 0.5667
-2.7740 -1.2730 0.5750
-2.7896 -1.4035 0.5881
-2.8059 -1.5405 0.6026
-2.8231 -1.6847 0.6187
-2.8413 -1.8370 0.6365
-2.8606 -1.9988 0.6562
-2.8811 -2.1712 0.6782
-2.9031 -2.3560 0.7026
-2.9269 -2.5550 0.7298
-2.9525 -2.7705 0.7603
-2.9805 -3.0052 0.7945
-3.0112 -3.2627 0.8331
-3.0451 -3.5470 0.8768
-3.0828 -3.8635 0.9267
-3.1252 -4.2189 0.9841
-5.1120 -7.4460 1.6922
-4.8429 -7.6275 1.6922
-4.5674 -7.7993 1.6922
-4.2858 -7.9610 1.6922
-3.9985 -8.1126 1.6922
-3.7058 -8.2537 1.6922
-3.4081 -8.3842 1.6922
-3.1057 -8.5039 1.6922
-2.7992 -8.6127 1.6922
-2.4888 -8.7104 1.6922
-2.1750 -8.7967 1.6922
-1.8582 -8.8717 1.6922
-1.5389 -8.9353 1.6922
-1.2173 -8.9872 1.6922
-0.8940 -9.0275 1.6922
-0.5693 -9.0561 1.6922
-0.2438 -9.0729 1.6922
0.0822 -9.0779 1.6922
0.4083 -9.0711 1.6922
0.7339 -9.0525 1.6922
1.0184 -8.6785 1.6278
1.2980 -8.4320 1.5890
1.6002 -8.3815 1.5890
1.9005 -8.3200 1.5890
2.1984 -8.2476 1.5890
2.4935 -8.1645 1.5890
2.7854 -8.0707 1.5890
3.0738 -7.9664 1.5890
3.3582 -7.8516 1.5890
6.5134 0.3258 1.3712
6.7441 0.5807 1.4236
6.7732 0.8292 1.4355
6.3744 1.0140 1.3583
7.5163 1.4741 1.6123
7.4562 1.7426 1.6123
6.7538 1.8366 1.4742
6.6814 2.0773 1.4742
6.6004 2.3153 1.4742
6.5109 2.5500 1.4742
6.4130 2.7813 1.4742
6.3069 3.0089 1.4742
6.1927 3.2324 1.4742
6.0706 3.4517 1.4742
5.8805 3.6291 1.4593
5.8397 3.9004 1.4835
2.4974 1.8010 0.6507
5.9350 4.6130 1.5890
5.7635 4.8216 1.5890
5.5847 5.0239 1.5890
5.3988 5.2195 1.5890
5.2061 5.4083 1.5890
5.0068 5.5900 1.5890
4.8012 5.7644 1.5890
4.5895 5.9312 1.5890
4.3720 6.0903 1.5890
4.1491 6.2414 1.5890
3.9209 6.3845 1.5890
3.6879 6.5192 1.5890
3.4502 6.6455 1.5890
3.2083 6.7631 1.5890
2.9623 6.8720 1.5890
2.8890 7.4250 1.6922
2.6196 7.5219 1.6922
0.8339 2.7034 0.6012
0.7362 2.7316 0.6014
0.6376 2.7563 0.6015
0.5381 2.7775 0.6017
0.4380 2.7951 0.6019
0.3373 2.8091 0.6020
0.2361 2.8196 0.6022
0.1347 2.8264 0.6024
0.0330 2.8296 0.6025
-0.0687 2.8292 0.6027
-0.1703 2.8251 0.6029
-0.2718 2.8175 0.6030
-0.3729 2.8062 0.6032
-0.4735 2.7913 0.6034
-0.5736 2.7728 0.6035
-0.6730 2.7508 0.6037
-0.7715 2.7252 0.6039
-0.8690 2.6961 0.6040
-2.0778 5.7321 1.3002
-2.1343 5.2868 1.2160
-2.1840 4.8953 1.1433
-2.2281 4.5475 1.0802
-2.2677 4.2358 1.0250
-2.3034 3.9542 0.9763
-2.3360 3.6978 0.9331
-2.4188 3.5403 0.9148
-2.6300 3.5671 0.9455
-2.8562 3.5958 0.9797
-3.0996 3.6267 1.0178
-3.3632 3.6601 1.0605
-3.6502 3.6965 1.1083
-3.9647 3.7364 1.1622
-5.6017 4.9112 1.5891
-5.7749 4.7071 1.5891
-5.9409 4.4969 1.5891
-6.0992 4.2809 1.5891
-6.2497 4.0594 1.5891
-6.3923 3.8326 1.5891
-6.5267 3.6009 1.5891
-6.6528 3.3644 1.5891
-6.7705 3.1237 1.5891
-6.8794 2.8788 1.5891
-6.9796 2.6302 1.5891
-7.0709 2.3781 1.5891
-7.1531 2.1229 1.5891
-2.6865 0.6933 0.5908
-2.7043 0.5951 0.5895
-2.7186 0.4966 0.5882
-2.7292 0.3978 0.5869
-2.7364 0.2989 0.5856
-2.7400 0.2000 0.5843
-2.7401 0.1012 0.5831
-2.7367 0.0027 0.5818
-2.7299 -0.0955 0.5805
-2.7196 -0.1931 0.5793
-2.7058 -0.2902 0.5780
-2.6887 -0.3865 0.5768
-2.6800 -0.4841 0.5781
-2.6923 -0.5869 0.5848
-2.7048 -0.6923 0.5924
-2.7177 -0.8007 0.6009
-2.7311 -0.9125 0.6105
-2.7448 -1.0281 0.6213
-2.7592 -1.1481 0.6332
-2.7740 -1.2731 0.6465
-2.7896 -1.4037 0.6613
-2.8060 -1.5406 0.6776
-2.8231 -1.6848 0.6957
-2.8413 -1.8372 0.7158
-2.8606 -1.9990 0.7380
-2.8811 -2.1715 0.7627
-2.9032 -2.3563 0.7902
-2.9269 -2.5553 0.8208
-2.9526 -2.7708 0.8551
-2.9806 -3.0055 0.8936
-3.0113 -3.2630 0.9371
-3.0452 -3.5473 0.9864
-3.0829 -3.8639 1.0425
-3.1253 -4.2194 1.1071
-4.5438 -6.6191 1.6922
-4.3045 -6.7801 1.6922
-4.0595 -6.9326 1.6922
-3.8091 -7.0761 1.6922
-3.5535 -7.2105 1.6922
-3.2933 -7.3357 1.6922
-3.0286 -7.4514 1.6922
-2.7598 -7.5576 1.6922
-2.4873 -7.6539 1.6922
-2.2114 -7.7405 1.6922
-1.9325 -7.8170 1.6922
-1.6509 -7.8834 1.6922
-1.3671 -7.9396 1.6922
-1.0814 -7.9855 1.6922
-0.7941 -8.0211 1.6922
-0.5056 -8.0462 1.6922
-0.2164 -8.0610 1.6922
0.0733 -8.0652 1.6922
0.3629 -8.0590 1.6922
0.6522 -8.0423 1.6922
0.9408 -8.0151 1.6922
1.1600 -7.5346 1.5983
1.4217 -7.4457 1.5890
1.6884 -7.3909 1.5890
1.9530 -7.3265 1.5890
2.2151 -7.2526 1.5890
2.4744 -7.1692 1.5890
2.7305 -7.0764 1.5890
2.9831 -6.9744 1.5890
6.5133 0.3256 1.5253
6.8664 0.5910 1.6123
6.8390 0.8370 1.6123
6.3753 1.0138 1.5110
6.7576 1.3251 1.6123
6.7038 1.5665 1.6123
6.6414 1.8057 1.6123
6.0295 1.8744 1.4796
5.9349 2.0815 1.4742
5.8546 2.2927 1.4742
5.7667 2.5008 1.4742
5.7015 2.7198 1.4820
5.7334 2.9924 1.5177
5.7669 3.2787 1.5572
5.7587 3.5536 1.5890
5.6256 3.7570 1.5890
2.4974 1.8009 0.7234
5.3381 4.1487 1.5890
5.1841 4.3365 1.5890
5.0234 4.5185 1.5890
4.8564 4.6947 1.5890
4.6832 4.8646 1.5890
4.5041 5.0282 1.5890
4.3192 5.1852 1.5890
4.1289 5.3355 1.5890
3.9334 5.4788 1.5890
3.7330 5.6149 1.5890
3.5278 5.7438 1.5890
3.3182 5.8652 1.5890
3.1045 5.9790 1.5890
2.8869 6.0850 1.5890
2.7895 6.4702 1.6628
2.5998 6.6809 1.6922
0.8376 2.4047 0.6012
0.7506 2.4332 0.6014
0.6627 2.4586 0.6015
0.5739 2.4808 0.6017
0.4844 2.4999 0.6018
0.3943 2.5158 0.6020
0.3036 2.5284 0.6021
0.2126 2.5378 0.6023
0.1213 2.5439 0.6024
0.0298 2.5467 0.6026
-0.0617 2.5463 0.6027
-0.1532 2.5427 0.6029
-0.2445 2.5357 0.6030
-0.3355 2.5256 0.6032
-0.4261 2.5121 0.6033
-0.5162 2.4955 0.6035
-0.6056 2.4756 0.6036
-0.6942 2.4526 0.6038
-0.7820 2.4264 0.6039
-0.8689 2.3970 0.6041
-2.1345 5.2873 1.3510
-2.1841 4.8957 1.2703
-2.2283 4.5479 1.2001
-2.2262 4.1584 1.1178
-2.3036 3.9545 1.0846
-2.3361 3.6980 1.0367
-2.4186 3.5401 1.0162
-2.6298 3.5669 1.0503
-2.8559 3.5955 1.0883
-3.0994 3.6264 1.1307
-3.3629 3.6598 1.1780
-3.6499 3.6962 1.2311
-3.9644 3.7361 1.2910
-5.3695 4.7076 1.6922
-5.5355 4.5119 1.6922
-5.5750 4.2198 1.6567
-5.6114 3.9384 1.6242
-5.6495 3.6694 1.5959
-5.7538 3.4497 1.5891
-5.8828 3.2455 1.5913
-5.9882 3.0282 1.5891
-6.0940 2.8114 1.5891
-6.1920 2.5910 1.5891
-6.2820 2.3672 1.5891
-6.3641 2.1402 1.5891
-2.5327 0.7516 0.6252
-2.5440 0.6565 0.6216
-2.5553 0.5623 0.6189
-2.5664 0.4687 0.6170
-2.5775 0.3756 0.6159
-2.5886 0.2827 0.6156
-2.5997 0.1896 0.6161
-2.6108 0.0963 0.6173
-2.6220 0.0025 0.6194
-2.6333 -0.0922 0.6223
-2.6447 -0.1879 0.6261
-2.6563 -0.2850 0.6306
-2.6680 -0.3837 0.6361
-2.6800 -0.4842 0.6426
-2.6923 -0.5871 0.6500
-2.7048 -0.6925 0.6584
-2.7178 -0.8009 0.6679
-2.7311 -0.9126 0.6786
-2.7449 -1.0283 0.6906
-2.7592 -1.1483 0.7039
-2.7741 -1.2733 0.7187
-2.7896 -1.4039 0.7351
-2.8060 -1.5408 0.7533
-2.8231 -1.6850 0.7735
-2.8413 -1.8374 0.7958
-2.8606 -1.9992 0.8205
-2.8812 -2.1717 0.8480
-2.9032 -2.3565 0.8786
-2.9269 -2.5555 0.9127
-2.9526 -2.7710 0.9509
-2.9806 -3.0058 0.9938
-3.0113 -3.2633 1.0421
-3.0452 -3.5477 1.0969
-3.0829 -3.8643 1.1595
-3.1253 -4.2198 1.2313
-4.0854 -5.9518 1.6922
-3.8701 -6.0965 1.6922
-3.6497 -6.2333 1.6922
-3.4244 -6.3621 1.6922
-3.1946 -6.4828 1.6922
-2.9605 -6.5952 1.6922
-2.7225 -6.6990 1.6922
-2.4808 -6.7942 1.6922
-2.2357 -6.8807 1.6922
-1.9877 -6.9583 1.6922
-1.7369 -7.0269 1.6922
-1.4838 -7.0864 1.6922
-1.2286 -7.1368 1.6922
-0.9718 -7.1779 1.6922
-0.7135 -7.2097 1.6922
-0.4542 -7.2321 1.6922
-0.1943 -7.2452 1.6922
0.0660 -7.2489 1.6922
0.3264 -7.2432 1.6922
0.5863 -7.2280 1.6922
0.8456 -7.2035 1.6922
1.1039 -7.1695 1.6922
1.2778 -6.6915 1.5890
1.5175 -6.6422 1.5890
1.7552 -6.5842 1.5890
1.9908 -6.5177 1.5890
2.2237 -6.4427 1.5890
2.4539 -6.3592 1.5890
2.6808 -6.2675 1.5890
6.2471 0.3120 1.6123
6.1402 0.5283 1.5890
6.1158 0.7483 1.5890
6.0835 0.9672 1.5890
6.0433 1.1848 1.5890
5.9954 1.4007 1.5890
5.9397 1.6147 1.5890
5.8763 1.8265 1.5890
5.6135 1.9685 1.5365
5.6417 2.2090 1.5653
5.6412 2.4460 1.5890
5.5482 2.6464 1.5890
5.4481 2.8432 1.5890
5.3410 3.0362 1.5890
5.2270 3.2252 1.5890
5.1064 3.4099 1.5890
2.4975 1.8007 0.7970
4.8457 3.7656 1.5890
4.6558 3.8942 1.5720
4.5116 4.0578 1.5720
4.3617 4.2161 1.5720
4.2516 4.4159 1.5890
4.0891 4.5646 1.5890
3.9214 4.7072 1.5890
3.7487 4.8438 1.5890
3.5713 4.9740 1.5890
3.3894 5.0977 1.5890
3.2032 5.2149 1.5890
3.0130 5.3252 1.5890
2.8190 5.4286 1.5890
2.6986 5.6876 1.6357
2.5780 5.9791 1.6922
0.8388 2.1554 0.6013
0.7608 2.1841 0.6014
0.6819 2.2100 0.6015
0.6020 2.2331 0.6016
0.5214 2.2533 0.6018
0.4401 2.2705 0.6019
0.3582 2.2849 0.6020
0.2759 2.2964 0.6022
0.1932 2.3049 0.6023
0.1102 2.3105 0.6024
0.0271 2.3130 0.6026
-0.0560 2.3127 0.6027
-0.1391 2.3093 0.6029
-0.2220 2.3030 0.6030
-0.3047 2.2937 0.6031
-0.3869 2.2815 0.6033
-0.4687 2.2664 0.6034
-0.5499 2.2483 0.6035
-0.6304 2.2273 0.6037
-0.7102 2.2035 0.6038
-0.7890 2.1768 0.6039
-0.8668 2.1474 0.6041
-2.6428 5.9240 1.6922
-2.2284 4.5483 1.3214
-2.1740 4.0610 1.2018
-2.2863 3.9248 1.1851
-2.3363 3.6983 1.1414
-2.4184 3.5398 1.1186
-2.6296 3.5666 1.1562
-2.8557 3.5953 1.1980
-3.0992 3.6261 1.2446
-3.3627 3.6595 1.2968
-3.9735 4.0239 1.4755
-4.7202 4.4483 1.6922
-4.8773 4.2760 1.6922
-5.0281 4.0982 1.6922
-5.1725 3.9151 1.6922
-5.3103 3.7269 1.6922
-5.4413 3.5340 1.6922
-5.5653 3.3365 1.6922
-5.6822 3.1346 1.6922
-5.7298 2.8974 1.6741
-5.7581 2.6563 1.6532
-5.7865 2.4212 1.6351
-5.8169 2.1917 1.6201
-5.8463 1.9659 1.6073
-2.5327 0.7515 0.6883
-2.5440 0.6564 0.6844
-2.5553 0.5622 0.6815
-2.5664 0.4686 0.6794
-2.5775 0.3755 0.6782
-2.5886 0.2826 0.6779
-2.5997 0.1896 0.6784
-2.6108 0.0962 0.6798
-2.6220 0.0024 0.6821
-2.6333 -0.0923 0.6853
-2.6447 -0.1880 0.6894
-2.6563 -0.2851 0.6945
-2.6681 -0.3838 0.7006
-2.6800 -0.4843 0.7077
-2.6923 -0.5872 0.7158
-2.7048 -0.6926 0.7252
-2.7178 -0.8010 0.7357
-2.7311 -0.9128 0.7475
-2.7449 -1.0284 0.7607
-2.7592 -1.1484 0.7754
-2.7741 -1.2734 0.7917
-2.7897 -1.4040 0.8098
-2.8060 -1.5410 0.8299
-2.8232 -1.6852 0.8521
-2.8413 -1.8376 0.8767
-2.8606 -1.9994 0.9040
-2.8812 -2.1719 0.9343
-2.9032 -2.3567 0.9680
-2.9270 -2.5558 1.0056
-2.9526 -2.7713 1.0477
-2.9806 -3.0061 1.0950
-3.0113 -3.2636 1.1483
-3.0452 -3.5480 1.2087
-3.0830 -3.8646 1.2776
-3.1254 -4.2202 1.3568
-3.7073 -5.4015 1.6922
-3.5119 -5.5327 1.6922
-3.3118 -5.6567 1.6922
-3.1073 -5.7735 1.6922
-2.8986 -5.8829 1.6922
-2.6862 -5.9847 1.6922
-2.4701 -6.0787 1.6922
-2.2507 -6.1650 1.6922
-2.0284 -6.2433 1.6922
-1.8032 -6.3136 1.6922
-1.5757 -6.3757 1.6922
-1.3460 -6.4296 1.6922
-1.1145 -6.4751 1.6922
-0.8814 -6.5123 1.6922
-0.6471 -6.5410 1.6922
-0.4119 -6.5613 1.6922
-0.1761 -6.5730 1.6922
0.0601 -6.5762 1.6922
0.2962 -6.5709 1.6922
0.5321 -6.5571 1.6922
0.7673 -6.5347 1.6922
1.0016 -6.5039 1.6922
1.2346 -6.4646 1.6922
1.3767 -6.0253 1.5890
1.5923 -5.9727 1.5890
1.8060 -5.9123 1.5890
2.0173 -5.8442 1.5890
2.2260 -5.7685 1.5890
2.4319 -5.6852 1.5890
5.6290 0.2809 1.5890
5.6141 0.4828 1.5890
5.5919 0.6840 1.5890
5.5625 0.8841 1.5890
5.5259 1.0831 1.5890
5.4821 1.2805 1.5890
5.4313 1.4763 1.5890
5.3735 1.6700 1.5890
5.3088 1.8614 1.5890
5.2372 2.0504 1.5890
5.1589 2.2366 1.5890
5.0739 2.4199 1.5890
4.9825 2.5999 1.5890
4.8846 2.7765 1.5890
4.7805 2.9494 1.5890
4.6703 3.1184 1.5890
2.4975 1.8006 0.8714
4.3848 3.4071 1.5720
4.2584 3.5615 1.5720
4.1267 3.7112 1.5720
3.9897 3.8561 1.5720
3.8476 3.9959 1.5720
3.7405 4.1751 1.5890
3.5872 4.3056 1.5890
3.4293 4.4306 1.5890
3.2671 4.5498 1.5890
3.1008 4.6631 1.5890
2.9305 4.7704 1.5890
2.7566 4.8714 1.5890
2.6296 5.0633 1.6201
0.9074 1.9122 0.6012
0.8381 1.9435 0.6013
0.7677 1.9723 0.6014
0.6963 1.9986 0.6015
0.6240 2.0223 0.6016
0.5509 2.0434 0.6017
0.4772 2.0619 0.6019
0.4028 2.0777 0.6020
0.3278 2.0908 0.6021
0.2525 2.1013 0.6022
0.1768 2.1091 0.6024
0.1009 2.1142 0.6025
0.0249 2.1165 0.6026
-0.0512 2.1162 0.6027
-0.1272 2.1131 0.6029
-0.2031 2.1073 0.6030
-0.2787 2.0988 0.6031
-0.3540 2.0876 0.6032
-0.4288 2.0737 0.6034
-0.5031 2.0572 0.6035
-0.5768 2.0380 0.6036
-0.6497 2.0161 0.6037
-0.7219 1.9917 0.6038
-0.7931 1.9647 0.6040
-0.8633 1.9352 0.6041
-2.6116 5.3304 1.6922
-2.1516 4.0192 1.2997
-2.2649 3.8882 1.2829
-2.3364 3.6985 1.2473
-2.4182 3.5395 1.2223
-2.6293 3.5663 1.2634
-2.8555 3.5950 1.3090
-3.6459 4.2658 1.6000
-3.7662 4.0987 1.5871
-4.1704 4.2232 1.6922
-4.3196 4.0707 1.6922
-4.4633 3.9130 1.6922
-4.6013 3.7502 1.6922
-4.7334 3.5827 1.6922
-4.8595 3.4105 1.6922
-4.9793 3.2339 1.6922
-5.0928 3.0531 1.6922
-5.1997 2.8684 1.6922
-5.3000 2.6799 1.6922
-5.3935 2.4880 1.6922
-5.4802 2.2928 1.6922
-5.5597 2.0947 1.6922
-5.6322 1.8938 1.6922
-2.5327 0.7514 0.7522
-2.5441 0.6563 0.7480
-2.5553 0.5621 0.7448
-2.5664 0.4686 0.7425
-2.5775 0.3754 0.7412
-2.5886 0.2825 0.7408
-2.5997 0.1895 0.7415
-2.6108 0.0961 0.7430
-2.6220 0.0023 0.7455
-2.6333 -0.0924 0.7491
-2.6447 -0.1881 0.7536
-2.6563 -0.2852 0.7591
-2.6680 -0.3839 0.7658
-2.6800 -0.4845 0.7736
-2.6923 -0.5873 0.7825
-2.7049 -0.6927 0.7927
-2.7178 -0.8011 0.8042
-2.7311 -0.9129 0.8171
-2.7449 -1.0286 0.8316
-2.7592 -1.1486 0.8477
-2.7741 -1.2736 0.8655
-2.7897 -1.4042 0.8853
-2.8060 -1.5412 0.9073
-2.8232 -1.6854 0.9316
-2.8414 -1.8378 0.9585
-2.8607 -1.9996 0.9884
-2.8812 -2.1721 1.0216
-2.9032 -2.3570 1.0584
-2.9270 -2.5560 1.0996
-2.9527 -2.7716 1.1456
-2.9603 -2.9859 1.1892
-2.9402 -3.1868 1.2260
-3.0453 -3.5484 1.3218
-3.0830 -3.8651 1.3972
-3.5643 -4.8134 1.6922
-3.3899 -4.9395 1.6922
-3.2111 -5.0593 1.6922
-3.0281 -5.1727 1.6922
-2.8410 -5.2793 1.6922
-2.6502 -5.3792 1.6922
-2.4559 -5.4722 1.6922
-2.2583 -5.5581 1.6922
-2.0577 -5.6369 1.6922
-1.8543 -5.7084 1.6922
-1.6485 -5.7725 1.6922
-1.4404 -5.8292 1.6922
-1.2304 -5.8783 1.6922
-1.0187 -5.9199 1.6922
-0.8056 -5.9538 1.6922
-0.5914 -5.9799 1.6922
-0.3764 -5.9984 1.6922
-0.1608 -6.0090 1.6922
0.0551 -6.0119 1.6922
0.2710 -6.0069 1.6922
0.4865 -5.9942 1.6922
0.7016 -5.9737 1.6922
0.9157 -5.9454 1.6922
1.1288 -5.9094 1.6922
1.3403 -5.8657 1.6922
1.4557 -5.4597 1.5890
1.6509 -5.4044 1.5890
1.8441 -5.3421 1.5890
2.0348 -5.2729 1.5890
2.2230 -5.1968 1.5890
5.1795 0.2583 1.5890
5.1658 0.4440 1.5890
5.1455 0.6291 1.5890
5.1185 0.8133 1.5890
5.0849 0.9964 1.5890
5.0448 1.1781 1.5890
4.9981 1.3583 1.5890
4.9450 1.5365 1.5890
4.8855 1.7128 1.5890
4.8197 1.8867 1.5890
4.7477 2.0581 1.5890
4.6696 2.2268 1.5890
4.5855 2.3925 1.5890
4.4956 2.5551 1.5890
4.3998 2.7142 1.5890
4.2985 2.8698 1.5890
2.4975 1.8004 0.9468
4.0794 3.1695 1.5890
3.9619 3.3132 1.5890
3.8394 3.4526 1.5890
3.7120 3.5874 1.5890
3.5799 3.7176 1.5890
3.4432 3.8429 1.5890
3.3021 3.9631 1.5890
3.1569 4.0783 1.5890
3.0076 4.1881 1.5890
2.8546 4.2925 1.5890
2.6979 4.3913 1.5890
2.5713 4.5436 1.6100
0.8984 1.7297 0.6012
0.8356 1.7607 0.6013
0.7718 1.7896 0.6014
0.7070 1.8161 0.6015
0.6412 1.8403 0.6016
0.5747 1.8621 0.6017
0.5074 1.8815 0.6018
0.4394 1.8985 0.6019
0.3709 1.9131 0.6020
0.3019 1.9252 0.6022
0.2326 1.9348 0.6023
0.1629 1.9420 0.6024
0.0930 1.9467 0.6025
0.0230 1.9488 0.6026
-0.0471 1.9485 0.6027
-0.1171 1.9456 0.6028
-0.1869 1.9403 0.6030
-0.2566 1.9324 0.6031
-0.3259 1.9221 0.6032
-0.3948 1.9093 0.6033
-0.4632 1.8941 0.6034
-0.5310 1.8764 0.6035
-0.5982 1.8563 0.6036
-0.6646 1.8338 0.6038
-0.7302 1.8089 0.6039
-0.7948 1.7817 0.6040
-0.8584 1.7522 0.6041
-2.1497 4.0158 1.4103
-2.2603 3.8803 1.3904
-2.3365 3.6988 1.3546
-2.4180 3.5393 1.3272
-3.2431 4.3988 1.6922
-3.3991 4.2794 1.6922
-3.5508 4.1545 1.6922
-3.6979 4.0242 1.6922
-3.8402 3.8888 1.6922
-3.9776 3.7484 1.6922
-4.1100 3.6031 1.6922
-4.2370 3.4533 1.6922
-4.3587 3.2989 1.6922
-4.4747 3.1404 1.6922
-4.5851 2.9777 1.6922
-4.6895 2.8112 1.6922
-4.7880 2.6411 1.6922
-4.8803 2.4676 1.6922
-4.9663 2.2908 1.6922
-5.0461 2.1111 1.6922
-5.1193 1.9286 1.6922
-5.1860 1.7436 1.6922
-2.5327 0.7514 0.8170
-2.5441 0.6562 0.8124
-2.5553 0.5620 0.8089
-2.5664 0.4685 0.8064
-2.5775 0.3753 0.8050
-2.5886 0.2824 0.8047
-2.5997 0.1894 0.8053
-2.6108 0.0961 0.8070
-2.6220 0.0022 0.8098
-2.6333 -0.0925 0.8136
-2.6447 -0.1882 0.8185
-2.6563 -0.2853 0.8246
-2.6680 -0.3840 0.8318
-2.6801 -0.4846 0.8403
-2.6923 -0.5874 0.8500
-2.7049 -0.6928 0.8611
-2.7178 -0.8012 0.8736
-2.7311 -0.9130 0.8877
-2.7449 -1.0287 0.9034
-2.7592 -1.1487 0.9209
-2.7741 -1.2737 0.9403
-2.7897 -1.4044 0.9619
-2.8060 -1.5413 0.9857
-2.8232 -1.6856 1.0122
-2.8414 -1.8380 1.0414
-2.8607 -1.9998 1.0739
-2.8812 -2.1724 1.1100
-2.9033 -2.3572 1.1501
-2.9270 -2.5563 1.1948
-2.9527 -2.7719 1.2449
-2.9259 -2.9515 1.2772
-2.8949 -3.1380 1.3117
-3.0453 -3.5488 1.4364
-3.4361 -4.3081 1.6922
-3.2799 -4.4298 1.6922
-3.1194 -4.5458 1.6922
-2.9548 -4.6559 1.6922
-2.7863 -4.7601 1.6922
-2.6141 -4.8582 1.6922
-2.4385 -4.9500 1.6922
-2.2597 -5.0355 1.6922
-2.0778 -5.1145 1.6922
-1.8932 -5.1869 1.6922
-1.7060 -5.2526 1.6922
-1.5166 -5.3115 1.6922
-1.3252 -5.3636 1.6922
-1.1319 -5.4087 1.6922
-0.9371 -5.4468 1.6922
-0.7411 -5.4779 1.6922
-0.5440 -5.5020 1.6922
-0.3461 -5.5188 1.6922
-0.1478 -5.5286 1.6922
0.0508 -5.5311 1.6922
0.2494 -5.5265 1.6922
0.4478 -5.5148 1.6922
0.6456 -5.4958 1.6922
0.8426 -5.4698 1.6922
1.0385 -5.4366 1.6922
1.2332 -5.3964 1.6922
1.4118 -5.2947 1.6750
1.5189 -4.9719 1.5890
1.6965 -4.9146 1.5890
1.8720 -4.8508 1.5890
2.0451 -4.7808 1.5890
4.7915 0.2388 1.5890
4.7790 0.4106 1.5890
4.7602 0.5818 1.5890
4.7353 0.7523 1.5890
4.7043 0.9216 1.5890
4.6672 1.0898 1.5890
4.6241 1.2564 1.5890
4.5750 1.4214 1.5890
4.5201 1.5844 1.5890
4.4593 1.7454 1.5890
4.3927 1.9040 1.5890
4.3206 2.0601 1.5890
4.2429 2.2135 1.5890
4.1597 2.3639 1.5890
4.0712 2.5112 1.5890
3.9774 2.6552 1.5890
2.4976 1.8003 1.0232
3.7748 2.9326 1.5890
3.6662 3.0656 1.5890
3.5529 3.1946 1.5890
3.4351 3.3195 1.5890
3.3129 3.4400 1.5890
3.1864 3.5560 1.5890
3.0559 3.6673 1.5890
2.9216 3.7739 1.5890
2.7835 3.8756 1.5890
2.6419 3.9723 1.5890
2.5212 4.1033 1.6044
0.8887 1.5702 0.6012
0.8317 1.6010 0.6013
0.7736 1.6298 0.6014
0.7145 1.6565 0.6015
0.6544 1.6810 0.6016
0.5936 1.7034 0.6017
0.5320 1.7236 0.6018
0.4697 1.7416 0.6019
0.4068 1.7573 0.6020
0.3434 1.7708 0.6021
0.2795 1.7820 0.6022
0.2153 1.7910 0.6023
0.1508 1.7976 0.6024
0.0861 1.8019 0.6025
0.0213 1.8039 0.6026
-0.0435 1.8036 0.6027
-0.1083 1.8009 0.6028
-0.1730 1.7960 0.6029
-0.2375 1.7887 0.6031
-0.3016 1.7791 0.6032
-0.3654 1.7673 0.6033
-0.4287 1.7531 0.6034
-0.4915 1.7367 0.6035
-0.5536 1.7181 0.6036
-0.6151 1.6973 0.6037
-0.6758 1.6742 0.6038
-0.7356 1.6490 0.6039
-0.7945 1.6217 0.6040
-0.8524 1.5923 0.6041
-2.2777 3.9102 1.5136
-2.4409 3.8640 1.5287
-2.8538 4.1772 1.6922
-3.0021 4.0719 1.6922
-3.1465 3.9614 1.6922
-3.2869 3.8457 1.6922
-3.4231 3.7252 1.6922
-3.5549 3.5998 1.6922
-3.6821 3.4698 1.6922
-3.8045 3.3353 1.6922
-3.9222 3.1966 1.6922
-4.0348 3.0537 1.6922
-4.1422 2.9069 1.6922
-4.2443 2.7563 1.6922
-4.3410 2.6022 1.6922
-4.4321 2.4447 1.6922
-4.5175 2.2840 1.6922
-4.5971 2.1204 1.6922
-4.6709 1.9540 1.6922
-4.7386 1.7851 1.6922
-4.8003 1.6138 1.6922
-2.5327 0.7513 0.8826
-2.5441 0.6562 0.8777
-2.5553 0.5619 0.8739
-2.5665 0.4684 0.8713
-2.5776 0.3753 0.8697
-2.5886 0.2823 0.8694
-2.5997 0.1893 0.8701
-2.6109 0.0960 0.8719
-2.6220 0.0021 0.8749
-2.6333 -0.0926 0.8791
-2.6447 -0.1883 0.8844
-2.6563 -0.2854 0.8910
-2.6681 -0.3841 0.8988
-2.6801 -0.4847 0.9079
-2.6923 -0.5875 0.9185
-2.7049 -0.6930 0.9305
-2.7178 -0.8014 0.9440
-2.7312 -0.9132 0.9592
-2.7449 -1.0288 0.9762
-2.7592 -1.1489 0.9951
-2.7741 -1.2739 1.0162
-2.7897 -1.4045 1.0395
-2.8060 -1.5415 1.0653
-2.8232 -1.6858 1.0938
-2.8414 -1.8382 1.1255
-2.8607 -2.0000 1.1606
-2.8813 -2.1726 1.1996
-2.9033 -2.3575 1.2430
-2.9270 -2.5566 1.2913
-2.9527 -2.7722 1.3455
-2.9116 -2.9374 1.3737
-2.8844 -3.1269 1.4126
-3.3193 -3.8685 1.6922
-3.1790 -3.9861 1.6922
-3.0344 -4.0986 1.6922
-2.8859 -4.2058 1.6922
-2.7335 -4.3077 1.6922
-2.5776 -4.4040 1.6922
-2.4183 -4.4947 1.6922
-2.2558 -4.5796 1.6922
-2.0903 -4.6586 1.6922
-1.9220 -4.7316 1.6922
-1.7512 -4.7985 1.6922
-1.5781 -4.8592 1.6922
-1.4028 -4.9136 1.6922
-1.2257 -4.9617 1.6922
-1.0469 -5.0034 1.6922
-0.8667 -5.0386 1.6922
-0.6854 -5.0673 1.6922
-0.5030 -5.0895 1.6922
-0.3200 -5.1051 1.6922
-0.1365 -5.1140 1.6922
0.0472 -5.1163 1.6922
0.2309 -5.1120 1.6922
0.4143 -5.1011 1.6922
0.5973 -5.0835 1.6922
0.7795 -5.0594 1.6922
0.9607 -5.0287 1.6922
1.1408 -4.9914 1.6922
1.3194 -4.9477 1.6922
1.4688 -4.8077 1.6612
1.5693 -4.5457 1.5890
1.7316 -4.4867 1.5890
1.8917 -4.4219 1.5890
4.4530 0.2217 1.5890
4.4413 0.3814 1.5890
4.4240 0.5406 1.5890
4.4009 0.6989 1.5890
4.3721 0.8564 1.5890
4.3377 1.0126 1.5890
4.2977 1.1675 1.5890
4.2522 1.3209 1.5890
4.2011 1.4724 1.5890
4.1447 1.6220 1.5890
4.0829 1.7695 1.5890
4.0159 1.9146 1.5890
3.9437 2.0572 1.5890
3.8664 2.1970 1.5890
3.7842 2.3340 1.5890
3.6972 2.4679 1.5890
2.4976 1.8001 1.1008
3.5089 2.7258 1.5890
3.4080 2.8495 1.5890
3.3028 2.9694 1.5890
3.1933 3.0855 1.5890
3.0797 3.1976 1.5890
2.9622 3.3054 1.5890
2.8410 3.4090 1.5890
2.7161 3.5082 1.5890
2.5878 3.6027 1.5890
2.4773 3.7244 1.6027
0.8784 1.4294 0.6012
0.8264 1.4600 0.6013
0.7734 1.4886 0.6014
0.7193 1.5154 0.6015
0.6644 1.5402 0.6016
0.6086 1.5630 0.6017
0.5520 1.5839 0.6018
0.4947 1.6026 0.6019
0.4368 1.6194 0.6020
0.3783 1.6340 0.6020
0.3194 1.6465 0.6021
0.2600 1.6570 0.6022
0.2003 1.6652 0.6023
0.1403 1.6714 0.6024
0.0801 1.6754 0.6025
0.0199 1.6772 0.6026
-0.0404 1.6769 0.6027
-0.1007 1.6745 0.6028
-0.1608 1.6699 0.6029
-0.2207 1.6631 0.6030
-0.2804 1.6542 0.6031
-0.3397 1.6431 0.6032
-0.3986 1.6300 0.6033
-0.4569 1.6147 0.6034
-0.5147 1.5974 0.6035
-0.5719 1.5780 0.6036
-0.6283 1.5566 0.6037
-0.6839 1.5331 0.6038
-0.7386 1.5077 0.6039
-0.7924 1.4804 0.6040
-0.8452 1.4511 0.6041
-0.8970 1.4200 0.6042
-2.6536 3.8842 1.6922
-2.7915 3.7863 1.6922
-2.9258 3.6835 1.6922
-3.0564 3.5760 1.6922
-3.1830 3.4638 1.6922
-3.3055 3.3472 1.6922
-3.4238 3.2264 1.6922
-3.5377 3.1013 1.6922
-3.6470 2.9723 1.6922
-3.7517 2.8394 1.6922
-3.8516 2.7029 1.6922
-3.9465 2.5628 1.6922
-4.0364 2.4195 1.6922
-4.1211 2.2731 1.6922
-4.2005 2.1236 1.6922
-4.2745 1.9715 1.6922
-4.3431 1.8167 1.6922
-4.4060 1.6596 1.6922
-4.4634 1.5004 1.6922
-2.5327 0.7512 0.9493
-2.5441 0.6561 0.9440
-2.5553 0.5619 0.9399
-2.5665 0.4683 0.9371
-2.5776 0.3752 0.9355
-2.5887 0.2822 0.9350
-2.5997 0.1892 0.9358
-2.6109 0.0959 0.9378
-2.6221 0.0020 0.9411
-2.6333 -0.0927 0.9455
-2.6447 -0.1884 0.9513
-2.6563 -0.2855 0.9584
-2.6681 -0.3842 0.9668
-2.6801 -0.4848 0.9766
-2.6923 -0.5877 0.9880
-2.7049 -0.6931 1.0009
-2.7178 -0.8015 1.0155
-2.7312 -0.9133 1.0319
-2.7449 -1.0290 1.0502
-2.7592 -1.1490 1.0705
-2.7742 -1.2741 1.0931
-2.7897 -1.4047 1.1182
-2.8060 -1.5417 1.1460
-2.8233 -1.6859 1.1768
-2.8414 -1.8384 1.2108
-2.8607 -2.0002 1.2486
-2.8813 -2.1728 1.2906
-2.9033 -2.3577 1.3373
-2.9270 -2.5568 1.3893
-2.9528 -2.7725 1.4476
-2.9197 -2.9458 1.4820
-2.9265 -3.1729 1.5420
-3.0850 -3.5957 1.6922
-2.9545 -3.7050 1.6922
-2.8201 -3.8095 1.6922
-2.6820 -3.9091 1.6922
-2.5404 -4.0038 1.6922
-2.3955 -4.0932 1.6922
-2.2474 -4.1774 1.6922
-2.0963 -4.2563 1.6922
-1.9424 -4.3296 1.6922
-1.7861 -4.3974 1.6922
-1.6273 -4.4595 1.6922
-1.4664 -4.5159 1.6922
-1.3035 -4.5665 1.6922
-1.1389 -4.6111 1.6922
-0.9728 -4.6498 1.6922
-0.8053 -4.6825 1.6922
-0.6367 -4.7091 1.6922
-0.4673 -4.7296 1.6922
-0.2972 -4.7440 1.6922
-0.1267 -4.7523 1.6922
0.0440 -4.7544 1.6922
0.2147 -4.7504 1.6922
0.3851 -4.7402 1.6922
0.5551 -4.7238 1.6922
0.7244 -4.7014 1.6922
0.8929 -4.6728 1.6922
1.0601 -4.6382 1.6922
1.2261 -4.5975 1.6922
1.3904 -4.5509 1.6922
1.5172 -4.3946 1.6532
1.6091 -4.1691 1.5890
1.7630 -4.1211 1.5937
4.1547 0.2067 1.5890
4.1438 0.3557 1.5890
4.1277 0.5042 1.5890
4.1062 0.6520 1.5890
4.0794 0.7989 1.5890
4.0473 0.9447 1.5890
4.0101 1.0892 1.5890
3.9676 1.2323 1.5890
3.9200 1.3737 1.5890
3.8674 1.5133 1.5890
3.8098 1.6509 1.5890
3.7473 1.7863 1.5890
3.6800 1.9194 1.5890
3.6080 2.0499 1.5890
3.5313 2.1778 1.5890
3.4501 2.3027 1.5890
2.4976 1.8000 1.1796
3.2745 2.5435 1.5890
3.1804 2.6589 1.5890
3.0822 2.7709 1.5890
2.9801 2.8793 1.5890
2.8742 2.9839 1.5890
2.7645 3.0846 1.5890
2.6514 3.1813 1.5890
2.5349 3.2738 1.5890
2.4382 3.3943 1.6042
0.8674 1.3040 0.6013
0.8200 1.3342 0.6013
0.7714 1.3628 0.6014
0.7219 1.3895 0.6015
0.6715 1.4145 0.6016
0.6202 1.4377 0.6017
0.5681 1.4590 0.6017
0.5153 1.4784 0.6018
0.4618 1.4959 0.6019
0.4078 1.5115 0.6020
0.3532 1.5252 0.6021
0.2982 1.5369 0.6022
0.2427 1.5466 0.6023
0.1870 1.5544 0.6024
0.1310 1.5601 0.6025
0.0749 1.5638 0.6026
0.0186 1.5656 0.6026
-0.0377 1.5653 0.6027
-0.0939 1.5629 0.6028
-0.1501 1.5586 0.6029
-0.2060 1.5523 0.6030
-0.2617 1.5440 0.6031
-0.3170 1.5337 0.6032
-0.3720 1.5214 0.6033
-0.4265 1.5071 0.6034
-0.4804 1.4910 0.6035
-0.5337 1.4728 0.6036
-0.5864 1.4528 0.6037
-0.6383 1.4310 0.6037
-0.6894 1.4072 0.6038
-0.7396 1.3817 0.6039
-0.7889 1.3543 0.6040
-0.8372 1.3253 0.6041
-0.8844 1.2945 0.6042
-2.6057 3.5343 1.6922
-2.7311 3.4383 1.6922
-2.8530 3.3380 1.6922
-2.9711 3.2333 1.6922
-3.0855 3.1245 1.6922
-3.1960 3.0116 1.6922
-3.3022 2.8949 1.6922
-3.4043 2.7744 1.6922
-3.5020 2.6504 1.6922
-3.5953 2.5229 1.6922
-3.6838 2.3922 1.6922
-3.7677 2.2584 1.6922
-3.8468 2.1217 1.6922
-3.9209 1.9822 1.6922
-3.9900 1.8401 1.6922
-4.0539 1.6957 1.6922
-4.1127 1.5490 1.6922
-4.1661 1.4003 1.6922
-2.5327 0.7511 1.0170
-2.5441 0.6560 1.0113
-2.5553 0.5618 1.0070
-2.5665 0.4682 1.0039
-2.5776 0.3751 1.0022
-2.5887 0.2821 1.0018
-2.5998 0.1891 1.0027
-2.6109 0.0958 1.0048
-2.6221 0.0019 1.0083
-2.6334 -0.0928 1.0131
-2.6448 -0.1886 1.0193
-2.6563 -0.2856 1.0268
-2.6681 -0.3843 1.0359
-2.6801 -0.4849 1.0464
-2.6923 -0.5878 1.0586
-2.7049 -0.6932 1.0725
-2.7179 -0.8016 1.0881
-2.7312 -0.9135 1.1057
-2.7450 -1.0291 1.1253
-2.7593 -1.1492 1.1471
-2.7742 -1.2742 1.1714
-2.7898 -1.4049 1.1983
-2.8061 -1.5419 1.2281
-2.8233 -1.6861 1.2610
-2.8414 -1.8386 1.2976
-2.8608 -2.0005 1.3381
-2.8813 -2.1731 1.3831
-2.9034 -2.3580 1.4331
-3.2365 -2.8273 1.6463
-3.0472 -2.8614 1.6010
-2.9717 -2.9986 1.6166
-2.9966 -3.2492 1.6922
-2.8785 -3.3554 1.6922
-2.7567 -3.4573 1.6922
-2.6313 -3.5547 1.6922
-2.5024 -3.6477 1.6922
-2.3702 -3.7359 1.6922
-2.2350 -3.8193 1.6922
-2.0968 -3.8979 1.6922
-1.9558 -3.9714 1.6922
-1.8122 -4.0398 1.6922
-1.6663 -4.1030 1.6922
-1.5181 -4.1609 1.6922
-1.3680 -4.2134 1.6922
-1.2160 -4.2605 1.6922
-1.0624 -4.3022 1.6922
-0.9074 -4.3382 1.6922
-0.7511 -4.3687 1.6922
-0.5939 -4.3935 1.6922
-0.4358 -4.4126 1.6922
-0.2772 -4.4260 1.6922
-0.1181 -4.4337 1.6922
0.0411 -4.4356 1.6922
0.2004 -4.4318 1.6922
0.3594 -4.4222 1.6922
0.5180 -4.4070 1.6922
0.6760 -4.3860 1.6922
0.8331 -4.3593 1.6922
0.9891 -4.3270 1.6922
1.1439 -4.2890 1.6922
1.2972 -4.2455 1.6922
1.4489 -4.1965 1.6922
1.5588 -4.0388 1.6501
1.6399 -3.8331 1.5890
3.8896 0.1934 1.5890
3.8795 0.3328 1.5890
3.8644 0.4719 1.5890
3.8443 0.6102 1.5890
3.8193 0.7477 1.5890
3.7893 0.8843 1.5890
3.7544 1.0196 1.5890
3.7147 1.1535 1.5890
3.6702 1.2860 1.5890
3.6210 1.4167 1.5890
3.5671 1.5455 1.5890
3.5086 1.6723 1.5890
3.4457 1.7969 1.5890
3.3782 1.9192 1.5890
3.3065 2.0389 1.5890
3.2305 2.1559 1.5890
2.4977 1.7998 1.2598
3.0662 2.3814 1.5890
2.9781 2.4895 1.5890
2.8862 2.5944 1.5890
2.7906 2.6959 1.5890
2.6914 2.7939 1.5890
2.5888 2.8882 1.5890
2.4829 2.9788 1.5890
0.8982 1.1599 0.6012
0.8559 1.1913 0.6013
0.8125 1.2212 0.6014
0.7680 1.2496 0.6014
0.7226 1.2763 0.6015
0.6762 1.3013 0.6016
0.6290 1.3247 0.6017
0.5809 1.3464 0.6017
0.5322 1.3664 0.6018
0.4827 1.3846 0.6019
0.4326 1.4010 0.6020
0.3820 1.4156 0.6021
0.3308 1.4284 0.6021
0.2793 1.4394 0.6022
0.2274 1.4485 0.6023
0.1752 1.4557 0.6024
0.1227 1.4611 0.6025
0.0701 1.4646 0.6026
0.0175 1.4662 0.6027
-0.0353 1.4659 0.6027
-0.0879 1.4638 0.6028
-0.1405 1.4597 0.6029
-0.1929 1.4538 0.6030
-0.2450 1.4460 0.6031
-0.2969 1.4363 0.6032
-0.3483 1.4248 0.6033
-0.3994 1.4115 0.6033
-0.4499 1.3963 0.6034
-0.4998 1.3793 0.6035
-0.5491 1.3606 0.6036
-0.5977 1.3401 0.6037
-0.6456 1.3178 0.6038
-0.6926 1.2939 0.6038
-0.7387 1.2683 0.6039
-0.7839 1.2410 0.6040
-0.8281 1.2122 0.6041
-0.8713 1.1818 0.6041
-2.5579 3.2203 1.6922
-2.6720 3.1263 1.6922
-2.7827 3.0282 1.6922
-2.8899 2.9263 1.6922
-2.9933 2.8206 1.6922
-3.0928 2.7112 1.6922
-3.1885 2.5984 1.6922
-3.2799 2.4822 1.6922
-3.3673 2.3628 1.6922
-3.4502 2.2404 1.6922
-3.5288 2.1151 1.6922
-3.6028 1.9870 1.6922
-3.6722 1.8563 1.6922
-3.7368 1.7233 1.6922
-3.7967 1.5880 1.6922
-3.8517 1.4506 1.6922
-3.9018 1.3114 1.6922
-2.5327 0.7511 1.0859
-2.5441 0.6559 1.0798
-2.5553 0.5617 1.0752
-2.5665 0.4681 1.0720
