ply
format ascii 1.0
element vertex 2162
property float32 x
property float32 y
property float32 z
end_header
-15.7693 -3.6906 1.7190
-15.6237 -4.2552 1.7190
-15.4599 -4.8147 1.7190
-15.2779 -5.3686 1.7190
-15.0780 -5.9164 1.7190
-8.0918 -3.5163 0.9361
-7.6675 -3.6655 0.9013
-7.4936 -3.9198 0.8963
-7.4583 -4.2501 0.9092
-12.8491 -7.9480 1.5988
-12.6998 -8.5025 1.6158
-8.7664 -6.3377 1.1424
-7.7824 -6.0646 1.0407
-7.3762 -6.1874 1.0142
-7.3328 -6.6150 1.0389
-6.6716 -6.4690 0.9761
-6.4347 -6.7052 0.9745
-6.3160 -7.0745 0.9927
-5.9857 -7.2110 0.9792
-5.7973 -7.5190 0.9900
-5.5646 -7.7811 0.9954
-5.3647 -8.1028 1.0090
-5.0558 -8.2681 1.0039
-4.8888 -8.6822 1.0297
-4.5865 -8.8784 1.0301
-4.3578 -9.2364 1.0500
-4.0731 -9.5052 1.0604
-3.7996 -9.8295 1.0776
-2.1349 -6.1750 0.6662
-3.1960 -10.4473 1.1107
-2.9084 -10.8943 1.1429
-2.5637 -11.2065 1.1616
-2.1963 -11.4872 1.1780
-1.7956 -11.6494 1.1834
-1.4196 -12.0835 1.2175
-1.0169 -12.5326 1.2540
-0.5858 -13.0133 1.2946
-0.1218 -13.5307 1.3401
0.3802 -14.0905 1.3911
0.9266 -14.6998 1.4484
1.5253 -15.3673 1.5131
2.1857 -16.1038 1.5864
2.8251 -16.3717 1.6158
3.4248 -16.3204 1.6158
4.0247 -16.2478 1.6158
4.6239 -16.1536 1.6158
5.2216 -16.0378 1.6158
6.3418 -13.2208 1.7190
6.8340 -13.0244 1.7190
7.3204 -12.8096 1.7190
7.8000 -12.5766 1.7190
8.2721 -12.3254 1.7190
8.7361 -12.0564 1.7190
9.1913 -11.7696 1.7190
9.6368 -11.4655 1.7190
10.0720 -11.1441 1.7190
10.4962 -10.8059 1.7190
10.9086 -10.4512 1.7190
11.3086 -10.0804 1.7190
11.6954 -9.6939 1.7190
11.8538 -9.1268 1.6885
11.6817 -8.3433 1.6159
12.0045 -7.9383 1.6159
12.3124 -7.5204 1.6159
12.6050 -7.0901 1.6159
12.8815 -6.6481 1.6159
13.1416 -6.1949 1.6159
13.3846 -5.7311 1.6159
13.6101 -5.2574 1.6159
12.4286 -4.2945 1.4535
12.4710 -3.8134 1.4388
11.8993 -3.1759 1.3563
11.3872 -2.6049 1.2843
11.0430 -2.1118 1.2341
11.0095 -1.6979 1.2209
11.8443 -1.3932 1.3053
12.5876 -1.0238 1.3805
13.0595 -0.5910 1.4273
14.4234 -0.1341 1.5732
14.4107 0.3840 1.5708
14.3770 0.9007 1.5683
8.5465 0.8445 0.9343
7.7853 1.0529 0.8542
7.5664 1.3016 0.8344
7.3568 1.5395 0.8165
7.3049 1.8048 0.8173
6.9610 1.9877 0.7862
3.7744 1.2260 0.4310
6.5910 2.4059 0.7621
6.4137 2.6059 0.7521
6.2447 2.8026 0.7439
7.5921 3.7406 0.9203
6.4216 3.4559 0.7934
6.9157 4.0488 0.8725
8.2170 5.2157 1.0606
10.0167 6.8750 1.3252
9.8968 7.3293 1.3447
10.9148 8.7074 1.5264
10.5813 9.0821 1.5264
10.2338 9.4431 1.5264
9.8730 9.7898 1.5264
10.0558 10.7145 1.6158
9.6479 11.0501 1.6158
9.2281 11.3691 1.6158
8.7970 11.6712 1.6159
8.3554 11.9560 1.6159
7.9040 12.2231 1.6159
7.4436 12.4722 1.6159
6.9750 12.7030 1.6159
6.9135 13.7392 1.7190
6.3999 13.9451 1.7190
5.8800 14.1309 1.7190
5.3547 14.2965 1.7190
4.8249 14.4419 1.7190
4.2912 14.5669 1.7190
3.7546 14.6716 1.7190
3.2160 14.7558 1.7190
2.6759 14.8198 1.7190
2.1354 14.8635 1.7190
1.5951 14.8871 1.7190
1.0558 14.8908 1.7190
0.5183 14.8746 1.7190
-0.0167 14.8388 1.7190
-0.5484 14.7835 1.7190
-1.0763 14.7092 1.7190
-1.5995 14.6159 1.7190
-2.1174 14.5041 1.7190
-2.6293 14.3741 1.7190
-3.1348 14.2261 1.7190
-3.6330 14.0605 1.7190
-4.1235 13.8778 1.7190
-4.5680 13.5665 1.7050
-4.9791 13.1978 1.6853
-5.3789 12.8393 1.6682
-5.7689 12.4895 1.6537
-6.1503 12.1475 1.6416
-6.5256 11.8140 1.6321
-6.8959 11.4877 1.6250
-7.2605 11.1641 1.6199
-7.6203 10.8430 1.6167
-7.9792 10.5271 1.6159
-8.3297 10.2050 1.6160
-4.3055 4.9036 0.8027
-4.2570 4.5101 0.7650
-4.2131 4.1534 0.7317
-4.1731 3.8279 0.7021
-4.1364 3.5287 0.6758
-4.2401 3.3612 0.6742
-4.5243 3.3286 0.7016
-11.1870 7.6256 1.6950
-11.5650 7.2879 1.7152
-11.8202 6.8672 1.7190
-12.0344 6.4238 1.7190
-12.2331 5.9744 1.7190
-12.4161 5.5195 1.7190
-12.5834 5.0596 1.7190
-12.7348 4.5952 1.7190
-12.8702 4.1268 1.7190
-12.9896 3.6550 1.7190
-13.0931 3.1802 1.7190
-13.1804 2.7029 1.7190
-13.2516 2.2237 1.7190
-13.3067 1.7430 1.7190
-13.3457 1.2614 1.7190
-13.3686 0.7793 1.7190
-13.3754 0.2972 1.7190
-13.3662 -0.1844 1.7190
-13.3410 -0.6651 1.7190
-13.2999 -1.1443 1.7190
-13.2429 -1.6215 1.7190
-13.1701 -2.0964 1.7190
-13.0817 -2.5684 1.7190
-12.9777 -3.0371 1.7190
-12.8582 -3.5019 1.7190
-12.7235 -3.9625 1.7190
-11.8183 -4.1530 1.6158
-11.6631 -4.5767 1.6158
-11.4940 -4.9951 1.6158
-7.7738 -3.7166 1.1105
-7.5796 -3.9652 1.1019
-7.5667 -4.3123 1.1212
-10.6806 -6.6074 1.6158
-10.4439 -6.9932 1.6158
-8.1914 -5.9229 1.2983
-7.5408 -5.8773 1.2268
-7.1368 -5.9877 1.1941
-6.9248 -6.2481 1.1941
-6.7198 -6.5171 1.1969
-6.4629 -6.7360 1.1920
-6.3421 -7.1055 1.2144
-5.9646 -7.1874 1.1890
-5.7356 -7.4410 1.1941
-5.4306 -7.5960 1.1847
-5.1987 -7.8546 1.1929
-4.9624 -8.1181 1.2027
-4.7261 -8.3965 1.2156
-4.4784 -8.6726 1.2289
-4.2238 -8.9565 1.2441
-3.9615 -9.2491 1.2613
-3.6901 -9.5516 1.2807
-2.1336 -6.1750 0.8152
-3.1158 -10.1921 1.3266
-2.8099 -10.5332 1.3536
-2.4892 -10.8908 1.3836
-2.1518 -11.2670 1.4169
-1.7954 -11.6645 1.4540
-1.4173 -12.0861 1.4951
-1.0144 -12.5353 1.5409
-0.5831 -13.0163 1.5920
-0.1165 -13.2617 1.6158
0.3617 -13.2958 1.6158
0.8422 -13.3131 1.6158
1.3244 -13.3136 1.6158
1.8079 -13.2972 1.6158
2.2919 -13.2636 1.6158
2.7758 -13.2127 1.6158
3.2592 -13.1446 1.6158
3.7413 -13.0590 1.6158
4.2364 -13.0016 1.6215
5.3082 -11.0597 1.7190
5.7172 -10.8899 1.7190
6.1208 -10.7050 1.7190
6.5184 -10.5050 1.7190
6.9095 -10.2901 1.7190
7.2933 -10.0606 1.7190
7.6694 -9.8165 1.7190
8.0371 -9.5581 1.7190
8.3959 -9.2858 1.7190
8.7453 -8.9997 1.7190
9.0846 -8.7002 1.7190
9.4132 -8.3876 1.7190
9.7307 -8.0623 1.7190
10.0365 -7.7247 1.7190
10.1988 -7.2813 1.6972
9.9746 -6.5935 1.6159
10.2261 -6.2436 1.6159
10.4647 -5.8840 1.6159
10.6899 -5.5148 1.6159
10.9014 -5.1368 1.6159
11.0988 -4.7504 1.6159
11.2817 -4.3561 1.6158
11.4498 -3.9545 1.6158
11.6026 -3.5463 1.6158
11.7400 -3.1319 1.6158
10.8642 -2.4839 1.4799
11.0441 -2.1108 1.4911
10.9628 -1.6896 1.4692
11.5163 -1.3535 1.5341
11.4466 -0.9300 1.5177
11.4465 -0.5171 1.5128
12.2754 -0.1132 1.6193
12.2604 0.3274 1.6166
12.2258 0.7666 1.6135
8.5470 0.8450 1.1306
7.7530 1.0488 1.0294
7.5357 1.2965 1.0057
7.3276 1.5335 0.9843
7.3342 1.8121 0.9931
6.9345 1.9802 0.9480
3.7741 1.2259 0.5216
6.5667 2.3970 0.9190
6.3904 2.5963 0.9070
6.2183 2.7906 0.8965
6.0268 2.9691 0.8840
5.9030 3.1765 0.8825
6.9141 4.0473 1.0553
8.2143 5.2133 1.2825
9.5730 6.5695 1.5317
9.3215 6.9021 1.5315
9.0581 7.2249 1.5314
8.7832 7.5374 1.5314
8.4972 7.8391 1.5315
8.2006 8.1297 1.5316
7.8937 8.4089 1.5318
7.9912 9.1503 1.6158
7.6459 9.4173 1.6158
7.2912 9.6706 1.6158
6.9276 9.9099 1.6159
6.5558 10.1348 1.6159
6.1763 10.3451 1.6159
5.7899 10.5406 1.6159
5.3970 10.7210 1.6159
4.9983 10.8861 1.6159
4.8875 11.7398 1.7190
4.4530 11.8825 1.7190
4.0144 12.0085 1.7190
3.5723 12.1179 1.7190
3.1274 12.2104 1.7190
2.6803 12.2863 1.7190
2.2317 12.3453 1.7190
1.7823 12.3876 1.7190
1.3327 12.4132 1.7190
0.8835 12.4222 1.7190
0.4353 12.4148 1.7190
-0.0112 12.3910 1.7190
-0.4554 12.3510 1.7190
-0.8968 12.2950 1.7190
-1.3348 12.2231 1.7190
-1.7688 12.1357 1.7190
-2.1982 12.0328 1.7190
-2.6226 11.9149 1.7190
-3.0414 11.7821 1.7190
-3.4541 11.6347 1.7190
-3.8602 11.4731 1.7190
-4.2593 11.2975 1.7190
-4.6508 11.1083 1.7190
-5.0344 10.9059 1.7190
-5.4096 10.6905 1.7190
-5.7761 10.4626 1.7190
-6.1334 10.2225 1.7190
-6.4811 9.9706 1.7190
-6.8190 9.7073 1.7190
-7.1466 9.4329 1.7190
-7.4637 9.1480 1.7190
-4.3232 4.9257 0.9565
-4.2735 4.5295 0.9109
-4.2287 4.1705 0.8707
-4.1879 3.8430 0.8351
-4.1505 3.5421 0.8034
-4.2380 3.3609 0.7981
-4.5221 3.3283 0.8301
-4.8291 3.2930 0.8659
-9.7978 6.1766 1.7190
-9.9953 5.8092 1.7190
-10.1797 5.4359 1.7190
-10.3510 5.0572 1.7190
-10.5090 4.6736 1.7190
-10.6535 4.2854 1.7190
-10.7846 3.8932 1.7190
-10.9021 3.4973 1.7190
-11.0060 3.0983 1.7190
-11.0961 2.6965 1.7190
-11.1725 2.2925 1.7190
-11.2351 1.8865 1.7190
-11.2839 1.4792 1.7190
-11.3189 1.0708 1.7190
-11.3401 0.6619 1.7190
-11.3475 0.2529 1.7190
-11.3411 -0.1558 1.7190
-11.3210 -0.5638 1.7190
-11.2871 -0.9706 1.7190
-11.2397 -1.3758 1.7190
-11.1786 -1.7790 1.7190
-11.1041 -2.1799 1.7190
-11.0162 -2.5779 1.7190
-10.9150 -2.9726 1.7190
-10.1519 -3.1617 1.6158
-10.0321 -3.5255 1.6158
-9.9001 -3.8851 1.6158
-9.7560 -4.2401 1.6158
-8.0369 -3.8428 1.3527
-7.7639 -4.0620 1.3300
-7.9855 -4.5515 1.3944
-9.0626 -5.6072 1.6158
-8.8607 -5.9340 1.6158
-8.1898 -5.9227 1.5302
-7.5516 -5.8867 1.4485
-7.0992 -5.9572 1.4007
-6.7702 -6.1098 1.3769
-6.5007 -6.3059 1.3659
-6.2631 -6.5293 1.3630
-6.0439 -6.7730 1.3658
-5.8356 -7.0338 1.3733
-5.6353 -7.3130 1.3853
-5.4356 -7.6052 1.4006
-5.2034 -7.8642 1.4107
-4.9668 -8.1280 1.4227
-4.7250 -8.3977 1.4367
-4.4772 -8.6739 1.4529
-4.2226 -8.9579 1.4714
-3.9602 -9.2505 1.4922
-3.6888 -9.5532 1.5157
-2.1323 -6.1749 0.9650
-3.1142 -10.1939 1.5712
-2.8082 -10.5351 1.6038
-2.4506 -10.7318 1.6158
-2.0674 -10.8370 1.6158
-1.6799 -10.9290 1.6158
-1.2885 -11.0077 1.6158
-0.8937 -11.0728 1.6158
-0.4959 -11.1243 1.6158
-0.0956 -11.1619 1.6158
0.3068 -11.1855 1.6158
0.7107 -11.1950 1.6158
1.1158 -11.1902 1.6158
1.5214 -11.1711 1.6158
1.9271 -11.1375 1.6158
2.3324 -11.0895 1.6158
2.7419 -11.0475 1.6188
3.3404 -11.6494 1.7190
3.7669 -11.5518 1.7190
4.5609 -9.4971 1.7190
4.9104 -9.3479 1.7190
5.2550 -9.1859 1.7190
5.5942 -9.0110 1.7190
5.9275 -8.8236 1.7190
6.2545 -8.6236 1.7190
6.5746 -8.4114 1.7190
6.8873 -8.1872 1.7190
7.1922 -7.9511 1.7190
7.4888 -7.7035 1.7190
7.7767 -7.4446 1.7190
8.0553 -7.1748 1.7190
8.3242 -6.8942 1.7190
8.5830 -6.6034 1.7190
8.8313 -6.3026 1.7190
8.9758 -5.9309 1.7014
8.7371 -5.3325 1.6159
8.9383 -5.0238 1.6159
9.1281 -4.7073 1.6159
9.3062 -4.3834 1.6159
9.4723 -4.0525 1.6159
9.6259 -3.7152 1.6159
9.7670 -3.3718 1.6159
9.8951 -3.0230 1.6158
10.0100 -2.6691 1.6158
10.1116 -2.3106 1.6158
10.1996 -1.9482 1.6158
10.2739 -1.5824 1.6158
10.2756 -1.2067 1.6066
10.1684 -0.8253 1.5827
10.1533 -0.4579 1.5755
10.2290 -0.0936 1.5845
10.3995 0.2784 1.6103
10.3727 0.6509 1.6078
7.9463 0.7860 1.2347
7.7206 1.0447 1.2041
7.5050 1.2915 1.1766
7.2994 1.5278 1.1519
7.3643 1.8196 1.1715
6.9437 1.9828 1.1152
3.7737 1.2257 0.6127
7.4457 2.7177 1.2241
6.3672 2.5867 1.0616
6.1960 2.7804 1.0493
6.0271 2.9690 1.0385
5.9031 3.1762 1.0366
6.9125 4.0459 1.2392
8.2115 5.2108 1.5055
8.2063 5.6307 1.5417
7.9920 5.9167 1.5416
7.7674 6.1943 1.5415
7.5329 6.4632 1.5415
7.2888 6.7229 1.5415
7.0355 6.9733 1.5416
6.7735 7.2138 1.5417
6.8144 7.8008 1.6158
6.5214 8.0302 1.6158
6.2204 8.2480 1.6158
5.9117 8.4541 1.6158
5.5960 8.6481 1.6159
5.2736 8.8299 1.6159
4.9450 8.9991 1.6159
4.6109 9.1557 1.6159
4.2717 9.2993 1.6159
3.9279 9.4300 1.6159
3.5800 9.5476 1.6159
3.2286 9.6519 1.6159
3.0576 10.3644 1.7190
2.6779 10.4470 1.7190
2.2962 10.5153 1.7190
1.9130 10.5694 1.7190
1.5287 10.6092 1.7190
1.1440 10.6348 1.7190
0.7595 10.6463 1.7190
0.3755 10.6436 1.7190
-0.0072 10.6270 1.7190
-0.3884 10.5965 1.7190
-0.7673 10.5522 1.7190
-1.1436 10.4943 1.7190
-1.5167 10.4230 1.7190
-1.8862 10.3384 1.7190
-2.2516 10.2407 1.7190
-2.6125 10.1302 1.7190
-2.9684 10.0071 1.7190
-3.3188 9.8716 1.7190
-3.6635 9.7240 1.7190
-4.0019 9.5646 1.7190
-4.3336 9.3935 1.7190
-4.6584 9.2112 1.7190
-4.9759 9.0179 1.7190
-5.2856 8.8140 1.7190
-5.5873 8.5996 1.7190
-5.8806 8.3753 1.7190
-6.1652 8.1413 1.7190
-6.4409 7.8979 1.7190
-4.3411 4.9483 1.1126
-4.2903 4.5492 1.0590
-4.2445 4.1878 1.0118
-4.2028 3.8583 0.9699
-4.1647 3.5557 0.9327
-4.2360 3.3606 0.9227
-4.5199 3.3280 0.9595
-4.8268 3.2927 1.0005
-8.4775 5.3464 1.7190
-8.6505 5.0296 1.7190
-8.8122 4.7075 1.7190
-8.9626 4.3806 1.7190
-9.1014 4.0492 1.7190
-9.2285 3.7137 1.7190
-9.3439 3.3746 1.7190
-9.4475 3.0321 1.7190
-9.5392 2.6867 1.7190
-9.6190 2.3388 1.7190
-9.6868 1.9887 1.7190
-9.7425 1.6369 1.7190
-9.7861 1.2838 1.7190
-9.8177 0.9297 1.7190
-9.8372 0.5750 1.7190
-9.8447 0.2201 1.7190
-9.8400 -0.1345 1.7190
-9.8233 -0.4886 1.7190
-9.7947 -0.8418 1.7190
-9.7541 -1.1936 1.7190
-9.7016 -1.5437 1.7190
-9.6373 -1.8917 1.7190
-9.5612 -2.2372 1.7190
-8.9045 -2.4250 1.6158
-8.8111 -2.7441 1.6158
-8.7070 -3.0599 1.6158
-8.5923 -3.3720 1.6158
-8.4670 -3.6801 1.6158
-8.3313 -3.9839 1.6158
-8.1853 -4.2830 1.6158
-7.9794 -4.5486 1.6058
-7.8632 -4.8658 1.6158
-7.6873 -5.1489 1.6158
-7.5018 -5.4260 1.6158
-7.3068 -5.6969 1.6158
-7.0982 -5.9575 1.6148
-6.7694 -6.1103 1.5877
-6.5000 -6.3066 1.5753
-6.2623 -6.5300 1.5721
-6.0432 -6.7738 1.5756
-5.8349 -7.0347 1.5845
-5.6345 -7.3140 1.5987
-5.4318 -7.6021 1.6158
-5.1614 -7.8033 1.6158
-4.8840 -7.9953 1.6158
-4.5997 -8.1780 1.6158
-4.3088 -8.3510 1.6158
-4.0117 -8.5142 1.6158
-3.7087 -8.6673 1.6158
-3.4000 -8.8100 1.6158
-2.1310 -6.1749 1.1157
-2.7670 -9.0638 1.6158
-2.4435 -9.1743 1.6158
-2.1157 -9.2738 1.6158
-1.7840 -9.3619 1.6158
-1.4488 -9.4386 1.6158
-1.1104 -9.5036 1.6158
-0.7693 -9.5569 1.6158
-0.4258 -9.5982 1.6158
-0.0803 -9.6275 1.6158
0.2667 -9.6447 1.6158
0.6148 -9.6496 1.6158
0.9636 -9.6422 1.6158
1.3127 -9.6224 1.6158
1.7121 -9.8815 1.6649
2.1384 -10.1555 1.7190
2.5079 -10.0946 1.7190
2.8758 -10.0204 1.7190
3.2415 -9.9329 1.7190
3.9949 -8.3136 1.7190
4.2997 -8.1808 1.7190
4.6000 -8.0367 1.7190
4.8955 -7.8816 1.7190
5.1857 -7.7155 1.7190
5.4701 -7.5387 1.7190
5.7485 -7.3512 1.7190
6.0202 -7.1533 1.7190
6.2850 -6.9453 1.7190
6.5425 -6.7272 1.7190
6.7922 -6.4995 1.7190
7.0337 -6.2623 1.7190
7.2667 -6.0160 1.7190
7.4907 -5.7608 1.7190
7.7055 -5.4970 1.7190
7.9107 -5.2251 1.7190
8.0742 -4.9259 1.7123
7.7937 -4.3787 1.6159
7.9575 -4.1020 1.6159
8.1111 -3.8189 1.6159
8.2542 -3.5299 1.6159
8.3865 -3.2354 1.6159
8.5078 -2.9359 1.6159
8.6179 -2.6316 1.6159
8.7166 -2.3230 1.6159
8.8037 -2.0107 1.6159
8.8791 -1.6950 1.6158
8.9425 -1.3764 1.6158
8.9939 -1.0554 1.6158
9.0332 -0.7324 1.6158
9.0602 -0.4079 1.6158
9.0750 -0.0825 1.6158
9.0327 0.2423 1.6078
8.9436 0.5617 1.5937
7.9122 0.7829 1.4134
7.6883 1.0406 1.3787
7.4743 1.2864 1.3473
7.2692 1.5216 1.3191
7.3947 1.8273 1.3527
6.8815 1.9651 1.2708
3.7733 1.2256 0.7045
6.5182 2.3791 1.2322
6.3439 2.5771 1.2162
6.1737 2.7701 1.2021
6.0274 2.9688 1.1940
5.9032 3.1759 1.1917
6.9109 4.0444 1.4241
7.3235 4.6467 1.5434
7.1485 4.9042 1.5436
6.9637 5.1546 1.5437
6.7695 5.3976 1.5438
6.5661 5.6326 1.5438
6.3540 5.8595 1.5438
6.1334 6.0778 1.5437
5.9048 6.2873 1.5436
5.6686 6.4875 1.5434
5.6804 6.9927 1.6158
5.4192 7.1836 1.6158
5.1513 7.3644 1.6158
4.8772 7.5348 1.6158
4.5972 7.6946 1.6159
4.3118 7.8437 1.6159
4.0214 7.9818 1.6159
3.7265 8.1088 1.6159
3.4275 8.2246 1.6159
3.1248 8.3290 1.6159
2.8190 8.4220 1.6159
0.9011 3.0523 0.5800
0.7908 3.0826 0.5810
0.6795 3.1089 0.5820
0.5674 3.1312 0.5831
0.4545 3.1495 0.5841
0.3410 3.1638 0.5852
0.2271 3.1740 0.5863
0.1129 3.1802 0.5874
-0.0015 3.1823 0.5886
-0.1158 3.1803 0.5898
-0.2301 3.1742 0.5909
-0.3441 3.1641 0.5921
-0.4576 3.1499 0.5934
-0.5706 3.1316 0.5946
-0.6829 3.1094 0.5958
-0.7943 3.0831 0.5971
-2.5995 8.7711 1.7190
-2.9075 8.6547 1.7190
-3.2105 8.5276 1.7190
-3.5081 8.3900 1.7190
-3.8002 8.2422 1.7190
-4.0862 8.0844 1.7190
-4.3659 7.9168 1.7190
-4.6390 7.7398 1.7190
-4.9052 7.5535 1.7190
-5.1641 7.3583 1.7190
-5.4155 7.1545 1.7190
-5.6591 6.9423 1.7190
-4.3593 4.9711 1.2713
-4.3074 4.5692 1.2095
-4.2606 4.2054 1.1551
-4.2181 3.8738 1.1069
-4.1792 3.5695 1.0640
-4.2339 3.3603 1.0481
-4.5177 3.3277 1.0897
-4.8244 3.2924 1.1361
-7.4637 4.7089 1.7190
-7.6175 4.4307 1.7190
-7.7613 4.1478 1.7190
-7.8951 3.8604 1.7190
-8.0188 3.5690 1.7190
-8.1321 3.2739 1.7190
-8.2351 2.9754 1.7190
-8.3276 2.6739 1.7190
-8.4096 2.3697 1.7190
-8.4811 2.0631 1.7190
-8.5418 1.7546 1.7190
-8.5920 1.4445 1.7190
-8.6314 1.1331 1.7190
-8.6601 0.8208 1.7190
-8.6781 0.5080 1.7190
-8.6853 0.1949 1.7190
-8.6819 -0.1181 1.7190
-8.6677 -0.4307 1.7190
-8.6429 -0.7423 1.7190
-8.6074 -1.0529 1.7190
-8.5614 -1.3620 1.7190
-8.5049 -1.6692 1.7190
-8.4379 -1.9742 1.7190
-8.3605 -2.2768 1.7190
-7.7760 -2.4218 1.6158
-7.6841 -2.7005 1.6158
-7.5827 -2.9760 1.6158
-7.4719 -3.2479 1.6158
-7.3519 -3.5159 1.6158
-7.2228 -3.7797 1.6158
-7.0846 -4.0390 1.6158
-6.9377 -4.2936 1.6158
-6.7820 -4.5432 1.6158
-6.6178 -4.7874 1.6158
-6.4452 -5.0260 1.6158
-6.2644 -5.2587 1.6158
-6.0757 -5.4852 1.6158
-5.8791 -5.7053 1.6158
-5.6749 -5.9188 1.6158
-5.4632 -6.1253 1.6158
-5.2444 -6.3246 1.6158
-5.0187 -6.5164 1.6158
-4.7862 -6.7006 1.6158
-4.5471 -6.8768 1.6158
-4.3019 -7.0449 1.6158
-4.0507 -7.2047 1.6158
-3.7938 -7.3558 1.6158
-3.5314 -7.4982 1.6158
-3.2639 -7.6316 1.6158
-2.9915 -7.7558 1.6158
-2.1296 -6.1748 1.2677
-2.4332 -7.9759 1.6158
-2.1480 -8.0714 1.6158
-1.8592 -8.1571 1.6158
-1.5671 -8.2328 1.6158
-1.2719 -8.2983 1.6158
-0.9742 -8.3535 1.6158
-0.6742 -8.3983 1.6158
-0.3722 -8.4326 1.6158
-0.0687 -8.4563 1.6158
0.2361 -8.4692 1.6158
0.5496 -8.5949 1.6394
0.8987 -8.9714 1.7129
1.2276 -8.9826 1.7190
1.5529 -8.9502 1.7190
1.8775 -8.9061 1.7190
2.2010 -8.8503 1.7190
2.5228 -8.7829 1.7190
2.8427 -8.7038 1.7190
3.5509 -7.3853 1.7190
3.8209 -7.2657 1.7190
4.0868 -7.1363 1.7190
4.3483 -6.9970 1.7190
4.6049 -6.8481 1.7190
4.8564 -6.6897 1.7190
5.1024 -6.5220 1.7190
5.3424 -6.3451 1.7190
5.5762 -6.1593 1.7190
5.8034 -5.9647 1.7190
6.0236 -5.7617 1.7190
6.2365 -5.5503 1.7190
6.4418 -5.3309 1.7190
6.6391 -5.1038 1.7190
6.8282 -4.8693 1.7190
7.0087 -4.6275 1.7190
7.1804 -4.3789 1.7190
7.3430 -4.1238 1.7190
7.0466 -3.6309 1.6159
7.1815 -3.3798 1.6159
7.3070 -3.1236 1.6159
7.4230 -2.8625 1.6159
7.5293 -2.5970 1.6159
7.6258 -2.3275 1.6159
7.7121 -2.0543 1.6159
7.7882 -1.7778 1.6159
7.8540 -1.4984 1.6159
7.9093 -1.2166 1.6159
7.9540 -0.9326 1.6158
7.9880 -0.6470 1.6158
8.0112 -0.3601 1.6158
8.0237 -0.0723 1.6158
8.0253 0.2158 1.6158
8.0160 0.5039 1.6158
7.9959 0.7916 1.6158
7.9649 1.0784 1.6158
7.8842 1.3572 1.6078
7.8319 1.6396 1.6078
7.7690 1.9199 1.6078
6.8550 1.9575 1.4322
3.7728 1.2254 0.7969
6.4940 2.3701 1.3889
6.3207 2.5675 1.3709
6.1542 2.7612 1.3557
6.0276 2.9687 1.3508
5.9034 3.1756 1.3481
6.4602 3.7802 1.5059
6.3399 4.0220 1.5112
6.2054 4.2566 1.5154
6.0572 4.4829 1.5185
5.8957 4.7000 1.5203
5.7214 4.9071 1.5210
5.5352 5.1034 1.5204
5.3378 5.2882 1.5186
5.1299 5.4609 1.5157
4.9125 5.6208 1.5116
5.0270 6.1868 1.6158
4.7966 6.3565 1.6158
4.5602 6.5173 1.6158
4.3182 6.6691 1.6158
4.0711 6.8116 1.6159
3.8191 6.9446 1.6159
3.5626 7.0680 1.6159
3.3020 7.1817 1.6159
3.0377 7.2855 1.6159
2.7701 7.3793 1.6159
0.8998 2.6865 0.5817
0.8027 2.7169 0.5825
0.7045 2.7438 0.5834
0.6055 2.7673 0.5843
0.5056 2.7871 0.5852
0.4052 2.8034 0.5862
0.3042 2.8161 0.5871
0.2028 2.8252 0.5881
0.1011 2.8307 0.5891
-0.0007 2.8325 0.5902
-0.1025 2.8307 0.5912
-0.2041 2.8253 0.5922
-0.3056 2.8162 0.5933
-0.4066 2.8035 0.5944
-0.5072 2.7872 0.5955
-0.6071 2.7673 0.5966
-0.7063 2.7439 0.5977
-0.8045 2.7170 0.5988
-2.5840 7.6979 1.7190
-2.8541 7.5864 1.7190
-3.1196 7.4656 1.7190
-3.3801 7.3356 1.7190
-3.6354 7.1966 1.7190
-3.8852 7.0489 1.7190
-4.1292 6.8927 1.7190
-4.3670 6.7282 1.7190
-4.5986 6.5556 1.7190
-4.8235 6.3753 1.7190
-5.0415 6.1874 1.7190
-5.2525 5.9923 1.7190
-4.3248 4.5895 1.3626
-4.2770 4.2233 1.3008
-4.2335 3.8896 1.2460
-4.1939 3.5835 1.1974
-4.2318 3.3600 1.1746
-4.5155 3.3273 1.2210
-4.8220 3.2921 1.2727
-6.6600 4.2035 1.7190
-6.7983 3.9558 1.7190
-6.9277 3.7038 1.7190
-7.0481 3.4477 1.7190
-7.1595 3.1879 1.7190
-7.2616 2.9247 1.7190
-7.3545 2.6584 1.7190
-7.4380 2.3893 1.7190
-7.5121 2.1178 1.7190
-7.5767 1.8441 1.7190
-7.6317 1.5686 1.7190
-7.6772 1.2916 1.7190
-7.7131 1.0134 1.7190
-7.7394 0.7343 1.7190
-7.7560 0.4546 1.7190
-7.7629 0.1747 1.7190
-7.7603 -0.1051 1.7190
-7.7480 -0.3845 1.7190
-7.7262 -0.6632 1.7190
-7.6947 -0.9409 1.7190
-7.6538 -1.2173 1.7190
-7.6034 -1.4921 1.7190
-7.5437 -1.7649 1.7190
-7.4746 -2.0355 1.7190
-7.3962 -2.3035 1.7190
-6.8988 -2.4246 1.6226
-6.7822 -2.6620 1.6166
-6.6798 -2.9038 1.6158
-6.5723 -3.1433 1.6158
-6.4566 -3.3791 1.6158
-6.3329 -3.6109 1.6158
-6.2012 -3.8384 1.6158
-6.0617 -4.0612 1.6158
-5.9145 -4.2793 1.6158
-5.7598 -4.4923 1.6158
-5.5978 -4.7000 1.6158
-5.4287 -4.9021 1.6158
-5.2525 -5.0984 1.6158
-5.0695 -5.2886 1.6158
-4.8799 -5.4726 1.6158
-4.6839 -5.6501 1.6158
-4.4817 -5.8209 1.6158
-4.2735 -5.9847 1.6158
-4.0595 -6.1414 1.6158
-3.8400 -6.2907 1.6158
-3.6152 -6.4325 1.6158
-3.3853 -6.5665 1.6158
-3.1506 -6.6927 1.6158
-2.9113 -6.8107 1.6158
-2.6678 -6.9205 1.6158
-2.1284 -6.1750 1.4209
-2.1689 -7.1146 1.6158
-1.9142 -7.1986 1.6158
-1.6563 -7.2738 1.6158
-1.3955 -7.3399 1.6158
-1.1322 -7.3970 1.6158
-0.8666 -7.4448 1.6158
-0.5991 -7.4833 1.6158
-0.3342 -7.6104 1.6369
-0.0624 -7.9008 1.6949
0.2255 -8.0240 1.7190
0.5149 -8.0244 1.7190
0.8047 -8.0146 1.7190
1.0944 -7.9944 1.7190
1.3837 -7.9638 1.7190
1.6722 -7.9229 1.7190
1.9595 -7.8716 1.7190
2.2454 -7.8100 1.7190
2.5293 -7.7380 1.7190
3.1930 -6.6369 1.7190
3.4351 -6.5284 1.7190
3.6734 -6.4110 1.7190
3.9076 -6.2848 1.7190
4.1375 -6.1500 1.7190
4.3626 -6.0067 1.7190
4.5827 -5.8551 1.7190
4.7975 -5.6954 1.7190
5.0065 -5.5277 1.7190
5.2096 -5.3522 1.7190
5.4063 -5.1691 1.7190
5.5965 -4.9787 1.7190
5.7798 -4.7812 1.7190
5.9559 -4.5768 1.7190
6.1246 -4.3658 1.7190
6.2856 -4.1484 1.7190
6.4386 -3.9250 1.7190
6.5835 -3.6958 1.7190
6.7199 -3.4612 1.7190
6.4370 -3.0282 1.6159
6.5487 -2.7982 1.6159
6.6519 -2.5640 1.6159
6.7464 -2.3259 1.6159
6.8321 -2.0843 1.6159
6.9087 -1.8394 1.6159
6.9762 -1.5916 1.6159
7.0345 -1.3413 1.6159
7.0834 -1.0888 1.6159
7.1229 -0.8345 1.6159
7.1528 -0.5787 1.6159
7.1732 -0.3218 1.6159
7.1839 -0.0643 1.6158
7.1849 0.1937 1.6158
7.1763 0.4515 1.6158
7.1580 0.7090 1.6158
7.1301 0.9656 1.6158
7.0925 1.2211 1.6158
7.0454 1.4751 1.6158
6.9887 1.7271 1.6158
6.8638 1.9601 1.6021
3.7724 1.2253 0.8902
6.7625 2.4680 1.6158
6.7930 2.7592 1.6459
6.4479 2.8927 1.5867
6.0279 2.9685 1.5090
5.9035 3.1753 1.5059
5.9670 3.4912 1.5536
5.7992 3.6785 1.5440
5.6334 3.8636 1.5365
5.4691 4.0469 1.5312
5.3058 4.2290 1.5279
5.1432 4.4103 1.5267
4.9809 4.5914 1.5275
4.8183 4.7725 1.5304
4.6552 4.9544 1.5354
4.4910 5.1373 1.5424
4.3254 5.3218 1.5516
4.2984 5.6946 1.6158
4.0871 5.8394 1.6158
3.8708 5.9760 1.6158
3.6497 6.1044 1.6158
3.4243 6.2244 1.6159
3.1949 6.3358 1.6159
2.9617 6.4386 1.6159
2.7251 6.5325 1.6159
0.8969 2.3878 0.5831
0.8105 2.4183 0.5838
0.7231 2.4457 0.5846
0.6347 2.4699 0.5853
0.5456 2.4910 0.5861
0.4557 2.5088 0.5870
0.3653 2.5235 0.5878
0.2744 2.5349 0.5887
0.1831 2.5431 0.5896
0.0916 2.5480 0.5905
-0.0000 2.5496 0.5914
-0.0916 2.5480 0.5923
-0.1832 2.5430 0.5933
-0.2745 2.5349 0.5943
-0.3654 2.5234 0.5952
-0.4559 2.5087 0.5962
-0.5458 2.4908 0.5972
-0.6350 2.4697 0.5982
-0.7235 2.4454 0.5992
-0.8110 2.4179 0.6002
-2.5661 6.8260 1.7190
-2.8055 6.7184 1.7190
-3.0404 6.6025 1.7190
-3.2708 6.4786 1.7190
-3.4962 6.3466 1.7190
-3.7164 6.2070 1.7190
-3.9313 6.0598 1.7190
-4.1404 5.9054 1.7190
-4.3437 5.7438 1.7190
-4.5408 5.5755 1.7190
-4.7316 5.4005 1.7190
-4.9159 5.2191 1.7190
-4.2936 4.2415 1.4491
-4.2493 3.9057 1.3877
-4.2088 3.5977 1.3331
-4.2297 3.3597 1.3022
-4.5133 3.3270 1.3535
-4.8196 3.2917 1.4106
-6.0067 3.7926 1.7190
-6.1322 3.5696 1.7190
-6.2497 3.3426 1.7190
-6.3591 3.1119 1.7190
-6.4602 2.8778 1.7190
-6.5531 2.6405 1.7190
-6.6376 2.4003 1.7190
-6.7136 2.1576 1.7190
-6.7811 1.9127 1.7190
-6.8400 1.6657 1.7190
-6.8902 1.4170 1.7190
-6.9318 1.1669 1.7190
-6.9647 0.9157 1.7190
-6.9888 0.6637 1.7190
-7.0043 0.4111 1.7190
-7.0109 0.1583 1.7190
-7.0088 -0.0945 1.7190
-6.9980 -0.3469 1.7190
-6.9785 -0.5987 1.7190
-6.9504 -0.8496 1.7190
-6.9136 -1.0994 1.7190
-6.8682 -1.3476 1.7190
-6.8143 -1.5941 1.7190
-6.7519 -1.8386 1.7190
-6.6811 -2.0808 1.7190
-6.6020 -2.3204 1.7190
-6.4272 -2.5228 1.6959
-6.0766 -2.6418 1.6273
-5.9365 -2.8395 1.6158
-5.8318 -3.0525 1.6158
-5.7198 -3.2617 1.6158
-5.6006 -3.4671 1.6158
-5.4743 -3.6683 1.6158
-5.3411 -3.8651 1.6158
-5.2011 -4.0573 1.6158
-5.0545 -4.2446 1.6158
-4.9014 -4.4269 1.6158
-4.7420 -4.6038 1.6158
-4.5764 -4.7753 1.6158
-4.4048 -4.9410 1.6158
-4.2275 -5.1009 1.6158
-4.0445 -5.2545 1.6158
-3.8562 -5.4019 1.6158
-3.6627 -5.5428 1.6158
-3.4641 -5.6770 1.6158
-3.2609 -5.8043 1.6158
-3.0531 -5.9246 1.6158
-2.8410 -6.0377 1.6158
-2.6248 -6.1435 1.6158
-2.4048 -6.2417 1.6158
-2.1271 -6.1752 1.5757
-1.9543 -6.4151 1.6158
-1.7243 -6.4899 1.6158
-1.4916 -6.5568 1.6158
-1.2563 -6.6155 1.6158
-1.0417 -6.8156 1.6521
-0.8198 -7.0560 1.6996
-0.5726 -7.1725 1.7190
-0.3145 -7.1992 1.7190
-0.0553 -7.2169 1.7190
0.2047 -7.2253 1.7190
0.4653 -7.2245 1.7190
0.7261 -7.2145 1.7190
0.9867 -7.1951 1.7190
1.2469 -7.1664 1.7190
1.5063 -7.1284 1.7190
1.7645 -7.0810 1.7190
2.0213 -7.0244 1.7190
2.2763 -6.9584 1.7190
2.8982 -6.0203 1.7190
3.1173 -5.9210 1.7190
3.3330 -5.8137 1.7190
3.5449 -5.6985 1.7190
3.7528 -5.5755 1.7190
3.9564 -5.4448 1.7190
4.1554 -5.3067 1.7190
4.3494 -5.1612 1.7190
4.5383 -5.0085 1.7190
4.7216 -4.8488 1.7190
4.8993 -4.6824 1.7190
5.0709 -4.5093 1.7190
5.2363 -4.3298 1.7190
5.3951 -4.1442 1.7190
5.5472 -3.9526 1.7190
5.6924 -3.7554 1.7190
5.8302 -3.5527 1.7190
5.9607 -3.3449 1.7190
6.0835 -3.1321 1.7190
6.1985 -2.9148 1.7190
5.9547 -2.5433 1.6234
6.0202 -2.3195 1.6159
6.1051 -2.1039 1.6159
6.1821 -1.8851 1.6159
6.2509 -1.6634 1.6159
6.3115 -1.4392 1.6159
6.3637 -1.2126 1.6159
6.4075 -0.9842 1.6159
6.4428 -0.7542 1.6159
6.4695 -0.5228 1.6159
6.4876 -0.2905 1.6159
6.4970 -0.0576 1.6159
6.4976 0.1755 1.6159
6.4896 0.4087 1.6159
6.4729 0.6414 1.6159
6.4474 0.8734 1.6158
6.4133 1.1044 1.6158
6.3706 1.3339 1.6158
6.3193 1.5618 1.6158
3.8090 1.0877 0.9833
3.7060 1.2037 0.9672
3.7549 1.3703 0.9922
6.0302 2.4492 1.6158
5.9374 2.6635 1.6158
5.8367 2.8741 1.6158
5.7283 3.0808 1.6158
5.6122 3.2832 1.6158
5.4887 3.4810 1.6158
5.3579 3.6741 1.6158
5.2201 3.8620 1.6158
5.0754 4.0446 1.6158
4.9241 4.2216 1.6158
4.7664 4.3927 1.6158
4.6025 4.5577 1.6158
4.4327 4.7164 1.6158
4.2572 4.8685 1.6158
4.0763 5.0140 1.6158
3.8903 5.1525 1.6158
3.6995 5.2839 1.6158
3.5040 5.4080 1.6158
3.3043 5.5247 1.6158
3.1007 5.6338 1.6158
2.8933 5.7353 1.6158
2.6825 5.8289 1.6158
0.8926 2.1385 0.5842
0.8151 2.1690 0.5849
0.7367 2.1967 0.5855
0.6573 2.2215 0.5862
0.5770 2.2435 0.5869
0.4961 2.2627 0.5877
0.4144 2.2789 0.5884
0.3323 2.2922 0.5892
0.2497 2.3026 0.5900
0.1668 2.3100 0.5908
0.0837 2.3144 0.5916
0.0005 2.3159 0.5925
-0.0827 2.3144 0.5933
-0.1658 2.3099 0.5942
-0.2487 2.3024 0.5950
-0.3313 2.2920 0.5959
-0.4135 2.2786 0.5968
-0.4952 2.2623 0.5977
-0.5762 2.2431 0.5986
-0.6565 2.2210 0.5995
-0.7360 2.1961 0.6004
-0.8145 2.1683 0.6014
-2.5461 6.1013 1.7190
-2.7598 5.9969 1.7190
-2.9694 5.8852 1.7190
-3.1746 5.7661 1.7190
-3.3752 5.6400 1.7190
-3.5709 5.5071 1.7190
-3.7614 5.3674 1.7190
-3.9467 5.2213 1.7190
-4.1264 5.0689 1.7190
-4.3004 4.9104 1.7190
-4.4685 4.7461 1.7190
-4.6304 4.5762 1.7190
-4.7861 4.4009 1.7190
-4.2241 3.6122 1.4713
-4.2276 3.3594 1.4312
-5.2138 3.8450 1.7190
-5.3427 3.6505 1.7190
-5.4646 3.4518 1.7190
-5.5794 3.2492 1.7190
-5.6869 3.0428 1.7190
-5.7870 2.8331 1.7190
-5.8796 2.6202 1.7190
-5.9646 2.4044 1.7190
-6.0421 2.1860 1.7190
-6.1117 1.9651 1.7190
-6.1737 1.7422 1.7190
-6.2277 1.5174 1.7190
-6.2739 1.2910 1.7190
-6.3121 1.0633 1.7190
-6.3424 0.8346 1.7190
-6.3648 0.6050 1.7190
-6.3791 0.3750 1.7190
-6.3855 0.1447 1.7190
-6.3838 -0.0856 1.7190
-6.3742 -0.3156 1.7190
-6.3566 -0.5450 1.7190
-6.3311 -0.7737 1.7190
-6.2977 -1.0012 1.7190
-6.2564 -1.2274 1.7190
-6.2074 -1.4521 1.7190
-6.1506 -1.6748 1.7190
-6.0861 -1.8955 1.7190
-6.0140 -2.1138 1.7190
-5.9344 -2.3295 1.7190
-5.8474 -2.5423 1.7190
-5.6867 -2.7203 1.6992
-5.4045 -2.8291 1.6439
-5.2098 -2.9713 1.6158
-5.1011 -3.1583 1.6158
-4.9858 -3.3415 1.6158
-4.8643 -3.5206 1.6158
-4.7366 -3.6955 1.6158
-4.6028 -3.8660 1.6158
-4.4630 -4.0318 1.6158
-4.3176 -4.1927 1.6158
-4.1665 -4.3486 1.6158
-4.0100 -4.4993 1.6158
-3.8482 -4.6445 1.6158
-3.6813 -4.7841 1.6158
-3.5095 -4.9179 1.6158
-3.3331 -5.0457 1.6158
-3.1521 -5.1674 1.6158
-2.9668 -5.2829 1.6158
-2.7773 -5.3919 1.6158
-2.5840 -5.4942 1.6158
-2.3871 -5.5899 1.6158
-2.1866 -5.6787 1.6158
-1.9875 -5.7735 1.6194
-1.8132 -5.9563 1.6493
-1.6328 -6.1503 1.6836
-1.4417 -6.3437 1.7190
-1.2140 -6.3998 1.7190
-0.9840 -6.4478 1.7190
-0.7523 -6.4877 1.7190
-0.5190 -6.5194 1.7190
-0.2844 -6.5429 1.7190
-0.0488 -6.5581 1.7190
0.1875 -6.5648 1.7190
0.4242 -6.5632 1.7190
0.6611 -6.5532 1.7190
0.8977 -6.5347 1.7190
1.1339 -6.5077 1.7190
1.3692 -6.4723 1.7190
1.6035 -6.4284 1.7190
1.8364 -6.3760 1.7190
2.0676 -6.3153 1.7190
2.6507 -5.5030 1.7190
2.8507 -5.4116 1.7190
3.0475 -5.3128 1.7190
3.2408 -5.2069 1.7190
3.4304 -5.0939 1.7190
3.6160 -4.9740 1.7190
3.7974 -4.8472 1.7190
3.9742 -4.7137 1.7190
4.1462 -4.5738 1.7190
4.3132 -4.4275 1.7190
4.4749 -4.2750 1.7190
4.6312 -4.1165 1.7190
4.7816 -3.9522 1.7190
4.9262 -3.7824 1.7190
5.0645 -3.6072 1.7190
5.1964 -3.4268 1.7190
5.3218 -3.2415 1.7190
5.4403 -3.0516 1.7190
5.5519 -2.8572 1.7190
5.6563 -2.6587 1.7190
5.7534 -2.4563 1.7190
5.6016 -2.1573 1.6480
5.5697 -1.9185 1.6159
5.6395 -1.7188 1.6159
5.7019 -1.5165 1.6159
5.7568 -1.3119 1.6159
5.8041 -1.1053 1.6159
5.8437 -0.8970 1.6159
5.8755 -0.6872 1.6159
5.8996 -0.4763 1.6159
5.9158 -0.2645 1.6159
5.9241 -0.0521 1.6159
5.9245 0.1604 1.6159
5.9170 0.3729 1.6159
5.9016 0.5851 1.6159
5.8783 0.7966 1.6159
5.8471 1.0071 1.6159
5.8081 1.2163 1.6159
5.7613 1.4239 1.6159
3.8048 1.0865 1.0773
3.7019 1.2023 1.0597
3.7448 1.3666 1.0854
5.4978 2.2328 1.6158
5.4133 2.4282 1.6158
5.3216 2.6202 1.6158
5.2229 2.8086 1.6158
5.1172 2.9932 1.6158
5.0048 3.1737 1.6158
4.8858 3.3498 1.6158
4.7603 3.5213 1.6158
4.6286 3.6879 1.6158
4.4909 3.8494 1.6158
4.3473 4.0057 1.6158
4.1982 4.1564 1.6158
4.0436 4.3014 1.6158
3.8838 4.4404 1.6158
3.7191 4.5734 1.6158
3.5497 4.7000 1.6158
3.3759 4.8202 1.6158
3.1979 4.9338 1.6158
3.0160 5.0407 1.6158
2.8304 5.1406 1.6158
2.6414 5.2336 1.6158
0.8871 1.9266 0.5852
0.8173 1.9571 0.5858
0.7464 1.9850 0.5864
0.6746 2.0103 0.5870
0.6020 2.0331 0.5876
0.5285 2.0532 0.5883
0.4544 2.0707 0.5890
0.3797 2.0856 0.5896
0.3046 2.0977 0.5903
0.2290 2.1072 0.5911
0.1532 2.1140 0.5918
0.0771 2.1180 0.5926
0.0010 2.1193 0.5933
-0.0752 2.1180 0.5941
-0.1512 2.1138 0.5949
-0.2271 2.1070 0.5957
-0.3027 2.0974 0.5965
-0.3779 2.0852 0.5973
-0.4526 2.0703 0.5981
-0.5268 2.0527 0.5990
-0.6002 2.0324 0.5998
-0.6729 2.0095 0.6006
-0.7448 1.9841 0.6015
-0.8157 1.9561 0.6023
-0.8856 1.9255 0.6032
-2.7160 5.3861 1.7190
-2.9041 5.2778 1.7190
-3.0880 5.1630 1.7190
-3.2675 5.0418 1.7190
-3.4424 4.9145 1.7190
-3.6124 4.7813 1.7190
-3.7773 4.6422 1.7190
-3.9371 4.4976 1.7190
-4.0914 4.3476 1.7190
-4.2402 4.1924 1.7190
-4.3833 4.0322 1.7190
-4.5204 3.8672 1.7190
-4.6515 3.6977 1.7190
-4.7764 3.5239 1.7190
-4.8951 3.3460 1.7190
-5.0072 3.1641 1.7190
-5.1128 2.9787 1.7190
-5.2118 2.7898 1.7190
-5.3040 2.5977 1.7190
-5.3893 2.4027 1.7190
-5.4677 2.2050 1.7190
-5.5390 2.0049 1.7190
-5.6033 1.8025 1.7190
-5.6604 1.5981 1.7190
-5.7103 1.3921 1.7190
-5.7530 1.1845 1.7190
-5.7884 0.9757 1.7190
-5.8164 0.7659 1.7190
-5.8372 0.5554 1.7190
-5.8506 0.3444 1.7190
-5.8566 0.1331 1.7190
-5.8553 -0.0781 1.7190
-5.8466 -0.2891 1.7190
-5.8307 -0.4996 1.7190
-5.8074 -0.7094 1.7190
-5.7768 -0.9182 1.7190
-5.7390 -1.1258 1.7190
-5.6941 -1.3319 1.7190
-5.6420 -1.5363 1.7190
-5.5828 -1.7388 1.7190
-5.5167 -1.9391 1.7190
-5.4436 -2.1369 1.7190
-5.3637 -2.3322 1.7190
-5.2770 -2.5246 1.7190
-5.1837 -2.7139 1.7190
-5.0839 -2.8998 1.7190
-4.9645 -3.0742 1.7145
-4.7654 -3.1942 1.6839
-4.5771 -3.3133 1.6578
-4.4008 -3.4342 1.6370
-4.2277 -3.5517 1.6184
-4.0925 -3.6978 1.6158
-3.9589 -3.8453 1.6158
-3.8201 -3.9880 1.6158
-3.6763 -4.1260 1.6158
-3.5277 -4.2589 1.6158
-3.3745 -4.3866 1.6158
-3.2168 -4.5090 1.6158
-3.0547 -4.6259 1.6158
-2.9091 -4.7709 1.6273
-2.7627 -4.9215 1.6421
-2.6118 -5.0726 1.6584
-2.4598 -5.2326 1.6790
-2.3055 -5.4018 1.7038
-2.1306 -5.5363 1.7190
-1.9318 -5.6155 1.7190
-1.7302 -5.6878 1.7190
-1.5260 -5.7530 1.7190
-1.3194 -5.8110 1.7190
-1.1106 -5.8617 1.7190
-0.8999 -5.9051 1.7190
-0.6876 -5.9410 1.7190
-0.4738 -5.9694 1.7190
-0.2590 -5.9903 1.7190
-0.0433 -6.0035 1.7190
0.1731 -6.0090 1.7190
0.3897 -6.0069 1.7190
0.6064 -5.9970 1.7190
0.8229 -5.9794 1.7190
1.0389 -5.9540 1.7190
1.2541 -5.9209 1.7190
1.4683 -5.8800 1.7190
1.6811 -5.8314 1.7190
1.8923 -5.7752 1.7190
2.4400 -5.0624 1.7190
2.6237 -4.9777 1.7190
2.8045 -4.8864 1.7190
2.9820 -4.7885 1.7190
3.1560 -4.6841 1.7190
3.3264 -4.5733 1.7190
3.4928 -4.4563 1.7190
3.6550 -4.3332 1.7190
3.8128 -4.2041 1.7190
3.9659 -4.0692 1.7190
4.1142 -3.9287 1.7190
4.2574 -3.7827 1.7190
4.3953 -3.6314 1.7190
4.5277 -3.4750 1.7190
4.6545 -3.3138 1.7190
4.7753 -3.1478 1.7190
4.8900 -2.9773 1.7190
4.9985 -2.8026 1.7190
5.1006 -2.6239 1.7190
5.1962 -2.4414 1.7190
5.2850 -2.2553 1.7190
5.3669 -2.0660 1.7190
5.2975 -1.8239 1.6734
5.1793 -1.5778 1.6159
5.2363 -1.3920 1.6159
5.2864 -1.2041 1.6159
5.3296 -1.0143 1.6159
5.3657 -0.8230 1.6159
5.3947 -0.6304 1.6159
5.4165 -0.4368 1.6159
5.4312 -0.2424 1.6159
5.4387 -0.0475 1.6159
5.4389 0.1476 1.6159
5.4318 0.3427 1.6159
5.4176 0.5374 1.6159
5.3961 0.7314 1.6159
5.3673 0.9246 1.6159
5.3315 1.1166 1.6159
5.2885 1.3072 1.6159
3.8004 1.0853 1.1723
3.6978 1.2010 1.1532
3.7346 1.3628 1.1792
5.0467 2.0495 1.6159
4.9693 2.2288 1.6159
4.8852 2.4051 1.6159
4.7947 2.5781 1.6159
4.6978 2.7475 1.6158
4.5948 2.9133 1.6158
4.4857 3.0750 1.6158
4.3706 3.2325 1.6158
4.2499 3.3856 1.6158
4.1237 3.5340 1.6158
3.9921 3.6776 1.6159
3.8553 3.8161 1.6159
3.7136 3.9494 1.6159
3.5672 4.0773 1.6159
3.4162 4.1996 1.6159
3.2609 4.3162 1.6159
3.1014 4.4269 1.6159
2.9382 4.5315 1.6159
2.7713 4.6300 1.6159
2.6010 4.7221 1.6159
0.8805 1.7439 0.5861
0.8173 1.7742 0.5866
0.7530 1.8022 0.5871
0.6878 1.8279 0.5877
0.6217 1.8513 0.5882
0.5548 1.8722 0.5888
0.4871 1.8908 0.5894
0.4189 1.9069 0.5900
0.3501 1.9206 0.5907
0.2809 1.9318 0.5913
0.2113 1.9405 0.5920
0.1415 1.9467 0.5927
0.0715 1.9504 0.5934
0.0014 1.9516 0.5941
-0.0688 1.9503 0.5948
-0.1388 1.9465 0.5955
-0.2087 1.9402 0.5963
-0.2782 1.9314 0.5970
-0.3475 1.9201 0.5977
-0.4163 1.9063 0.5985
-0.4846 1.8901 0.5993
-0.5522 1.8715 0.6000
-0.6191 1.8504 0.6008
-0.6853 1.8269 0.6016
-0.7506 1.8011 0.6024
-0.8149 1.7730 0.6031
-0.8782 1.7426 0.6039
-2.6732 4.8609 1.7190
-2.8429 4.7556 1.7190
-3.0085 4.6445 1.7190
-3.1698 4.5277 1.7190
-3.3267 4.4053 1.7190
-3.4790 4.2776 1.7190
-3.6266 4.1447 1.7190
-3.7691 4.0069 1.7190
-3.9066 3.8642 1.7190
-4.0388 3.7169 1.7190
-4.1655 3.5651 1.7190
-4.2867 3.4091 1.7190
-4.4022 3.2492 1.7190
-4.5119 3.0853 1.7190
-4.6157 2.9179 1.7190
-4.7134 2.7471 1.7190
-4.8050 2.5731 1.7190
-4.8903 2.3962 1.7190
-4.9693 2.2165 1.7190
-5.0419 2.0343 1.7190
-5.1081 1.8497 1.7190
-5.1676 1.6632 1.7190
-5.2206 1.4747 1.7190
-5.2669 1.2847 1.7190
-5.3065 1.0932 1.7190
-5.3394 0.9006 1.7190
-5.3655 0.7071 1.7190
-5.3849 0.5129 1.7190
-5.3974 0.3182 1.7190
-5.4032 0.1232 1.7190
-5.4021 -0.0717 1.7190
-5.3942 -0.2664 1.7190
-5.3796 -0.4607 1.7190
-5.3582 -0.6543 1.7190
-5.3301 -0.8470 1.7190
-5.2953 -1.0386 1.7190
-5.2538 -1.2288 1.7190
-5.2058 -1.4175 1.7190
-5.1512 -1.6043 1.7190
-5.0901 -1.7892 1.7190
-5.0227 -1.9718 1.7190
-4.9489 -2.1520 1.7190
-4.8688 -2.3295 1.7190
-4.7826 -2.5041 1.7190
-4.6904 -2.6757 1.7190
-4.5922 -2.8440 1.7190
-4.4882 -3.0089 1.7190
-4.3784 -3.1700 1.7190
-4.2631 -3.3273 1.7190
-4.1422 -3.4805 1.7190
-4.0161 -3.6295 1.7190
-3.8829 -3.7723 1.7182
-3.7377 -3.9029 1.7141
-3.5927 -4.0331 1.7122
-3.4476 -4.1633 1.7124
-3.3046 -4.2970 1.7160
-3.1555 -4.4245 1.7190
-2.9963 -4.5390 1.7190
-2.8330 -4.6479 1.7190
-2.6660 -4.7510 1.7190
-2.4952 -4.8483 1.7190
-2.3210 -4.9397 1.7190
-2.1435 -5.0249 1.7190
-1.9630 -5.1039 1.7190
-1.7797 -5.1765 1.7190
-1.5937 -5.2427 1.7190
-1.4053 -5.3024 1.7190
-1.2147 -5.3554 1.7190
-1.0222 -5.4017 1.7190
-0.8280 -5.4412 1.7190
-0.6322 -5.4738 1.7190
-0.4353 -5.4995 1.7190
-0.2373 -5.5181 1.7190
-0.0385 -5.5298 1.7190
0.1607 -5.5344 1.7190
0.3602 -5.5319 1.7190
0.5598 -5.5222 1.7190
0.7590 -5.5055 1.7190
0.9578 -5.4815 1.7190
1.1559 -5.4505 1.7190
1.3529 -5.4123 1.7190
1.5486 -5.3671 1.7190
1.7429 -5.3147 1.7190
2.2582 -4.6821 1.7190
2.4279 -4.6035 1.7190
2.5948 -4.5186 1.7190
2.7588 -4.4277 1.7190
2.9195 -4.3308 1.7190
3.0767 -4.2280 1.7190
3.2303 -4.1194 1.7190
3.3800 -4.0053 1.7190
3.5256 -3.8857 1.7190
3.6668 -3.7607 1.7190
3.8036 -3.6305 1.7190
3.9356 -3.4953 1.7190
4.0627 -3.3552 1.7190
4.1848 -3.2105 1.7190
4.3015 -3.0612 1.7190
4.4129 -2.9077 1.7190
4.5186 -2.7500 1.7190
4.6185 -2.5884 1.7190
4.7125 -2.4232 1.7190
4.8004 -2.2545 1.7190
4.8822 -2.0825 1.7190
4.9576 -1.9075 1.7190
5.0265 -1.7298 1.7190
5.0368 -1.5336 1.7014
4.8361 -1.2849 1.6159
4.8822 -1.1114 1.6159
4.9218 -0.9361 1.6159
4.9549 -0.7595 1.6159
4.9815 -0.5816 1.6159
5.0015 -0.4028 1.6159
5.0149 -0.2234 1.6159
5.0216 -0.0435 1.6159
5.0217 0.1366 1.6159
5.0151 0.3167 1.6159
5.0018 0.4964 1.6159
4.9819 0.6755 1.6159
4.9553 0.8538 1.6159
4.9221 1.0310 1.6159
4.8824 1.2069 1.6159
3.7961 1.0841 1.2683
3.6936 1.1996 1.2477
3.7244 1.3590 1.2738
4.6593 1.8920 1.6159
4.5879 2.0576 1.6159
4.5104 2.2203 1.6159
4.4269 2.3800 1.6159
4.3376 2.5365 1.6159
4.2425 2.6895 1.6159
4.1419 2.8389 1.6159
4.0359 2.9844 1.6159
3.9246 3.1258 1.6159
3.8082 3.2629 1.6159
3.6868 3.3956 1.6159
3.5607 3.5236 1.6159
3.4300 3.6469 1.6159
3.2949 3.7652 1.6159
3.1557 3.8783 1.6159
3.0124 3.9862 1.6159
2.8654 4.0886 1.6159
2.7148 4.1855 1.6159
2.5608 4.2767 1.6159
0.8730 1.5843 0.5869
0.8155 1.6144 0.5873
0.7570 1.6425 0.5878
0.6975 1.6684 0.5883
0.6371 1.6922 0.5888
0.5759 1.7138 0.5893
0.5140 1.7332 0.5899
0.4514 1.7504 0.5904
0.3882 1.7653 0.5910
0.3245 1.7779 0.5916
0.2605 1.7883 0.5922
0.1961 1.7964 0.5928
0.1314 1.8021 0.5934
0.0666 1.8056 0.5941
0.0017 1.8067 0.5947
-0.0632 1.8055 0.5954
-0.1280 1.8019 0.5961
-0.1927 1.7961 0.5967
-0.2571 1.7879 0.5974
-0.3212 1.7774 0.5981
-0.3849 1.7647 0.5988
-0.4481 1.7497 0.5995
-0.5107 1.7324 0.6002
-0.5727 1.7129 0.6010
-0.6339 1.6911 0.6017
-0.6943 1.6672 0.6024
-0.7538 1.6412 0.6031
-0.8124 1.6130 0.6038
-0.8699 1.5827 0.6045
-2.6309 4.4034 1.7190
-2.7844 4.3009 1.7190
-2.9341 4.1931 1.7190
-3.0796 4.0801 1.7190
-3.2209 3.9622 1.7190
-3.3578 3.8394 1.7190
-3.4902 3.7120 1.7190
-3.6178 3.5800 1.7190
-3.7405 3.4438 1.7190
-3.8582 3.3035 1.7190
-3.9708 3.1592 1.7190
-4.0781 3.0112 1.7190
-4.1800 2.8596 1.7190
-4.2764 2.7046 1.7190
-4.3673 2.5465 1.7190
-4.4524 2.3853 1.7190
-4.5318 2.2215 1.7190
-4.6053 2.0550 1.7190
-4.6728 1.8862 1.7190
-4.7344 1.7152 1.7190
-4.7898 1.5423 1.7190
-4.8392 1.3677 1.7190
-4.8823 1.1915 1.7190
-4.9193 1.0141 1.7190
-4.9499 0.8355 1.7190
-4.9743 0.6561 1.7190
-4.9924 0.4760 1.7190
-5.0042 0.2954 1.7190
-5.0097 0.1147 1.7190
-5.0088 -0.0661 1.7190
-5.0016 -0.2467 1.7190
-4.9882 -0.4269 1.7190
-4.9684 -0.6065 1.7190
-4.9424 -0.7852 1.7190
-4.9102 -0.9629 1.7190
-4.8717 -1.1394 1.7190
-4.8272 -1.3144 1.7190
-4.7766 -1.4877 1.7190
-4.7199 -1.6591 1.7190
-4.6573 -1.8285 1.7190
-4.5888 -1.9956 1.7190
-4.5145 -2.1602 1.7190
-4.4345 -2.3222 1.7190
-4.3489 -2.4812 1.7190
-4.2578 -2.6373 1.7190
-4.1612 -2.7901 1.7190
-4.0593 -2.9395 1.7190
-3.9522 -3.0853 1.7190
-3.8400 -3.2273 1.7190
-3.7229 -3.3653 1.7190
-3.6010 -3.4992 1.7190
-3.4744 -3.6289 1.7190
-3.3432 -3.7541 1.7190
-3.2077 -3.8747 1.7190
-3.0679 -3.9905 1.7190
-2.9241 -4.1014 1.7190
-2.7764 -4.2073 1.7190
-2.6249 -4.3080 1.7190
-2.4699 -4.4034 1.7190
-2.3115 -4.4933 1.7190
-2.1499 -4.5777 1.7190
-1.9853 -4.6564 1.7190
-1.8179 -4.7293 1.7190
-1.6478 -4.7963 1.7190
-1.4754 -4.8573 1.7190
-1.3008 -4.9122 1.7190
-1.1241 -4.9609 1.7190
-0.9457 -5.0034 1.7190
-0.7657 -5.0396 1.7190
-0.5844 -5.0695 1.7190
-0.4019 -5.0928 1.7190
-0.2185 -5.1097 1.7190
-0.0345 -5.1201 1.7190
0.1500 -5.1239 1.7190
0.3347 -5.1212 1.7190
0.5194 -5.1118 1.7190
0.7038 -5.0959 1.7190
0.8878 -5.0733 1.7190
1.0710 -5.0441 1.7190
1.2532 -5.0083 1.7190
1.4343 -4.9660 1.7190
1.6139 -4.9172 1.7190
2.0995 -4.3504 1.7190
2.2571 -4.2770 1.7190
2.4120 -4.1978 1.7190
2.5641 -4.1130 1.7190
2.7132 -4.0227 1.7190
2.8591 -3.9269 1.7190
3.0015 -3.8258 1.7190
3.1403 -3.7195 1.7190
3.2753 -3.6081 1.7190
3.4062 -3.4918 1.7190
3.5330 -3.3707 1.7190
3.6553 -3.2449 1.7190
3.7731 -3.1147 1.7190
3.8862 -2.9801 1.7190
3.9943 -2.8414 1.7190
4.0974 -2.6987 1.7190
4.1952 -2.5522 1.7190
4.2877 -2.4021 1.7190
4.3747 -2.2485 1.7190
4.4561 -2.0918 1.7190
4.5317 -1.9322 1.7190
4.6015 -1.7697 1.7190
4.6652 -1.6047 1.7190
4.7229 -1.4373 1.7190
4.7744 -1.2678 1.7190
4.6111 -1.0490 1.6446
4.5672 -0.8681 1.6159
4.5978 -0.7042 1.6159
4.6223 -0.5392 1.6159
4.6407 -0.3733 1.6159
4.6530 -0.2069 1.6159
4.6591 -0.0400 1.6159
4.6591 0.1271 1.6159
4.6529 0.2941 1.6159
4.6405 0.4607 1.6159
4.6219 0.6269 1.6159
4.5972 0.7922 1.6159
4.5664 0.9566 1.6159
4.5296 1.1197 1.6159
3.7916 1.0828 1.3656
3.6894 1.1982 1.3434
3.7140 1.3552 1.3692
4.3227 1.7552 1.6159
4.2565 1.9088 1.6159
4.1846 2.0597 1.6159
4.1072 2.2079 1.6159
4.0244 2.3531 1.6159
3.9364 2.4951 1.6159
3.8431 2.6337 1.6159
3.7449 2.7687 1.6159
3.6417 2.8999 1.6159
3.5339 3.0273 1.6159
3.4214 3.1505 1.6159
3.3045 3.2694 1.6159
3.1834 3.3838 1.6159
3.0582 3.4937 1.6159
2.9291 3.5988 1.6159
2.7963 3.6991 1.6159
2.6600 3.7943 1.6159
2.5204 3.8844 1.6159
0.8646 1.4434 0.5876
0.8122 1.4733 0.5880
0.7587 1.5013 0.5884
0.7043 1.5274 0.5889
0.6490 1.5515 0.5893
0.5928 1.5736 0.5898
0.5359 1.5937 0.5903
0.4783 1.6117 0.5908
0.4201 1.6277 0.5913
0.3614 1.6416 0.5918
0.3022 1.6533 0.5924
0.2426 1.6630 0.5929
0.1827 1.6705 0.5935
0.1226 1.6758 0.5941
0.0623 1.6790 0.5947
0.0020 1.6800 0.5953
-0.0584 1.6789 0.5959
-0.1187 1.6756 0.5965
-0.1788 1.6702 0.5972
-0.2387 1.6626 0.5978
-0.2983 1.6528 0.5984
-0.3575 1.6409 0.5991
-0.4162 1.6270 0.5998
-0.4744 1.6109 0.6004
-0.5320 1.5927 0.6011
-0.5890 1.5725 0.6017
-0.6451 1.5503 0.6024
-0.7005 1.5260 0.6031
-0.7549 1.4998 0.6038
-0.8084 1.4717 0.6044
-0.8608 1.4416 0.6051
-2.5886 4.0005 1.7190
-2.7280 3.9005 1.7190
-2.8636 3.7957 1.7190
-2.9952 3.6862 1.7190
-3.1228 3.5723 1.7190
-3.2461 3.4540 1.7190
-3.3650 3.3315 1.7190
-3.4795 3.2049 1.7190
-3.5892 3.0745 1.7190
-3.6942 2.9404 1.7190
-3.7943 2.8028 1.7190
-3.8894 2.6619 1.7190
-3.9794 2.5178 1.7190
-4.0642 2.3707 1.7190
-4.1436 2.2209 1.7190
-4.2177 2.0684 1.7190
-4.2864 1.9135 1.7190
-4.3495 1.7565 1.7190
-4.4070 1.5974 1.7190
-4.4588 1.4364 1.7190
-4.5049 1.2739 1.7190
-4.5453 1.1099 1.7190
-4.5798 0.9447 1.7190
-4.6085 0.7784 1.7190
-4.6314 0.6113 1.7190
-4.6484 0.4436 1.7190
-4.6595 0.2755 1.7190
-4.6647 0.1071 1.7190
-4.6640 -0.0613 1.7190
-4.6574 -0.2295 1.7190
-4.6449 -0.3973 1.7190
-4.6266 -0.5646 1.7190
-4.6024 -0.7311 1.7190
-4.5724 -0.8966 1.7190
-4.5366 -1.0609 1.7190
-4.4952 -1.2239 1.7190
-4.4480 -1.3854 1.7190
-4.3952 -1.5450 1.7190
-4.3369 -1.7028 1.7190
-4.2731 -1.8584 1.7190
-4.2039 -2.0117 1.7190
-4.1293 -2.1626 1.7190
-4.0495 -2.3107 1.7190
-3.9645 -2.4560 1.7190
-3.8745 -2.5983 1.7190
-3.7795 -2.7373 1.7190
-3.6797 -2.8730 1.7190
-3.5751 -3.0052 1.7190
-3.4659 -3.1337 1.7190
-3.3523 -3.2583 1.7190
-3.2342 -3.3789 1.7190
-3.1120 -3.4954 1.7190
-2.9857 -3.6075 1.7190
-2.8554 -3.7152 1.7190
-2.7214 -3.8184 1.7190
-2.5837 -3.9168 1.7190
-2.4426 -4.0103 1.7190
-2.2981 -4.0989 1.7190
-2.1506 -4.1824 1.7190
-2.0000 -4.2607 1.7190
-1.8467 -4.3337 1.7190
-1.6908 -4.4013 1.7190
-1.5325 -4.4634 1.7190
-1.3719 -4.5199 1.7190
-1.2093 -4.5707 1.7190
-1.0448 -4.6158 1.7190
-0.8788 -4.6550 1.7190
-0.7112 -4.6884 1.7190
-0.5425 -4.7158 1.7190
-0.3727 -4.7373 1.7190
-0.2021 -4.7526 1.7190
-0.0309 -4.7620 1.7190
0.1407 -4.7652 1.7190
0.3125 -4.7622 1.7190
0.4842 -4.7532 1.7190
0.6556 -4.7380 1.7190
0.8266 -4.7166 1.7190
0.9969 -4.6892 1.7190
1.1662 -4.6556 1.7190
1.3344 -4.6158 1.7190
1.5012 -4.5701 1.7190
1.9597 -4.0582 1.7190
2.1066 -3.9894 1.7190
2.2510 -3.9153 1.7190
2.3927 -3.8359 1.7190
2.5316 -3.7514 1.7190
2.6675 -3.6619 1.7190
2.8001 -3.5674 1.7190
2.9294 -3.4680 1.7190
3.0550 -3.3639 1.7190
3.1769 -3.2553 1.7190
3.2949 -3.1422 1.7190
3.4088 -3.0247 1.7190
3.5184 -2.9031 1.7190
3.6235 -2.7775 1.7190
3.7241 -2.6480 1.7190
3.8200 -2.5149 1.7190
3.9110 -2.3782 1.7190
3.9970 -2.2382 1.7190
4.0779 -2.0951 1.7190
4.1535 -1.9489 1.7190
4.2238 -1.8000 1.7190
4.2886 -1.6486 1.7190
4.3478 -1.4947 1.7190
4.4014 -1.3388 1.7190
4.4492 -1.1808 1.7190
4.4912 -1.0212 1.7190
4.4160 -0.8389 1.6768
4.2841 -0.6557 1.6159
4.3069 -0.5020 1.6159
4.3239 -0.3475 1.6159
4.3352 -0.1924 1.6159
4.3408 -0.0369 1.6159
4.3407 0.1187 1.6159
4.3348 0.2742 1.6159
4.3232 0.4295 1.6159
4.3059 0.5842 1.6159
4.2829 0.7382 1.6159
4.2542 0.8913 1.6159
4.2198 1.0432 1.6159
3.7871 1.0816 1.4641
3.6852 1.1968 1.4403
3.7036 1.3513 1.4656
4.0271 1.6351 1.6159
3.9655 1.7781 1.6159
3.8986 1.9187 1.6159
3.8266 2.0568 1.6159
3.7495 2.1920 1.6159
3.6676 2.3243 1.6159
3.5808 2.4535 1.6159
3.4894 2.5793 1.6159
3.3934 2.7016 1.6159
3.2930 2.8203 1.6159
3.1883 2.9352 1.6159
3.0795 3.0460 1.6159
2.9668 3.1528 1.6159
2.8503 3.2552 1.6159
2.7301 3.3533 1.6159
2.6065 3.4469 1.6159
0.9022 1.2864 0.5879
0.8554 1.3178 0.5883
0.8074 1.3474 0.5886
0.7585 1.3754 0.5890
0.7086 1.4015 0.5894
0.6578 1.4259 0.5898
0.6062 1.4484 0.5902
0.5537 1.4690 0.5906
0.5006 1.4878 0.5911
0.4469 1.5046 0.5916
0.3925 1.5195 0.5920
0.3377 1.5324 0.5925
0.2825 1.5434 0.5931
0.2268 1.5524 0.5936
0.1709 1.5594 0.5941
0.1148 1.5644 0.5947
0.0586 1.5674 0.5952
0.0022 1.5683 0.5958
-0.0541 1.5673 0.5964
-0.1104 1.5642 0.5969
-0.1665 1.5591 0.5975
-0.2224 1.5520 0.5981
-0.2780 1.5429 0.5987
-0.3333 1.5318 0.5993
-0.3881 1.5187 0.6000
-0.4424 1.5037 0.6006
-0.4962 1.4868 0.6012
-0.5493 1.4679 0.6018
-0.6018 1.4471 0.6024
-0.6534 1.4245 0.6031
-0.7042 1.4000 0.6037
-0.7541 1.3737 0.6043
-0.8031 1.3456 0.6049
-0.8510 1.3158 0.6055
-2.5460 3.6423 1.7190
-2.6728 3.5447 1.7190
-2.7959 3.4427 1.7190
-2.9152 3.3364 1.7190
-3.0306 3.2261 1.7190
-3.1418 3.1119 1.7190
-3.2489 2.9939 1.7190
-3.3516 2.8723 1.7190
-3.4499 2.7472 1.7190
-3.5436 2.6188 1.7190
-3.6326 2.4872 1.7190
-3.7168 2.3527 1.7190
-3.7962 2.2154 1.7190
-3.8707 2.0755 1.7190
-3.9401 1.9331 1.7190
-4.0044 1.7885 1.7190
-4.0635 1.6418 1.7190
-4.1174 1.4931 1.7190
-4.1660 1.3428 1.7190
-4.2093 1.1909 1.7190
-4.2471 1.0377 1.7190
-4.2796 0.8833 1.7190
-4.3065 0.7279 1.7190
-4.3280 0.5718 1.7190
-4.3440 0.4150 1.7190
-4.3545 0.2579 1.7190
-4.3595 0.1005 1.7190
-4.3589 -0.0569 1.7190
-4.3528 -0.2142 1.7190
-4.3412 -0.3711 1.7190
-4.3241 -0.5275 1.7190
-4.3015 -0.6831 1.7190
-4.2735 -0.8379 1.7190
-4.2401 -0.9915 1.7190
-4.2014 -1.1439 1.7190
-4.1573 -1.2948 1.7190
-4.1079 -1.4441 1.7190
-4.0534 -1.5916 1.7190
-3.9937 -1.7370 1.7190
-3.9289 -1.8804 1.7190
-3.8592 -2.0213 1.7190
-3.7845 -2.1598 1.7190
-3.7050 -2.2956 1.7190
-3.6208 -2.4285 1.7190
-3.5319 -2.5585 1.7190
-3.4385 -2.6853 1.7190
-3.3407 -2.8088 1.7190
-3.2386 -2.9288 1.7190
-3.1323 -3.0452 1.7190
-3.0219 -3.1578 1.7190
-2.9075 -3.2666 1.7190
-2.7893 -3.3713 1.7190
-2.6675 -3.4718 1.7190
-2.5421 -3.5680 1.7190
-2.4134 -3.6599 1.7190
-2.2814 -3.7471 1.7190
-2.1463 -3.8297 1.7190
-2.0084 -3.9076 1.7190
-1.8676 -3.9806 1.7190
-1.7243 -4.0486 1.7190
-1.5785 -4.1115 1.7190
-1.4305 -4.1693 1.7190
-1.2804 -4.2219 1.7190
-1.1285 -4.2691 1.7190
-0.9748 -4.3110 1.7190
-0.8196 -4.3474 1.7190
-0.6631 -4.3783 1.7190
-0.5055 -4.4036 1.7190
-0.3469 -4.4233 1.7190
-0.1876 -4.4374 1.7190
-0.0278 -4.4459 1.7190
0.1325 -4.4486 1.7190
0.2928 -4.4455 1.7190
0.4531 -4.4368 1.7190
0.6131 -4.4223 1.7190
0.7726 -4.4021 1.7190
0.9315 -4.3762 1.7190
1.0895 -4.3445 1.7190
1.2464 -4.3072 1.7190
1.4020 -4.2642 1.7190
1.8356 -3.7985 1.7190
1.9729 -3.7339 1.7190
2.1079 -3.6643 1.7190
2.2404 -3.5898 1.7190
2.3703 -3.5105 1.7190
2.4973 -3.4265 1.7190
2.6213 -3.3379 1.7190
2.7421 -3.2447 1.7190
2.8595 -3.1472 1.7190
2.9734 -3.0453 1.7190
3.0836 -2.9394 1.7190
3.1900 -2.8293 1.7190
3.2924 -2.7154 1.7190
3.3906 -2.5978 1.7190
3.4845 -2.4766 1.7190
3.5740 -2.3519 1.7190
3.6589 -2.2240 1.7190
3.7392 -2.0929 1.7190
3.8147 -1.9590 1.7190
3.8853 -1.8222 1.7190
3.9508 -1.6829 1.7190
4.0112 -1.5412 1.7190
4.0664 -1.3973 1.7190
4.1164 -1.2514 1.7190
4.1609 -1.1037 1.7190
4.2001 -0.9544 1.7190
4.2337 -0.8037 1.7190
4.2452 -0.6492 1.7123
4.0995 -0.4774 1.6449
4.0432 -0.3245 1.6159
4.0537 -0.1795 1.6159
4.0589 -0.0342 1.6159
4.0587 0.1113 1.6159
4.0531 0.2566 1.6159
4.0422 0.4018 1.6159
4.0260 0.5464 1.6159
4.0044 0.6903 1.6159
3.9776 0.8334 1.6159
3.9454 0.9754 1.6159
3.7826 1.0803 1.5640
3.6808 1.1954 1.5387
3.6930 1.3474 1.5630
3.7654 1.5287 1.6159
3.7078 1.6624 1.6159
3.6453 1.7939 1.6159
3.5780 1.9229 1.6159
3.5060 2.0494 1.6159
3.4295 2.1731 1.6159
3.3484 2.2939 1.6159
3.2630 2.4115 1.6159
3.1733 2.5259 1.6159
