ply
format ascii 1.0
element vertex 2140
property float32 x
property float32 y
property float32 z
end_header
-5.0267 -13.3657 0.4797
-4.7225 -14.0708 0.4950
-4.4096 -14.8911 0.5140
-4.0688 -15.8041 0.5360
-3.7232 -16.9628 0.5658
-3.2856 -18.0399 0.5925
-2.8193 -19.4100 0.6284
-2.2567 -20.7510 0.6629
-1.6307 -22.4798 0.7095
-0.9017 -24.6921 0.7707
-0.0159 -26.9839 0.8338
1.0637 -30.1037 0.9219
2.5148 -35.2450 1.0708
4.1972 -39.0236 1.1777
5.6055 -38.9170 1.1678
8.8149 -34.4094 1.0224
10.0404 -34.0565 1.0110
13.8329 -21.3943 0.6630
12.7608 -18.2632 0.5731
22.7160 -30.1452 0.9599
24.0601 -29.6512 0.9599
25.4376 -29.1448 0.9614
26.8535 -28.6244 0.9643
28.3132 -28.0878 0.9687
11.4000 -10.5247 0.3726
10.9531 -9.4067 0.3429
10.6081 -8.4681 0.3188
10.3017 -7.6346 0.2979
9.2333 -6.3423 0.2574
9.6444 -6.1271 0.2598
9.4610 -5.5443 0.2467
9.2561 -4.9867 0.2341
9.0672 -4.4727 0.2229
9.1033 -4.0910 0.2179
9.6027 -3.9075 0.2242
10.1431 -3.7088 0.2315
22.3153 -7.2627 0.4985
23.7106 -6.7858 0.5195
25.1929 -6.2410 0.5423
22.6922 -4.7640 0.4807
14.3266 -2.4745 0.2992
13.3291 -1.8122 0.2749
12.7737 -1.2717 0.2607
12.7191 -0.8065 0.2573
13.0029 -0.3566 0.2611
42.4254 0.3599 0.8474
20.6048 0.9152 0.4101
20.1448 1.6209 0.4002
19.3448 2.2579 0.3844
27.0866 4.1518 0.5392
26.7426 5.0877 0.5344
18.7955 4.2801 0.3777
24.5385 6.5226 0.4969
44.7207 13.6237 0.9142
45.0473 15.5109 0.9315
11.4155 4.3950 0.2392
6.6296 2.8297 0.1411
11.1566 5.2430 0.2417
3.3512 1.7244 0.0741
25.1808 22.3784 0.6819
22.3099 21.3084 0.6284
21.7661 22.3372 0.6395
22.4423 24.7496 0.6899
31.8585 37.7744 1.0282
13.3874 25.3903 0.6296
11.9980 24.8812 0.6119
12.5300 28.5621 0.6979
9.1386 23.0466 0.5605
11.3110 31.8135 0.7715
10.6340 33.6955 0.8160
9.8715 35.6970 0.8647
9.0565 38.0123 0.9225
8.1182 40.4669 0.9853
6.2869 38.4484 0.9406
22.2248 21.1773 1.3172
21.7741 22.2927 1.3413
25.1602 27.6808 1.6156
24.0637 28.4632 1.6156
23.3294 29.6938 1.6431
16.4334 22.5368 1.2185
18.3938 27.2269 1.4415
17.0550 27.3095 1.4187
16.1036 27.9730 1.4287
13.4369 25.4085 1.2783
12.0431 24.8962 1.2360
10.7492 24.4206 1.1984
9.1981 23.1128 1.1231
10.7040 29.9876 1.4452
9.5518 30.1351 1.4426
8.5792 30.8730 1.4704
5.4108 22.5843 1.0717
4.4889 22.2304 1.0526
3.7162 22.5480 1.0668
3.3213 25.9203 1.2272
2.5737 28.0368 1.3301
1.1617 20.8584 0.9929
0.2472 12.5275 0.5991
-0.1970 12.1839 0.5862
-0.6181 11.8583 0.5748
-1.0861 12.3125 0.6020
-3.6806 29.5577 1.4598
-4.7127 29.2412 1.4606
-3.7338 18.8352 0.9528
-4.5537 19.3084 0.9905
-7.7856 28.4058 1.4796
-8.2197 26.2533 1.3905
-9.1183 25.8319 1.3931
-10.0025 25.3931 1.3964
-10.8725 24.9369 1.4003
-11.7287 24.4635 1.4048
-12.6310 24.0868 1.4167
-13.8938 24.3289 1.4679
-14.8518 23.9651 1.4857
-15.1665 22.6169 1.4431
-15.8911 21.9503 1.4442
-17.2226 22.0752 1.5004
-17.6281 20.9947 1.4770
-17.5973 19.4917 1.4223
-14.5938 15.0418 1.1410
-15.0661 14.4520 1.1424
-15.8635 14.1589 1.1693
-20.8450 17.3012 1.4970
-17.5561 13.5368 1.2308
-18.4600 13.2046 1.2659
-23.3751 15.4825 1.5707
-20.4099 12.4878 1.3462
-21.4693 12.0984 1.3923
-22.9293 11.8571 1.4642
-19.8784 9.3905 1.2518
-26.3771 11.3204 1.6405
-26.2682 10.1728 1.6156
-26.5271 9.1918 1.6156
-26.7542 8.2067 1.6156
-26.9496 7.2186 1.6156
-27.2116 6.2506 1.6214
-28.9847 5.5702 1.7187
-29.0925 4.5142 1.7187
-9.2139 1.0924 0.5429
-23.6353 1.9445 1.3907
-23.3279 1.0776 1.3722
-23.9093 0.2448 1.4075
-26.6666 -0.6852 1.5729
-10.7037 -0.6603 0.6332
-9.7107 -0.9502 0.5769
-9.7206 -1.3052 0.5805
-9.1625 -1.5671 0.5507
-8.9944 -1.8731 0.5446
-9.0310 -2.2220 0.5516
-8.7686 -2.4947 0.5409
-8.8257 -2.8574 0.5505
-8.7409 -3.1811 0.5520
-8.6093 -3.4883 0.5511
-8.4346 -3.7756 0.5480
-8.3784 -4.1179 0.5533
-8.1647 -4.3837 0.5488
-8.1114 -4.7381 0.5557
-7.9873 -5.0589 0.5587
-7.9156 -5.4214 0.5662
-7.8004 -5.7648 0.5715
-7.6381 -6.0808 0.5743
-7.5256 -6.4462 0.5818
-7.3602 -6.7777 0.5862
-7.2418 -7.1662 0.5956
-7.1174 -7.5680 0.6058
-6.8816 -7.8652 0.6079
-6.8038 -8.3644 0.6254
-6.5963 -8.7322 0.6329
-6.4656 -9.2306 0.6497
-6.3147 -9.7420 0.6671
-6.1115 -10.2145 0.6817
-5.9683 -10.8408 0.7061
-5.7201 -11.3355 0.7218
-5.4883 -11.9224 0.7432
-5.2842 -12.6570 0.7735
-5.0354 -13.3950 0.8036
-4.7076 -14.0336 0.8277
-4.4061 -14.8881 0.8643
-4.0652 -15.8007 0.9040
-3.6929 -16.8381 0.9506
-3.2998 -18.1353 1.0115
-2.7887 -19.2228 1.0606
-2.2647 -20.8588 1.1398
-1.5778 -21.8048 1.1814
-0.8639 -23.7757 1.2788
-0.0106 -26.0972 1.3951
0.6354 -17.8883 0.9516
2.1806 -30.4799 1.6154
3.2923 -30.5561 1.6154
4.4128 -30.5949 1.6154
5.5408 -30.5957 1.6154
7.1019 -32.5108 1.7187
8.3141 -32.4285 1.7187
9.5304 -32.3037 1.7187
10.7493 -32.1357 1.7187
11.9691 -31.9240 1.7187
13.1883 -31.6679 1.7187
14.4054 -31.3671 1.7187
14.6817 -29.1605 1.6156
15.8167 -28.7924 1.6156
10.3889 -17.4007 0.9905
17.9476 -27.7469 1.6052
12.7540 -18.2462 1.0747
19.4197 -25.7610 1.5479
19.9958 -24.6333 1.5131
20.5358 -23.5201 1.4800
21.1016 -22.4853 1.4529
22.2143 -22.0299 1.4654
11.3980 -10.5192 0.7222
10.9514 -9.4021 0.6682
10.6066 -8.4641 0.6247
10.3004 -7.6311 0.5868
9.2322 -6.3395 0.5099
9.6435 -6.1245 0.5173
9.4209 -5.5189 0.4918
9.2553 -4.9846 0.4711
9.0665 -4.4708 0.4508
9.1050 -4.0904 0.4430
9.6045 -3.9068 0.4580
10.1450 -3.7081 0.4750
22.3195 -7.2612 1.0278
23.7149 -6.7842 1.0757
25.1974 -6.2393 1.1276
14.8184 -3.1095 0.6553
14.2451 -2.4591 0.6234
12.9375 -1.7578 0.5612
12.7627 -1.2695 0.5496
12.7142 -0.8052 0.5444
13.0023 -0.3557 0.5543
34.4429 0.2943 1.4645
20.6044 0.9163 0.8750
20.1481 1.6221 0.8560
19.3446 2.2586 0.8234
27.0863 4.1527 1.1570
26.7423 5.0883 1.1481
26.4025 6.0129 1.1410
24.5384 6.5229 1.0692
34.3121 10.4530 1.5100
36.0583 12.4157 1.6053
11.4221 4.3974 0.5153
6.6297 2.8296 0.3036
11.1567 5.2427 0.5196
3.3509 1.7241 0.1590
16.1445 9.0536 0.7820
34.6955 21.1283 1.7187
33.8558 22.3208 1.7187
32.9669 23.4745 1.7187
32.0313 24.5873 1.7187
31.0509 25.6571 1.7187
24.9408 22.1617 1.4275
22.1966 21.1967 1.3170
21.7610 22.3280 1.3422
25.1273 27.7053 1.6156
24.0299 28.4863 1.6156
23.2765 29.6933 1.6418
22.0242 30.2737 1.6357
18.3362 27.2058 1.4395
17.0228 27.3244 1.4187
16.0707 27.9866 1.4287
13.3928 25.3923 1.2769
12.0023 24.8812 1.2347
12.5323 28.5561 1.4009
9.1651 23.1034 1.1223
10.6676 29.9894 1.4449
9.5179 30.1426 1.4427
8.5455 30.8824 1.4706
5.3821 22.5737 1.0711
4.4616 22.2204 1.0521
3.6922 22.5560 1.0672
18.9994 18.1009 1.7187
18.2994 18.7319 1.7187
17.5763 19.3334 1.7187
16.8313 19.9044 1.7187
16.0658 20.4441 1.7187
15.2813 20.9520 1.7187
14.4794 21.4273 1.7187
13.1716 21.0854 1.6571
12.0596 20.9421 1.6156
11.2649 21.2946 1.6156
10.4595 21.6148 1.6156
9.6447 21.9028 1.6156
8.8220 22.1582 1.6156
7.9927 22.3811 1.6156
7.1583 22.5714 1.6156
6.3201 22.7292 1.6156
5.4166 22.5921 1.5970
4.4931 22.2320 1.5652
3.7189 22.5405 1.5827
2.9399 22.9121 1.6068
2.1002 22.8344 1.6015
1.1655 20.8598 1.4651
0.2504 12.5698 0.8853
-0.1954 12.2239 0.8645
-0.6178 11.8963 0.8459
-1.0831 12.3050 0.8808
-2.7182 21.8630 1.5777
-3.4835 21.6406 1.5763
-3.7303 18.8364 1.3868
-4.5427 19.2785 1.4366
-5.9163 21.6023 1.6315
-6.4177 20.5121 1.5722
-7.1261 20.2007 1.5736
-7.8234 19.8724 1.5756
-8.5094 19.5272 1.5780
-9.1842 19.1656 1.5810
-9.8474 18.7874 1.5845
-10.5930 18.5573 1.6027
-11.2046 18.0877 1.6023
-11.7697 17.5586 1.5983
-12.3941 17.1267 1.6047
-12.7453 16.3425 1.5793
-13.3785 15.9394 1.5918
-14.0086 15.5222 1.6054
-14.3105 14.7550 1.5840
-15.0727 14.4633 1.6156
-15.5276 13.8638 1.6156
-15.9606 13.2516 1.6156
-16.3713 12.6275 1.6156
-16.7596 11.9922 1.6156
-17.1252 11.3466 1.6156
-17.4680 10.6914 1.6156
-17.7879 10.0273 1.6156
-18.3384 9.4863 1.6383
-19.3132 9.1267 1.6996
-19.7961 8.4991 1.7187
-20.0377 7.7628 1.7187
-20.2545 7.0210 1.7187
-20.4463 6.2744 1.7187
-20.6133 5.5237 1.7187
-20.7553 4.7698 1.7187
-9.3408 1.7960 0.7691
-9.3996 1.4594 0.7706
-9.2411 1.0964 0.7551
-10.2605 0.8449 0.8367
-9.4398 0.4367 0.7691
-19.8206 0.2042 1.6154
-19.7917 -0.5074 1.6154
-10.8177 -0.6668 0.8853
-9.7227 -0.9510 0.7987
-9.8156 -1.3175 0.8103
-9.1944 -1.5723 0.7637
-9.0302 -1.8804 0.7556
-9.1889 -2.2607 0.7755
-8.7642 -2.4933 0.7469
-8.7872 -2.8449 0.7571
-8.7072 -3.1689 0.7596
-8.6326 -3.4978 0.7634
-8.4415 -3.7789 0.7578
-8.3599 -4.1090 0.7629
-8.2440 -4.4267 0.7659
-8.1761 -4.7764 0.7745
-7.9686 -5.0475 0.7709
-7.8821 -5.3991 0.7800
-7.7802 -5.7505 0.7890
-7.5703 -6.0277 0.7882
-7.5317 -6.4524 0.8067
-7.4218 -6.8355 0.8195
-7.2257 -7.1514 0.8244
-7.1463 -7.6001 0.8444
-6.9459 -7.9403 0.8523
-6.8173 -8.3828 0.8712
-6.5860 -8.7205 0.8793
-6.5283 -9.3225 0.9137
-6.2962 -9.7160 0.9273
-6.1481 -10.2785 0.9569
-5.8764 -10.6772 0.9712
-5.7185 -11.3361 1.0090
-5.5291 -12.0154 1.0482
-5.2701 -12.6285 1.0813
-5.0020 -13.3122 1.1204
-4.7286 -14.1033 1.1682
-4.2772 -14.4609 1.1806
-3.9525 -15.3730 1.2385
-3.5869 -16.3677 1.3030
-3.1777 -17.4810 1.3769
-2.7152 -18.7391 1.4621
-2.1870 -20.1762 1.5614
-1.5172 -21.0193 1.6154
-0.7643 -21.1399 1.6154
-0.0047 -21.2351 1.6154
0.6372 -17.8437 1.3530
1.5313 -21.3478 1.6154
2.3102 -21.4031 1.6183
3.2813 -22.7194 1.7187
4.1118 -22.6798 1.7187
4.9439 -22.6110 1.7187
5.7765 -22.5127 1.7187
6.6088 -22.3847 1.7187
7.4395 -22.2267 1.7187
8.2677 -22.0386 1.7187
9.0922 -21.8202 1.7187
9.9118 -21.5715 1.7187
10.7254 -21.2924 1.7187
10.8402 -19.7242 1.6156
11.5904 -19.4047 1.6156
12.3316 -19.0567 1.6156
13.0626 -18.6803 1.6156
13.7822 -18.2757 1.6156
14.6933 -18.0943 1.6383
15.3294 -17.5507 1.6312
15.9030 -16.9398 1.6198
16.3847 -16.2430 1.6020
11.3960 -10.5138 1.0723
10.9497 -9.3974 0.9941
10.6051 -8.4601 0.9310
10.2991 -7.6276 0.8763
9.2312 -6.3367 0.7627
9.6425 -6.1218 0.7752
9.4200 -5.5165 0.7384
9.2161 -4.9618 0.7056
9.0281 -4.4503 0.6763
9.0690 -4.0728 0.6658
9.5665 -3.8899 0.6895
10.1048 -3.6920 0.7161
11.0378 -3.5895 0.7704
11.6920 -3.3434 0.8050
12.1854 -3.0160 0.8288
12.5609 -2.6345 0.8453
13.8429 -2.3883 0.9231
12.8309 -1.7422 0.8491
12.6425 -1.2566 0.8314
12.9361 -0.8183 0.8466
13.2570 -0.3618 0.8647
20.8751 0.1796 1.3591
20.6040 0.9173 1.3409
20.1514 1.6233 1.3127
16.8143 1.9639 1.0981
19.8238 3.0399 1.2997
11.5130 2.1909 0.7589
12.0555 2.7458 0.8002
11.8188 3.1419 0.7912
11.5079 3.5059 0.7781
12.3073 4.2377 0.8419
11.4286 4.3998 0.7922
6.6297 2.8295 0.4664
11.1568 5.2425 0.7980
3.3507 1.7238 0.2441
16.1448 9.0530 1.2000
21.2618 12.9464 1.6154
20.7598 13.6853 1.6154
20.2290 14.4025 1.6154
20.9274 16.0618 1.7187
20.3045 16.7751 1.7187
19.6544 17.4617 1.7187
18.9784 18.1205 1.7187
18.2777 18.7507 1.7187
17.5539 19.3512 1.7187
16.8082 19.9212 1.7187
16.0421 20.4601 1.7187
15.2572 20.9669 1.7187
14.4547 21.4413 1.7187
13.1305 21.0708 1.6549
12.0356 20.9533 1.6156
11.2405 21.3048 1.6156
10.4348 21.6241 1.6156
9.6197 21.9110 1.6156
8.7968 22.1655 1.6156
7.9674 22.3874 1.6156
7.1328 22.5767 1.6156
6.2945 22.7335 1.6156
5.3877 22.5804 1.5960
4.4658 22.2220 1.5643
3.6958 22.5537 1.5836
14.1177 13.4478 1.7187
13.6050 13.9240 1.7187
13.0749 14.3792 1.7187
12.5284 14.8128 1.7187
11.9664 15.2242 1.7187
11.3899 15.6128 1.7187
10.8000 15.9783 1.7187
10.1976 16.3200 1.7187
9.5838 16.6377 1.7187
8.9595 16.9311 1.7187
8.3260 17.1997 1.7187
7.6841 17.4434 1.7187
7.0350 17.6621 1.7187
6.3796 17.8555 1.7187
5.7191 18.0236 1.7187
5.0294 18.0762 1.7102
4.2703 17.7982 1.6731
3.5465 17.5331 1.6399
2.8633 17.3361 1.6156
2.2326 17.3752 1.6156
1.6026 17.3908 1.6156
0.9744 17.3832 1.6156
0.2535 12.6124 1.1743
-0.1938 12.2642 1.1454
-0.6176 11.9346 1.1195
-1.0800 12.2975 1.1602
-2.1109 17.0046 1.6156
-2.7111 16.8630 1.6156
-3.3039 16.7004 1.6156
-3.8886 16.5171 1.6156
-4.4645 16.3136 1.6156
-5.0308 16.0904 1.6156
-5.5871 15.8478 1.6156
-6.1326 15.5865 1.6156
-6.6667 15.3069 1.6156
-7.1890 15.0096 1.6156
-7.6988 14.6951 1.6156
-8.1957 14.3639 1.6156
-8.6791 14.0166 1.6156
-9.1486 13.6538 1.6156
-9.6038 13.2761 1.6156
-10.0442 12.8839 1.6156
-10.4694 12.4781 1.6156
-10.9961 12.1886 1.6330
-11.6004 11.9649 1.6625
-12.2253 11.7352 1.6953
-12.7786 11.4133 1.7187
-13.1452 10.9177 1.7187
-13.4937 10.4114 1.7187
-13.8238 9.8949 1.7187
-14.1354 9.3688 1.7187
-14.4283 8.8339 1.7187
-14.7023 8.2907 1.7187
-14.9571 7.7399 1.7187
-15.1927 7.1821 1.7187
-15.4090 6.6179 1.7187
-15.6058 6.0481 1.7187
-15.7830 5.4731 1.7187
-15.9406 4.8937 1.7187
-16.0785 4.3104 1.7187
-16.1967 3.7239 1.7187
-16.2951 3.1348 1.7187
-9.1155 1.4161 0.9568
-9.0411 1.0735 0.9456
-9.1574 0.7548 0.9555
-15.5005 0.7182 1.6154
-15.5003 0.1607 1.6154
-15.3192 -0.3919 1.5985
-10.6731 -0.6574 1.1164
-9.7885 -0.9570 1.0275
-9.7688 -1.3109 1.0304
-9.1893 -1.5711 0.9751
-9.0976 -1.8942 0.9723
-8.9681 -2.2062 0.9666
-8.8019 -2.5040 0.9580
-8.7907 -2.8460 0.9673
-8.6732 -3.1566 0.9663
-8.6438 -3.5025 0.9763
-8.4379 -3.7775 0.9675
-8.3735 -4.1160 0.9761
-8.2509 -4.4307 0.9793
-8.1625 -4.7688 0.9880
-8.0427 -5.0950 0.9944
-7.8824 -5.3999 0.9971
-7.7866 -5.7560 1.0097
-7.6763 -6.1129 1.0222
-7.4489 -6.3825 1.0207
-7.4451 -6.8581 1.0521
-7.2348 -7.1617 1.0567
-7.1529 -7.6086 1.0825
-6.9403 -7.9354 1.0912
-6.8642 -8.4423 1.1244
-6.6693 -8.8329 1.1419
-6.5311 -9.3288 1.1728
-6.2287 -9.6144 1.1777
-5.9408 -9.9349 1.1877
-5.7570 -10.4636 1.2229
-5.5545 -11.0147 1.2605
-5.3378 -11.6041 1.3023
-5.1050 -12.2377 1.3488
-4.8533 -12.9223 1.4009
-4.5797 -13.6665 1.4592
-4.2805 -14.4806 1.5249
-3.9509 -15.3773 1.5992
-3.4395 -15.7076 1.6154
-2.8809 -15.8638 1.6154
-2.3156 -16.0011 1.6154
-1.7444 -16.1192 1.6154
-1.1677 -16.2180 1.6154
-0.5862 -16.2970 1.6154
-0.0006 -16.3561 1.6154
0.6005 -16.7294 1.6484
1.2559 -17.4624 1.7187
1.8880 -17.4600 1.7187
2.5216 -17.4354 1.7187
3.1560 -17.3885 1.7187
3.7903 -17.3190 1.7187
4.4239 -17.2270 1.7187
5.0558 -17.1122 1.7187
5.6853 -16.9745 1.7187
6.3115 -16.8141 1.7187
6.9336 -16.6308 1.7187
7.5507 -16.4246 1.7187
8.1620 -16.1956 1.7187
8.7666 -15.9439 1.7187
8.8019 -14.7298 1.6156
9.3550 -14.4509 1.6156
9.8994 -14.1511 1.6156
10.4341 -13.8306 1.6156
10.9582 -13.4897 1.6156
11.4711 -13.1286 1.6156
11.9717 -12.7477 1.6156
12.6702 -12.5563 1.6429
11.3940 -10.5084 1.4233
10.9479 -9.3928 1.3207
10.6037 -8.4561 1.2382
10.2978 -7.6241 1.1664
9.2302 -6.3338 1.0163
9.5176 -6.0405 1.0206
9.2981 -5.4433 0.9729
9.1027 -4.8991 0.9311
8.9564 -4.4135 0.8971
9.0130 -4.0462 0.8855
9.4721 -3.8501 0.9143
9.9771 -3.6440 0.9477
10.9791 -3.5690 1.0279
11.6970 -3.3434 1.0810
12.1379 -3.0029 1.1089
8.1555 -1.7097 0.7376
8.0378 -1.3860 0.7208
12.8329 -1.7414 1.1426
16.1578 -1.6046 1.4304
16.2173 -1.0247 1.4295
13.6684 -0.3721 1.2013
16.5440 0.1434 1.4519
16.6880 0.7439 1.4644
16.8138 1.3553 1.4774
6.8341 0.7985 0.6022
9.4609 1.4511 0.8371
6.6614 1.2678 0.5927
8.8146 2.0078 0.7899
8.6682 2.3044 0.7834
8.6450 2.6337 0.7893
7.5662 2.6052 0.6988
11.4349 4.4022 1.0702
6.6298 2.8294 0.6297
11.1569 5.2422 1.0773
3.3504 1.7236 0.3294
15.2248 8.5364 1.5270
15.7610 9.5960 1.6155
15.3938 10.1468 1.6155
15.0055 10.6823 1.6155
14.5969 11.2017 1.6155
14.1687 11.7041 1.6156
13.7216 12.1889 1.6156
14.1023 13.4626 1.7187
13.5891 13.9382 1.7187
13.0585 14.3928 1.7187
12.5115 14.8257 1.7187
11.9491 15.2364 1.7187
11.3722 15.6243 1.7187
10.7818 15.9891 1.7187
10.1791 16.3301 1.7187
9.5649 16.6470 1.7187
8.9404 16.9396 1.7187
8.3065 17.2075 1.7187
7.6644 17.4505 1.7187
7.0151 17.6684 1.7187
6.3596 17.8610 1.7187
5.6989 18.0283 1.7187
5.0058 18.0676 1.7090
4.2478 17.7899 1.6720
3.5250 17.5252 1.6389
2.8441 17.3376 1.6156
10.5495 10.0473 1.6155
10.1698 10.4065 1.6156
9.7771 10.7504 1.6156
9.3720 11.0786 1.6156
9.5265 12.1174 1.7187
9.0714 12.4317 1.7187
8.6053 12.7280 1.7187
8.1290 13.0059 1.7187
7.6433 13.2651 1.7187
7.1490 13.5053 1.7187
6.6469 13.7263 1.7187
6.1378 13.9278 1.7187
5.6224 14.1097 1.7187
5.1017 14.2718 1.7187
4.5762 14.4139 1.7187
4.0470 14.5361 1.7187
3.5147 14.6383 1.7187
2.9802 14.7204 1.7187
2.4442 14.7824 1.7187
1.9075 14.8246 1.7187
1.3709 14.8468 1.7187
0.8351 14.8492 1.7187
0.2567 12.6556 1.4665
-0.1921 12.3051 1.4294
-0.6173 11.9733 1.3961
-1.0770 12.2900 1.4404
-1.8059 14.5709 1.7187
-2.3217 14.4586 1.7187
-2.8317 14.3282 1.7187
-3.3354 14.1798 1.7187
-3.8321 14.0138 1.7187
-4.3213 13.8306 1.7187
-4.8024 13.6306 1.7187
-5.2748 13.4140 1.7187
-5.7380 13.1814 1.7187
-6.1914 12.9332 1.7187
-6.6346 12.6698 1.7187
-7.0672 12.3916 1.7187
-7.4885 12.0991 1.7187
-7.8983 11.7927 1.7187
-8.2961 11.4729 1.7187
-8.6815 11.1403 1.7187
-9.0542 10.7953 1.7187
-9.4137 10.4383 1.7187
-9.7597 10.0700 1.7187
-10.0921 9.6908 1.7187
-10.4103 9.3012 1.7187
-10.7143 8.9018 1.7187
-11.0036 8.4930 1.7187
-11.2781 8.0754 1.7187
-11.5376 7.6496 1.7187
-11.7818 7.2160 1.7187
-12.0106 6.7752 1.7187
-12.2238 6.3276 1.7187
-12.4212 5.8740 1.7187
-12.6028 5.4146 1.7187
-12.7683 4.9502 1.7187
-12.9178 4.4812 1.7187
-13.0510 4.0082 1.7187
-13.1680 3.5317 1.7187
-12.4716 2.8688 1.6154
-12.5508 2.4157 1.6154
-9.2967 1.4451 1.1905
-9.1649 1.0889 1.1692
-9.3067 0.7679 1.1842
-12.7135 0.5900 1.6154
-12.7156 0.1326 1.6154
-12.7024 -0.3242 1.6154
-9.9659 -0.6133 1.2703
-9.3945 -0.9180 1.2016
-9.2895 -1.2462 1.1937
-9.1311 -1.5609 1.1803
-9.1187 -1.8984 1.1872
-9.1801 -2.2582 1.2052
-8.8375 -2.5140 1.1716
-8.8765 -2.8738 1.1898
-8.6785 -3.1585 1.1777
-8.5603 -3.4688 1.1777
-8.4176 -3.7686 1.1757
-8.2930 -4.0767 1.1777
-8.1441 -4.3737 1.1777
-7.9853 -4.6657 1.1777
-7.8168 -4.9524 1.1777
-7.6628 -5.2501 1.1814
-7.5428 -5.5765 1.1922
-7.4203 -5.9099 1.2047
-7.3028 -6.2582 1.2202
-7.1738 -6.6092 1.2364
-7.0408 -6.9709 1.2546
-6.9035 -7.3446 1.2749
-6.7611 -7.7320 1.2975
-6.6130 -8.1350 1.3226
-6.4584 -8.5555 1.3505
-6.2965 -8.9959 1.3814
-6.1263 -9.4589 1.4156
-5.9467 -9.9476 1.4535
-5.7563 -10.4656 1.4955
-5.5537 -11.0169 1.5421
-5.3369 -11.6066 1.5939
-4.9924 -11.9728 1.6154
-4.5678 -12.1678 1.6154
-4.1360 -12.3486 1.6154
-3.6973 -12.5148 1.6154
-3.2521 -12.6662 1.6154
-2.8011 -12.8024 1.6154
-2.3446 -12.9233 1.6154
-1.8831 -13.0285 1.6154
-1.4172 -13.1180 1.6154
-0.9474 -13.1914 1.6154
-0.4919 -13.7447 1.6759
0.0021 -14.1385 1.7187
0.5111 -14.1642 1.7187
1.0220 -14.1720 1.7187
1.5341 -14.1619 1.7187
2.0468 -14.1336 1.7187
2.5596 -14.0872 1.7187
3.0717 -14.0225 1.7187
3.5825 -13.9395 1.7187
4.0914 -13.8382 1.7187
4.5977 -13.7184 1.7187
5.1007 -13.5803 1.7187
5.5997 -13.4239 1.7187
6.0941 -13.2492 1.7187
6.5831 -13.0563 1.7187
7.0661 -12.8454 1.7187
7.5424 -12.6165 1.7187
7.5307 -11.6279 1.6156
7.9638 -11.3796 1.6156
8.3886 -11.1150 1.6156
8.8045 -10.8343 1.6156
9.2108 -10.5379 1.6156
9.6069 -10.2259 1.6156
9.9921 -9.8988 1.6156
10.3659 -9.5569 1.6156
10.9462 -9.3881 1.6485
10.6022 -8.4521 1.5464
10.2966 -7.6206 1.4577
9.2187 -6.3239 1.2693
9.5167 -6.0379 1.2769
9.2972 -5.4409 1.2178
9.0962 -4.8939 1.1653
8.9108 -4.3895 1.1185
8.9562 -4.0193 1.1032
9.0175 -3.6640 1.0918
9.9790 -3.6433 1.1895
10.9208 -3.5486 1.2836
11.5620 -3.3034 1.3420
12.1286 -2.9992 1.3922
13.4805 -2.8246 1.5325
13.5964 -2.3432 1.5330
13.6985 -1.8576 1.5340
13.7747 -1.3669 1.5342
13.8396 -0.8734 1.5353
7.1240 -0.1935 0.7882
7.0322 0.0614 0.7771
6.9424 0.3098 0.7673
6.8545 0.5528 0.7587
6.7682 0.7911 0.7513
7.3507 1.1277 0.8195
6.6326 1.2625 0.7437
6.6327 1.5109 0.7491
6.5495 1.7413 0.7461
6.4730 1.9721 0.7448
6.3930 2.2012 0.7442
11.4415 4.4046 1.3496
6.6298 2.8293 0.7936
12.5414 5.8924 1.5260
3.3501 1.7233 0.4151
12.0762 6.7705 1.5260
11.8186 7.1950 1.5260
11.5450 7.6091 1.5260
11.9159 8.4818 1.6155
11.5941 8.8961 1.6155
11.2568 9.2974 1.6155
10.9046 9.6850 1.6155
10.5382 10.0585 1.6156
10.1581 10.4172 1.6156
9.7650 10.7607 1.6156
9.3595 11.0884 1.6156
9.5128 12.1273 1.7187
9.0573 12.4410 1.7187
8.5909 12.7367 1.7187
8.1143 13.0140 1.7187
7.6284 13.2727 1.7187
7.1338 13.5123 1.7187
6.6315 13.7327 1.7187
6.1222 13.9336 1.7187
5.6067 14.1149 1.7187
5.0857 14.2764 1.7187
4.5602 14.4179 1.7187
4.0308 14.5395 1.7187
3.4985 14.6410 1.7187
2.9639 14.7225 1.7187
2.4279 14.7840 1.7187
8.6550 8.2416 1.5985
8.3452 8.5378 1.5985
8.1103 8.9159 1.6155
7.7762 9.1903 1.6156
7.4323 9.4516 1.6156
7.0793 9.6994 1.6156
6.7176 9.9334 1.6156
6.7528 10.8010 1.7187
6.3514 11.0196 1.7187
5.9427 11.2227 1.7187
5.5273 11.4100 1.7187
5.1058 11.5814 1.7187
4.6789 11.7367 1.7187
4.2472 11.8757 1.7187
3.8114 11.9984 1.7187
3.3722 12.1046 1.7187
2.9301 12.1942 1.7187
2.4858 12.2674 1.7187
2.0399 12.3239 1.7187
1.5931 12.3640 1.7187
1.1461 12.3875 1.7187
0.6993 12.3946 1.7187
0.2536 12.3854 1.7187
-0.1907 12.3600 1.7187
-0.6328 12.3184 1.7187
-1.0721 12.2610 1.7187
-1.5082 12.1878 1.7187
-1.9404 12.0990 1.7187
-2.3681 11.9949 1.7187
-2.7910 11.8757 1.7187
-3.2083 11.7417 1.7187
-3.6197 11.5931 1.7187
-4.0246 11.4302 1.7187
-4.4226 11.2534 1.7187
-4.8131 11.0628 1.7187
-5.1958 10.8590 1.7187
-5.5702 10.6422 1.7187
-5.9359 10.4127 1.7187
-6.2925 10.1710 1.7187
-6.6396 9.9173 1.7187
-6.9768 9.6522 1.7187
-7.3038 9.3760 1.7187
-7.6203 9.0890 1.7187
-7.9259 8.7918 1.7187
-8.2203 8.4846 1.7187
-8.5033 8.1681 1.7187
-8.7746 7.8424 1.7187
-9.0339 7.5082 1.7187
-9.2810 7.1658 1.7187
-9.5156 6.8157 1.7187
-9.7376 6.4583 1.7187
-9.9467 6.0941 1.7187
-10.1429 5.7235 1.7187
-10.3259 5.3470 1.7187
-10.4955 4.9651 1.7187
-10.6517 4.5781 1.7187
-10.7944 4.1865 1.7187
-10.9233 3.7908 1.7187
-11.0385 3.3915 1.7187
-10.4706 2.8095 1.6154
-10.5528 2.4286 1.6154
-10.6219 2.0455 1.6154
-10.6778 1.6608 1.6154
-10.7206 1.2747 1.6154
-9.6316 0.7954 1.4474
-10.7665 0.5004 1.6154
-10.7697 0.1130 1.6154
-10.7598 -0.2740 1.6154
-9.9669 -0.6129 1.4996
-9.4101 -0.9191 1.4206
-9.1286 -1.2243 1.3845
-8.9521 -1.5300 1.3656
-8.8152 -1.8350 1.3544
-8.7087 -2.1421 1.3492
-8.6195 -2.4519 1.3484
-8.5432 -2.7658 1.3512
-8.4700 -3.0827 1.3563
-8.3582 -3.3870 1.3569
-8.2461 -3.6920 1.3591
-8.1334 -3.9985 1.3631
-8.0199 -4.3073 1.3687
-7.9052 -4.6193 1.3760
-7.7890 -4.9354 1.3852
-7.6711 -5.2563 1.3962
-7.5509 -5.5832 1.4091
-7.4282 -5.9170 1.4240
-7.3025 -6.2589 1.4410
-7.1735 -6.6100 1.4603
-7.0405 -6.9718 1.4820
-6.9031 -7.3456 1.5063
-6.7607 -7.7331 1.5333
-6.6125 -8.1362 1.5633
-6.4579 -8.5568 1.5966
-6.2263 -8.8978 1.6154
-5.9102 -9.1277 1.6154
-5.5859 -9.3468 1.6154
-5.2538 -9.5550 1.6154
-4.9143 -9.7520 1.6154
-4.5677 -9.9375 1.6154
-4.2144 -10.1112 1.6154
-3.8547 -10.2729 1.6154
-3.4890 -10.4223 1.6154
-3.1177 -10.5593 1.6154
-2.7412 -10.6835 1.6154
-2.3599 -10.7949 1.6154
-1.9743 -10.8931 1.6154
-1.5848 -10.9780 1.6154
-1.2577 -11.6612 1.7049
-0.8465 -11.8170 1.7187
-0.4224 -11.8638 1.7187
0.0040 -11.8957 1.7187
0.4321 -11.9127 1.7187
0.8615 -11.9146 1.7187
1.2915 -11.9014 1.7187
1.7218 -11.8729 1.7187
2.1517 -11.8291 1.7187
2.5807 -11.7699 1.7187
3.0082 -11.6954 1.7187
3.4338 -11.6056 1.7187
3.8568 -11.5003 1.7187
4.2767 -11.3797 1.7187
4.6929 -11.2439 1.7187
5.1048 -11.0928 1.7187
5.5120 -10.9267 1.7187
5.9137 -10.7456 1.7187
6.3095 -10.5497 1.7187
6.6988 -10.3391 1.7187
6.6562 -9.5073 1.6156
7.0082 -9.2824 1.6156
7.3525 -9.0442 1.6156
7.6886 -8.7931 1.6156
8.0158 -8.5293 1.6156
8.3339 -8.2531 1.6156
8.6421 -7.9649 1.6156
8.9401 -7.6649 1.6156
9.2273 -7.3535 1.6156
9.5033 -7.0311 1.6156
9.2541 -6.3460 1.5307
9.5157 -6.0352 1.5343
9.2964 -5.4386 1.4639
9.0954 -4.8918 1.4013
8.9101 -4.3876 1.3454
8.9580 -4.0186 1.3279
8.9740 -3.6450 1.3080
9.9809 -3.6426 1.4326
11.4279 -3.7119 1.6179
11.5709 -3.3046 1.6181
11.6993 -2.8917 1.6184
11.8005 -2.4713 1.6171
11.8678 -2.0442 1.6134
11.9189 -1.6152 1.6097
11.9535 -1.1852 1.6060
11.9582 -0.7538 1.6004
7.0976 -0.1923 0.9476
7.0064 0.0616 0.9344
6.9173 0.3091 0.9227
6.8300 0.5512 0.9126
6.7442 0.7885 0.9038
7.4318 1.1404 1.0004
6.5761 1.2519 0.8904
6.4933 1.4793 0.8855
6.4111 1.7046 0.8819
6.3292 1.9283 0.8795
6.2475 2.1511 0.8783
6.2767 2.4162 0.8941
6.0249 2.5710 0.8709
6.1794 2.9031 0.9079
3.3498 1.7230 0.5011
10.0466 5.6321 1.5328
9.8366 5.9878 1.5332
9.6138 6.3356 1.5338
9.3786 6.6750 1.5345
9.6079 7.3712 1.6155
9.3299 7.7049 1.6155
9.0397 8.0275 1.6155
8.6457 8.2507 1.5985
8.3356 8.5467 1.5985
8.1003 8.9245 1.6155
7.7659 9.1985 1.6156
7.4217 9.4593 1.6156
7.0684 9.7067 1.6156
6.7064 9.9402 1.6156
6.7407 10.8079 1.7187
6.3391 11.0260 1.7187
5.9301 11.2286 1.7187
5.5145 11.4155 1.7187
5.0929 11.5864 1.7187
4.6658 11.7412 1.7187
4.2340 11.8797 1.7187
3.7981 12.0018 1.7187
3.3587 12.1075 1.7187
2.9166 12.1967 1.7187
2.4722 12.2693 1.7187
2.0263 12.3254 1.7187
7.4643 7.1065 1.6155
7.1983 7.3632 1.6155
6.9231 7.6094 1.6155
6.6391 7.8448 1.6155
6.3468 8.0693 1.6155
6.0465 8.2824 1.6155
5.7388 8.4838 1.6156
5.4242 8.6734 1.6156
5.1030 8.8509 1.6156
4.7758 9.0161 1.6156
4.7267 9.7538 1.7187
4.3674 9.9027 1.7187
4.0034 10.0379 1.7187
3.6352 10.1594 1.7187
3.2632 10.2670 1.7187
2.8882 10.3606 1.7187
2.5105 10.4402 1.7187
2.1307 10.5057 1.7187
1.7494 10.5572 1.7187
1.3670 10.5945 1.7187
0.9843 10.6177 1.7187
0.6016 10.6270 1.7187
0.2194 10.6222 1.7187
-0.1616 10.6036 1.7187
-0.5410 10.5711 1.7187
-0.9183 10.5250 1.7187
-1.2930 10.4654 1.7187
-1.6646 10.3923 1.7187
-2.0326 10.3061 1.7187
-2.3966 10.2068 1.7187
-2.7562 10.0947 1.7187
-3.1108 9.9700 1.7187
-3.4600 9.8330 1.7187
-3.8035 9.6838 1.7187
-4.1408 9.5227 1.7187
-4.4716 9.3501 1.7187
-4.7953 9.1661 1.7187
-5.1118 8.9711 1.7187
-5.4206 8.7654 1.7187
-5.7213 8.5493 1.7187
-6.0137 8.3231 1.7187
-6.2974 8.0872 1.7187
-6.5722 7.8419 1.7187
-6.8377 7.5875 1.7187
-7.0936 7.3244 1.7187
-7.3398 7.0529 1.7187
-7.5760 6.7735 1.7187
-7.8018 6.4865 1.7187
-8.0172 6.1922 1.7187
-8.2219 5.8910 1.7187
-8.4156 5.5835 1.7187
-8.5984 5.2698 1.7187
-8.7698 4.9504 1.7187
-8.9299 4.6258 1.7187
-9.0785 4.2962 1.7187
-9.2154 3.9622 1.7187
-9.3405 3.6240 1.7187
-9.4538 3.2821 1.7187
-8.9811 2.7605 1.6154
-9.0650 2.4334 1.6154
-9.1375 2.1039 1.6154
-9.1986 1.7724 1.6154
-9.2483 1.4393 1.6154
-9.2864 1.1050 1.6154
-9.3131 0.7698 1.6154
-9.3283 0.4342 1.6154
-9.3320 0.0985 1.6154
-9.3241 -0.2369 1.6154
-9.3049 -0.5717 1.6154
-9.2742 -0.9054 1.6154
-9.1289 -1.2240 1.5974
-8.9522 -1.5298 1.5756
-8.8153 -1.8348 1.5625
-8.7087 -2.1420 1.5565
-8.6196 -2.4519 1.5555
-8.5432 -2.7658 1.5588
-8.4700 -3.0827 1.5646
-8.3581 -3.3871 1.5653
-8.2460 -3.6921 1.5680
-8.1333 -3.9987 1.5725
-8.0198 -4.3076 1.5791
-7.9051 -4.6197 1.5877
-7.7889 -4.9358 1.5983
-7.6709 -5.2568 1.6111
-7.5011 -5.5471 1.6154
-7.3012 -5.8167 1.6154
-7.0921 -6.0794 1.6154
-6.8739 -6.3350 1.6154
-6.6469 -6.5832 1.6154
-6.4114 -6.8236 1.6154
-6.1675 -7.0561 1.6154
-5.9155 -7.2802 1.6154
-5.6558 -7.4958 1.6154
-5.3885 -7.7025 1.6154
-5.1139 -7.9001 1.6154
-4.8324 -8.0883 1.6154
-4.5442 -8.2670 1.6154
-4.2496 -8.4358 1.6154
-3.9489 -8.5945 1.6154
-3.6425 -8.7429 1.6154
-3.3308 -8.8808 1.6154
-3.0139 -9.0080 1.6154
-2.6924 -9.1243 1.6154
-2.3745 -9.2609 1.6209
-2.0720 -9.4854 1.6435
-1.8119 -10.0070 1.7187
-1.4537 -10.0824 1.7187
-1.0924 -10.1453 1.7187
-0.7285 -10.1956 1.7187
-0.3624 -10.2332 1.7187
0.0054 -10.2579 1.7187
0.3745 -10.2696 1.7187
0.7444 -10.2684 1.7187
1.1148 -10.2540 1.7187
1.4851 -10.2264 1.7187
1.8548 -10.1857 1.7187
2.2236 -10.1317 1.7187
2.5909 -10.0646 1.7187
2.9562 -9.9842 1.7187
3.3192 -9.8906 1.7187
3.6792 -9.7839 1.7187
4.0358 -9.6642 1.7187
4.3886 -9.5314 1.7187
4.7370 -9.3858 1.7187
5.0805 -9.2274 1.7187
5.4188 -9.0563 1.7187
5.7512 -8.8728 1.7187
6.0773 -8.6770 1.7187
6.0130 -7.9611 1.6156
6.3065 -7.7545 1.6156
6.5926 -7.5369 1.6156
6.8710 -7.3085 1.6156
7.1415 -7.0698 1.6155
7.4034 -6.8208 1.6155
7.6563 -6.5620 1.6155
7.9000 -6.2936 1.6155
8.1340 -6.0160 1.6155
8.3579 -5.7295 1.6155
8.5714 -5.4345 1.6155
8.7741 -5.1313 1.6155
8.9657 -4.8203 1.6154
8.9094 -4.3857 1.5737
8.9598 -4.0180 1.5540
8.9354 -3.6280 1.5241
9.2407 -3.3712 1.5526
9.3151 -3.0245 1.5440
9.3050 -2.6563 1.5237
9.3268 -2.3043 1.5111
10.1189 -2.1181 1.6244
10.1797 -1.7524 1.6214
10.2367 -1.3863 1.6200
10.1642 -1.0069 1.6004
10.1848 -0.6413 1.5978
9.9255 -0.2682 1.5534
9.7313 0.0861 1.5215
9.6587 0.4321 1.5107
6.8091 0.5498 1.0669
6.7202 0.7860 1.0562
7.5153 1.1535 1.1865
6.5531 1.2478 1.0406
6.4707 1.4743 1.0350
6.3889 1.6988 1.0309
6.3074 1.9217 1.0281
6.2260 2.1437 1.0267
6.2769 2.4162 1.0487
6.0373 2.5762 1.0236
6.1790 2.9028 1.0648
3.3495 1.7227 0.5876
8.6203 4.8321 1.5423
8.4396 5.1369 1.5426
8.2478 5.4347 1.5430
8.0452 5.7252 1.5434
7.8322 6.0080 1.5438
7.9595 6.5721 1.6155
7.7129 6.8482 1.6155
7.4563 7.1145 1.6155
7.1901 7.3708 1.6155
6.9146 7.6167 1.6155
6.6304 7.8518 1.6155
6.3377 8.0759 1.6155
6.0373 8.2887 1.6155
5.7293 8.4898 1.6156
5.4145 8.6790 1.6156
5.0931 8.8562 1.6156
4.7658 9.0210 1.6156
4.7158 9.7585 1.7187
4.3564 9.9070 1.7187
3.9923 10.0418 1.7187
3.6239 10.1629 1.7187
3.2519 10.2700 1.7187
2.8767 10.3633 1.7187
2.4989 10.4424 1.7187
2.1191 10.5075 1.7187
1.7377 10.5585 1.7187
6.5039 6.1911 1.6155
6.2729 6.4154 1.6155
6.0338 6.6307 1.6155
5.7871 6.8367 1.6155
5.5331 7.0332 1.6155
5.2722 7.2199 1.6155
5.0047 7.3967 1.6155
4.7311 7.5631 1.6156
4.4518 7.7191 1.6156
4.1672 7.8645 1.6156
3.8777 7.9991 1.6156
3.5838 8.1226 1.6156
3.4956 8.7606 1.7187
3.1748 8.8683 1.7187
2.8507 8.9640 1.7187
0.8550 3.0651 0.5823
0.7445 3.0937 0.5831
0.6330 3.1184 0.5839
0.5207 3.1390 0.5848
0.4078 3.1557 0.5857
0.2943 3.1683 0.5867
0.1804 3.1769 0.5876
0.0663 3.1814 0.5886
-0.0479 3.1819 0.5896
-0.1620 3.1783 0.5906
-0.2760 3.1706 0.5916
-0.3896 3.1589 0.5926
-0.5028 3.1431 0.5937
-0.6154 3.1233 0.5947
-0.7271 3.0995 0.5958
-0.8380 3.0718 0.5969
-2.7244 8.7378 1.7187
-3.0312 8.6196 1.7187
-3.3330 8.4908 1.7187
-3.6296 8.3515 1.7187
-3.9205 8.2020 1.7187
-4.2055 8.0424 1.7187
-4.4841 7.8731 1.7187
-4.7561 7.6943 1.7187
-5.0212 7.5063 1.7187
-5.2791 7.3093 1.7187
-5.5294 7.1036 1.7187
-5.7719 6.8896 1.7187
-6.0064 6.6675 1.7187
-6.2326 6.4376 1.7187
-6.4502 6.2003 1.7187
-6.6591 5.9558 1.7187
-6.8590 5.7045 1.7187
-7.0496 5.4468 1.7187
-7.2310 5.1828 1.7187
-7.4027 4.9131 1.7187
-7.5648 4.6379 1.7187
-7.7169 4.3576 1.7187
-7.8591 4.0725 1.7187
-7.9911 3.7830 1.7187
-8.1128 3.4894 1.7187
-8.2241 3.1921 1.7187
-8.3250 2.8914 1.7187
-8.1770 2.5144 1.6700
-7.9846 2.1443 1.6154
-8.0495 1.8542 1.6154
-8.1042 1.5623 1.6154
-8.1488 1.2689 1.6154
-8.1832 0.9744 1.6154
-8.2074 0.6791 1.6154
-8.2214 0.3833 1.6154
-8.2253 0.0874 1.6154
-8.2189 -0.2083 1.6154
-8.2024 -0.5035 1.6154
-8.1758 -0.7978 1.6154
-8.1391 -1.0910 1.6154
-8.0923 -1.3826 1.6154
-8.0356 -1.6723 1.6154
-7.9689 -1.9599 1.6154
-7.8925 -2.2450 1.6154
-7.8063 -2.5272 1.6154
-7.7105 -2.8063 1.6154
-7.6051 -3.0820 1.6154
-7.4903 -3.3540 1.6154
-7.3662 -3.6218 1.6154
-7.2330 -3.8853 1.6154
-7.0908 -4.1442 1.6154
-6.9397 -4.3981 1.6154
-6.7799 -4.6467 1.6154
-6.6115 -4.8899 1.6154
-6.4348 -5.1272 1.6154
-6.2500 -5.3584 1.6154
-6.0572 -5.5832 1.6154
-5.8566 -5.8014 1.6154
-5.6484 -6.0128 1.6154
-5.4329 -6.2169 1.6154
-5.2104 -6.4137 1.6154
-4.9809 -6.6029 1.6154
-4.7448 -6.7841 1.6154
-4.5024 -6.9573 1.6154
-4.2538 -7.1221 1.6154
-3.9995 -7.2784 1.6154
-3.7395 -7.4259 1.6154
-3.4743 -7.5644 1.6154
-3.2041 -7.6938 1.6154
-2.9292 -7.8139 1.6154
-2.6515 -7.9289 1.6164
-2.4713 -8.3803 1.6869
-2.2125 -8.6351 1.7187
-1.9035 -8.7214 1.7187
-1.5912 -8.7968 1.7187
-1.2760 -8.8614 1.7187
-0.9583 -8.9149 1.7187
-0.6383 -8.9573 1.7187
-0.3167 -8.9884 1.7187
0.0064 -9.0082 1.7187
0.3305 -9.0166 1.7187
0.6552 -9.0135 1.7187
0.9801 -8.9989 1.7187
1.3048 -8.9727 1.7187
1.6289 -8.9350 1.7187
1.9520 -8.8856 1.7187
2.2736 -8.8247 1.7187
2.5933 -8.7522 1.7187
2.9108 -8.6682 1.7187
3.2256 -8.5727 1.7187
3.5373 -8.4657 1.7187
3.8455 -8.3475 1.7187
4.1496 -8.2180 1.7187
4.4494 -8.0774 1.7187
4.7445 -7.9259 1.7187
5.0343 -7.7635 1.7187
5.3184 -7.5904 1.7187
5.5966 -7.4068 1.7187
5.5292 -6.7961 1.6194
5.7653 -6.5886 1.6156
6.0074 -6.3876 1.6156
6.2424 -6.1775 1.6156
6.4699 -5.9587 1.6156
6.6895 -5.7314 1.6155
6.9009 -5.4958 1.6155
7.1038 -5.2523 1.6155
7.2979 -5.0011 1.6155
7.4828 -4.7427 1.6155
7.6583 -4.4772 1.6155
7.8241 -4.2051 1.6155
7.9798 -3.9267 1.6155
8.1253 -3.6424 1.6155
8.2603 -3.3526 1.6155
8.3846 -3.0577 1.6154
8.4895 -2.7553 1.6138
8.4849 -2.4212 1.5938
8.6115 -2.1266 1.6007
8.6869 -1.8174 1.6000
8.7947 -1.5131 1.6075
8.7956 -1.1904 1.5975
8.5640 -0.8477 1.5478
8.3552 -0.5254 1.5046
7.0447 -0.1899 1.2657
6.9549 0.0620 1.2485
6.8671 0.3076 1.2333
6.7810 0.5479 1.2200
6.6962 0.7835 1.2085
7.6012 1.1669 1.3781
6.5300 1.2436 1.1909
6.4481 1.4693 1.1845
6.3666 1.6929 1.1798
6.2855 1.9151 1.1766
6.2045 2.1363 1.1750
6.2770 2.4162 1.2045
6.0373 2.5761 1.1756
6.1786 2.9024 1.2228
3.3492 1.7224 0.6748
7.5070 4.2077 1.5424
7.3475 4.4717 1.5421
7.1782 4.7294 1.5419
6.9991 4.9802 1.5415
6.8022 5.2172 1.5392
6.5921 5.4423 1.5358
6.3728 5.6574 1.5320
6.4970 6.1981 1.6155
6.2657 6.4221 1.6155
6.0265 6.6371 1.6155
5.7795 6.8428 1.6155
5.5253 7.0390 1.6155
5.2641 7.2255 1.6155
4.9965 7.4019 1.6155
4.7227 7.5680 1.6156
4.4432 7.7237 1.6156
4.1585 7.8688 1.6156
3.8688 8.0030 1.6156
3.5748 8.1262 1.6156
3.4858 8.7641 1.7187
3.1650 8.8714 1.7187
2.8408 8.9667 1.7187
0.8516 3.0660 0.5823
0.7411 3.0945 0.5831
0.6296 3.1191 0.5840
0.5173 3.1396 0.5849
5.4338 5.1716 1.5247
5.5533 5.6784 1.6155
5.3422 5.8694 1.6155
5.1243 6.0524 1.6155
4.8999 6.2269 1.6155
4.6694 6.3929 1.6155
4.4331 6.5501 1.6155
4.1913 6.6983 1.6155
3.9444 6.8373 1.6155
3.6928 6.9669 1.6155
3.4368 7.0870 1.6155
3.1769 7.1974 1.6155
3.0994 7.7644 1.7187
2.8156 7.8610 1.7187
0.8589 2.6994 0.5838
0.7615 2.7283 0.5845
0.6632 2.7538 0.5852
0.5639 2.7757 0.5860
0.4640 2.7941 0.5868
0.3635 2.8089 0.5876
0.2625 2.8201 0.5884
0.1611 2.8277 0.5893
0.0596 2.8317 0.5901
-0.0421 2.8321 0.5910
-0.1437 2.8289 0.5919
-0.2451 2.8220 0.5928
-0.3462 2.8115 0.5937
-0.4469 2.7975 0.5947
-0.5471 2.7798 0.5956
-0.6466 2.7586 0.5966
-0.7452 2.7338 0.5975
-0.8430 2.7055 0.5985
-2.6940 7.6658 1.7187
-2.9630 7.5526 1.7187
-3.2274 7.4301 1.7187
-3.4868 7.2984 1.7187
-3.7410 7.1577 1.7187
-3.9897 7.0082 1.7187
-4.2325 6.8503 1.7187
-4.4693 6.6840 1.7187
-4.6997 6.5097 1.7187
-4.9234 6.3277 1.7187
-5.1403 6.1380 1.7187
-5.3501 5.9411 1.7187
-5.5525 5.7372 1.7187
-5.7473 5.5266 1.7187
-5.9344 5.3095 1.7187
-6.1135 5.0863 1.7187
-6.2844 4.8572 1.7187
-6.4470 4.6225 1.7187
-6.6011 4.3826 1.7187
-6.7465 4.1377 1.7187
-6.8832 3.8881 1.7187
-7.0109 3.6342 1.7187
-7.1295 3.3763 1.7187
-7.2390 3.1147 1.7187
-7.3391 2.8497 1.7187
-7.4300 2.5816 1.7187
-7.5113 2.3107 1.7187
-7.5068 2.0169 1.7014
-7.1862 1.6562 1.6154
-7.2357 1.3956 1.6154
-7.2761 1.1337 1.6154
-7.3073 0.8708 1.6154
-7.3295 0.6070 1.6154
-7.3425 0.3429 1.6154
-7.3463 0.0785 1.6154
-7.3410 -0.1856 1.6154
-7.3266 -0.4494 1.6154
-7.3031 -0.7123 1.6154
-7.2706 -0.9743 1.6154
-7.2290 -1.2348 1.6154
-7.1785 -1.4938 1.6154
-7.1191 -1.7507 1.6154
-7.0508 -2.0055 1.6154
-6.9738 -2.2577 1.6154
-6.8882 -2.5071 1.6154
-6.7940 -2.7534 1.6154
-6.6913 -2.9964 1.6154
-6.5804 -3.2357 1.6154
-6.4612 -3.4710 1.6154
-6.3339 -3.7022 1.6154
-6.1986 -3.9289 1.6154
-6.0556 -4.1509 1.6154
-5.9049 -4.3678 1.6154
-5.7468 -4.5796 1.6154
-5.5813 -4.7858 1.6154
-5.4087 -4.9863 1.6154
-5.2292 -5.1809 1.6154
-5.0429 -5.3692 1.6154
-4.8500 -5.5511 1.6154
-4.6509 -5.7263 1.6154
-4.4456 -5.8946 1.6154
-4.2344 -6.0558 1.6154
-4.0175 -6.2098 1.6154
-3.7953 -6.3562 1.6154
-3.5678 -6.4949 1.6154
-3.3404 -6.6356 1.6178
-3.0984 -6.7486 1.6154
-2.9487 -7.0836 1.6673
-2.7783 -7.4148 1.7187
-2.5130 -7.5187 1.7187
-2.2438 -7.6134 1.7187
-1.9712 -7.6986 1.7187
-1.6954 -7.7744 1.7187
-1.4168 -7.8405 1.7187
-1.1357 -7.8968 1.7187
-0.8523 -7.9432 1.7187
-0.5672 -7.9797 1.7187
-0.2805 -8.0061 1.7187
0.0073 -8.0224 1.7187
0.2958 -8.0285 1.7187
0.5849 -8.0244 1.7187
0.8740 -8.0100 1.7187
1.1628 -7.9853 1.7187
1.4510 -7.9503 1.7187
1.7382 -7.9050 1.7187
2.0240 -7.8493 1.7187
2.3080 -7.7834 1.7187
2.5899 -7.7073 1.7187
2.8693 -7.6210 1.7187
3.1458 -7.5246 1.7187
3.4191 -7.4181 1.7187
3.6888 -7.3017 1.7187
3.9545 -7.1755 1.7187
4.2158 -7.0395 1.7187
4.4724 -6.8940 1.7187
4.7239 -6.7391 1.7187
4.9700 -6.5750 1.7187
5.2103 -6.4017 1.7187
5.2139 -5.9563 1.6459
5.3319 -5.6672 1.6156
5.5395 -5.4799 1.6156
5.7403 -5.2849 1.6156
5.9341 -5.0824 1.6156
6.1207 -4.8727 1.6156
6.2996 -4.6561 1.6155
6.4707 -4.4327 1.6155
6.6336 -4.2030 1.6155
6.7881 -3.9671 1.6155
6.9340 -3.7254 1.6155
7.0710 -3.4783 1.6155
7.1990 -3.2260 1.6155
7.3176 -2.9689 1.6155
7.4268 -2.7073 1.6155
7.5262 -2.4417 1.6155
7.6158 -2.1723 1.6155
7.6955 -1.8995 1.6155
7.7650 -1.6237 1.6154
7.7857 -1.3388 1.6075
7.8343 -1.0596 1.6075
7.8726 -0.7786 1.6075
7.7959 -0.4897 1.5862
7.0182 -0.1887 1.4249
6.9292 0.0622 1.4056
6.8420 0.3069 1.3886
6.7565 0.5462 1.3738
6.6723 0.7810 1.3610
7.6621 1.1765 1.5701
6.5070 1.2393 1.3413
6.4255 1.4643 1.3342
6.3444 1.6871 1.3289
6.2636 1.9084 1.3254
6.1829 2.1288 1.3236
6.2772 2.4162 1.3615
6.0372 2.5759 1.3288
6.1783 2.9021 1.3820
3.3489 1.7222 0.7626
6.3783 3.5747 1.4811
6.1990 3.7724 1.4704
6.0178 3.9645 1.4608
5.8249 4.1442 1.4497
5.7225 4.3885 1.4632
5.6278 4.6455 1.4814
5.5306 4.9090 1.5021
5.4307 5.1800 1.5255
5.5470 5.6843 1.6155
5.3357 5.8751 1.6155
5.1176 6.0578 1.6155
4.8930 6.2321 1.6155
4.6623 6.3979 1.6155
4.4258 6.5547 1.6155
4.1838 6.7026 1.6155
3.9368 6.8413 1.6155
3.6851 6.9707 1.6155
3.4290 7.0905 1.6155
3.1689 7.2007 1.6155
3.0908 7.7675 1.7187
2.8069 7.8638 1.7187
0.8560 2.7003 0.5838
0.7585 2.7291 0.5845
0.6601 2.7545 0.5853
0.5609 2.7763 0.5860
0.4610 2.7946 0.5868
5.1595 4.9098 1.6154
4.9771 5.0883 1.6154
4.7883 5.2599 1.6154
4.5934 5.4242 1.6154
4.3927 5.5811 1.6154
4.1865 5.7303 1.6154
3.9750 5.8717 1.6154
3.7587 6.0051 1.6154
3.5377 6.1304 1.6154
3.3125 6.2473 1.6155
3.0833 6.3557 1.6155
2.8505 6.4555 1.6155
2.6145 6.5466 1.6155
0.8603 2.4007 0.5851
0.7736 2.4299 0.5857
0.6859 2.4559 0.5863
0.5974 2.4788 0.5870
0.5081 2.4985 0.5877
0.4181 2.5151 0.5884
0.3276 2.5284 0.5891
0.2367 2.5385 0.5899
0.1455 2.5453 0.5906
0.0541 2.5489 0.5914
-0.0374 2.5492 0.5922
-0.1288 2.5463 0.5930
-0.2201 2.5401 0.5938
-0.3111 2.5306 0.5946
-0.4018 2.5179 0.5955
-0.4919 2.5020 0.5963
-0.5814 2.4829 0.5972
-0.6702 2.4606 0.5981
-0.7582 2.4351 0.5989
-0.8452 2.4065 0.5998
-2.6641 6.7948 1.7187
-2.9023 6.6855 1.7187
-3.1362 6.5679 1.7187
-3.3654 6.4423 1.7187
-3.5898 6.3087 1.7187
-3.8089 6.1674 1.7187
-4.0226 6.0185 1.7187
-4.2306 5.8624 1.7187
-4.4327 5.6992 1.7187
-4.6287 5.5292 1.7187
-4.8182 5.3526 1.7187
-5.0012 5.1695 1.7187
-5.1774 4.9804 1.7187
-5.3467 4.7854 1.7187
-5.5087 4.5848 1.7187
-5.6635 4.3788 1.7187
-5.8107 4.1677 1.7187
-5.9503 3.9519 1.7187
-6.0821 3.7315 1.7187
-6.2059 3.5068 1.7187
-6.3217 3.2782 1.7187
-6.4294 3.0459 1.7187
-6.5287 2.8101 1.7187
-6.6197 2.5713 1.7187
-6.7022 2.3296 1.7187
-6.7762 2.0854 1.7187
-6.8416 1.8390 1.7187
-6.8983 1.5906 1.7187
-6.6211 1.2778 1.6382
-6.5658 1.0237 1.6154
-6.5945 0.7864 1.6154
-6.6148 0.5484 1.6154
-6.6269 0.3099 1.6154
-6.6307 0.0713 1.6154
-6.6262 -0.1672 1.6154
-6.6135 -0.4053 1.6154
-6.5925 -0.6427 1.6154
-6.5632 -0.8792 1.6154
-6.5259 -1.1145 1.6154
-6.4804 -1.3483 1.6154
-6.4268 -1.5804 1.6154
-6.3652 -1.8104 1.6154
-6.2958 -2.0382 1.6154
-6.2184 -2.2634 1.6154
-6.1333 -2.4858 1.6154
-6.0406 -2.7051 1.6154
-5.9403 -2.9211 1.6154
-5.8325 -3.1336 1.6154
-5.7174 -3.3422 1.6154
-5.5952 -3.5468 1.6154
-5.4658 -3.7470 1.6154
-5.3296 -3.9428 1.6154
-5.1866 -4.1338 1.6154
-5.0370 -4.3197 1.6154
-4.8809 -4.5005 1.6154
-4.7186 -4.6758 1.6154
-4.5501 -4.8455 1.6154
-4.3758 -5.0093 1.6154
-4.1957 -5.1671 1.6154
-4.0102 -5.3186 1.6154
-3.8193 -5.4636 1.6154
-3.6233 -5.6020 1.6154
-3.4432 -5.7683 1.6252
-3.3260 -6.0568 1.6702
-3.1993 -6.3577 1.7187
-2.9716 -6.4749 1.7187
-2.7396 -6.5841 1.7187
-2.5037 -6.6853 1.7187
-2.2642 -6.7782 1.7187
-2.0213 -6.8628 1.7187
-1.7754 -6.9388 1.7187
-1.5266 -7.0062 1.7187
-1.2753 -7.0649 1.7187
-1.0219 -7.1148 1.7187
-0.7665 -7.1557 1.7187
-0.5095 -7.1877 1.7187
-0.2513 -7.2105 1.7187
0.0079 -7.2242 1.7187
0.2678 -7.2287 1.7187
0.5280 -7.2240 1.7187
0.7882 -7.2100 1.7187
1.0480 -7.1868 1.7187
1.3072 -7.1542 1.7187
1.5654 -7.1124 1.7187
1.8223 -7.0613 1.7187
2.0775 -7.0010 1.7187
2.3308 -6.9315 1.7187
2.5817 -6.8529 1.7187
2.8300 -6.7652 1.7187
3.0752 -6.6685 1.7187
3.3172 -6.5628 1.7187
3.5555 -6.4484 1.7187
3.7898 -6.3253 1.7187
4.0198 -6.1937 1.7187
4.2451 -6.0536 1.7187
4.4656 -5.9053 1.7187
4.6807 -5.7489 1.7187
4.8904 -5.5845 1.7187
4.9545 -5.2642 1.6716
4.9743 -4.9190 1.6156
5.1539 -4.7433 1.6156
5.3272 -4.5610 1.6156
5.4939 -4.3722 1.6156
5.6537 -4.1772 1.6156
5.8065 -3.9763 1.6156
5.9519 -3.7698 1.6155
6.0899 -3.5578 1.6155
6.2200 -3.3406 1.6155
6.3422 -3.1186 1.6155
6.4562 -2.8921 1.6155
6.5619 -2.6613 1.6155
6.6591 -2.4265 1.6155
6.7476 -2.1882 1.6155
6.8274 -1.9465 1.6155
6.8981 -1.7019 1.6155
6.9599 -1.4546 1.6155
7.0124 -1.2051 1.6155
7.0557 -0.9536 1.6155
7.0896 -0.7006 1.6155
7.1142 -0.4463 1.6155
7.1292 -0.1912 1.6154
7.1348 0.0645 1.6154
7.1309 0.3202 1.6154
7.0824 0.5729 1.6075
6.6821 0.7824 1.5215
7.1889 1.1041 1.6444
6.5169 1.2414 1.4996
7.0913 1.6161 1.6438
7.0287 1.8692 1.6436
6.9576 2.1199 1.6436
6.8810 2.3692 1.6445
6.2773 2.4162 1.5200
6.0372 2.5758 1.4834
6.1779 2.9017 1.5427
3.3486 1.7219 0.8512
6.0813 3.4080 1.5763
5.9933 3.6468 1.5869
5.9041 3.8891 1.5997
5.8133 4.1354 1.6149
5.6610 4.3407 1.6155
5.4991 4.5386 1.6155
5.3300 4.7302 1.6155
5.1541 4.9153 1.6154
4.9715 5.0936 1.6154
4.7825 5.2650 1.6154
4.5874 5.4291 1.6154
4.3865 5.5857 1.6154
4.1801 5.7348 1.6154
3.9685 5.8759 1.6154
3.7520 6.0091 1.6154
3.5309 6.1341 1.6154
3.3056 6.2507 1.6155
3.0763 6.3588 1.6155
2.8434 6.4584 1.6155
2.6072 6.5492 1.6155
0.8577 2.4016 0.5851
0.7710 2.4307 0.5857
0.6833 2.4567 0.5864
0.5947 2.4795 0.5870
0.5054 2.4991 0.5877
0.4154 2.5155 0.5884
4.6700 4.4431 1.6155
4.5052 4.6050 1.6155
4.3347 4.7605 1.6155
4.1585 4.9096 1.6155
3.9772 5.0519 1.6155
3.7908 5.1874 1.6155
3.5996 5.3158 1.6155
3.4041 5.4370 1.6155
3.2043 5.5508 1.6155
3.0006 5.6571 1.6155
2.7934 5.7558 1.6155
2.5828 5.8467 1.6155
0.8596 2.1514 0.5861
0.7818 2.1807 0.5867
0.7031 2.2072 0.5872
0.6235 2.2308 0.5878
0.5431 2.2516 0.5884
0.4619 2.2696 0.5891
0.3802 2.2846 0.5897
0.2981 2.2967 0.5904
0.2155 2.3058 0.5910
0.1326 2.3120 0.5917
0.0496 2.3153 0.5924
-0.0335 2.3155 0.5932
-0.1166 2.3128 0.5939
-0.1995 2.3072 0.5946
-0.2821 2.2986 0.5954
-0.3644 2.2870 0.5961
-0.4463 2.2725 0.5969
-0.5276 2.2551 0.5977
-0.6082 2.2348 0.5985
-0.6881 2.2116 0.5993
-0.7671 2.1856 0.6001
-0.8451 2.1568 0.6009
-2.6340 6.0707 1.7187
-2.8467 5.9647 1.7187
-3.0552 5.8513 1.7187
-3.2593 5.7306 1.7187
-3.4588 5.6029 1.7187
-3.6533 5.4684 1.7187
-3.8428 5.3272 1.7187
-4.0268 5.1795 1.7187
-4.2054 5.0255 1.7187
-4.3781 4.8655 1.7187
-4.5449 4.6996 1.7187
-4.7056 4.5282 1.7187
-4.8600 4.3513 1.7187
-5.0078 4.1693 1.7187
-5.1490 3.9824 1.7187
-5.2834 3.7909 1.7187
-5.4109 3.5949 1.7187
-5.5312 3.3947 1.7187
-5.6444 3.1907 1.7187
-5.7502 2.9829 1.7187
-5.8486 2.7718 1.7187
-5.9395 2.5575 1.7187
-6.0227 2.3403 1.7187
-6.0983 2.1206 1.7187
-6.1660 1.8985 1.7187
-6.2259 1.6743 1.7187
-6.2779 1.4483 1.7187
-6.3220 1.2207 1.7187
-6.3581 0.9919 1.7187
-6.1868 0.7383 1.6651
-6.0411 0.5013 1.6208
-6.0325 0.2826 1.6154
-6.0362 0.0653 1.6154
-6.0323 -0.1518 1.6154
-6.0209 -0.3686 1.6154
-6.0020 -0.5849 1.6154
-5.9755 -0.8003 1.6154
-5.9416 -1.0145 1.6154
-5.9002 -1.2275 1.6154
-5.8515 -1.4388 1.6154
-5.7955 -1.6483 1.6154
-5.7322 -1.8557 1.6154
-5.6618 -2.0608 1.6154
-5.5843 -2.2633 1.6154
-5.4998 -2.4630 1.6154
-5.4084 -2.6597 1.6154
-5.3101 -2.8531 1.6154
-5.2052 -3.0431 1.6154
-5.0938 -3.2293 1.6154
-4.9759 -3.4116 1.6154
-4.8516 -3.5897 1.6154
-4.7212 -3.7634 1.6154
-4.5848 -3.9326 1.6154
-4.4425 -4.0970 1.6154
-4.2945 -4.2564 1.6154
-4.1529 -4.4233 1.6201
-3.9820 -4.5595 1.6154
-3.8304 -4.7183 1.6207
-3.7347 -4.9544 1.6535
-3.6380 -5.2057 1.6913
-3.5069 -5.4236 1.7187
-3.3122 -5.5506 1.7187
-3.1130 -5.6708 1.7187
-2.9096 -5.7841 1.7187
-2.7022 -5.8902 1.7187
-2.4909 -5.9891 1.7187
-2.2762 -6.0806 1.7187
-2.0581 -6.1645 1.7187
-1.8370 -6.2409 1.7187
-1.6132 -6.3094 1.7187
-1.3868 -6.3701 1.7187
-1.1582 -6.4228 1.7187
-0.9277 -6.4675 1.7187
-0.6955 -6.5040 1.7187
-0.4618 -6.5323 1.7187
-0.2271 -6.5523 1.7187
0.0085 -6.5641 1.7187
0.2446 -6.5674 1.7187
0.4809 -6.5624 1.7187
0.7172 -6.5489 1.7187
0.9532 -6.5270 1.7187
1.1884 -6.4967 1.7187
1.4228 -6.4580 1.7187
1.6558 -6.4108 1.7187
1.8873 -6.3553 1.7187
2.1170 -6.2914 1.7187
2.3445 -6.2193 1.7187
2.5695 -6.1389 1.7187
2.7917 -6.0504 1.7187
3.0109 -5.9539 1.7187
3.2267 -5.8493 1.7187
3.4388 -5.7370 1.7187
3.6470 -5.6169 1.7187
3.8510 -5.4892 1.7187
4.0504 -5.3541 1.7187
4.2450 -5.2116 1.7187
4.4345 -5.0621 1.7187
4.6187 -4.9055 1.7187
4.7418 -4.6874 1.6988
4.6718 -4.2981 1.6156
4.8283 -4.1324 1.6156
4.9788 -3.9609 1.6156
5.1231 -3.7839 1.6156
5.2610 -3.6015 1.6156
5.3922 -3.4140 1.6156
5.5166 -3.2217 1.6156
5.6339 -3.0248 1.6155
5.7441 -2.8235 1.6155
5.8468 -2.6181 1.6155
5.9420 -2.4089 1.6155
6.0295 -2.1962 1.6155
6.1092 -1.9803 1.6155
6.1809 -1.7614 1.6155
6.2445 -1.5399 1.6155
6.2999 -1.3160 1.6155
6.3471 -1.0901 1.6155
6.3859 -0.8625 1.6155
6.4162 -0.6335 1.6155
6.4381 -0.4034 1.6155
6.4515 -0.1725 1.6155
6.4563 0.0587 1.6155
6.4525 0.2901 1.6155
6.4401 0.5213 1.6155
6.4191 0.7519 1.6155
6.3897 0.9816 1.6155
6.3517 1.2101 1.6155
6.3052 1.4371 1.6155
6.2503 1.6622 1.6155
6.1871 1.8852 1.6155
6.1157 2.1057 1.6155
6.0361 2.3233 1.6155
5.9485 2.5379 1.6155
3.5529 1.6687 0.9806
3.3375 1.7161 0.9377
3.2732 1.8341 0.9377
5.5207 3.3589 1.6155
5.3951 3.5534 1.6155
5.2625 3.7431 1.6155
5.1229 3.9276 1.6155
4.9767 4.1068 1.6155
4.8240 4.2804 1.6155
4.6651 4.4482 1.6155
4.5001 4.6098 1.6155
4.3294 4.7652 1.6155
4.1531 4.9140 1.6155
3.9715 5.0561 1.6155
3.7850 5.1914 1.6155
3.5937 5.3196 1.6155
3.3980 5.4406 1.6155
3.1981 5.5542 1.6155
2.9944 5.6603 1.6155
2.7870 5.7587 1.6155
2.5763 5.8494 1.6155
0.8572 2.1523 0.5862
0.7795 2.1815 0.5867
0.7007 2.2079 0.5873
0.6210 2.2315 0.5879
0.5406 2.2522 0.5885
0.4595 2.2701 0.5891
0.3777 2.2850 0.5897
4.2611 4.0534 1.6155
4.1110 4.2012 1.6155
3.9556 4.3434 1.6155
3.7952 4.4796 1.6155
3.6299 4.6098 1.6155
3.4601 4.7337 1.6155
3.2859 4.8512 1.6156
3.1076 4.9621 1.6156
2.9255 5.0663 1.6156
2.7399 5.1637 1.6156
2.5509 5.2542 1.6156
0.8572 1.9396 0.5871
0.7870 1.9689 0.5875
0.7159 1.9957 0.5880
0.6438 2.0199 0.5886
0.5710 2.0416 0.5891
0.4974 2.0606 0.5897
0.4231 2.0770 0.5902
0.3484 2.0907 0.5908
0.2732 2.1018 0.5914
0.1976 2.1102 0.5920
0.1218 2.1158 0.5927
0.0458 2.1188 0.5933
-0.0302 2.1190 0.5940
-0.1062 2.1165 0.5946
-0.1821 2.1113 0.5953
-0.2577 2.1034 0.5960
-0.3331 2.0929 0.5967
-0.4080 2.0796 0.5974
-0.4823 2.0636 0.5981
-0.5561 2.0450 0.5988
-0.6292 2.0238 0.5996
-0.7015 2.0000 0.6003
-0.7729 1.9736 0.6010
-0.8433 1.9447 0.6018
-2.6033 5.4577 1.7187
-2.7944 5.3544 1.7187
-2.9814 5.2445 1.7187
-3.1643 5.1282 1.7187
-3.3426 5.0055 1.7187
-3.5164 4.8767 1.7187
-3.6852 4.7420 1.7187
-3.8490 4.6015 1.7187
-4.0076 4.4554 1.7187
-4.1607 4.3039 1.7187
-4.3082 4.1473 1.7187
-4.4499 3.9857 1.7187
-4.5857 3.8193 1.7187
-4.7155 3.6484 1.7187
-4.8390 3.4732 1.7187
-4.9561 3.2939 1.7187
-5.0668 3.1108 1.7187
-5.1708 2.9240 1.7187
-5.2682 2.7339 1.7187
-5.3587 2.5406 1.7187
-5.4424 2.3443 1.7187
-5.5190 2.1454 1.7187
-5.5886 1.9441 1.7187
-5.6510 1.7406 1.7187
-5.7062 1.5352 1.7187
-5.7542 1.3281 1.7187
-5.7949 1.1196 1.7187
-5.8282 0.9098 1.7187
-5.8542 0.6992 1.7187
-5.8728 0.4878 1.7187
-5.8293 0.2735 1.7027
-5.6908 0.0620 1.6612
-5.6070 -0.1408 1.6377
-5.5245 -0.3380 1.6167
-5.5031 -0.5360 1.6154
-5.4789 -0.7335 1.6154
-5.4632 -0.9327 1.6200
-5.4101 -1.1254 1.6154
-5.3654 -1.3192 1.6154
-5.3141 -1.5113 1.6154
-5.2561 -1.7016 1.6154
-5.1915 -1.8896 1.6154
-5.1204 -2.0754 1.6154
-5.0428 -2.2585 1.6154
-4.9589 -2.4389 1.6154
-4.8688 -2.6162 1.6154
-4.7725 -2.7903 1.6154
-4.6863 -2.9713 1.6210
-4.5619 -3.1281 1.6154
-4.4479 -3.2914 1.6154
-4.3282 -3.4506 1.6154
-4.2296 -3.6285 1.6257
-4.1505 -3.8283 1.6465
-4.0695 -4.0341 1.6701
-3.9892 -4.2498 1.6979
-3.8829 -4.4469 1.7187
-3.7226 -4.5865 1.7187
-3.5574 -4.7204 1.7187
-3.3876 -4.8486 1.7187
-3.2132 -4.9708 1.7187
-3.0346 -5.0869 1.7187
-2.8518 -5.1967 1.7187
-2.6652 -5.3002 1.7187
-2.4749 -5.3971 1.7187
-2.2812 -5.4873 1.7187
-2.0843 -5.5707 1.7187
-1.8843 -5.6472 1.7187
-1.6817 -5.7166 1.7187
-1.4765 -5.7790 1.7187
-1.2690 -5.8341 1.7187
-1.0596 -5.8818 1.7187
-0.8484 -5.9222 1.7187
-0.6356 -5.9551 1.7187
-0.4217 -5.9805 1.7187
-0.2067 -5.9983 1.7187
0.0090 -6.0085 1.7187
0.2251 -6.0110 1.7187
0.4414 -6.0058 1.7187
0.6576 -5.9929 1.7187
0.8734 -5.9723 1.7187
1.0886 -5.9439 1.7187
1.3029 -5.9079 1.7187
1.5159 -5.8641 1.7187
1.7275 -5.8128 1.7187
1.9374 -5.7538 1.7187
2.1452 -5.6872 1.7187
2.3508 -5.6131 1.7187
2.5537 -5.5316 1.7187
2.7538 -5.4428 1.7187
2.9509 -5.3467 1.7187
3.1445 -5.2435 1.7187
