ply
format ascii 1.0
element vertex 2116
property float32 x
property float32 y
property float32 z
end_header
-13.0544 2.7620 -1.3200
-13.0156 2.2678 -1.3076
-12.9503 1.7787 -1.2946
-12.8862 1.2994 -1.2836
-12.8232 0.8281 -1.2746
-12.7611 0.3636 -1.2675
-12.6997 -0.0954 -1.2622
-12.5832 -0.5480 -1.2532
-12.5784 -1.0024 -1.2571
-8.8759 -1.0300 -0.8914
-8.8665 -1.3540 -0.8961
-12.3979 -2.3528 -1.2626
-12.3374 -2.8049 -1.2680
-12.2766 -3.2600 -1.2752
-12.2152 -3.7193 -1.2842
-12.1530 -4.1841 -1.2951
-12.0900 -4.6557 -1.3080
-11.9997 -5.1243 -1.3201
-11.9118 -5.6021 -1.3346
-11.8398 -6.0981 -1.3532
-11.7713 -6.6095 -1.3749
-11.7161 -7.1452 -1.4008
5.2758 -3.8818 -0.6081
5.2764 -3.5965 -0.5934
5.2650 -3.3172 -0.5787
5.2546 -3.0517 -0.5654
5.2450 -2.7983 -0.5534
5.2484 -2.5614 -0.5439
5.3105 -2.3586 -0.5413
5.3723 -2.1577 -0.5394
5.4340 -1.9581 -0.5382
5.4959 -1.7592 -0.5376
5.5581 -1.5606 -0.5377
5.6207 -1.3616 -0.5385
5.6840 -1.1617 -0.5400
5.7480 -0.9604 -0.5421
5.8131 -0.7570 -0.5450
5.8794 -0.5509 -0.5485
6.0054 -0.3449 -0.5582
6.1988 -0.1321 -0.5748
6.4054 0.0945 -0.5932
6.6271 0.3370 -0.6137
6.8662 0.5979 -0.6366
7.1257 0.8804 -0.6622
7.4088 1.1879 -0.6909
7.7813 1.5372 -0.7291
10.4310 2.4544 -0.9833
41.1415 27.6428 -4.4432
36.6825 26.6146 -4.0512
35.8502 28.0373 -4.0565
33.0155 27.7948 -3.8353
33.3444 30.1907 -3.9852
6.9971 8.4638 -0.9606
-14.1687 11.3783 -1.3916
-14.0575 10.4793 -1.3411
-14.0063 9.6767 -1.3007
-13.9000 8.8814 -1.2592
-13.7999 8.1331 -1.2218
-13.6419 7.3916 -1.1827
-13.6156 6.7550 -1.1580
-13.5302 6.1159 -1.1309
-13.4485 5.5048 -1.1065
-13.3701 4.9186 -1.0847
-13.2946 4.3542 -1.0652
-13.2217 3.8090 -1.0480
-13.1511 3.2809 -1.0327
-13.0825 2.7676 -1.0193
-13.0156 2.2673 -1.0078
-12.9502 1.7782 -0.9979
-12.8861 1.2987 -0.9896
-12.8231 0.8274 -0.9829
-12.7610 0.3629 -0.9777
-12.6996 -0.0963 -0.9740
-12.5833 -0.5489 -0.9674
-12.5783 -1.0035 -0.9707
-8.8758 -1.0308 -0.6886
-12.4579 -1.9036 -0.9730
-12.3977 -2.3540 -0.9762
-12.3373 -2.8062 -0.9808
-12.2764 -3.2614 -0.9869
-12.2150 -3.7208 -0.9944
-12.1528 -4.1857 -1.0034
-12.0897 -4.6573 -1.0140
-12.0256 -5.1372 -1.0261
-11.9601 -5.6268 -1.0400
-11.8931 -6.1277 -1.0557
-11.8244 -6.6416 -1.0733
-11.7537 -7.1706 -1.0928
-11.6807 -7.7165 -1.1146
-11.6051 -8.2819 -1.1387
-11.5265 -8.8693 -1.1653
-11.4447 -9.4816 -1.1947
-11.3590 -10.1222 -1.2272
-11.2691 -10.7948 -1.2629
-11.1743 -11.5038 -1.3024
-11.0251 -12.2002 -1.3400
-10.9188 -12.9944 -1.3880
5.1984 -3.8245 -0.4529
5.1919 -3.5385 -0.4414
5.1828 -3.2651 -0.4308
5.1744 -3.0049 -0.4211
5.1667 -2.7563 -0.4124
5.1856 -2.5307 -0.4066
5.2472 -2.3304 -0.4047
5.3085 -2.1320 -0.4033
5.3696 -1.9349 -0.4024
5.4308 -1.7384 -0.4020
5.4922 -1.5422 -0.4020
5.5540 -1.3456 -0.4026
5.6162 -1.1480 -0.4036
5.6792 -0.9491 -0.4051
5.7431 -0.7481 -0.4071
5.7713 -0.5411 -0.4070
5.8579 -0.3368 -0.4115
6.0404 -0.1291 -0.4232
6.2566 0.0919 -0.4376
6.4899 0.3295 -0.4537
6.7321 0.5857 -0.4710
6.9808 0.8619 -0.4892
7.2515 1.1620 -0.5098
7.5482 1.4904 -0.5329
8.9986 2.1164 -0.6387
37.0474 26.8704 -3.0540
36.6461 28.6500 -3.0921
34.0747 30.8413 -3.0307
6.9975 8.4611 -0.7117
28.4780 37.0774 -3.0169
26.4744 37.1680 -2.9312
26.4331 40.0923 -3.0704
19.5512 45.8955 -3.1142
10.5507 46.6220 -2.9110
9.1251 48.3532 -2.9818
7.3638 48.5608 -2.9615
5.0598 44.0099 -2.6579
-15.4647 20.6837 -1.4175
-15.1983 18.8703 -1.3260
-15.0318 17.3458 -1.2526
-14.8425 15.9302 -1.1851
-14.6715 14.6514 -1.1258
-14.5159 13.4876 -1.0735
-14.3733 12.4214 -1.0270
-14.1686 11.3796 -0.9806
-14.1200 10.5271 -0.9488
-14.0065 9.6778 -0.9157
-13.9001 8.8823 -0.8861
-13.8000 8.1338 -0.8595
-13.6418 7.3920 -0.8318
-13.6157 6.7554 -0.8143
-13.5302 6.1161 -0.7951
-13.4485 5.5050 -0.7779
-13.3701 4.9186 -0.7625
-13.2946 4.3541 -0.7488
-13.2217 3.8088 -0.7368
-13.1511 3.2806 -0.7262
-13.0824 2.7672 -0.7169
-13.0155 2.2668 -0.7090
-12.9501 1.7777 -0.7023
-12.8860 1.2981 -0.6967
-12.8230 0.8267 -0.6923
-12.7609 0.3621 -0.6890
-12.6995 -0.0971 -0.6867
-12.5844 -0.5499 -0.6826
-12.5782 -1.0045 -0.6853
-8.8757 -1.0316 -0.4865
-12.4578 -1.9048 -0.6879
-12.3976 -2.3552 -0.6908
-12.3371 -2.8076 -0.6946
-12.2762 -3.2628 -0.6996
-12.2148 -3.7223 -0.7056
-12.1526 -4.1872 -0.7127
-12.0895 -4.6590 -0.7209
-12.0253 -5.1390 -0.7303
-11.9599 -5.6287 -0.7410
-11.8929 -6.1297 -0.7530
-11.8241 -6.6437 -0.7665
-11.7534 -7.1728 -0.7814
-11.6804 -7.7189 -0.7979
-11.6047 -8.2844 -0.8162
-11.5262 -8.8720 -0.8363
-11.4443 -9.4845 -0.8585
-11.3586 -10.1253 -0.8830
-11.2686 -10.7981 -0.9099
-11.1738 -11.5073 -0.9396
-11.0734 -12.2580 -0.9723
-10.9667 -13.0561 -1.0085
-10.8527 -13.9084 -1.0485
-10.7304 -14.8231 -1.0930
5.1178 -3.7647 -0.3022
5.1103 -3.4825 -0.2947
5.1034 -3.2148 -0.2878
5.0969 -2.9597 -0.2816
5.0909 -2.7157 -0.2760
5.1244 -2.5007 -0.2729
5.1855 -2.3030 -0.2717
5.2463 -2.1070 -0.2708
5.3069 -1.9123 -0.2702
5.3674 -1.7182 -0.2699
5.4281 -1.5243 -0.2699
5.4890 -1.3300 -0.2702
5.5503 -1.1347 -0.2708
5.6123 -0.9381 -0.2717
5.6517 -0.7364 -0.2718
5.6432 -0.5293 -0.2699
5.7442 -0.3305 -0.2735
5.8740 -0.1259 -0.2787
6.0768 0.0888 -0.2877
6.2964 0.3193 -0.2977
6.5338 0.5679 -0.3089
6.7919 0.8379 -0.3214
7.0744 1.1329 -0.3354
7.3844 1.4572 -0.3512
7.8239 1.8392 -0.3737
10.9002 2.9807 -0.5235
6.9983 8.4589 -0.4637
28.4947 37.0852 -1.9617
26.2233 36.8011 -1.8822
24.5212 37.1775 -1.8418
24.1830 39.7068 -1.9088
23.8132 42.4722 -1.9845
22.5495 43.8505 -1.9947
20.4556 43.5706 -1.9326
19.1154 44.8487 -1.9426
10.5603 46.6233 -1.8320
8.7619 46.3808 -1.7946
7.0059 46.1423 -1.7605
4.9776 43.2249 -1.6283
3.4188 43.3939 -1.6161
1.9106 44.8297 -1.6529
-3.4372 24.8313 -0.8883
-17.3828 34.9281 -1.2977
-16.8609 31.0250 -1.1673
-16.4289 27.7948 -1.0610
-16.0647 25.0710 -0.9729
-15.7527 22.7375 -0.8988
-15.4817 20.7110 -0.8358
-15.2436 18.9304 -0.7817
-15.0323 17.3496 -0.7348
-14.8429 15.9334 -0.6940
-14.6719 14.6541 -0.6581
-14.5162 13.4899 -0.6265
-14.3736 12.4232 -0.5985
-14.1684 11.3808 -0.5706
-14.1202 10.5285 -0.5514
-14.0066 9.6789 -0.5316
-13.9002 8.8832 -0.5140
-13.8001 8.1345 -0.4981
-13.6417 7.3925 -0.4817
-13.6157 6.7558 -0.4713
-13.5302 6.1164 -0.4601
-13.4485 5.5051 -0.4500
-13.3701 4.9185 -0.4411
-13.2946 4.3540 -0.4332
-13.2217 3.8086 -0.4263
-13.1510 3.2803 -0.4204
-13.0824 2.7668 -0.4152
-13.0154 2.2663 -0.4109
-12.9500 1.7771 -0.4073
-12.8859 1.2975 -0.4045
-12.8229 0.8260 -0.4024
-12.7608 0.3613 -0.4009
-12.6994 -0.0980 -0.4002
-12.5857 -0.5509 -0.3984
-12.5780 -1.0055 -0.4006
-12.5178 -1.4560 -0.4018
-12.4576 -1.9059 -0.4036
-12.3974 -2.3565 -0.4060
-12.3369 -2.8088 -0.4092
-12.2760 -3.2642 -0.4129
-12.2146 -3.7238 -0.4174
-12.1524 -4.1888 -0.4226
-12.0893 -4.6607 -0.4285
-12.0251 -5.1407 -0.4352
-11.9596 -5.6305 -0.4428
-11.8926 -6.1316 -0.4511
-11.8239 -6.6458 -0.4604
-11.7531 -7.1750 -0.4707
-11.6801 -7.7213 -0.4820
-11.6044 -8.2870 -0.4944
-11.5258 -8.8747 -0.5081
-11.4439 -9.4874 -0.5231
-11.3582 -10.1283 -0.5396
-11.2682 -10.8014 -0.5577
-11.1733 -11.5109 -0.5776
-11.0729 -12.2619 -0.5995
-10.9662 -13.0602 -0.6237
-10.8521 -13.9129 -0.6504
-10.7298 -14.8280 -0.6800
5.0366 -3.7046 -0.1564
5.0314 -3.4284 -0.1528
5.0265 -3.1660 -0.1495
5.0219 -2.9158 -0.1465
5.0175 -2.6764 -0.1437
5.0647 -2.4714 -0.1426
5.1255 -2.2762 -0.1421
5.1858 -2.0827 -0.1417
5.2458 -1.8902 -0.1414
5.3056 -1.6985 -0.1412
5.3655 -1.5068 -0.1411
5.4256 -1.3147 -0.1412
5.4860 -1.1217 -0.1414
5.5365 -0.9256 -0.1415
5.5286 -0.7206 -0.1402
5.5209 -0.5181 -0.1390
5.6350 -0.3246 -0.1410
5.7600 -0.1238 -0.1434
5.9074 0.0859 -0.1464
6.1144 0.3096 -0.1510
6.3375 0.5503 -0.1561
6.5793 0.8111 -0.1618
6.8429 1.0952 -0.1681
7.1322 1.4067 -0.1753
7.4520 1.7509 -0.1833
8.9754 2.4533 -0.2212
31.1571 37.6461 -0.9623
28.6608 37.2873 -0.9125
26.2343 36.8023 -0.8637
24.6260 37.3212 -0.8413
24.2865 39.8600 -0.8643
16.3214 29.0973 -0.6077
16.6108 32.2869 -0.6505
15.3549 32.6900 -0.6361
10.5698 46.6246 -0.7547
8.7711 46.3817 -0.7309
7.0149 46.1435 -0.7087
4.9859 43.2260 -0.6478
3.4170 43.2694 -0.6334
1.8969 44.3195 -0.6344
-13.9344 33.9384 -0.4096
-18.0306 39.7734 -0.4779
-17.3849 34.9437 -0.4188
-16.8625 31.0373 -0.3718
-16.4303 27.8047 -0.3336
-16.0658 25.0790 -0.3021
-15.7536 22.7440 -0.2756
-15.4825 20.7164 -0.2533
-15.2443 18.9349 -0.2341
-15.0328 17.3535 -0.2176
-14.8434 15.9366 -0.2034
-14.6722 14.6568 -0.1909
-14.5165 13.4922 -0.1800
-14.3738 12.4251 -0.1704
-14.1682 11.3820 -0.1612
-14.1204 10.5298 -0.1546
-14.0067 9.6800 -0.1481
-13.9003 8.8841 -0.1423
-13.8002 8.1352 -0.1372
-13.6417 7.3930 -0.1322
-13.6158 6.7561 -0.1289
-13.5303 6.1166 -0.1255
-13.4485 5.5052 -0.1226
-13.3701 4.9185 -0.1201
-13.2946 4.3538 -0.1180
-13.2216 3.8084 -0.1163
-13.1510 3.2800 -0.1150
-13.0823 2.7664 -0.1139
-13.0154 2.2659 -0.1132
-12.9500 1.7765 -0.1128
-12.8858 1.2969 -0.1127
-12.8228 0.8253 -0.1129
-12.7606 0.3605 -0.1133
-12.6992 -0.0989 -0.1140
-12.5869 -0.5519 -0.1146
-12.5779 -1.0065 -0.1163
-12.5177 -1.4570 -0.1178
-12.4575 -1.9071 -0.1196
-12.3972 -2.3577 -0.1217
-12.3367 -2.8101 -0.1241
-12.2758 -3.2656 -0.1267
-12.2144 -3.7252 -0.1297
-12.1522 -4.1904 -0.1330
-12.0891 -4.6623 -0.1366
-12.0249 -5.1425 -0.1406
-11.9594 -5.6324 -0.1449
-11.8923 -6.1337 -0.1497
-11.8236 -6.6479 -0.1548
-11.7528 -7.1772 -0.1604
-11.6797 -7.7236 -0.1665
-11.6041 -8.2895 -0.1731
-11.5255 -8.8774 -0.1803
-11.4435 -9.4902 -0.1882
-11.3578 -10.1314 -0.1967
-11.2678 -10.8047 -0.2060
-11.1728 -11.5144 -0.2161
-11.0724 -12.2657 -0.2272
-10.9656 -13.0643 -0.2394
-10.8515 -13.9173 -0.2528
-10.7291 -14.8328 -0.2676
4.9581 -3.6464 -0.0154
4.9549 -3.3760 -0.0154
4.9519 -3.1189 -0.0155
4.9491 -2.8734 -0.0155
4.9463 -2.6383 -0.0154
5.0065 -2.4429 -0.0155
5.0668 -2.2501 -0.0156
5.1266 -2.0589 -0.0156
5.1861 -1.8688 -0.0156
5.2453 -1.6792 -0.0155
5.3045 -1.4898 -0.0154
5.3638 -1.2999 -0.0153
5.4233 -1.1091 -0.0151
5.4178 -0.9060 -0.0147
5.4108 -0.7055 -0.0143
5.4141 -0.5084 -0.0138
5.5300 -0.3188 -0.0136
5.6505 -0.1218 -0.0134
5.7761 0.0836 -0.0130
5.9429 0.3004 -0.0128
6.1530 0.5338 -0.0125
6.3798 0.7860 -0.0121
6.6263 1.0599 -0.0117
6.8956 1.3594 -0.0111
7.1921 1.6891 -0.0105
7.5357 2.0589 -0.0098
11.4365 3.5721 -0.0128
29.7390 31.0641 0.0973
25.6605 30.9935 0.1139
28.6729 37.2891 0.1467
26.2455 36.8036 0.1542
24.6276 37.3087 0.1657
24.2883 39.8462 0.1869
16.3302 29.1002 0.1437
16.6155 32.2811 0.1673
15.3631 32.6913 0.1774
10.5792 46.6254 0.3220
8.7802 46.3819 0.3322
7.0239 46.1447 0.3424
4.9941 43.2271 0.3322
3.4248 43.2675 0.3441
1.9029 44.2718 0.3642
-0.9458 32.4821 0.2857
-7.5237 42.9922 0.4315
-8.7462 41.1799 0.4272
-18.8556 45.9426 0.5640
-18.0334 39.7937 0.5058
-17.3870 34.9594 0.4603
-16.8642 31.0496 0.4238
-16.4316 27.8146 0.3938
-16.0669 25.0870 0.3688
-15.7545 22.7506 0.3475
-15.4832 20.7219 0.3293
-15.2449 18.9395 0.3134
-15.0333 17.3572 0.2995
-14.8438 15.9398 0.2872
-14.6726 14.6595 0.2762
-14.5168 13.4944 0.2664
-14.3741 12.4271 0.2575
-14.1680 11.3833 0.2481
-14.1206 10.5311 0.2421
-14.0069 9.6810 0.2354
-13.9004 8.8849 0.2292
-13.8003 8.1359 0.2236
-13.6416 7.3934 0.2173
-13.6158 6.7565 0.2134
-13.5303 6.1169 0.2089
-13.4485 5.5053 0.2047
-13.3701 4.9186 0.2007
-13.2945 4.3537 0.1970
-13.2216 3.8082 0.1935
-13.1509 3.2797 0.1903
-13.0823 2.7661 0.1872
-13.0153 2.2654 0.1843
-12.9499 1.7760 0.1815
-12.8858 1.2962 0.1790
-12.8227 0.8246 0.1765
-12.7606 0.3597 0.1742
-12.6991 -0.0997 0.1720
-12.5882 -0.5529 0.1692
-12.5778 -1.0074 0.1679
-12.5175 -1.4581 0.1660
-12.4573 -1.9083 0.1642
-12.3971 -2.3589 0.1625
-12.3366 -2.8115 0.1609
-12.2757 -3.2670 0.1593
-12.2142 -3.7268 0.1579
-12.1520 -4.1920 0.1565
-12.0889 -4.6640 0.1552
-12.0246 -5.1443 0.1540
-11.9591 -5.6342 0.1528
-11.8921 -6.1356 0.1517
-11.8233 -6.6500 0.1507
-11.7525 -7.1795 0.1497
-11.6794 -7.7260 0.1489
-11.6037 -8.2920 0.1480
-11.5251 -8.8801 0.1473
-11.4431 -9.4931 0.1467
-11.3574 -10.1345 0.1461
-11.2673 -10.8080 0.1456
-11.1724 -11.5180 0.1452
-11.0719 -12.2695 0.1449
-10.9651 -13.0684 0.1447
-10.8510 -13.9217 0.1446
-10.7285 -14.8376 0.1447
4.8820 -3.5901 0.1214
4.8808 -3.3252 0.1178
4.8796 -3.0730 0.1146
4.8783 -2.8321 0.1118
4.8890 -2.6076 0.1096
4.9497 -2.4151 0.1087
5.0096 -2.2246 0.1081
5.0689 -2.0357 0.1076
5.1277 -1.8477 0.1074
5.1864 -1.6604 0.1073
5.2448 -1.4731 0.1075
5.3034 -1.2853 0.1078
5.3100 -1.0861 0.1073
5.3040 -0.8872 0.1067
5.2980 -0.6910 0.1064
5.3169 -0.4995 0.1067
5.4289 -0.3133 0.1091
5.5451 -0.1199 0.1118
5.6660 0.0816 0.1148
5.7923 0.2924 0.1182
5.9789 0.5182 0.1231
6.1921 0.7623 0.1288
6.4229 1.0267 0.1352
6.6743 1.3150 0.1424
6.9498 1.6314 0.1506
7.2660 1.9843 0.1602
8.9572 2.7966 0.2013
43.1510 24.6370 1.1289
30.4229 20.4068 0.8499
33.9875 24.6182 0.9841
31.0304 24.2273 0.9333
28.4102 23.8775 0.8895
26.0457 23.5422 0.8509
23.9413 23.2608 0.8181
22.0551 23.0298 0.7904
20.2873 22.7723 0.7646
18.6832 22.5578 0.7426
17.1995 22.3594 0.7234
15.8196 22.1749 0.7065
22.1644 33.5636 1.0551
13.3185 21.8405 0.6787
17.2687 30.7589 0.9464
17.8438 34.6513 1.0575
16.2053 34.4663 1.0449
9.0827 21.2763 0.6418
8.5600 22.2382 0.6681
11.6503 33.8573 1.0151
10.2448 33.6693 1.0085
8.8755 33.4521 1.0023
7.5648 33.3110 0.9996
6.2798 33.1391 0.9972
5.0197 32.9366 0.9950
3.7964 32.8071 0.9961
1.6324 20.5747 0.6286
1.4023 32.4869 0.9999
0.1632 22.9804 0.7133
-0.8897 30.7397 0.9633
-2.8869 44.3710 1.4052
-4.7903 34.7353 1.1274
-7.0006 40.0421 1.3178
-5.9607 28.0869 0.9383
-6.9960 27.9629 0.9493
-17.9532 39.6311 1.4840
-17.3891 34.9750 1.3406
-16.8658 31.0619 1.2204
-16.4329 27.8244 1.1221
-16.0679 25.0950 1.0403
-15.7554 22.7572 0.9713
-15.4839 20.7273 0.9123
-15.2455 18.9440 0.8614
-15.0338 17.3611 0.8170
-14.8442 15.9430 0.7781
-14.6729 14.6622 0.7437
-14.5171 13.4967 0.7131
-14.3743 12.4290 0.6857
-14.1678 11.3846 0.6577
-14.1207 10.5324 0.6391
-14.0070 9.6821 0.6191
-13.9005 8.8858 0.6010
-13.8004 8.1366 0.5846
-13.6415 7.3938 0.5669
-13.6159 6.7569 0.5560
-13.5303 6.1171 0.5435
-13.4485 5.5054 0.5322
-13.3701 4.9185 0.5218
-13.2945 4.3536 0.5123
-13.2216 3.8080 0.5036
-13.1509 3.2793 0.4957
-13.0822 2.7657 0.4885
-13.0153 2.2649 0.4820
-12.9498 1.7754 0.4761
-12.8857 1.2956 0.4708
-12.8226 0.8239 0.4661
-12.7604 0.3589 0.4618
-12.6990 -0.1006 0.4581
-12.5895 -0.5538 0.4532
-12.5776 -1.0084 0.4522
-12.5174 -1.4592 0.4500
-12.4572 -1.9094 0.4482
-12.3969 -2.3602 0.4469
-12.3364 -2.8128 0.4460
-12.2755 -3.2684 0.4456
-12.2140 -3.7282 0.4456
-12.1518 -4.1935 0.4462
-12.0886 -4.6657 0.4472
-12.0244 -5.1460 0.4487
-11.9589 -5.6361 0.4507
-11.8918 -6.1376 0.4532
-11.8230 -6.6522 0.4564
-11.7522 -7.1817 0.4601
-11.6791 -7.7284 0.4644
-11.6034 -8.2946 0.4694
-11.5247 -8.8828 0.4752
-11.4427 -9.4960 0.4817
-11.3570 -10.1375 0.4891
-11.2669 -10.8112 0.4974
-11.1719 -11.5215 0.5068
-11.0714 -12.2733 0.5173
-10.9645 -13.0725 0.5291
-10.8504 -13.9262 0.5424
-10.7278 -14.8424 0.5573
4.8081 -3.5353 0.2541
4.8088 -3.2758 0.2472
4.8093 -3.0285 0.2411
4.8096 -2.7920 0.2356
4.8338 -2.5779 0.2318
4.8940 -2.3878 0.2302
4.9535 -2.1996 0.2290
5.0123 -2.0129 0.2282
5.0707 -1.8272 0.2277
5.1287 -1.6419 0.2275
5.1865 -1.4567 0.2277
5.2047 -1.2616 0.2265
5.1999 -1.0637 0.2247
5.1949 -0.8691 0.2233
5.1897 -0.6771 0.2222
5.2230 -0.4910 0.2231
5.3314 -0.3080 0.2275
5.4435 -0.1180 0.2325
5.5599 0.0797 0.2380
5.6813 0.2864 0.2442
5.8142 0.5035 0.2512
6.0150 0.7399 0.2617
6.2316 0.9955 0.2734
6.4666 1.2735 0.2866
6.7231 1.5775 0.3014
7.0147 1.9149 0.3186
7.3468 2.2928 0.3386
36.3310 12.7913 1.7021
37.8473 14.8779 1.8052
37.1135 16.1558 1.8052
36.3322 17.3980 1.8052
35.5054 18.6026 1.8052
34.6351 19.7682 1.8052
33.0933 20.5026 1.7714
30.9017 20.7211 1.7021
29.9702 21.7011 1.7020
29.0083 22.6409 1.7021
28.0149 23.5373 1.7021
26.0561 23.5436 1.6430
23.9508 23.2621 1.5712
22.0560 23.0227 1.5092
20.2956 22.7734 1.4526
18.6909 22.5588 1.4030
17.2067 22.3604 1.3598
15.8264 22.1758 1.3208
13.3247 21.8413 1.2558
12.1818 21.6885 1.2285
14.9417 29.0022 1.6210
10.0697 21.4061 1.1826
9.0869 21.2747 1.1634
12.0916 31.3951 1.7024
7.2402 21.0278 1.1321
9.6853 31.8089 1.7028
5.5224 20.7981 1.1086
4.7024 20.6885 1.0994
3.9042 20.5817 1.0919
3.1248 20.4775 1.0859
2.3661 20.4137 1.0834
1.6361 20.5739 1.0942
1.3956 32.1967 1.7180
0.1673 22.9702 1.2312
-0.8838 30.7235 1.6562
-2.0346 31.3561 1.7020
-3.1471 31.1043 1.7020
-4.2447 30.8174 1.7021
-5.6491 32.3430 1.8052
-5.9539 28.0771 1.5856
-6.9749 27.8970 1.5959
-8.9812 31.1110 1.8052
-10.0527 30.6337 1.8052
-11.1033 30.1246 1.8052
-12.1323 29.5846 1.8052
-12.5861 27.7934 1.7292
-13.3163 26.7922 1.7021
-14.2218 26.2003 1.7021
-15.1046 25.5824 1.7021
-11.6659 18.2245 1.2438
-11.3863 16.4504 1.1536
-6.1019 8.1700 0.5897
-6.4775 8.0505 0.5993
-6.8540 7.9165 0.6089
-7.2309 7.7675 0.6186
-7.6075 7.6031 0.6284
-14.5174 13.4990 1.1606
-14.3746 12.4309 1.1147
-14.1676 11.3858 1.0680
-14.1209 10.5337 1.0368
-14.0072 9.6832 1.0035
-13.9007 8.8867 0.9735
-13.8005 8.1372 0.9462
-13.6415 7.3943 0.9172
-13.6159 6.7573 0.8991
-13.5304 6.1173 0.8787
-13.4485 5.5055 0.8602
-13.3701 4.9185 0.8433
-13.2945 4.3535 0.8280
-13.2215 3.8078 0.8142
-13.1508 3.2791 0.8016
-13.0822 2.7653 0.7903
-13.0152 2.2645 0.7802
-12.9497 1.7749 0.7711
-12.8856 1.2950 0.7631
-12.8225 0.8231 0.7561
-12.7603 0.3582 0.7500
-12.6989 -0.1014 0.7448
-12.5907 -0.5548 0.7377
-12.5775 -1.0095 0.7370
-12.5172 -1.4602 0.7344
-12.4570 -1.9106 0.7326
-12.3967 -2.3614 0.7317
-12.3362 -2.8141 0.7316
-12.2753 -3.2698 0.7323
-12.2138 -3.7297 0.7339
-12.1516 -4.1951 0.7363
-12.0884 -4.6674 0.7396
-12.0242 -5.1478 0.7439
-11.9586 -5.6380 0.7491
-11.8916 -6.1395 0.7553
-11.8227 -6.6543 0.7625
-11.7519 -7.1840 0.7709
-11.6788 -7.7308 0.7805
-11.6031 -8.2971 0.7913
-11.5244 -8.8855 0.8036
-11.4424 -9.4989 0.8173
-11.3565 -10.1406 0.8327
-11.2664 -10.8146 0.8498
-11.1714 -11.5250 0.8690
-11.0709 -12.2771 0.8904
-10.9640 -13.0767 0.9142
-10.8498 -13.9307 0.9408
-10.7272 -14.8473 0.9706
4.7363 -3.4822 0.3830
4.7388 -3.2278 0.3731
4.7409 -2.9851 0.3642
4.7426 -2.7529 0.3562
4.7796 -2.5489 0.3516
4.8395 -2.3611 0.3493
4.8986 -2.1752 0.3475
4.9569 -1.9907 0.3463
5.0147 -1.8070 0.3455
5.0721 -1.6239 0.3453
5.1011 -1.4329 0.3436
5.0978 -1.2358 0.3403
5.0941 -1.0422 0.3376
5.0900 -0.8517 0.3353
5.0855 -0.6638 0.3336
5.1323 -0.4827 0.3356
5.2371 -0.3028 0.3420
5.3453 -0.1163 0.3491
5.4576 0.0779 0.3569
5.5743 0.2805 0.3656
5.6962 0.4928 0.3753
5.8474 0.7188 0.3875
6.0509 0.9661 0.4039
6.2710 1.2343 0.4223
6.5103 1.5268 0.4429
6.7798 1.8499 0.4667
7.0869 2.2108 0.4944
7.4299 2.6149 0.5260
23.6490 9.2930 1.7019
23.2270 10.1072 1.7019
22.7747 10.9020 1.7019
23.6459 12.3847 1.8052
23.1057 13.1832 1.8052
22.5369 13.9577 1.8052
21.9408 14.7074 1.8052
21.3185 15.4313 1.8052
20.6713 16.1285 1.8052
20.0006 16.7983 1.8052
19.3075 17.4399 1.8052
18.5935 18.0527 1.8052
17.6739 18.4421 1.7864
16.2826 18.2640 1.7181
15.4057 18.5870 1.7021
14.6658 19.0513 1.7021
13.9123 19.4862 1.7021
13.1458 19.8907 1.7020
12.3688 20.2660 1.7020
11.5820 20.6115 1.7020
10.7864 20.9269 1.7020
9.9834 21.2123 1.7020
9.2778 21.7102 1.7212
8.1599 21.1745 1.6613
7.2449 21.0284 1.6351
6.3792 20.9364 1.6157
5.5268 20.7987 1.5952
4.7067 20.6890 1.5792
3.9083 20.5823 1.5657
3.1288 20.4781 1.5544
2.3698 20.4129 1.5481
1.6398 20.5730 1.5609
0.9896 22.7360 1.7278
0.1666 22.3305 1.7019
-0.6358 22.2389 1.7020
-1.4314 22.1204 1.7020
-2.2196 21.9753 1.7020
-2.9995 21.8043 1.7021
-3.9987 22.9162 1.8052
-4.8057 22.6805 1.8052
-5.6014 22.4188 1.8052
-6.3853 22.1315 1.8052
-7.1565 21.8192 1.8052
-7.9144 21.4824 1.8052
-8.6583 21.1217 1.8052
-9.3876 20.7377 1.8052
-10.1016 20.3310 1.8052
-10.7998 19.9021 1.8052
-11.4770 19.4438 1.8045
-11.4528 17.8962 1.7021
-11.3630 16.4206 1.6033
-5.9436 7.9597 0.7993
-5.9553 7.4030 0.7660
-5.9660 6.8921 0.7363
-5.9758 6.4204 0.7098
-5.9850 5.9825 0.6859
-5.9935 5.5738 0.6644
-6.0014 5.1906 0.6450
-6.0089 4.8297 0.6275
-6.0160 4.4882 0.6116
-6.1681 4.2645 0.6116
-6.3726 4.0743 0.6175
-6.7782 3.9970 0.6429
-7.3960 4.0092 0.6877
-13.6160 6.7576 1.2432
-13.5304 6.1176 1.2148
-13.4486 5.5056 1.1891
-13.3701 4.9185 1.1658
-13.2945 4.3534 1.1447
-13.2215 3.8076 1.1256
-13.1508 3.2788 1.1084
-13.0821 2.7649 1.0930
-13.0151 2.2640 1.0792
-12.9497 1.7743 1.0670
-12.8855 1.2943 1.0562
-12.8224 0.8225 1.0469
-12.7602 0.3574 1.0389
-12.6988 -0.1023 1.0322
-12.5920 -0.5558 1.0230
-12.5774 -1.0105 1.0226
-12.5171 -1.4614 1.0196
-12.4569 -1.9117 1.0178
-12.3966 -2.3626 1.0173
-12.3360 -2.8154 1.0179
-12.2751 -3.2712 1.0198
-12.2136 -3.7312 1.0229
-12.1513 -4.1967 1.0272
-12.0882 -4.6690 1.0329
-12.0239 -5.1496 1.0398
-11.9584 -5.6399 1.0482
-11.8913 -6.1416 1.0581
-11.8225 -6.6563 1.0695
-11.7516 -7.1862 1.0826
-11.6785 -7.7332 1.0974
-11.6027 -8.2996 1.1141
-11.5240 -8.8882 1.1329
-11.4420 -9.5018 1.1538
-6.8403 -6.1100 0.7091
-6.6305 -6.3668 0.7081
-6.4120 -6.6173 0.7073
-6.1848 -6.8612 0.7064
-10.9634 -13.0808 1.3004
-10.8492 -13.9351 1.3404
-10.7265 -14.8522 1.3851
4.6664 -3.4304 0.5086
4.6706 -3.1810 0.4958
4.6742 -2.9429 0.4842
4.6772 -2.7147 0.4738
4.7266 -2.5204 0.4690
4.7861 -2.3349 0.4661
4.8447 -2.1512 0.4638
4.9026 -1.9688 0.4622
4.9599 -1.7873 0.4612
4.9989 -1.6005 0.4592
4.9972 -1.4037 0.4542
4.9949 -1.2109 0.4499
4.9921 -1.0215 0.4463
4.9889 -0.8350 0.4432
4.9851 -0.6509 0.4409
5.0444 -0.4747 0.4447
5.1458 -0.2978 0.4528
5.2504 -0.1145 0.4619
5.3586 0.0761 0.4719
5.4710 0.2749 0.4830
5.5880 0.4830 0.4952
5.7103 0.7014 0.5087
5.8800 0.9382 0.5274
6.0864 1.1973 0.5504
6.3100 1.4791 0.5761
6.5595 1.7890 0.6056
6.8440 2.1342 0.6398
7.1602 2.5190 0.6789
7.5149 2.9519 0.7238
17.3701 7.5559 1.7019
17.0457 8.1567 1.7019
16.6994 8.7434 1.7019
16.3318 9.3151 1.7019
15.9438 9.8711 1.7019
16.4784 11.0422 1.8052
12.8688 9.3119 1.4496
15.5537 12.1315 1.8052
15.0633 12.6472 1.8052
14.5553 13.1428 1.8052
14.0307 13.6178 1.8052
13.4903 14.0717 1.8052
12.9351 14.5039 1.8052
12.3660 14.9141 1.8052
11.7839 15.3018 1.8052
11.1898 15.6669 1.8052
10.5846 16.0088 1.8052
9.9693 16.3275 1.8052
9.3447 16.6227 1.8052
8.7119 16.8941 1.8052
8.0717 17.1418 1.8052
7.2891 17.0476 1.7721
6.5359 16.9506 1.7420
5.8127 16.8609 1.7156
5.1440 16.8708 1.7021
4.5184 16.9911 1.7021
3.8911 17.0888 1.7021
3.2626 17.1641 1.7021
2.6339 17.2170 1.7021
2.0056 17.2477 1.7021
1.3787 17.2564 1.7021
0.7537 17.2433 1.7021
0.1315 17.2084 1.7021
-0.4906 17.2688 1.7137
-1.1393 17.6532 1.7598
-1.8154 18.0045 1.8052
-2.4563 17.8783 1.8052
-3.0908 17.7305 1.8052
-3.7180 17.5615 1.8052
-4.3375 17.3716 1.8052
-4.9484 17.1613 1.8052
-5.5503 16.9308 1.8052
-6.1426 16.6806 1.8052
-6.7246 16.4111 1.8052
-7.2958 16.1227 1.8052
-7.8556 15.8159 1.8052
-8.4036 15.4910 1.8052
-8.9392 15.1486 1.8052
-9.4620 14.7891 1.8052
-9.9714 14.4130 1.8052
-5.9384 7.9545 1.0242
-5.9503 7.3983 0.9811
-5.9612 6.8878 0.9427
-5.9712 6.4165 0.9084
-5.9805 5.9790 0.8775
-5.9892 5.5706 0.8498
-5.9973 5.1877 0.8247
-6.0049 4.8270 0.8021
-6.0120 4.4858 0.7816
-6.0188 4.1617 0.7631
-6.2356 3.9871 0.7723
-6.7794 3.9980 0.8218
-7.3976 4.0103 0.8790
-9.8532 4.8904 1.1495
-9.7912 4.4271 1.1232
-9.7326 3.9844 1.0994
-9.6954 3.5667 1.0801
-13.2360 4.3341 1.4560
-13.1984 3.8007 1.4356
-9.8199 2.4481 1.0576
-13.0820 2.7645 1.3967
-13.0151 2.2635 1.3793
-12.9496 1.7738 1.3639
-12.8854 1.2937 1.3504
-12.8223 0.8218 1.3387
-12.7601 0.3566 1.3288
-12.6987 -0.1032 1.3206
-12.5932 -0.5568 1.3095
-12.5772 -1.0115 1.3092
-12.5169 -1.4625 1.3058
-12.4567 -1.9129 1.3041
-12.3964 -2.3639 1.3039
-12.3359 -2.8167 1.3053
-12.2749 -3.2726 1.3083
-12.2134 -3.7327 1.3129
-12.1511 -4.1983 1.3192
-12.0880 -4.6707 1.3272
-12.0237 -5.1513 1.3369
-11.9581 -5.6417 1.3485
-6.5054 -3.3611 0.7452
-6.1894 -3.4860 0.7213
-6.0667 -3.7111 0.7204
-5.9365 -3.9323 0.7196
-5.7988 -4.1494 0.7187
-5.6537 -4.3621 0.7179
-5.5015 -4.5701 0.7172
-5.3421 -4.7734 0.7165
-5.2358 -5.0293 0.7241
-5.1945 -5.3627 0.7425
-5.1507 -5.7160 0.7630
-5.1041 -6.0922 0.7859
-5.0543 -6.4944 0.8113
-5.0007 -6.9268 0.8398
4.5983 -3.3800 0.6309
4.6040 -3.1354 0.6154
4.6091 -2.9016 0.6013
4.6141 -2.6779 0.5887
4.6744 -2.4925 0.5843
4.7336 -2.3092 0.5807
4.7918 -2.1276 0.5780
4.8492 -1.9473 0.5760
4.8975 -1.7648 0.5738
4.8976 -1.5681 0.5668
4.8970 -1.3757 0.5608
4.8957 -1.1870 0.5555
4.8939 -1.0015 0.5511
4.8914 -0.8189 0.5474
4.8882 -0.6384 0.5444
4.9591 -0.4669 0.5504
5.0573 -0.2930 0.5602
5.1584 -0.1128 0.5711
5.2628 0.0744 0.5831
5.3710 0.2695 0.5964
5.4835 0.4735 0.6111
5.6008 0.6875 0.6273
5.7236 0.9128 0.6452
5.9117 1.1623 0.6716
6.1210 1.4341 0.7019
6.3522 1.7317 0.7362
6.6163 2.0623 0.7762
6.9085 2.4295 0.8216
7.2344 2.8407 0.8735
13.8612 6.0273 1.7019
13.6089 6.5098 1.7019
13.3391 6.9816 1.7019
13.0522 7.4420 1.7019
12.7488 7.8903 1.7019
12.4294 8.3262 1.7019
12.0947 8.7488 1.7019
11.7451 9.1578 1.7019
12.0717 10.1321 1.8052
11.6715 10.5352 1.8052
11.2575 10.9224 1.8052
10.8304 11.2932 1.8052
10.3910 11.6470 1.8052
9.9400 11.9837 1.8052
9.4780 12.3028 1.8052
9.0058 12.6040 1.8052
8.5241 12.8871 1.8052
8.0336 13.1517 1.8052
7.5351 13.3978 1.8052
7.0293 13.6250 1.8052
6.5170 13.8332 1.8052
5.9988 14.0224 1.8052
5.4755 14.1924 1.8052
4.9477 14.3431 1.8052
4.4163 14.4744 1.8052
3.8820 14.5865 1.8052
3.3453 14.6791 1.8052
2.8071 14.7525 1.8052
2.2680 14.8066 1.8052
1.7287 14.8416 1.8052
1.1898 14.8574 1.8052
0.6520 14.8544 1.8052
0.1160 14.8324 1.8052
-0.4176 14.7919 1.8052
-0.9482 14.7328 1.8052
-1.4752 14.6555 1.8052
-1.9979 14.5601 1.8052
-2.5159 14.4468 1.8052
-3.0285 14.3159 1.8052
-3.5351 14.1678 1.8052
-4.0353 14.0025 1.8052
-4.5284 13.8206 1.8052
-5.0140 13.6221 1.8052
-5.4916 13.4075 1.8052
-5.9607 13.1771 1.8052
-6.4207 12.9312 1.8052
-6.8713 12.6703 1.8052
-7.3120 12.3945 1.8052
-7.7423 12.1043 1.8052
-8.1619 11.8002 1.8052
-5.9331 7.9492 1.2497
-5.8725 7.3031 1.1822
-5.9564 6.8836 1.1498
-5.9666 6.4127 1.1076
-5.9760 5.9755 1.0698
-5.9848 5.5675 1.0357
-5.9931 5.1848 1.0050
-6.0008 4.8244 0.9773
-6.0080 4.4833 0.9522
-6.0149 4.1594 0.9295
-6.2366 3.9881 0.9414
-6.7806 3.9990 1.0016
-7.3992 4.0115 1.0713
-11.9744 5.9435 1.7021
-9.8076 4.4347 1.3708
-9.7320 3.9843 1.3394
-9.6752 3.5593 1.3131
-9.6284 3.1527 1.2904
-9.5861 2.7603 1.2704
-9.5443 2.3791 1.2524
-9.4974 2.0067 1.2355
-9.4488 1.6429 1.2202
-9.4004 1.2872 1.2066
-9.3473 0.9380 1.1940
-9.2960 0.5952 1.1831
-9.2462 0.2578 1.1740
-9.1979 -0.0754 1.1665
-12.5945 -0.5578 1.5973
-6.5042 -3.3616 0.9121
-5.8140 -3.2757 0.8298
-5.4463 -3.3327 0.7924
-5.4147 -3.5879 0.8045
-5.3819 -3.8524 0.8181
-5.3478 -4.1274 0.8332
-5.3123 -4.4145 0.8501
-5.2750 -4.7151 0.8689
-5.2359 -5.0311 0.8897
-5.1946 -5.3646 0.9129
-5.1508 -5.7181 0.9386
-5.1041 -6.0944 0.9673
-5.0543 -6.4969 0.9991
-5.0007 -6.9295 1.0347
4.5319 -3.3308 0.7503
4.5391 -3.0908 0.7322
4.5454 -2.8613 0.7157
4.5632 -2.6482 0.7028
4.6232 -2.4650 0.6976
4.6820 -2.2839 0.6935
4.7398 -2.1045 0.6902
4.7965 -1.9262 0.6879
4.7986 -1.7292 0.6788
4.7998 -1.5369 0.6707
4.8003 -1.3486 0.6637
4.8000 -1.1639 0.6575
4.7989 -0.9823 0.6523
4.7971 -0.8032 0.6480
4.7946 -0.6264 0.6445
4.8762 -0.4593 0.6532
4.9713 -0.2883 0.6645
5.0691 -0.1112 0.6771
5.1699 0.0727 0.6910
5.2742 0.2642 0.7064
5.3823 0.4643 0.7233
5.4949 0.6740 0.7420
5.6125 0.8945 0.7626
5.7459 1.1291 0.7866
5.9420 1.3915 0.8208
6.1567 1.6777 0.8594
6.4023 1.9948 0.9044
6.6727 2.3457 0.9552
6.9728 2.7369 1.0132
7.3088 3.1770 1.0796
11.0453 5.2817 1.6612
11.0954 5.8052 1.7019
10.8605 6.1902 1.7019
10.6118 6.5655 1.7019
10.3498 6.9307 1.7019
10.0747 7.2852 1.7019
9.7873 7.6286 1.7019
9.4878 7.9606 1.7019
9.1769 8.2806 1.7019
8.8549 8.5883 1.7019
8.5435 8.9054 1.7061
8.6763 9.7216 1.8052
8.3032 10.0067 1.8052
7.9206 10.2774 1.8052
7.5292 10.5334 1.8052
7.1296 10.7744 1.8052
6.7223 11.0003 1.8052
6.3080 11.2108 1.8052
5.8872 11.4057 1.8052
5.4605 11.5849 1.8052
5.0286 11.7482 1.8052
4.5920 11.8956 1.8052
4.1514 12.0269 1.8052
3.7073 12.1421 1.8052
3.2603 12.2410 1.8052
2.8111 12.3238 1.8052
2.3601 12.3904 1.8052
1.9080 12.4408 1.8052
1.4554 12.4751 1.8052
1.0028 12.4933 1.8052
0.5508 12.4955 1.8052
0.0999 12.4817 1.8052
-0.3493 12.4522 1.8052
-0.7963 12.4070 1.8052
-1.2406 12.3463 1.8052
-1.6816 12.2701 1.8052
-2.1188 12.1788 1.8052
-2.5518 12.0725 1.8052
-2.9801 11.9514 1.8052
-3.4031 11.8157 1.8052
-3.8204 11.6657 1.8052
-4.2316 11.5016 1.8052
-4.6362 11.3236 1.8052
-5.0338 11.1321 1.8052
-5.4239 10.9272 1.8052
-5.8061 10.7094 1.8052
-6.1801 10.4789 1.8052
-6.5455 10.2359 1.8052
-6.9018 9.9808 1.8052
-5.9279 7.9440 1.4762
-5.7519 7.1545 1.3687
-5.9366 6.8620 1.3543
-5.9619 6.4088 1.3077
-5.9716 5.9720 1.2629
-5.9805 5.5643 1.2225
-5.9888 5.1819 1.1862
-5.9967 4.8216 1.1533
-5.9362 4.4302 1.1109
-6.0110 4.1571 1.0967
-6.2376 3.9891 1.1116
-6.7819 4.0001 1.1825
-7.4008 4.0126 1.2648
-10.1452 5.0358 1.7021
-10.3183 4.6658 1.7021
-10.4788 4.2901 1.7021
-10.6264 3.9092 1.7021
-10.7609 3.5235 1.7021
-10.8822 3.1334 1.7021
-9.8199 2.4476 1.5208
-11.0848 2.3418 1.7021
-11.1659 1.9411 1.7021
-9.5518 1.3075 1.4473
-11.2869 1.1321 1.7021
-11.3267 0.7246 1.7021
-11.3526 0.3158 1.7021
-9.2133 -0.0761 1.3799
-11.3626 -0.5041 1.7021
-11.3466 -0.9144 1.7021
-11.3165 -1.3242 1.7021
-11.2724 -1.7332 1.7021
-11.2143 -2.1408 1.7021
-11.1422 -2.5467 1.7021
-11.0561 -2.9503 1.7021
-10.9561 -3.3512 1.7021
-10.8422 -3.7490 1.7021
-10.7146 -4.1432 1.7021
-10.5732 -4.5332 1.7021
-10.4183 -4.9188 1.7021
-6.5030 -3.3622 1.0799
-5.8129 -3.2762 0.9827
-5.4464 -3.3339 0.9389
-5.4148 -3.5892 0.9536
-5.3820 -3.8537 0.9700
-5.3479 -4.1289 0.9883
-5.3123 -4.4160 1.0086
-5.2751 -4.7168 1.0313
-5.2359 -5.0329 1.0564
-5.1946 -5.3665 1.0843
-5.1508 -5.7202 1.1153
-5.1042 -6.0967 1.1497
-5.0543 -6.4993 1.1881
-5.0007 -6.9322 1.2309
4.4669 -3.2827 0.8670
4.4755 -3.0472 0.8464
4.4832 -2.8219 0.8277
4.5131 -2.6189 0.8150
4.5728 -2.4379 0.8092
4.6312 -2.2590 0.8044
4.6886 -2.0817 0.8007
4.6997 -1.8872 0.7904
4.7030 -1.6948 0.7802
4.7053 -1.5067 0.7711
4.7068 -1.3224 0.7631
4.7073 -1.1416 0.7562
4.7070 -0.9636 0.7503
4.7059 -0.7882 0.7454
4.7055 -0.6150 0.7416
4.7956 -0.4520 0.7532
4.8878 -0.2837 0.7659
4.9824 -0.1096 0.7801
5.0797 0.0711 0.7958
5.1802 0.2591 0.8131
5.2842 0.4554 0.8321
5.3923 0.6609 0.8531
5.5049 0.8768 0.8762
5.6227 1.1044 0.9016
5.7723 1.3511 0.9337
5.9718 1.6266 0.9759
6.2005 1.9311 1.0252
6.4512 2.2669 1.0808
6.7281 2.6399 1.1438
7.0365 3.0575 1.2158
7.3831 3.5292 1.2986
10.5106 5.4974 1.8851
9.2910 5.2938 1.7019
9.0806 5.6162 1.7019
8.8587 5.9302 1.7019
8.6256 6.2352 1.7019
8.3818 6.5309 1.7019
8.1276 6.8170 1.7019
7.8635 7.0931 1.7019
7.5898 7.3588 1.7019
7.3071 7.6138 1.7019
7.0156 7.8579 1.7019
6.7159 8.0908 1.7019
6.4085 8.3121 1.7019
6.0937 8.5217 1.7019
6.1223 9.2483 1.8052
5.7744 9.4451 1.8052
5.4202 9.6287 1.8052
5.0603 9.7991 1.8052
4.6951 9.9561 1.8052
4.3252 10.0996 1.8052
3.9511 10.2293 1.8052
3.5732 10.3454 1.8052
3.1921 10.4475 1.8052
2.8083 10.5359 1.8052
2.4223 10.6103 1.8052
2.0347 10.6707 1.8052
1.6458 10.7173 1.8052
1.2562 10.7499 1.8052
0.8664 10.7686 1.8052
0.4769 10.7735 1.8052
0.0881 10.7646 1.8052
-0.2994 10.7420 1.8052
-0.6852 10.7059 1.8052
-1.0689 10.6562 1.8052
-1.4499 10.5932 1.8052
-1.8279 10.5170 1.8052
-2.2023 10.4277 1.8052
-2.5729 10.3256 1.8052
-2.9391 10.2107 1.8052
-3.3005 10.0833 1.8052
-3.6567 9.9436 1.8052
-4.0073 9.7917 1.8052
-4.3520 9.6280 1.8052
-4.6904 9.4527 1.8052
-5.0220 9.2660 1.8052
-5.3466 9.0681 1.8052
-5.6638 8.8593 1.8052
-5.9732 8.6400 1.8052
-6.2745 8.4104 1.8052
-5.7781 7.1885 1.5882
-5.9459 6.8740 1.5665
-5.9573 6.4049 1.5089
-5.9671 5.9684 1.4570
-5.9761 5.5610 1.4104
-5.9846 5.1789 1.3683
-5.9926 4.8189 1.3302
-5.7751 4.3105 1.2473
-5.9014 4.0817 1.2426
-6.2385 3.9901 1.2829
-6.7831 4.0011 1.3648
-7.3890 4.0064 1.4571
-9.3254 4.6292 1.8052
-9.4472 4.2720 1.7980
-9.3901 3.8444 1.7598
-9.3352 3.4342 1.7252
-9.3269 3.0539 1.7021
-9.4535 2.7218 1.7060
-9.5254 2.3740 1.7021
-9.6071 2.0293 1.7021
-9.6769 1.6819 1.7021
-9.5517 1.3071 1.6701
-9.7806 0.9805 1.7021
-9.8144 0.6273 1.7021
-9.8361 0.2730 1.7021
-9.8456 -0.0820 1.7021
-9.8428 -0.4375 1.7021
-9.8279 -0.7928 1.7021
-9.8007 -1.1477 1.7021
-9.7612 -1.5018 1.7021
-9.7096 -1.8546 1.7021
-9.6457 -2.2057 1.7021
-9.5697 -2.5548 1.7021
-9.4815 -2.9014 1.7021
-9.3814 -3.2452 1.7021
-9.2692 -3.5856 1.7021
-9.1452 -3.9225 1.7021
-9.0094 -4.2552 1.7021
-6.5018 -3.3627 1.2488
-5.8118 -3.2767 1.1367
-5.4465 -3.3351 1.0865
-5.4148 -3.5904 1.1037
-5.3821 -3.8551 1.1229
-5.3480 -4.1303 1.1444
-5.3124 -4.4176 1.1682
-5.2751 -4.7184 1.1948
-5.2359 -5.0347 1.2242
-5.1946 -5.3685 1.2569
-5.1508 -5.7223 1.2931
-5.1042 -6.0990 1.3334
-5.0163 -6.4529 1.3680
-4.8788 -6.7659 1.3936
4.4034 -3.2356 0.9812
4.4133 -3.0046 0.9582
4.4222 -2.7832 0.9374
4.4638 -2.5901 0.9256
4.5231 -2.4113 0.9190
4.5812 -2.2345 0.9137
4.6006 -2.0426 0.9022
4.6061 -1.8496 0.8896
4.6105 -1.6614 0.8783
4.6139 -1.4774 0.8683
4.6162 -1.2970 0.8595
4.6176 -1.1199 0.8518
4.6180 -0.9455 0.8453
4.6175 -0.7735 0.8398
4.6296 -0.6053 0.8378
4.7171 -0.4448 0.8505
4.8064 -0.2793 0.8647
4.8980 -0.1080 0.8804
4.9920 0.0695 0.8977
5.0889 0.2542 0.9168
5.1890 0.4468 0.9377
5.2928 0.6483 0.9608
5.4007 0.8597 0.9862
5.5133 1.0823 1.0141
5.6313 1.3175 1.0449
5.7966 1.5781 1.0864
6.0097 1.8709 1.1395
6.2425 2.1927 1.1991
6.4984 2.5488 1.2665
6.7820 2.9458 1.3431
7.0988 3.3921 1.4309
7.6735 4.0121 1.5768
8.4699 4.8243 1.7773
9.4338 5.8327 2.0251
7.7363 5.1770 1.7019
7.5343 5.4445 1.7019
7.3229 5.7039 1.7019
7.1023 5.9550 1.7019
6.8730 6.1975 1.7019
6.6353 6.4311 1.7019
6.3895 6.6554 1.7019
6.1361 6.8703 1.7019
5.8754 7.0754 1.7019
5.6077 7.2707 1.7019
5.3336 7.4557 1.7019
5.0533 7.6304 1.7019
4.7673 7.7945 1.7019
4.4761 7.9479 1.7019
4.1799 8.0904 1.7019
3.8793 8.2219 1.7019
3.7915 8.8484 1.8052
3.4644 8.9641 1.8052
3.1340 9.0679 1.8052
2.8006 9.1596 1.8052
0.8193 3.0714 0.6001
0.7081 3.0988 0.6011
0.5960 3.1223 0.6021
0.4831 3.1417 0.6030
0.3695 3.1570 0.6040
0.2555 3.1683 0.6050
0.1412 3.1755 0.6060
0.0266 3.1787 0.6069
-0.0880 3.1777 0.6079
-0.2025 3.1726 0.6089
-0.3167 3.1635 0.6098
-0.4306 3.1502 0.6108
-0.5440 3.1330 0.6117
-0.6566 3.1116 0.6126
-0.7685 3.0863 0.6135
-2.5837 8.9814 1.8052
-2.9021 8.8708 1.8052
-3.2160 8.7494 1.8052
-3.5252 8.6171 1.8052
-3.8291 8.4744 1.8052
-4.1276 8.3213 1.8052
-4.4202 8.1581 1.8052
-4.7066 7.9849 1.8052
-4.9866 7.8021 1.8052
-5.2598 7.6099 1.8052
-5.5259 7.4085 1.8052
-5.7846 7.1982 1.8052
-6.0356 6.9791 1.8052
-6.2787 6.7517 1.8052
-6.5137 6.5163 1.8052
-6.7401 6.2729 1.8052
-5.9803 5.1759 1.5516
-5.9884 4.8162 1.5084
-5.7294 4.2769 1.4040
-5.8568 4.0513 1.3991
-6.2305 3.9853 1.4535
-6.7844 4.0022 1.5485
-7.4677 4.0494 1.6705
-8.2210 4.0811 1.8052
-8.3617 3.7813 1.8052
-8.4920 3.4768 1.8052
-8.6117 3.1680 1.8052
-8.7206 2.8553 1.8052
-8.8188 2.5390 1.8052
-8.9060 2.2194 1.8052
-8.9821 1.8970 1.8052
-9.0471 1.5721 1.8052
-9.0432 1.2371 1.7938
-8.9981 0.9016 1.7765
-8.9536 0.5718 1.7618
-8.9098 0.2467 1.7494
-8.8665 -0.0745 1.7393
-8.8236 -0.3928 1.7315
-8.7809 -0.7091 1.7259
-8.7384 -1.0241 1.7225
-8.6963 -1.3388 1.7213
-8.6535 -1.6538 1.7221
-8.6109 -1.9700 1.7252
-8.5679 -2.2884 1.7304
-8.5246 -2.6097 1.7379
-8.4807 -2.9348 1.7476
-8.4363 -3.2647 1.7598
-8.3910 -3.6003 1.7743
-8.3448 -3.9427 1.7914
-6.5007 -3.3633 1.4190
-5.8107 -3.2772 1.2918
-5.4465 -3.3363 1.2352
-5.4149 -3.5917 1.2550
-5.3821 -3.8564 1.2771
-5.2923 -4.0888 1.2882
-5.2895 -4.4001 1.3234
-5.2752 -4.7201 1.3596
-5.2360 -5.0365 1.3933
-5.1946 -5.3705 1.4308
-6.3150 -7.0182 1.8052
-6.0673 -7.2525 1.8052
-5.0094 -6.4466 1.5562
-4.8942 -6.7900 1.5929
4.3411 -3.1895 1.0930
4.3523 -2.9628 1.0679
4.3624 -2.7453 1.0451
4.4151 -2.5616 1.0346
4.4741 -2.3850 1.0274
4.5009 -2.1952 1.0146
4.5088 -2.0017 0.9994
4.5155 -1.8132 0.9857
4.5209 -1.6291 0.9734
4.5252 -1.4490 0.9625
4.5283 -1.2724 0.9529
4.5305 -1.0989 0.9446
4.5316 -0.9280 0.9374
4.5317 -0.7593 0.9315
4.5555 -0.5958 0.9316
4.6404 -0.4378 0.9455
4.7271 -0.2749 0.9610
4.8157 -0.1065 0.9780
4.9066 0.0680 0.9969
5.0000 0.2493 1.0176
5.0964 0.4384 1.0404
5.1961 0.6359 1.0655
5.2996 0.8431 1.0931
5.4073 1.0609 1.1233
5.5198 1.2908 1.1565
5.6378 1.5342 1.1931
5.7781 1.7980 1.2368
5.9347 2.0837 1.2868
6.0969 2.3904 1.3411
6.2652 2.7203 1.4003
6.4404 3.0764 1.4648
6.6231 3.4616 1.5355
6.8268 3.8870 1.6160
7.0771 4.3740 1.7135
7.4396 4.9768 1.8457
6.6821 4.8270 1.7019
6.4957 5.0578 1.7019
6.3011 5.2813 1.7019
6.0987 5.4973 1.7019
5.8888 5.7055 1.7019
5.6717 5.9055 1.7019
5.4477 6.0973 1.7019
5.2172 6.2805 1.7019
4.9805 6.4549 1.7019
4.7379 6.6204 1.7019
4.4898 6.7767 1.7019
4.2366 6.9237 1.7019
3.9785 7.0612 1.7019
3.7161 7.1891 1.7019
3.4495 7.3073 1.7019
3.1793 7.4157 1.7019
2.9057 7.5140 1.7019
2.6292 7.6024 1.7019
0.8278 2.7056 0.5995
0.7298 2.7335 0.6004
0.6308 2.7579 0.6013
0.5310 2.7788 0.6021
0.4305 2.7960 0.6030
0.3294 2.8097 0.6039
0.2279 2.8197 0.6048
0.1262 2.8261 0.6056
0.0242 2.8289 0.6065
-0.0778 2.8280 0.6073
-0.1797 2.8235 0.6082
-0.2814 2.8153 0.6090
-0.3827 2.8035 0.6099
-0.4836 2.7880 0.6107
-0.5838 2.7690 0.6115
-0.6834 2.7464 0.6123
-0.7821 2.7202 0.6131
-0.8797 2.6905 0.6139
-2.8672 7.8040 1.8052
-3.1434 7.6870 1.8052
-3.4150 7.5606 1.8052
-3.6817 7.4249 1.8052
-3.9433 7.2801 1.8052
-4.1993 7.1263 1.8052
-4.4497 6.9639 1.8052
-4.6940 6.7930 1.8052
-4.9320 6.6138 1.8052
-5.1634 6.4266 1.8052
-5.3880 6.2315 1.8052
-5.6056 6.0290 1.8052
-5.8158 5.8190 1.8052
-6.0185 5.6021 1.8052
-6.2134 5.3784 1.8052
-6.4003 5.1482 1.8052
-5.7541 4.2958 1.5788
-5.8769 4.0656 1.5718
-6.9112 4.4212 1.8052
-7.0643 4.1677 1.8052
-7.2084 3.9091 1.8052
-7.3435 3.6457 1.8052
-7.4693 3.3779 1.8052
-7.5858 3.1058 1.8052
-7.6927 2.8299 1.8052
-7.7901 2.5506 1.8052
-7.8777 2.2679 1.8052
-7.9555 1.9824 1.8052
-8.0233 1.6943 1.8052
-8.0812 1.4039 1.8052
-8.1289 1.1117 1.8052
-8.1665 0.8179 1.8052
-8.1939 0.5228 1.8052
-8.2111 0.2269 1.8052
-8.2179 -0.0696 1.8052
-8.2145 -0.3663 1.8052
-8.2008 -0.6629 1.8052
-8.1767 -0.9590 1.8052
-8.1424 -1.2543 1.8052
-8.0977 -1.5484 1.8052
-8.0428 -1.8410 1.8052
-7.9777 -2.1317 1.8052
-7.9024 -2.4203 1.8052
-7.8171 -2.7063 1.8052
-7.7217 -2.9893 1.8052
-7.6163 -3.2692 1.8052
-7.5012 -3.5454 1.8052
-7.3763 -3.8177 1.8052
-5.8096 -3.2778 1.4482
-5.4466 -3.3375 1.3853
-5.4150 -3.5930 1.4076
-5.3822 -3.8579 1.4326
-5.2465 -4.0547 1.4327
-5.2144 -4.3391 1.4639
-6.2410 -5.5863 1.8052
-6.0435 -5.8153 1.8052
-5.8377 -6.0375 1.8052
-5.6240 -6.2526 1.8052
-5.4024 -6.4603 1.8052
-5.1534 -6.6345 1.7982
-4.9370 -6.8521 1.8052
4.2801 -3.1443 1.2027
4.2925 -2.9217 1.1755
4.3069 -2.7102 1.1516
4.3670 -2.5335 1.1423
4.4003 -2.3455 1.1279
4.4108 -2.1512 1.1099
4.4198 -1.9621 1.0935
4.4275 -1.7779 1.0789
4.4339 -1.5978 1.0657
4.4391 -1.4215 1.0540
4.4430 -1.2486 1.0437
4.4459 -1.0785 1.0347
4.4476 -0.9109 1.0270
4.4482 -0.7455 1.0206
4.4831 -0.5865 1.0234
4.5656 -0.4310 1.0383
4.6497 -0.2707 1.0550
4.7355 -0.1051 1.0733
4.8233 0.0665 1.0936
4.9135 0.2446 1.1159
5.0063 0.4302 1.1404
5.1021 0.6239 1.1673
5.2013 0.8269 1.1969
5.3043 1.0401 1.2293
5.3831 1.2582 1.2582
5.3658 1.4595 1.2666
5.4062 1.6816 1.2907
5.4718 1.9204 1.3231
5.5367 2.1699 1.3581
5.6440 2.4497 1.4064
5.7759 2.7580 1.4646
5.9110 3.0884 1.5276
6.0493 3.4432 1.5960
6.2057 3.8341 1.6744
6.3927 4.2750 1.7672
6.5898 4.7586 1.8700
6.7982 5.2915 1.9843
5.6571 4.7399 1.7019
5.4762 4.9344 1.7019
5.2884 5.1219 1.7019
5.0942 5.3023 1.7019
4.8938 5.4752 1.7019
4.6874 5.6405 1.7019
4.4754 5.7980 1.7019
4.2581 5.9475 1.7019
4.0358 6.0888 1.7019
3.8088 6.2218 1.7019
3.5774 6.3463 1.7019
3.3420 6.4623 1.7019
3.1028 6.5694 1.7019
2.8602 6.6678 1.7019
0.9192 2.3755 0.5983
0.8329 2.4069 0.5991
0.7456 2.4351 0.5999
0.6573 2.4603 0.6006
0.5682 2.4822 0.6014
0.4784 2.5010 0.6022
0.3879 2.5165 0.6030
0.2970 2.5288 0.6038
0.2057 2.5378 0.6046
0.1140 2.5436 0.6053
0.0223 2.5460 0.6061
-0.0695 2.5452 0.6069
-0.1612 2.5411 0.6077
-0.2528 2.5337 0.6084
-0.3440 2.5230 0.6092
-0.4348 2.5091 0.6099
-0.5250 2.4919 0.6107
-0.6146 2.4715 0.6114
-0.7034 2.4479 0.6121
-0.7913 2.4212 0.6128
-0.8782 2.3913 0.6135
-2.8333 6.9316 1.8052
-3.0785 6.8183 1.8052
-3.3194 6.6965 1.8052
-3.5556 6.5665 1.8052
-3.7870 6.4284 1.8052
-4.0131 6.2824 1.8052
-4.2339 6.1286 1.8052
-4.4490 5.9674 1.8052
-4.6582 5.7989 1.8052
-4.8612 5.6233 1.8052
-5.0578 5.4408 1.8052
-5.2479 5.2517 1.8052
-5.4311 5.0562 1.8052
-5.6073 4.8545 1.8052
-5.7763 4.6468 1.8052
-5.9379 4.4336 1.8052
-6.0919 4.2148 1.8052
-6.2382 3.9910 1.8052
-6.3765 3.7622 1.8052
-6.5068 3.5288 1.8052
-6.6289 3.2911 1.8052
-6.7425 3.0493 1.8052
-6.8478 2.8037 1.8052
-6.9444 2.5546 1.8052
-7.0322 2.3024 1.8052
-7.1113 2.0471 1.8052
-7.1814 1.7893 1.8052
-7.2425 1.5292 1.8052
-7.2946 1.2670 1.8052
-7.3375 1.0031 1.8052
-7.3712 0.7379 1.8052
-7.3957 0.4715 1.8052
-7.4109 0.2043 1.8052
-7.4167 -0.0634 1.8052
-7.4133 -0.3312 1.8052
-7.4005 -0.5989 1.8052
-7.3783 -0.8661 1.8052
-7.3468 -1.1325 1.8052
-7.3061 -1.3978 1.8052
-7.2560 -1.6618 1.8052
-7.1967 -1.9239 1.8052
-7.1282 -2.1841 1.8052
-7.0506 -2.4419 1.8052
-6.9639 -2.6970 1.8052
-6.8682 -2.9492 1.8052
-6.7637 -3.1980 1.8052
-6.6504 -3.4433 1.8052
-6.5284 -3.6847 1.8052
-6.3979 -3.9218 1.8052
-6.2590 -4.1545 1.8052
-5.4800 -3.9294 1.6186
-5.2598 -4.0665 1.5941
-5.7932 -4.8224 1.8052
-5.6221 -5.0341 1.8052
-5.4435 -5.2399 1.8052
-5.2575 -5.4394 1.8052
-5.0643 -5.6324 1.8052
-4.8641 -5.8187 1.8052
-4.6571 -5.9979 1.8052
-4.4437 -6.1699 1.8052
4.2154 -3.0964 1.3090
4.2337 -2.8814 1.2812
4.2597 -2.6802 1.2587
4.2983 -2.4935 1.2425
4.3116 -2.2981 1.2214
4.3233 -2.1084 1.2023
4.3334 -1.9237 1.1850
4.3421 -1.7435 1.1694
4.3493 -1.5673 1.1554
4.3553 -1.3947 1.1430
4.3600 -1.2253 1.1320
4.3635 -1.0586 1.1224
4.3658 -0.8943 1.1142
4.3670 -0.7320 1.1073
4.4122 -0.5774 1.1131
4.4924 -0.4243 1.1291
4.5740 -0.2666 1.1468
4.6571 -0.1036 1.1664
4.7420 0.0650 1.1881
4.8290 0.2400 1.2118
4.9184 0.4222 1.2379
5.0104 0.6123 1.2665
5.1056 0.8112 1.2979
5.1404 1.0074 1.3160
5.1261 1.1975 1.3234
5.1082 1.3888 1.3318
5.1261 1.5938 1.3516
5.1817 1.8179 1.3837
5.2361 2.0513 1.4182
5.2890 2.2947 1.4553
5.3405 2.5491 1.4951
5.3904 2.8153 1.5378
5.4386 3.0944 1.5839
5.5351 3.4186 1.6484
5.6515 3.7780 1.7242
5.7278 4.1347 1.7936
5.6683 4.4105 1.8255
5.5921 4.6838 1.8561
5.4989 4.9532 1.8852
4.7947 4.6420 1.7019
4.6191 4.8060 1.7019
4.4379 4.9634 1.7019
4.2513 5.1138 1.7019
4.0596 5.2572 1.7019
3.8630 5.3934 1.7019
3.6618 5.5222 1.7019
3.4563 5.6435 1.7019
3.2468 5.7572 1.7019
3.0336 5.8630 1.7019
2.8169 5.9610 1.7019
0.9126 2.1262 0.5980
0.8353 2.1575 0.5987
0.7570 2.1860 0.5994
0.6777 2.2117 0.6001
0.5975 2.2345 0.6008
0.5166 2.2544 0.6015
0.4350 2.2714 0.6023
0.3528 2.2855 0.6030
0.2702 2.2967 0.6037
0.1872 2.3049 0.6044
0.1040 2.3101 0.6051
0.0207 2.3123 0.6058
-0.0627 2.3115 0.6065
-0.1460 2.3078 0.6072
-0.2291 2.3011 0.6079
-0.3120 2.2913 0.6086
-0.3944 2.2787 0.6093
-0.4764 2.2630 0.6099
-0.5577 2.2445 0.6106
-0.6383 2.2231 0.6112
-0.7182 2.1987 0.6119
-0.7971 2.1716 0.6125
-0.8750 2.1416 0.6131
-2.7995 6.2027 1.8052
-3.0189 6.0924 1.8052
-3.2341 5.9745 1.8052
-3.4448 5.8493 1.8052
-3.6509 5.7169 1.8052
-3.8521 5.5773 1.8052
-4.0481 5.4310 1.8052
-4.2387 5.2779 1.8052
-4.4238 5.1183 1.8052
-4.6030 4.9524 1.8052
-4.7762 4.7805 1.8052
-4.9433 4.6027 1.8052
-5.1039 4.4193 1.8052
-5.2580 4.2304 1.8052
-5.4053 4.0364 1.8052
-5.5457 3.8373 1.8052
-5.6790 3.6336 1.8052
-5.8051 3.4253 1.8052
-5.9238 3.2129 1.8052
-6.0351 2.9965 1.8052
-6.1387 2.7763 1.8052
-6.2345 2.5527 1.8052
-6.3225 2.3259 1.8052
-6.4025 2.0961 1.8052
-6.4744 1.8637 1.8052
-6.5382 1.6289 1.8052
-6.5938 1.3920 1.8052
-6.6411 1.1532 1.8052
-6.6800 0.9130 1.8052
-6.7105 0.6714 1.8052
-6.7326 0.4288 1.8052
-6.7462 0.1855 1.8052
-6.7513 -0.0582 1.8052
-6.7478 -0.3020 1.8052
-6.7359 -0.5457 1.8052
-6.7154 -0.7889 1.8052
-6.6864 -1.0314 1.8052
-6.6489 -1.2728 1.8052
-6.6029 -1.5129 1.8052
-6.5485 -1.7515 1.8052
-6.4857 -1.9881 1.8052
-6.4146 -2.2226 1.8052
-6.3353 -2.4545 1.8052
-6.2478 -2.6838 1.8052
-6.1522 -2.9100 1.8052
-6.0486 -3.1329 1.8052
-5.9371 -3.3521 1.8052
-5.8179 -3.5675 1.8052
-5.6910 -3.7788 1.8052
-5.5566 -3.9857 1.8052
-5.4148 -4.1878 1.8052
-5.2658 -4.3850 1.8052
-5.1098 -4.5771 1.8052
-4.9469 -4.7636 1.8052
-4.7773 -4.9444 1.8052
-4.6012 -5.1193 1.8052
-4.4188 -5.2880 1.8052
-4.2302 -5.4503 1.8052
-4.0358 -5.6060 1.8052
4.1027 -3.0132 1.3965
4.1611 -2.8316 1.3803
4.1948 -2.6391 1.3588
4.2110 -2.4426 1.3345
4.2255 -2.2521 1.3123
4.2382 -2.0668 1.2921
4.2494 -1.8863 1.2739
4.2589 -1.7101 1.2574
4.2671 -1.5377 1.2427
4.2738 -1.3687 1.2296
4.2792 -1.2026 1.2180
4.2833 -1.0392 1.2079
4.2861 -0.8781 1.1992
4.2878 -0.7190 1.1919
4.3428 -0.5686 1.2010
4.4208 -0.4178 1.2180
4.4999 -0.2625 1.2368
4.5804 -0.1023 1.2575
4.6625 0.0636 1.2804
4.7465 0.2356 1.3055
4.8326 0.4144 1.3331
4.9211 0.6009 1.3633
4.9160 0.7805 1.3696
4.9048 0.9607 1.3760
4.8900 1.1418 1.3834
4.8717 1.3239 1.3917
4.8708 1.5137 1.4071
4.9181 1.7247 1.4388
4.9635 1.9437 1.4728
5.0071 2.1716 1.5091
5.0487 2.4089 1.5481
5.0882 2.6565 1.5898
5.1253 2.9152 1.6346
5.1600 3.1858 1.6827
5.1074 3.4130 1.7061
5.0186 3.6215 1.7206
4.9642 3.8613 1.7502
4.9001 4.1028 1.7803
4.8261 4.3455 1.8110
4.7417 4.5891 1.8421
4.2211 4.3903 1.7019
4.0560 4.5344 1.7019
3.8858 4.6723 1.7019
3.7110 4.8038 1.7019
3.5317 4.9288 1.7019
3.3481 5.0470 1.7019
3.1606 5.1584 1.7019
2.9694 5.2628 1.7019
2.7747 5.3601 1.7019
0.9051 1.9144 0.5978
0.8355 1.9455 0.5984
0.7648 1.9742 0.5991
0.6931 2.0002 0.5997
0.6205 2.0237 0.6003
0.5472 2.0446 0.6010
0.4731 2.0628 0.6016
0.3984 2.0784 0.6023
0.3233 2.0913 0.6029
0.2477 2.1015 0.6036
0.1717 2.1090 0.6043
0.0956 2.1137 0.6049
0.0193 2.1158 0.6055
-0.0570 2.1151 0.6062
-0.1332 2.1116 0.6068
-0.2093 2.1054 0.6075
-0.2851 2.0965 0.6081
-0.3605 2.0849 0.6087
-0.4355 2.0706 0.6093
-0.5099 2.0536 0.6099
-0.5837 2.0340 0.6105
-0.6567 2.0117 0.6111
-0.7289 1.9868 0.6117
-0.8002 1.9593 0.6122
-0.8704 1.9293 0.6128
-2.7654 5.5828 1.8052
-2.9628 5.4751 1.8052
-3.1561 5.3607 1.8052
-3.3452 5.2396 1.8052
-3.5298 5.1120 1.8052
-3.7096 4.9781 1.8052
-3.8846 4.8380 1.8052
-4.0544 4.6919 1.8052
-4.2189 4.5401 1.8052
-4.3779 4.3826 1.8052
-4.5313 4.2198 1.8052
-4.6787 4.0517 1.8052
-4.8201 3.8787 1.8052
-4.9554 3.7008 1.8052
-5.0842 3.5184 1.8052
-5.2066 3.3316 1.8052
-5.3223 3.1407 1.8052
-5.4313 2.9459 1.8052
-5.5334 2.7475 1.8052
-5.6284 2.5456 1.8052
-5.7163 2.3406 1.8052
-5.7970 2.1326 1.8052
-5.8704 1.9219 1.8052
-5.9363 1.7087 1.8052
-5.9948 1.4934 1.8052
-6.0457 1.2761 1.8052
-6.0890 1.0571 1.8052
-6.1245 0.8368 1.8052
-6.1524 0.6152 1.8052
-6.1725 0.3928 1.8052
-6.1848 0.1697 1.8052
-6.1892 -0.0538 1.8052
-6.1859 -0.2773 1.8052
-6.1747 -0.5007 1.8052
-6.1556 -0.7237 1.8052
-6.1287 -0.9460 1.8052
-6.0941 -1.1673 1.8052
-6.0516 -1.3873 1.8052
-6.0014 -1.6059 1.8052
-5.9435 -1.8227 1.8052
-5.8780 -2.0375 1.8052
-5.8050 -2.2500 1.8052
-5.7244 -2.4599 1.8052
-5.6364 -2.6670 1.8052
-5.5411 -2.8710 1.8052
-5.4385 -3.0718 1.8052
-5.3289 -3.2689 1.8052
-5.2122 -3.4622 1.8052
-5.0887 -3.6514 1.8052
-4.9584 -3.8362 1.8052
-4.8216 -4.0165 1.8052
-4.6783 -4.1920 1.8052
-4.5287 -4.3625 1.8052
-4.3730 -4.5277 1.8052
-4.2114 -4.6874 1.8052
-4.0440 -4.8414 1.8052
-3.8710 -4.9895 1.8052
-3.6927 -5.1315 1.8052
3.9809 -2.9235 1.4753
4.0131 -2.7307 1.4495
4.0697 -2.5602 1.4354
4.1229 -2.3913 1.4226
4.1418 -2.2073 1.4006
4.1555 -2.0264 1.3795
4.1675 -1.8499 1.3605
4.1780 -1.6775 1.3432
4.1869 -1.5088 1.3278
4.1943 -1.3432 1.3140
4.2003 -1.1805 1.3018
4.2050 -1.0203 1.2912
4.2084 -0.8623 1.2821
4.2105 -0.7062 1.2744
4.2747 -0.5598 1.2872
4.3505 -0.4114 1.3051
4.4273 -0.2586 1.3249
4.5053 -0.1009 1.3467
4.5847 0.0622 1.3708
4.6657 0.2312 1.3972
4.7116 0.4036 1.4150
4.7069 0.5743 1.4196
4.6988 0.7456 1.4250
4.6872 0.9176 1.4314
4.6722 1.0903 1.4387
4.6536 1.2640 1.4469
4.6371 1.4405 1.4579
4.6771 1.6395 1.4892
4.7151 1.8457 1.5225
4.7508 2.0596 1.5581
4.7841 2.2818 1.5962
4.8149 2.5129 1.6369
4.8430 2.7535 1.6804
4.8110 2.9693 1.7068
4.7090 3.1457 1.7111
4.6007 3.3187 1.7156
4.4969 3.4965 1.7243
4.4321 3.7095 1.7512
4.3583 3.9229 1.7784
4.2755 4.1363 1.8060
4.1832 4.3492 1.8338
3.7309 4.1694 1.7019
3.5747 4.2966 1.7019
3.4142 4.4179 1.7019
3.2496 4.5331 1.7019
3.0810 4.6423 1.7019
2.9087 4.7452 1.7019
2.7331 4.8416 1.7019
0.8969 1.7317 0.5976
0.8338 1.7627 0.5982
0.7697 1.7913 0.5988
0.7046 1.8177 0.5994
0.6386 1.8417 0.5999
0.5718 1.8633 0.6005
0.5042 1.8826 0.6011
0.4360 1.8994 0.6017
0.3673 1.9137 0.6023
0.2980 1.9256 0.6029
0.2284 1.9350 0.6035
0.1585 1.9418 0.6041
0.0884 1.9462 0.6047
0.0182 1.9480 0.6053
-0.0521 1.9474 0.6059
