ply
format ascii 1.0
element vertex 2158
property float32 x
property float32 y
property float32 z
end_header
8.5477 3.0715 -0.3281
8.4744 3.3930 -0.3242
8.4002 3.7182 -0.3205
8.3251 4.0479 -0.3170
8.2486 4.3832 -0.3135
8.1413 4.7080 -0.3091
8.0910 5.0745 -0.3071
8.0093 5.4328 -0.3041
7.9253 5.8013 -0.3012
5.0976 4.0199 -0.1941
7.7490 6.5746 -0.2958
7.6559 6.9828 -0.2933
7.5590 7.4079 -0.2909
7.4577 7.8521 -0.2887
7.3515 8.3181 -0.2865
7.2396 8.8087 -0.2845
7.1214 9.3272 -0.2827
6.9958 9.8777 -0.2810
6.8620 10.4648 -0.2795
6.7186 11.0937 -0.2781
6.5641 11.7711 -0.2769
6.4003 12.5115 -0.2761
6.2146 13.3040 -0.2752
6.0148 14.1804 -0.2747
5.7941 15.1485 -0.2745
5.5483 16.2262 -0.2747
5.2724 17.4367 -0.2753
4.9593 18.8097 -0.2764
4.5829 20.3083 -0.2770
4.1828 22.2154 -0.2806
3.6672 24.2210 -0.2822
3.0993 26.9676 -0.2888
2.3740 30.1483 -0.2952
1.4607 34.1540 -0.3041
0.2717 39.3688 -0.3165
-1.3448 46.4587 -0.3344
-2.9275 11.7593 -0.0294
-3.3520 11.6645 -0.0205
-3.7784 11.5692 -0.0119
-4.2078 11.4732 -0.0034
-13.1972 26.7009 0.0499
-12.4032 22.9821 0.0595
-11.7472 20.0154 0.0664
-11.2613 17.7020 0.0716
-10.7668 15.6561 0.0749
-10.4485 14.0841 0.0780
-10.1303 12.6789 0.0798
-9.9248 11.5475 0.0817
-9.6394 10.4344 0.0822
-9.4389 9.5096 0.0827
-9.3269 8.7463 0.0835
-9.0875 7.9292 0.0828
-9.2729 7.5230 0.0855
-9.6792 7.2932 0.0900
-8.8306 6.1703 0.0826
-10.9151 7.0585 0.1023
-11.5751 6.9099 0.1084
-12.2522 6.7305 0.1144
-13.0001 6.5461 0.1207
-13.8815 6.3769 0.1279
-14.7922 6.1632 0.1348
-5.4989 -6.9983 0.1171
-5.4426 -7.4624 0.1135
-5.3124 -7.8609 0.1082
-5.2654 -8.4273 0.1045
-5.0803 -8.8194 0.0980
-5.0278 -9.5000 0.0938
-4.8531 -10.0231 0.0871
-4.7279 -10.7285 0.0811
-4.5720 -11.4723 0.0743
-4.4110 -12.3365 0.0669
-4.2108 -13.2570 0.0584
-3.9845 -14.3023 0.0489
-3.7103 -15.4383 0.0380
-8.0887 -39.8995 0.0608
-6.7494 -40.7415 0.0248
-5.3692 -41.6092 -0.0120
-1.7928 -19.3295 -0.0226
-2.4630 -43.4362 -0.0885
-0.9237 -44.4039 -0.1285
19.4898 -44.9195 -0.5905
17.7103 -37.1148 -0.5222
16.4206 -31.4586 -0.4724
15.4408 -27.1612 -0.4343
14.6694 -23.7778 -0.4042
14.0448 -21.0384 -0.3796
13.4187 -18.6188 -0.3561
13.0911 -16.8558 -0.3416
12.7171 -15.2153 -0.3264
12.3921 -13.7901 -0.3131
12.1066 -12.5375 -0.3014
11.8530 -11.4252 -0.2908
11.6257 -10.4285 -0.2812
11.4204 -9.5280 -0.2724
11.2335 -8.7085 -0.2643
11.0623 -7.9576 -0.2567
10.9045 -7.2654 -0.2497
10.7582 -6.6236 -0.2431
10.6218 -6.0255 -0.2369
10.4941 -5.4653 -0.2309
10.3739 -4.9383 -0.2253
10.2604 -4.4403 -0.2198
10.1527 -3.9678 -0.2146
10.0501 -3.5178 -0.2095
9.8851 -3.0669 -0.2032
9.8579 -2.6750 -0.1998
9.7673 -2.2779 -0.1952
9.6799 -1.8944 -0.1906
9.5952 -1.5229 -0.1860
9.5129 -1.1619 -0.1816
9.4327 -0.8101 -0.1772
9.3543 -0.4664 -0.1728
9.2775 -0.1295 -0.1684
9.2020 0.2015 -0.1641
9.1277 0.5278 -0.1597
8.9898 0.8441 -0.1542
8.9814 1.1694 -0.1509
8.9091 1.4865 -0.1465
8.8371 1.8023 -0.1420
8.7652 2.1175 -0.1375
8.6933 2.4330 -0.1329
8.6211 2.7497 -0.1282
8.5484 3.0682 -0.1234
8.4752 3.3896 -0.1185
8.4011 3.7145 -0.1135
8.3259 4.0440 -0.1084
8.2495 4.3791 -0.1031
8.1467 4.7063 -0.0973
8.0920 5.0700 -0.0920
8.0104 5.4280 -0.0861
7.9264 5.7963 -0.0800
5.0989 4.0169 -0.0479
7.7502 6.5690 -0.0669
7.6572 6.9769 -0.0599
7.5604 7.4016 -0.0525
7.4592 7.8455 -0.0448
7.3531 8.3110 -0.0365
7.2413 8.8011 -0.0278
7.1232 9.3191 -0.0184
6.9978 9.8690 -0.0084
6.8642 10.4553 0.0023
6.7209 11.0835 0.0139
6.5667 11.7601 0.0265
6.4177 12.5280 0.0404
6.2177 13.2907 0.0554
6.0181 14.1658 0.0721
5.7978 15.1323 0.0906
5.5525 16.2081 0.1113
5.2770 17.4163 0.1347
4.9646 18.7866 0.1614
4.5941 20.3047 0.1917
4.1899 22.1844 0.2281
3.6798 24.2127 0.2692
3.1093 26.9237 0.3219
2.3863 30.0943 0.3850
1.4763 34.0858 0.4646
0.2921 39.2795 0.5686
-1.3169 46.3361 0.7102
-8.5244 49.1250 0.9256
-2.9219 11.7603 0.2435
-1.9406 6.7647 0.1466
-2.1114 6.4746 0.1467
-2.2880 6.2468 0.1479
-2.4562 6.0277 0.1491
-2.6169 5.8161 0.1503
-2.7707 5.6113 0.1514
-2.9563 5.4826 0.1545
-11.7979 20.1182 0.5920
-11.2588 17.7115 0.5444
-10.8900 15.8463 0.5089
-10.4978 14.1597 0.4754
-10.1919 12.7637 0.4483
-9.9526 11.5863 0.4260
-9.7436 10.5525 0.4066
-9.5255 9.6014 0.3882
-9.3468 8.7687 0.3724
-9.1427 7.9805 0.3567
-9.2435 7.5019 0.3534
-9.6658 7.2855 0.3626
-8.7903 6.1440 0.3238
-10.9165 7.0613 0.3952
-11.4882 6.8595 0.4091
-12.2655 6.7391 0.4298
-13.0610 6.5778 0.4508
-13.9008 6.3865 0.4727
-14.8056 6.1691 0.4963
-5.5396 -7.0580 0.3202
-5.4410 -7.4689 0.3217
-5.2981 -7.8491 0.3214
-5.2259 -8.3746 0.3262
-5.0918 -8.8510 0.3283
-5.0036 -9.4672 0.3346
-4.8464 -10.0237 0.3379
-4.7154 -10.7167 0.3447
-4.5579 -11.4560 0.3518
-4.4036 -12.3380 0.3619
-4.2097 -13.2798 0.3722
-3.9727 -14.2912 0.3829
-3.7098 -15.4746 0.3964
-8.0680 -39.9125 0.9777
-6.7438 -40.8494 0.9572
-5.3475 -41.6228 0.9330
-1.7764 -19.2672 0.4132
-2.4458 -43.5515 0.8935
-0.9001 -44.4187 0.8718
2.4551 -47.7113 0.8569
7.9135 -40.1173 0.6024
19.4657 -44.8140 0.5110
17.6939 -37.0430 0.4032
16.4089 -31.4072 0.3262
15.4321 -27.1229 0.2689
14.6627 -23.7486 0.2247
14.0396 -21.0156 0.1899
13.4193 -18.6074 0.1606
13.0878 -16.8412 0.1390
12.7144 -15.2034 0.1201
12.3899 -13.7804 0.1043
12.1047 -12.5295 0.0911
11.8515 -11.4187 0.0800
11.6245 -10.4231 0.0706
11.4194 -9.5236 0.0626
11.2327 -8.7049 0.0558
11.0617 -7.9546 0.0502
10.9040 -7.2630 0.0454
10.7577 -6.6217 0.0414
10.6215 -6.0241 0.0382
10.4939 -5.4643 0.0355
10.3738 -4.9376 0.0335
10.2603 -4.4399 0.0320
10.1526 -3.9678 0.0309
10.0501 -3.5180 0.0303
9.8854 -3.0674 0.0299
9.8580 -2.6757 0.0302
9.7675 -2.2787 0.0307
9.6801 -1.8954 0.0316
9.5955 -1.5241 0.0328
9.5132 -1.1633 0.0343
9.4331 -0.8117 0.0361
9.3547 -0.4681 0.0382
9.2779 -0.1313 0.0405
9.2025 0.1996 0.0432
9.1281 0.5257 0.0462
8.9910 0.8419 0.0491
8.9819 1.1670 0.0530
8.9097 1.4840 0.0569
8.8377 1.7996 0.0611
8.7659 2.1147 0.0656
8.6939 2.4300 0.0704
8.6218 2.7465 0.0756
8.5492 3.0649 0.0811
8.4760 3.3861 0.0870
8.4019 3.7109 0.0933
8.3268 4.0402 0.1000
8.2505 4.3751 0.1072
8.1520 4.7046 0.1146
8.0930 5.0655 0.1230
8.0115 5.4233 0.1318
7.9276 5.7913 0.1411
5.1002 4.0138 0.0983
7.7515 6.5635 0.1618
7.6586 6.9710 0.1733
7.5618 7.3954 0.1856
7.4607 7.8388 0.1989
7.3547 8.3039 0.2133
7.1976 8.7383 0.2273
7.1251 9.3110 0.2456
6.9998 9.8603 0.2639
6.8663 10.4459 0.2838
6.7232 11.0734 0.3056
6.5692 11.7490 0.3296
6.4024 12.4806 0.3561
6.2207 13.2775 0.3855
6.0215 14.1512 0.4183
5.8015 15.1161 0.4551
5.5566 16.1900 0.4967
5.2816 17.3959 0.5440
4.9699 18.7634 0.5984
4.6053 20.3011 0.6605
4.1969 22.1535 0.7357
3.6929 24.2085 0.8208
3.1193 26.8798 0.9310
2.3986 30.0405 1.0632
1.4918 34.0178 1.2309
-1.1756 42.1470 1.5959
-2.1028 32.9438 1.2770
-4.1679 41.7072 1.6558
-5.6921 41.7624 1.6990
-7.0477 40.7333 1.6990
-8.3466 39.7071 1.6990
-2.9163 11.7614 0.5166
-1.9535 6.8212 0.3077
-1.8659 5.7306 0.2657
-2.0785 5.6824 0.2710
-2.2930 5.6339 0.2765
-2.5101 5.5847 0.2823
-2.7303 5.5348 0.2885
-2.9544 5.4841 0.2949
-11.8044 20.1458 1.1192
-11.2308 17.6807 1.0156
-10.7924 15.7151 0.9345
-10.5203 14.1991 0.8752
-10.1240 12.6862 0.8115
-9.8567 11.4809 0.7633
-9.7148 10.5267 0.7286
-9.5161 9.5965 0.6927
-9.2804 8.7102 0.6570
-9.0771 7.9264 0.6260
-9.2792 7.5335 0.6245
-9.7476 7.3496 0.6411
-8.7841 6.1415 0.5654
-10.8768 7.0374 0.6861
-11.5164 6.8780 0.7127
-12.2736 6.7448 0.7461
-13.0452 6.5708 0.7798
-13.9086 6.3907 0.8183
-14.8503 6.1880 0.8608
-5.5345 -7.0594 0.5225
-5.4343 -7.4682 0.5299
-5.2947 -7.8534 0.5351
-5.2380 -8.4045 0.5507
-5.0822 -8.8458 0.5581
-4.9952 -9.4643 0.5758
-4.7548 -9.8486 0.5785
-4.7345 -10.7768 0.6120
-4.5339 -11.4146 0.6274
-4.3782 -12.2889 0.6545
-4.1756 -13.1985 0.6820
-3.9564 -14.2641 0.7158
-3.6606 -15.3077 0.7469
-6.7730 -33.6040 1.5959
-5.6735 -34.4865 1.5958
-4.6091 -36.0338 1.6265
-1.7170 -18.7356 0.8258
-2.0801 -37.4039 1.6116
-0.7540 -38.2239 1.6118
0.6284 -39.0130 1.6118
2.0468 -39.3759 1.5958
3.5280 -40.0960 1.5958
5.0657 -40.7787 1.5959
6.9177 -43.0252 1.6578
8.8458 -44.7294 1.6990
10.6601 -45.3099 1.6990
12.5312 -45.8320 1.6990
14.4574 -46.2911 1.6990
15.4374 -43.8444 1.5958
17.3428 -44.1414 1.5958
11.8741 -27.3061 0.9822
17.6527 -36.9194 1.3238
16.3972 -31.3559 1.1229
15.4234 -27.0848 0.9707
14.6561 -23.7194 0.8526
14.0344 -20.9928 0.7586
13.4200 -18.5960 0.6772
13.0845 -16.8267 0.6191
12.7117 -15.1916 0.5662
12.3877 -13.7707 0.5215
12.1029 -12.5216 0.4834
11.8500 -11.4121 0.4505
11.6233 -10.4177 0.4221
11.4184 -9.5192 0.3974
11.2319 -8.7012 0.3759
11.0610 -7.9517 0.3570
10.9034 -7.2607 0.3405
10.7573 -6.6199 0.3259
10.6212 -6.0227 0.3132
10.4936 -5.4633 0.3020
10.3736 -4.9369 0.2923
10.2602 -4.4396 0.2838
10.1526 -3.9677 0.2764
10.0501 -3.5182 0.2701
9.8856 -3.0679 0.2630
9.8582 -2.6763 0.2603
9.7677 -2.2795 0.2567
9.6804 -1.8964 0.2538
9.5958 -1.5252 0.2516
9.5135 -1.1646 0.2502
9.4334 -0.8132 0.2494
9.3551 -0.4698 0.2492
9.2784 -0.1332 0.2496
9.2029 0.1976 0.2506
9.1286 0.5236 0.2522
8.9922 0.8397 0.2526
8.9825 1.1646 0.2571
8.9102 1.4814 0.2604
8.8383 1.7969 0.2642
8.7665 2.1118 0.2687
8.6946 2.4271 0.2737
8.6225 2.7434 0.2794
8.5499 3.0616 0.2857
8.4768 3.3826 0.2926
8.4027 3.7072 0.3002
8.3277 4.0363 0.3085
8.2514 4.3710 0.3176
8.1574 4.7028 0.3268
8.0941 5.0610 0.3381
8.0125 5.4186 0.3497
7.9287 5.7863 0.3622
5.1015 4.0108 0.2445
7.7528 6.5579 0.3906
7.6599 6.9651 0.4065
7.5633 7.3891 0.4238
7.4623 7.8321 0.4426
7.3563 8.2968 0.4631
7.1970 8.7279 0.4821
7.1269 9.3029 0.5096
7.0018 9.8515 0.5361
6.8684 10.4365 0.5653
6.7256 11.0632 0.5973
6.5717 11.7379 0.6327
6.4051 12.4685 0.6719
6.2237 13.2643 0.7156
6.0248 14.1367 0.7645
5.8051 15.0999 0.8195
5.5607 16.1720 0.8819
5.2863 17.3756 0.9531
4.9751 18.7403 1.0351
4.6191 20.3087 1.1307
3.7220 19.5864 1.1002
3.3761 22.0488 1.2509
2.2111 27.5016 1.5959
1.2056 27.1550 1.5959
0.2279 26.7887 1.5959
-0.7292 26.6470 1.6106
-1.7524 27.6810 1.6990
-2.7076 27.2347 1.6990
-3.6352 26.7718 1.6990
-4.5359 26.2931 1.6990
-5.4102 25.7993 1.6990
-1.9028 7.6894 0.5166
-1.9665 6.8787 0.4718
-1.8636 5.7321 0.4018
-2.0762 5.6839 0.4077
-2.2908 5.6353 0.4139
-2.5080 5.5862 0.4207
-2.7283 5.5363 0.4279
-2.9526 5.4855 0.4357
-11.4316 19.5256 1.5958
-10.9214 17.2066 1.4488
-10.4801 15.2710 1.3265
-10.1121 13.6570 1.2256
-9.9450 12.4693 1.1580
-9.9539 11.6006 1.1167
-9.7047 10.5211 1.0517
-9.5084 9.5932 0.9977
-9.3157 8.7472 0.9485
-9.1438 7.9878 0.9052
-9.2904 7.5454 0.8960
-9.6774 7.2991 0.9107
-8.8066 6.1590 0.8099
-10.9607 7.0936 0.9867
-11.5185 6.8807 1.0163
-12.3624 6.7949 1.0706
-13.0837 6.5911 1.1134
-13.7901 6.3369 1.1546
-14.2322 5.9308 1.1737
-5.4758 -6.9923 0.7183
-5.4338 -7.4762 0.7394
-5.3211 -7.9022 0.7537
-5.2195 -8.3852 0.7726
-5.0317 -8.7693 0.7817
-4.9592 -9.4090 0.8128
-4.8213 -10.0009 0.8383
-4.6986 -10.7117 0.8726
-4.5961 -11.5904 0.9187
-4.4013 -12.3761 0.9559
-4.2406 -13.4306 1.0121
-4.0111 -14.4934 1.0670
-3.6649 -15.3641 1.1064
-3.3455 -16.6470 1.1740
-4.0275 -24.5671 1.6990
-3.1864 -25.0219 1.6990
-1.7306 -18.9997 1.2682
-1.4240 -25.8597 1.6990
-0.2875 -14.9809 0.9700
0.4424 -26.5904 1.6990
1.4130 -26.9111 1.6990
2.4074 -27.1999 1.6990
3.4246 -27.4546 1.6990
4.4634 -27.6734 1.6990
5.5226 -27.8544 1.6990
6.6005 -27.9957 1.6990
7.6957 -28.0956 1.6990
8.8062 -28.1521 1.6990
9.9300 -28.1635 1.6990
11.0650 -28.1280 1.6990
11.4678 -26.3424 1.5959
5.3419 -11.1608 0.6794
5.3866 -10.2912 0.6307
8.9976 -15.7872 0.9759
14.0066 -20.9362 1.3249
13.4206 -18.5846 1.1940
13.0812 -16.8121 1.0991
12.7090 -15.1798 1.0125
12.3855 -13.7611 0.9389
12.1011 -12.5136 0.8758
11.8485 -11.4056 0.8213
11.6220 -10.4123 0.7739
11.4174 -9.5147 0.7325
11.2311 -8.6976 0.6962
11.0603 -7.9488 0.6641
10.9029 -7.2583 0.6358
10.7569 -6.6181 0.6107
10.6208 -6.0213 0.5885
10.4934 -5.4623 0.5688
10.3735 -4.9363 0.5513
10.2601 -4.4392 0.5359
10.1526 -3.9676 0.5223
10.0502 -3.5184 0.5103
9.8859 -3.0683 0.4965
9.8583 -2.6770 0.4907
9.7679 -2.2804 0.4829
9.6806 -1.8974 0.4763
9.5960 -1.5264 0.4708
9.5138 -1.1660 0.4663
9.4338 -0.8147 0.4629
9.3555 -0.4714 0.4604
9.2788 -0.1350 0.4589
9.2034 0.1956 0.4582
9.1291 0.5214 0.4584
8.9934 0.8375 0.4563
8.9830 1.1622 0.4614
8.9108 1.4789 0.4641
8.8389 1.7942 0.4677
8.7671 2.1090 0.4721
8.6953 2.4241 0.4774
8.6232 2.7402 0.4835
8.5507 3.0583 0.4905
8.4776 3.3791 0.4985
8.4036 3.7035 0.5074
8.3286 4.0325 0.5172
8.2523 4.3670 0.5282
8.1627 4.7011 0.5394
8.0951 5.0565 0.5534
8.0136 5.4139 0.5679
7.9298 5.7813 0.5836
5.1028 4.0078 0.3909
7.7541 6.5523 0.6196
7.6613 6.9592 0.6400
7.5647 7.3828 0.6623
7.4638 7.8255 0.6866
7.3579 8.2897 0.7131
7.1964 8.7176 0.7370
7.1288 9.2947 0.7739
7.0038 9.8428 0.8087
6.8706 10.4271 0.8470
6.7279 11.0530 0.8893
6.5742 11.7269 0.9360
6.4079 12.4564 0.9879
6.2267 13.2510 1.0459
6.0281 14.1221 1.1109
5.3293 13.8385 1.0864
4.9225 14.2893 1.1210
5.2583 17.2481 1.3539
4.4525 16.7334 1.3158
4.6138 20.2324 1.5958
3.8406 20.1485 1.5958
3.0803 20.0424 1.5958
2.3334 19.9150 1.5958
1.6002 19.7669 1.5958
0.8843 19.6770 1.6021
0.1869 20.6683 1.6990
-0.5488 20.4500 1.6990
-1.2691 20.2131 1.6990
-1.9739 19.9583 1.6990
-2.6630 19.6863 1.6990
-3.3365 19.3978 1.6990
-3.9943 19.0934 1.6990
-1.4841 6.0094 0.5439
-1.6421 5.7537 0.5301
-1.8338 5.6491 0.5305
-2.0211 5.5404 0.5309
-2.2038 5.4278 0.5314
-2.3821 5.3115 0.5319
-2.5559 5.1915 0.5324
-2.7253 5.0679 0.5329
-2.8903 4.9409 0.5335
-3.0510 4.8105 0.5341
-9.5724 13.9581 1.5959
-10.0135 13.5326 1.5959
-9.8021 12.2975 1.4984
-9.5327 11.1158 1.4019
-9.2977 10.0850 1.3190
-9.0904 9.1758 1.2471
-8.8920 8.3530 1.1823
-8.9663 7.8360 1.1580
-9.2722 7.5334 1.1654
-8.6074 6.4942 1.0547
-8.4792 5.9318 1.0147
-8.9499 5.7937 1.0477
-11.1276 6.6487 1.2760
-11.8109 6.4930 1.3287
-12.5517 6.3241 1.3871
-13.3599 6.1398 1.4522
-14.2475 5.9374 1.5252
-5.4702 -6.9931 0.9196
-5.3696 -7.3966 0.9387
-5.3041 -7.8865 0.9676
-5.2210 -8.3982 0.9979
-5.0808 -8.8666 1.0220
-5.0128 -9.5240 1.0666
-4.8154 -10.0033 1.0901
-4.7513 -10.8489 1.1521
-4.4339 -11.2003 1.1608
-4.2613 -12.0045 1.2158
-4.0604 -12.8857 1.2771
-3.8333 -13.8818 1.3482
-3.5738 -15.0201 1.4314
-3.2620 -16.2794 1.5242
-2.8302 -17.3248 1.5958
-2.2298 -17.5878 1.5958
-1.6143 -17.8317 1.5958
-0.9843 -18.0555 1.5958
-0.2789 -14.9542 1.3070
0.3172 -18.4757 1.5989
1.0500 -19.8003 1.6990
1.7755 -19.9430 1.6990
2.5124 -20.0592 1.6990
3.2599 -20.1480 1.6990
4.0168 -20.2083 1.6990
4.7820 -20.2394 1.6990
5.5541 -20.2402 1.6990
6.3319 -20.2100 1.6990
7.1138 -20.1480 1.6990
7.8984 -20.0534 1.6990
8.6841 -19.9257 1.6990
5.3369 -11.1391 0.9576
5.3895 -10.2871 0.8932
10.3613 -18.1646 1.5959
8.5192 -13.7660 1.2263
11.8052 -17.6331 1.5959
12.5141 -17.3179 1.5959
13.2119 -16.9697 1.5959
12.3098 -13.6697 1.3487
12.0993 -12.5057 1.2688
11.8470 -11.3990 1.1927
11.6208 -10.4069 1.1263
11.4164 -9.5103 1.0682
11.2302 -8.6940 1.0170
11.0596 -7.9458 0.9718
10.9024 -7.2560 0.9317
10.7565 -6.6162 0.8961
10.6205 -6.0199 0.8644
10.4932 -5.4613 0.8361
10.3733 -4.9357 0.8110
10.2601 -4.4389 0.7885
10.1526 -3.9676 0.7686
10.0502 -3.5186 0.7509
9.8862 -3.0688 0.7304
9.8585 -2.6776 0.7216
9.7681 -2.2812 0.7096
9.6808 -1.8984 0.6993
9.5963 -1.5276 0.6904
9.5142 -1.1673 0.6830
9.4341 -0.8162 0.6770
9.3559 -0.4731 0.6722
9.2792 -0.1368 0.6687
9.2038 0.1937 0.6663
9.1296 0.5193 0.6651
8.9946 0.8353 0.6606
8.9836 1.1598 0.6662
8.9114 1.4763 0.6683
8.8395 1.7915 0.6716
8.7678 2.1062 0.6760
8.6960 2.4211 0.6815
8.6239 2.7371 0.6881
8.5515 3.0550 0.6958
8.4783 3.3756 0.7048
8.4044 3.6999 0.7150
8.3295 4.0286 0.7265
8.2532 4.3629 0.7393
8.0961 5.0520 0.7692
8.0147 5.4091 0.7865
7.9310 5.7763 0.8055
5.1048 4.0053 0.5378
7.7553 6.5467 0.8492
7.6626 6.9532 0.8741
7.5661 7.3765 0.9013
7.4653 7.8188 0.9311
7.3596 8.2825 0.9638
7.1958 8.7072 0.9923
7.1306 9.2866 1.0387
7.0058 9.8340 1.0818
6.8727 10.4177 1.1293
6.7302 11.0428 1.1818
6.5768 11.7158 1.2399
6.4106 12.4443 1.3046
6.1903 13.1540 1.3681
5.3681 13.9155 1.4309
5.1308 14.8662 1.5231
4.7688 15.6104 1.5958
4.1673 15.6254 1.5958
3.5715 15.6207 1.5958
2.9821 15.5969 1.5958
2.3995 15.5546 1.5958
1.8291 15.5356 1.6000
1.3378 16.4136 1.6990
0.7420 16.3125 1.6990
0.1552 16.1939 1.6990
-0.4224 16.0582 1.6990
-0.9903 15.9060 1.6990
-1.5483 15.7379 1.6990
-2.0961 15.5544 1.6990
-2.6335 15.3558 1.6990
-3.1602 15.1428 1.6990
-1.5189 6.1631 0.7020
-1.4268 5.0081 0.5798
-1.6098 4.9666 0.5851
-1.7941 4.9249 0.5911
-1.9801 4.8828 0.5978
-2.1684 4.8402 0.6053
-2.3593 4.7969 0.6135
-2.5537 4.7530 0.6225
-2.7519 4.7081 0.6324
-2.9547 4.6622 0.6432
-3.1628 4.6151 0.6550
-8.0706 10.9139 1.5959
-8.4229 10.5735 1.5959
-8.7637 10.2248 1.5959
-9.0928 9.8679 1.5959
-9.0917 9.1815 1.5419
-8.9068 8.3705 1.4630
-8.7407 7.6418 1.3936
-8.8147 7.1643 1.3669
-8.6080 6.4969 1.3007
-8.4797 5.9339 1.2507
-8.9482 5.7941 1.2905
-11.1258 6.6492 1.5713
-11.6365 6.3983 1.6118
-11.8482 5.9705 1.6118
-12.0474 5.5372 1.6118
-11.0575 4.6083 1.4568
-5.5125 -7.0552 1.1317
-5.4102 -7.4612 1.1567
-5.2169 -7.7662 1.1659
-5.1187 -8.2441 1.2005
-5.0045 -8.7450 1.2374
-4.8810 -9.2865 1.2788
-4.7468 -9.8753 1.3255
-4.5999 -10.5196 1.3784
-4.4380 -11.2296 1.4386
-4.2583 -12.0179 1.5073
-4.0570 -12.9007 1.5863
-3.6421 -13.2190 1.5958
-3.1913 -13.4466 1.5958
-2.7291 -13.6599 1.5958
-2.2559 -13.8582 1.5958
-1.7721 -14.0409 1.5958
-1.2782 -14.2073 1.5958
-0.7748 -14.3569 1.5958
-0.2623 -14.4890 1.5958
0.2586 -14.6029 1.5958
0.8382 -15.6491 1.6990
1.4086 -15.7298 1.6990
1.9858 -15.7894 1.6990
2.5689 -15.8271 1.6990
3.1571 -15.8425 1.6990
3.7493 -15.8350 1.6990
4.3447 -15.8042 1.6990
4.9422 -15.7495 1.6990
5.5407 -15.6707 1.6990
6.1391 -15.5672 1.6990
6.7362 -15.4389 1.6990
5.3319 -11.1175 1.2357
5.3923 -10.2830 1.1565
8.5079 -14.9028 1.6990
8.5363 -13.7830 1.5959
9.0739 -13.5436 1.5959
9.6030 -13.2804 1.5959
10.1226 -12.9937 1.5959
10.6313 -12.6837 1.5959
11.1279 -12.3508 1.5959
11.6112 -11.9953 1.5959
12.0798 -11.6178 1.5959
11.3444 -9.4467 1.3961
11.1920 -8.6614 1.3343
11.0590 -7.9429 1.2804
10.9018 -7.2536 1.2285
10.7561 -6.6144 1.1823
10.6202 -6.0185 1.1411
10.4929 -5.4603 1.1043
10.3732 -4.9350 1.0714
10.2600 -4.4386 1.0420
10.1526 -3.9675 1.0157
10.0503 -3.5188 0.9924
9.8864 -3.0693 0.9652
9.8586 -2.6782 0.9532
9.7683 -2.2821 0.9371
9.6811 -1.8995 0.9230
9.5966 -1.5288 0.9108
9.5145 -1.1687 0.9004
9.4345 -0.8178 0.8917
9.3562 -0.4748 0.8847
9.2796 -0.1386 0.8792
9.2043 0.1917 0.8751
9.1301 0.5172 0.8726
8.9958 0.8332 0.8656
8.9841 1.1574 0.8716
8.9120 1.4738 0.8732
8.8402 1.7888 0.8762
8.7684 2.1033 0.8805
8.6967 2.4181 0.8862
8.6247 2.7339 0.8934
8.5522 3.0516 0.9019
8.4791 3.3721 0.9119
8.4053 3.6962 0.9234
8.3303 4.0247 0.9364
8.2542 4.3588 0.9511
8.0972 5.0475 0.9858
8.0158 5.4044 1.0059
7.9321 5.7713 1.0282
5.1083 4.0040 0.6853
7.7566 6.5411 1.0795
7.6640 6.9473 1.1089
7.5676 7.3702 1.1411
7.4668 7.8121 1.1764
7.3612 8.2754 1.2152
7.1952 8.6968 1.2482
7.1325 9.2784 1.3044
6.9672 9.7683 1.3479
6.8327 10.3444 1.4038
6.3094 12.2307 1.5958
5.8213 12.3513 1.5958
5.3331 12.4541 1.5958
4.8455 12.5392 1.5958
4.3592 12.6071 1.5958
3.8748 12.6579 1.5958
3.3928 12.6921 1.5958
2.9136 12.7099 1.5958
2.4532 12.7914 1.6058
2.0934 13.5193 1.6990
1.5957 13.4882 1.6990
1.1030 13.4412 1.6990
0.6159 13.3786 1.6990
0.1346 13.3007 1.6990
-0.3403 13.2081 1.6990
-0.8087 13.1011 1.6990
-1.2702 12.9801 1.6990
-1.7244 12.8454 1.6990
-2.1711 12.6974 1.6990
-1.9014 9.1333 1.2378
-1.5558 6.3256 0.8693
-1.4246 5.0094 0.6989
-1.6078 4.9679 0.7046
-1.7922 4.9262 0.7110
-1.9782 4.8841 0.7184
-2.1665 4.8414 0.7266
-2.3576 4.7982 0.7358
-2.5520 4.7542 0.7460
-2.7503 4.7094 0.7572
-2.9532 4.6635 0.7696
-3.1614 4.6164 0.7831
-6.7524 9.1372 1.5959
-7.0521 8.8580 1.5959
-7.3421 8.5710 1.5959
-7.6224 8.2765 1.5959
-7.8929 7.9747 1.5959
-8.1535 7.6659 1.5959
-8.4040 7.3504 1.5959
-8.7477 7.1125 1.6150
-8.6086 6.4995 1.5481
-8.4801 5.9360 1.4881
-8.9464 5.7945 1.5346
-9.5976 5.7372 1.6118
-9.7879 5.3829 1.6118
-9.4661 4.7708 1.5308
-9.5727 4.4002 1.5222
-9.6700 4.0302 1.5141
-5.4161 -6.9398 1.3146
-5.3227 -7.3493 1.3470
-5.2233 -7.7853 1.3833
-5.1170 -8.2518 1.4238
-5.0026 -8.7533 1.4692
-4.8790 -9.2956 1.5202
-4.7445 -9.8853 1.5777
-4.4661 -10.2299 1.5958
-4.1233 -10.4510 1.5958
-3.7707 -10.6615 1.5958
-3.4086 -10.8610 1.5958
-3.0373 -11.0488 1.5958
-2.6571 -11.2246 1.5958
-2.2684 -11.3878 1.5958
-1.8715 -11.5381 1.5958
-1.4668 -11.6748 1.5958
-1.0548 -11.7976 1.5958
-0.6359 -11.9060 1.5958
-0.2107 -11.9995 1.5958
0.2346 -12.8592 1.6990
0.6992 -12.9257 1.6990
1.1687 -12.9751 1.6990
1.6426 -13.0070 1.6990
2.1201 -13.0209 1.6990
2.6005 -13.0165 1.6990
3.0831 -12.9935 1.6990
3.5670 -12.9516 1.6990
4.0515 -12.8905 1.6990
4.5356 -12.8100 1.6990
5.0185 -12.7099 1.6990
5.4994 -12.5900 1.6990
5.9773 -12.4504 1.6990
5.3952 -10.2790 1.4209
6.9203 -12.1115 1.6990
7.3835 -11.9122 1.6990
7.8399 -11.6933 1.6990
7.8162 -10.8022 1.6022
8.1986 -10.5176 1.5959
8.6026 -10.2575 1.5959
8.9964 -9.9798 1.5959
9.3793 -9.6849 1.5959
9.7503 -9.3731 1.5959
10.1085 -9.0451 1.5959
10.4532 -8.7013 1.5959
10.7834 -8.3423 1.5959
11.0984 -7.9687 1.5959
10.5697 -5.9886 1.4122
10.4267 -5.4249 1.3649
10.3475 -4.9222 1.3296
10.2599 -4.4382 1.2965
10.1526 -3.9674 1.2639
10.0503 -3.5190 1.2348
9.8867 -3.0698 1.2009
9.8588 -2.6789 1.1859
9.7685 -2.2829 1.1655
9.6813 -1.9005 1.1477
9.5968 -1.5300 1.1321
9.5148 -1.1701 1.1187
9.4348 -0.8193 1.1074
9.3566 -0.4765 1.0981
9.2800 -0.1405 1.0906
9.2047 0.1897 1.0849
9.1306 0.5151 1.0809
8.9971 0.8310 1.0715
8.9847 1.1549 1.0780
8.9126 1.4712 1.0791
8.8408 1.7861 1.0817
8.7691 2.1004 1.0860
8.6974 2.4150 1.0919
8.6254 2.7307 1.0995
8.5530 3.0483 1.1088
8.4799 3.3686 1.1198
8.4061 3.6925 1.1326
8.3312 4.0209 1.1473
8.2551 4.3547 1.1639
8.0982 5.0430 1.2033
8.0169 5.3996 1.2263
7.9333 5.7663 1.2518
5.1119 4.0027 0.8337
7.7579 6.5355 1.3107
7.6333 6.9123 1.3390
7.5207 7.3169 1.3731
7.4401 7.7758 1.4174
7.1946 8.6864 1.5050
7.2463 9.4157 1.5958
6.8592 9.6054 1.5958
6.4679 9.7799 1.5958
6.0731 9.9391 1.5958
5.6754 10.0831 1.5958
5.2755 10.2120 1.5958
4.8740 10.3260 1.5958
4.4713 10.4251 1.5958
4.0681 10.5095 1.5958
3.6649 10.5793 1.5958
3.2622 10.6349 1.5958
2.8994 10.8213 1.6174
2.6194 11.3963 1.6990
2.1953 11.4110 1.6990
1.7736 11.4114 1.6990
1.3549 11.3977 1.6990
0.9395 11.3702 1.6990
0.5278 11.3291 1.6990
0.1203 11.2748 1.6990
-0.2828 11.2075 1.6990
-0.6810 11.1275 1.6990
-1.0741 11.0352 1.6990
-1.4617 10.9307 1.6990
-1.8435 10.8144 1.6990
-2.2193 10.6866 1.6990
-1.4290 5.8220 0.9378
-1.4225 5.0107 0.8188
-1.6057 4.9693 0.8247
-1.7902 4.9275 0.8317
-1.9764 4.8854 0.8397
-2.1647 4.8427 0.8488
-2.3559 4.7995 0.8589
-2.5504 4.7555 0.8703
-2.7488 4.7106 0.8829
-2.9518 4.6647 0.8967
-3.1600 4.6176 0.9120
-5.7985 7.8516 1.5959
-6.0589 7.6152 1.5959
-6.3112 7.3716 1.5959
-6.5551 7.1212 1.5959
-6.7177 6.7905 1.5788
-6.9421 6.5298 1.5788
-7.2354 6.3309 1.5959
-7.4446 6.0553 1.5959
-7.6450 5.7739 1.5959
-7.8363 5.4870 1.5959
-8.0185 5.1949 1.5959
-8.1671 4.8832 1.5912
-8.2850 4.5572 1.5825
-8.3939 4.2311 1.5743
-8.4940 3.9048 1.5664
-8.5855 3.5784 1.5589
-5.4147 -6.9460 1.5186
-5.3212 -7.3559 1.5573
-5.2061 -7.7692 1.5958
-4.9506 -7.9938 1.5958
-4.6862 -8.2106 1.5958
-4.4129 -8.4195 1.5958
-4.1311 -8.6200 1.5958
-3.8408 -8.8116 1.5958
-3.5425 -8.9941 1.5958
-3.2362 -9.1671 1.5958
-2.9222 -9.3300 1.5958
-2.6009 -9.4827 1.5958
-2.2725 -9.6247 1.5958
-1.9374 -9.7555 1.5958
-1.5959 -9.8749 1.5958
-1.2484 -9.9825 1.5958
-0.8954 -10.0780 1.5958
-0.5425 -10.2628 1.6118
-0.1853 -10.8930 1.6990
0.2058 -10.9537 1.6990
0.6009 -11.0000 1.6990
0.9995 -11.0317 1.6990
1.4010 -11.0484 1.6990
1.8049 -11.0500 1.6990
2.2105 -11.0361 1.6990
2.6172 -11.0066 1.6990
3.0244 -10.9613 1.6990
3.4313 -10.9000 1.6990
3.8373 -10.8225 1.6990
4.2417 -10.7289 1.6990
4.6437 -10.6189 1.6990
5.0426 -10.4927 1.6990
5.4377 -10.3501 1.6990
5.8281 -10.1913 1.6990
6.2133 -10.0163 1.6990
6.5923 -9.8253 1.6990
6.9644 -9.6184 1.6990
7.3288 -9.3959 1.6990
7.3349 -8.7408 1.6216
7.5444 -8.3646 1.5959
7.8610 -8.1131 1.5959
8.1675 -7.8480 1.5959
8.4634 -7.5699 1.5959
8.7480 -7.2791 1.5959
9.0207 -6.9762 1.5959
9.2808 -6.6616 1.5959
9.5278 -6.3359 1.5959
9.7612 -5.9997 1.5959
9.9804 -5.6536 1.5959
10.1849 -5.2983 1.5959
10.3743 -4.9344 1.5959
9.8870 -3.0703 1.4379
9.8143 -2.6674 1.4133
9.7069 -2.2693 1.3864
9.6206 -1.8896 1.3649
9.5431 -1.5226 1.3470
9.4842 -1.1677 1.3339
9.4238 -0.8199 1.3227
9.3570 -0.4782 1.3126
9.2805 -0.1423 1.3031
9.2052 0.1877 1.2957
9.1311 0.5129 1.2904
8.9983 0.8288 1.2785
8.9852 1.1525 1.2855
8.9132 1.4686 1.2860
8.8414 1.7834 1.2883
8.7698 2.0975 1.2926
8.6981 2.4120 1.2987
8.6261 2.7275 1.3068
8.5537 3.0449 1.3169
8.4648 3.3587 1.3264
8.3738 3.6742 1.3377
8.2810 3.9923 1.3509
8.2037 4.3230 1.3690
8.1271 4.6612 1.3898
8.0669 5.0183 1.4162
5.0349 3.9383 0.9676
7.7349 6.9970 1.5958
7.4390 7.2298 1.5958
7.1362 7.4502 1.5958
6.8270 7.6581 1.5958
6.5119 7.8533 1.5958
6.1916 8.0359 1.5958
5.8666 8.2057 1.5958
5.5374 8.3627 1.5958
5.2046 8.5068 1.5958
4.8687 8.6382 1.5958
4.5302 8.7568 1.5958
4.1896 8.8627 1.5958
3.8474 8.9559 1.5958
3.5121 9.0574 1.5994
3.2363 9.3243 1.6342
2.9981 9.7534 1.6990
2.6318 9.7999 1.6990
2.2662 9.8336 1.6990
1.9017 9.8546 1.6990
1.5387 9.8630 1.6990
1.1776 9.8592 1.6990
0.8189 9.8432 1.6990
0.4627 9.8153 1.6990
0.1096 9.7756 1.6990
-0.2401 9.7245 1.6990
-0.5862 9.6621 1.6990
-0.9282 9.5886 1.6990
-1.2660 9.5043 1.6990
-1.5992 9.4095 1.6990
-1.2269 5.9226 1.0815
-1.3908 5.6783 1.0499
-1.4203 5.0121 0.9395
-1.6037 4.9706 0.9458
-1.7882 4.9288 0.9533
-1.9744 4.8867 0.9619
-2.1629 4.8440 0.9718
-2.3541 4.8008 0.9830
-2.5487 4.7568 0.9955
-2.7472 4.7119 1.0094
-2.9503 4.6660 1.0249
-3.1586 4.6189 1.0419
-5.0755 6.8772 1.5959
-5.3057 6.6725 1.5959
-5.5286 6.4612 1.5959
-5.7442 6.2436 1.5959
-5.9524 6.0199 1.5959
-6.1531 5.7903 1.5959
-6.3460 5.5550 1.5959
-6.5311 5.3142 1.5959
-6.7083 5.0682 1.5959
-6.8775 4.8172 1.5959
-7.0386 4.5613 1.5959
-7.1915 4.3008 1.5959
-7.3360 4.0360 1.5959
-7.4721 3.7670 1.5959
-7.5998 3.4940 1.5959
-7.7146 3.2156 1.5951
-5.0093 -6.4335 1.5958
-4.7974 -6.6398 1.5958
-4.5776 -6.8397 1.5958
-4.3500 -7.0330 1.5958
-4.1147 -7.2191 1.5958
-3.8720 -7.3980 1.5958
-3.6220 -7.5691 1.5958
-3.3649 -7.7322 1.5958
-3.1010 -7.8870 1.5958
-2.8306 -8.0331 1.5958
-2.5537 -8.1703 1.5958
-2.2708 -8.2982 1.5958
-1.9821 -8.4165 1.5958
-1.6879 -8.5250 1.5958
-1.3885 -8.6232 1.5958
-1.0844 -8.7110 1.5958
-0.8034 -9.1015 1.6527
-0.4930 -9.4270 1.6990
-0.1561 -9.4853 1.6990
0.1842 -9.5314 1.6990
0.5276 -9.5649 1.6990
0.8736 -9.5858 1.6990
1.2216 -9.5937 1.6990
1.5712 -9.5884 1.6990
1.9218 -9.5699 1.6990
2.2729 -9.5379 1.6990
2.6239 -9.4924 1.6990
2.9743 -9.4331 1.6990
3.3235 -9.3602 1.6990
3.6709 -9.2734 1.6990
4.0158 -9.1728 1.6990
4.3578 -9.0584 1.6990
4.6961 -8.9302 1.6990
5.0301 -8.7883 1.6990
5.3593 -8.6328 1.6990
5.6829 -8.4638 1.6990
6.0004 -8.2816 1.6990
6.3112 -8.0862 1.6990
6.6146 -7.8780 1.6990
6.9100 -7.6571 1.6990
6.9826 -7.2029 1.6484
7.0210 -6.7433 1.5959
7.2728 -6.5022 1.5959
7.5148 -6.2506 1.5959
7.7467 -5.9888 1.5959
7.9679 -5.7174 1.5959
8.1781 -5.4368 1.5959
8.3767 -5.1474 1.5959
8.5633 -4.8499 1.5959
8.7376 -4.5446 1.5959
8.8992 -4.2323 1.5959
9.0478 -3.9133 1.5959
9.1831 -3.5885 1.5959
9.3048 -3.2583 1.5959
9.4127 -2.9234 1.5959
9.5057 -2.5841 1.5958
9.5854 -2.2417 1.5958
9.6509 -1.8965 1.5958
9.7020 -1.5492 1.5958
9.7388 -1.2004 1.5958
8.9995 0.8265 1.4870
8.4556 4.0720 1.5958
8.2712 4.3539 1.5958
8.0766 4.6274 1.5958
7.8724 4.8922 1.5958
7.6590 5.1479 1.5958
7.4368 5.3943 1.5958
5.0303 3.9306 1.1139
6.9681 5.8580 1.5958
6.7225 6.0748 1.5958
6.4700 6.2813 1.5958
6.2112 6.4774 1.5958
5.9464 6.6630 1.5958
5.6762 6.8377 1.5958
5.4011 7.0017 1.5958
5.1214 7.1548 1.5958
4.8377 7.2969 1.5958
4.5504 7.4279 1.5958
4.2600 7.5480 1.5958
3.9669 7.6570 1.5958
3.6716 7.7551 1.5958
3.5030 8.1410 1.6566
3.2748 8.4305 1.6990
2.9557 8.4999 1.6990
0.9356 3.0374 0.6030
0.8260 3.0685 0.6059
0.7153 3.0957 0.6088
0.6037 3.1189 0.6116
0.4914 3.1381 0.6145
0.3785 3.1534 0.6173
0.2651 3.1646 0.6202
0.1513 3.1718 0.6230
0.0374 3.1749 0.6258
-0.0766 3.1740 0.6285
-0.1905 3.1690 0.6312
-0.3042 3.1600 0.6339
-0.4175 3.1469 0.6365
-0.5303 3.1298 0.6391
-0.6424 3.1087 0.6417
-0.7537 3.0836 0.6442
-0.8641 3.0546 0.6466
-1.6016 4.9719 1.0679
-1.7862 4.9302 1.0759
-1.9725 4.8880 1.0852
-2.1611 4.8453 1.0959
-2.3524 4.8021 1.1081
-2.5470 4.7581 1.1218
-2.7456 4.7132 1.1371
-2.9488 4.6672 1.1541
-3.1572 4.6201 1.1729
-4.5082 6.1126 1.5959
-4.7142 5.9323 1.5959
-4.9137 5.7459 1.5959
-5.1068 5.5537 1.5959
-5.2933 5.3559 1.5959
-5.4730 5.1526 1.5959
-5.6458 4.9441 1.5959
-5.8116 4.7306 1.5959
-5.9704 4.5122 1.5959
-6.1219 4.2892 1.5959
-6.2661 4.0618 1.5959
-6.4029 3.8302 1.5959
-6.5323 3.5945 1.5959
-6.6540 3.3550 1.5959
-6.7680 3.1119 1.5959
-6.8742 2.8655 1.5959
-4.4698 -5.7473 1.5959
-4.2781 -5.9282 1.5958
-4.0799 -6.1037 1.5958
-3.8748 -6.2730 1.5958
-3.6632 -6.4357 1.5958
-3.4451 -6.5917 1.5958
-3.2207 -6.7407 1.5958
-2.9902 -6.8823 1.5958
-2.7539 -7.0164 1.5958
-2.5120 -7.1425 1.5958
-2.2646 -7.2606 1.5958
-2.0122 -7.3702 1.5958
-1.7548 -7.4712 1.5958
-1.4929 -7.5633 1.5958
-1.2267 -7.6462 1.5958
-1.0135 -8.1801 1.6909
-0.7268 -8.2874 1.6990
-0.4317 -8.3450 1.6990
-0.1335 -8.3920 1.6990
0.1675 -8.4281 1.6990
0.4709 -8.4532 1.6990
0.7762 -8.4670 1.6990
1.0829 -8.4695 1.6990
1.3908 -8.4604 1.6990
1.6992 -8.4396 1.6990
2.0077 -8.4070 1.6990
2.3159 -8.3626 1.6990
2.6233 -8.3063 1.6990
2.9292 -8.2381 1.6990
3.2334 -8.1578 1.6990
3.5351 -8.0655 1.6990
3.8340 -7.9614 1.6990
4.1295 -7.8453 1.6990
4.4210 -7.7174 1.6990
4.7080 -7.5777 1.6990
4.9901 -7.4265 1.6990
5.2667 -7.2639 1.6990
5.5372 -7.0900 1.6990
5.8012 -6.9052 1.6990
6.0581 -6.7095 1.6990
6.3075 -6.5033 1.6990
6.5489 -6.2869 1.6990
6.7069 -5.9937 1.6803
6.6015 -5.4888 1.6010
6.7820 -5.2412 1.5959
6.9743 -5.0028 1.5959
7.1569 -4.7566 1.5959
7.3295 -4.5029 1.5959
7.4919 -4.2422 1.5959
7.6436 -3.9749 1.5959
7.7843 -3.7016 1.5959
7.9139 -3.4226 1.5959
8.0320 -3.1386 1.5959
8.1376 -2.8497 1.5958
8.2322 -2.5571 1.5958
8.3147 -2.2609 1.5958
8.3852 -1.9617 1.5958
8.4433 -1.6601 1.5958
8.4891 -1.3566 1.5958
8.5226 -1.0517 1.5958
8.5436 -0.7461 1.5958
8.5522 -0.4401 1.5958
8.5485 -0.1345 1.5958
8.5325 0.1702 1.5958
8.5042 0.4736 1.5958
8.4639 0.7751 1.5958
8.4117 1.0742 1.5958
8.3477 1.3704 1.5958
8.2721 1.6631 1.5958
8.1852 1.9520 1.5958
8.0871 2.2365 1.5958
7.9782 2.5162 1.5958
7.8587 2.7907 1.5958
7.7289 3.0596 1.5958
7.5891 3.3224 1.5958
7.4396 3.5788 1.5958
7.2809 3.8285 1.5958
7.1132 4.0711 1.5958
6.9368 4.3063 1.5958
6.7523 4.5338 1.5958
6.5599 4.7533 1.5958
5.0256 3.9229 1.2609
6.1532 5.1674 1.5958
5.9396 5.3616 1.5958
5.7198 5.5470 1.5958
5.4941 5.7234 1.5958
5.2629 5.8906 1.5958
5.0267 6.0485 1.5958
4.7859 6.1970 1.5958
4.5408 6.3360 1.5958
4.2918 6.4654 1.5958
4.0394 6.5852 1.5958
3.8248 6.7676 1.6130
3.7230 7.1760 1.6850
3.4767 7.3322 1.6990
3.1973 7.4186 1.6990
2.9163 7.4946 1.6990
0.9308 2.6717 0.6004
0.8343 2.7029 0.6030
0.7367 2.7305 0.6055
0.6382 2.7547 0.6081
0.5389 2.7754 0.6107
0.4390 2.7925 0.6132
0.3384 2.8061 0.6157
0.2375 2.8160 0.6182
0.1362 2.8224 0.6207
0.0348 2.8251 0.6232
-0.0666 2.8243 0.6256
-0.1680 2.8198 0.6281
-0.2692 2.8117 0.6304
-0.3700 2.8001 0.6328
-0.4704 2.7848 0.6351
-0.5701 2.7660 0.6374
-0.6692 2.7436 0.6396
-0.7674 2.7177 0.6418
-0.8646 2.6884 0.6439
-1.7842 4.9315 1.1996
-1.9706 4.8893 1.2096
-2.1592 4.8467 1.2212
-2.3506 4.8034 1.2343
-2.5453 4.7594 1.2492
-2.7440 4.7145 1.2659
-2.9472 4.6685 1.2845
-3.1558 4.6214 1.3051
-4.1892 5.6838 1.6505
-4.2369 5.3351 1.5959
-4.4174 5.1685 1.5959
-4.5921 4.9966 1.5959
-4.7608 4.8195 1.5959
-4.9233 4.6373 1.5959
-5.0797 4.4503 1.5959
-5.2298 4.2586 1.5959
-5.3734 4.0625 1.5959
-5.5105 3.8620 1.5959
-5.6410 3.6576 1.5959
-5.7647 3.4492 1.5959
-5.8816 3.2371 1.5959
-5.9915 3.0215 1.5959
-6.0945 2.8026 1.5959
-6.1903 2.5805 1.5959
-4.0305 -5.1885 1.5959
-3.8563 -5.3502 1.5959
-3.6760 -5.5064 1.5959
-3.4893 -5.6562 1.5958
-3.2971 -5.8006 1.5958
-3.0993 -5.9387 1.5958
-2.8959 -6.0703 1.5958
-2.6873 -6.1952 1.5958
-2.4735 -6.3131 1.5958
-2.2549 -6.4239 1.5958
-2.0316 -6.5271 1.5958
-1.8039 -6.6228 1.5958
-1.5720 -6.7106 1.5958
-1.3386 -6.8029 1.5987
-1.1676 -7.3056 1.6990
-0.9091 -7.3726 1.6990
-0.6473 -7.4304 1.6990
-0.3826 -7.4788 1.6990
-0.1153 -7.5176 1.6990
0.1542 -7.5467 1.6990
0.4256 -7.5658 1.6990
0.6985 -7.5749 1.6990
0.9725 -7.5738 1.6990
1.2472 -7.5625 1.6990
1.5222 -7.5408 1.6990
1.7971 -7.5086 1.6990
2.0715 -7.4660 1.6990
2.3449 -7.4128 1.6990
2.6169 -7.3490 1.6990
2.8871 -7.2747 1.6990
3.1549 -7.1898 1.6990
3.4201 -7.0944 1.6990
3.6820 -6.9885 1.6990
3.9403 -6.8723 1.6990
4.1946 -6.7458 1.6990
4.4442 -6.6092 1.6990
4.6889 -6.4626 1.6990
4.9281 -6.3062 1.6990
5.1615 -6.1401 1.6990
5.3886 -5.9647 1.6990
5.6089 -5.7801 1.6990
5.8221 -5.5866 1.6990
6.0277 -5.3845 1.6990
6.2254 -5.1741 1.6990
6.4148 -4.9557 1.6990
6.3868 -4.5800 1.6453
6.3566 -4.2235 1.5959
6.5092 -3.9979 1.5959
6.6526 -3.7662 1.5959
6.7867 -3.5287 1.5959
6.9106 -3.2857 1.5958
7.0253 -3.0381 1.5958
7.1299 -2.7861 1.5958
7.2244 -2.5300 1.5958
7.3085 -2.2705 1.5958
7.3821 -2.0077 1.5958
7.4450 -1.7424 1.5958
7.4973 -1.4749 1.5958
7.5387 -1.2056 1.5958
7.5693 -0.9352 1.5958
7.5890 -0.6639 1.5958
7.5979 -0.3924 1.5958
7.5959 -0.1211 1.5958
7.5832 0.1496 1.5958
7.5597 0.4192 1.5958
7.5256 0.6872 1.5958
7.4810 0.9532 1.5958
7.4260 1.2168 1.5958
7.3608 1.4775 1.5958
7.2856 1.7349 1.5958
7.2006 1.9886 1.5958
7.1059 2.2382 1.5958
7.0018 2.4834 1.5958
6.8886 2.7237 1.5958
6.7664 2.9589 1.5958
6.6357 3.1886 1.5958
6.4966 3.4124 1.5958
6.3495 3.6301 1.5958
6.1946 3.8414 1.5958
6.0323 4.0461 1.5958
5.8629 4.2438 1.5958
5.0209 3.9151 1.4089
4.9630 4.1635 1.4389
5.3156 4.7932 1.5958
5.1212 4.9611 1.5958
4.9214 5.1211 1.5958
4.7165 5.2731 1.5958
4.5070 5.4169 1.5958
4.3069 5.5701 1.6009
4.0767 5.6815 1.5963
3.9903 6.0036 1.6523
3.8637 6.2905 1.6990
3.6212 6.3986 1.6990
3.3759 6.4975 1.6990
3.1282 6.5872 1.6990
2.8784 6.6677 1.6990
0.9251 2.3732 0.5983
0.8393 2.4043 0.6006
0.7524 2.4323 0.6029
0.6646 2.4572 0.6052
0.5759 2.4790 0.6075
0.4865 2.4976 0.6098
0.3965 2.5130 0.6121
0.3060 2.5251 0.6144
0.2152 2.5341 0.6167
0.1241 2.5398 0.6189
0.0328 2.5423 0.6211
-0.0586 2.5415 0.6233
-0.1498 2.5374 0.6255
-0.2408 2.5301 0.6277
-0.3316 2.5196 0.6298
-0.4219 2.5058 0.6319
-0.5117 2.4889 0.6339
-0.6008 2.4687 0.6359
-0.6892 2.4454 0.6379
-0.7767 2.4189 0.6398
-0.8632 2.3893 0.6417
-1.9686 4.8907 1.3354
-2.1573 4.8480 1.3477
-2.3488 4.8047 1.3620
-2.5436 4.7607 1.3780
-2.7424 4.7158 1.3961
-2.9457 4.6698 1.4163
-3.1543 4.6227 1.4388
-3.9110 5.3100 1.6990
-4.0594 5.1148 1.6856
-4.0080 4.6922 1.5959
-4.1673 4.5369 1.5959
-4.3212 4.3766 1.5959
-4.4695 4.2117 1.5959
-4.6122 4.0424 1.5959
-4.7491 3.8687 1.5959
-4.8801 3.6908 1.5959
-5.0052 3.5090 1.5959
-5.1242 3.3234 1.5959
-5.2370 3.1342 1.5959
-5.3435 2.9415 1.5959
-5.4437 2.7456 1.5959
-5.5374 2.5467 1.5959
-5.6247 2.3448 1.5959
-3.6656 -4.7245 1.5959
-3.5059 -4.8701 1.5959
-3.3407 -5.0106 1.5959
-3.1701 -5.1457 1.5959
-2.9943 -5.2752 1.5959
-2.8135 -5.3990 1.5959
-2.6275 -5.5161 1.5958
-2.4371 -5.6276 1.5958
-2.2421 -5.7327 1.5958
-2.0429 -5.8311 1.5958
-1.8396 -5.9228 1.5958
-1.6324 -6.0073 1.5958
-1.4568 -6.2358 1.6354
-1.2854 -6.5530 1.6990
-1.0540 -6.6195 1.6990
-0.8195 -6.6778 1.6990
-0.5822 -6.7277 1.6990
-0.3424 -6.7690 1.6990
-0.1005 -6.8017 1.6990
0.1433 -6.8255 1.6990
0.3886 -6.8404 1.6990
0.6350 -6.8462 1.6990
0.8823 -6.8429 1.6990
1.1301 -6.8303 1.6990
1.3779 -6.8083 1.6990
1.6256 -6.7770 1.6990
1.8725 -6.7363 1.6990
2.1185 -6.6862 1.6990
2.3631 -6.6266 1.6990
2.6058 -6.5575 1.6990
2.8464 -6.4791 1.6990
3.0844 -6.3913 1.6990
3.3194 -6.2942 1.6990
3.5510 -6.1878 1.6990
3.7789 -6.0724 1.6990
4.0026 -5.9480 1.6990
4.2217 -5.8147 1.6990
4.4359 -5.6727 1.6990
4.6448 -5.5222 1.6990
4.8480 -5.3633 1.6990
5.0451 -5.1964 1.6990
5.2357 -5.0216 1.6990
5.4196 -4.8392 1.6990
5.5964 -4.6495 1.6990
5.7658 -4.4527 1.6990
5.9274 -4.2491 1.6990
6.0810 -4.0392 1.6990
6.2162 -3.8170 1.6963
6.1397 -3.4751 1.6394
6.0963 -3.1692 1.5958
6.2078 -2.9512 1.5958
6.3106 -2.7288 1.5958
6.4045 -2.5026 1.5958
6.4893 -2.2727 1.5958
6.5649 -2.0397 1.5958
6.6312 -1.8040 1.5958
6.6881 -1.5658 1.5958
6.7354 -1.3257 1.5958
6.7732 -1.0841 1.5958
6.8013 -0.8413 1.5958
6.8198 -0.5978 1.5958
6.8286 -0.3540 1.5958
6.8278 -0.1103 1.5958
6.8174 0.1329 1.5958
6.7975 0.3752 1.5958
6.7681 0.6162 1.5958
6.7293 0.8555 1.5958
6.6813 1.0927 1.5958
6.6242 1.3274 1.5958
6.5581 1.5593 1.5958
6.4831 1.7880 1.5958
6.3996 2.0131 1.5958
6.3076 2.2344 1.5958
6.2073 2.4515 1.5958
6.0991 2.6640 1.5958
5.9831 2.8717 1.5958
5.8595 3.0744 1.5958
5.7287 3.2717 1.5958
5.5908 3.4633 1.5958
5.4462 3.6491 1.5958
5.2951 3.8287 1.5958
5.0162 3.9073 1.5580
4.9583 4.1551 1.5905
4.8060 4.3291 1.5958
4.6320 4.4823 1.5958
4.4530 4.6286 1.5958
4.2811 4.7808 1.6002
4.2076 5.0512 1.6452
4.1399 5.3477 1.6986
3.9323 5.4735 1.6990
3.7201 5.5899 1.6990
3.5045 5.6981 1.6990
3.2860 5.7982 1.6990
3.0648 5.8900 1.6990
2.8412 5.9735 1.6990
0.9185 2.1241 0.5966
0.8416 2.1550 0.5987
0.7636 2.1833 0.6008
0.6847 2.2087 0.6029
0.6049 2.2314 0.6050
0.5244 2.2511 0.6071
0.4432 2.2680 0.6092
0.3615 2.2820 0.6113
0.2793 2.2930 0.6133
0.1968 2.3012 0.6154
0.1140 2.3063 0.6174
0.0311 2.3086 0.6194
-0.0519 2.3078 0.6214
-0.1347 2.3041 0.6234
-0.2174 2.2975 0.6254
-0.2999 2.2879 0.6273
-0.3819 2.2754 0.6292
-0.4634 2.2599 0.6310
-0.5444 2.2416 0.6328
-0.6246 2.2204 0.6346
-0.7041 2.1963 0.6364
-0.7826 2.1694 0.6381
-0.8602 2.1397 0.6397
-2.4814 5.5828 1.6990
-2.6743 5.4764 1.6990
-2.8631 5.3639 1.6990
-3.0477 5.2454 1.6990
-3.2278 5.1212 1.6990
-3.4033 4.9913 1.6990
-3.5741 4.8560 1.6990
-3.7400 4.7153 1.6990
-3.9009 4.5695 1.6990
-3.8586 4.2031 1.6161
-3.9518 4.0046 1.5959
-4.0881 3.8541 1.5959
-4.2191 3.6994 1.5959
-4.3449 3.5408 1.5959
-4.4652 3.3782 1.5959
-4.5801 3.2120 1.5959
-4.6894 3.0422 1.5959
-4.7929 2.8691 1.5959
-4.8907 2.6928 1.5959
-4.9827 2.5135 1.5959
-5.0687 2.3313 1.5959
-5.1487 2.1465 1.5959
-3.3576 -4.3327 1.5959
-3.2103 -4.4650 1.5959
-3.0580 -4.5925 1.5959
-2.9008 -4.7150 1.5959
-2.7390 -4.8322 1.5959
-2.5726 -4.9441 1.5959
-2.4019 -5.0504 1.5959
-2.2269 -5.1510 1.5959
-2.0479 -5.2456 1.5959
-1.8704 -5.3493 1.6005
-1.6784 -5.4156 1.5958
-1.5635 -5.7678 1.6761
-1.3793 -5.9201 1.6990
-1.1705 -5.9864 1.6990
-0.9588 -6.0453 1.6990
-0.7445 -6.0967 1.6990
-0.5277 -6.1404 1.6990
-0.3088 -6.1762 1.6990
-0.0881 -6.2042 1.6990
0.1342 -6.2240 1.6990
0.3577 -6.2357 1.6990
0.5822 -6.2392 1.6990
0.8073 -6.2343 1.6990
1.0327 -6.2211 1.6990
1.2580 -6.1994 1.6990
1.4830 -6.1692 1.6990
1.7074 -6.1305 1.6990
1.9306 -6.0832 1.6990
2.1525 -6.0274 1.6990
2.3727 -5.9631 1.6990
2.5908 -5.8903 1.6990
2.8064 -5.8091 1.6990
3.0193 -5.7195 1.6990
3.2290 -5.6217 1.6990
3.4352 -5.5156 1.6990
3.6376 -5.4015 1.6990
3.8358 -5.2794 1.6990
4.0295 -5.1496 1.6990
4.2183 -5.0121 1.6990
4.4019 -4.8672 1.6990
4.5800 -4.7150 1.6990
4.7523 -4.5558 1.6990
4.9184 -4.3897 1.6990
5.0781 -4.2172 1.6990
5.2311 -4.0383 1.6990
5.3771 -3.8534 1.6990
5.5158 -3.6627 1.6990
5.6471 -3.4667 1.6990
5.7706 -3.2655 1.6990
5.8861 -3.0594 1.6990
5.9935 -2.8490 1.6990
5.9453 -2.5707 1.6579
5.8911 -2.3019 1.6188
5.8843 -2.0609 1.5958
5.9529 -1.8498 1.5958
6.0132 -1.6362 1.5958
6.0650 -1.4204 1.5958
6.1082 -1.2029 1.5958
6.1428 -0.9840 1.5958
6.1688 -0.7640 1.5958
6.1861 -0.5433 1.5958
6.1948 -0.3223 1.5958
6.1948 -0.1013 1.5958
6.1862 0.1192 1.5958
6.1690 0.3390 1.5958
6.1432 0.5577 1.5958
6.1090 0.7749 1.5958
6.0665 0.9902 1.5958
6.0158 1.2034 1.5958
5.9569 1.4142 1.5958
5.8901 1.6221 1.5958
5.8154 1.8270 1.5958
5.7331 2.0284 1.5958
5.6434 2.2261 1.5958
5.5463 2.4198 1.5958
5.4422 2.6092 1.5958
5.3312 2.7941 1.5958
5.2136 2.9743 1.5958
5.0896 3.1494 1.5958
4.9594 3.3193 1.5958
4.8232 3.4838 1.5958
4.6814 3.6426 1.5958
4.5341 3.7956 1.5958
4.4522 4.0060 1.6214
4.3913 4.2448 1.6588
4.3253 4.4909 1.6990
4.1483 4.6272 1.6990
3.9669 4.7566 1.6990
3.7815 4.8789 1.6990
3.5923 4.9940 1.6990
3.3997 5.1018 1.6990
3.2039 5.2022 1.6990
3.0052 5.2952 1.6990
2.8039 5.3807 1.6990
0.9110 1.9124 0.5952
0.8417 1.9432 0.5971
0.7713 1.9716 0.5990
0.7000 1.9975 0.6010
0.6278 2.0207 0.6029
0.5548 2.0414 0.6048
0.4811 2.0595 0.6067
0.4068 2.0750 0.6086
0.3320 2.0878 0.6105
0.2568 2.0979 0.6124
0.1813 2.1053 0.6143
0.1055 2.1100 0.6162
0.0296 2.1120 0.6180
-0.0463 2.1114 0.6198
-0.1221 2.1080 0.6216
-0.1978 2.1019 0.6234
-0.2732 2.0931 0.6252
-0.3482 2.0816 0.6269
-0.4228 2.0675 0.6286
-0.4969 2.0507 0.6303
-0.5703 2.0312 0.6319
-0.6430 2.0092 0.6335
-0.7149 1.9845 0.6350
-0.7858 1.9574 0.6366
-0.8558 1.9277 0.6380
-2.4568 5.0363 1.6990
-2.6309 4.9336 1.6990
-2.8012 4.8255 1.6990
-2.9674 4.7119 1.6990
-3.1294 4.5931 1.6990
-3.2871 4.4691 1.6990
-3.4403 4.3402 1.6990
-3.5889 4.2065 1.6990
-3.7327 4.0682 1.6990
-3.7631 3.8153 1.6514
-3.7627 3.5490 1.5959
-3.8837 3.4069 1.5959
-3.9999 3.2609 1.5959
-4.1111 3.1114 1.5959
-4.2172 2.9585 1.5959
-4.3182 2.8022 1.5959
-4.4138 2.6428 1.5959
-4.5041 2.4804 1.5959
-4.5890 2.3153 1.5959
-4.6683 2.1474 1.5959
-4.7421 1.9771 1.5959
-3.0937 -3.9972 1.5959
-2.9572 -4.1182 1.5959
-2.8161 -4.2348 1.5959
-2.6706 -4.3466 1.5959
-2.5208 -4.4536 1.5959
-2.3669 -4.5556 1.5959
-2.2090 -4.6524 1.5959
-2.0474 -4.7438 1.5959
-1.8821 -4.8297 1.5959
-1.7519 -5.0204 1.6319
-1.6409 -5.3061 1.6990
-1.4545 -5.3789 1.6990
-1.2651 -5.4451 1.6990
-1.0728 -5.5046 1.6990
-0.8780 -5.5573 1.6990
-0.6808 -5.6031 1.6990
-0.4815 -5.6418 1.6990
-0.2803 -5.6732 1.6990
-0.0776 -5.6974 1.6990
0.1265 -5.7142 1.6990
0.3316 -5.7236 1.6990
0.5374 -5.7253 1.6990
0.7438 -5.7194 1.6990
0.9503 -5.7059 1.6990
1.1567 -5.6846 1.6990
1.3626 -5.6556 1.6990
1.5679 -5.6188 1.6990
1.7721 -5.5743 1.6990
1.9749 -5.5219 1.6990
2.1761 -5.4619 1.6990
2.3753 -5.3941 1.6990
2.5723 -5.3187 1.6990
2.7666 -5.2356 1.6990
2.9579 -5.1451 1.6990
3.1461 -5.0471 1.6990
3.3306 -4.9419 1.6990
3.5113 -4.8294 1.6990
3.6879 -4.7099 1.6990
3.8599 -4.5835 1.6990
4.0272 -4.4504 1.6990
4.1895 -4.3107 1.6990
4.3464 -4.1647 1.6990
4.4977 -4.0125 1.6990
4.6432 -3.8544 1.6990
4.7825 -3.6906 1.6990
4.9155 -3.5214 1.6990
5.0419 -3.3470 1.6990
5.1615 -3.1677 1.6990
5.2740 -2.9838 1.6990
5.3793 -2.7955 1.6990
5.4772 -2.6032 1.6990
5.5676 -2.4072 1.6990
5.6502 -2.2078 1.6990
5.7250 -2.0053 1.6990
5.7678 -1.7926 1.6920
5.7137 -1.5551 1.6593
5.6656 -1.3274 1.6312
5.6219 -1.1077 1.6071
5.6142 -0.9000 1.5958
5.6384 -0.6991 1.5958
5.6546 -0.4976 1.5958
5.6630 -0.2957 1.5958
5.6636 -0.0938 1.5958
5.6563 0.1077 1.5958
5.6412 0.3086 1.5958
5.6184 0.5085 1.5958
5.5879 0.7071 1.5958
5.5499 0.9041 1.5958
5.5043 1.0993 1.5958
5.4514 1.2922 1.5958
5.3912 1.4826 1.5958
5.3238 1.6703 1.5958
5.2495 1.8549 1.5958
5.1684 2.0362 1.5958
5.0806 2.2139 1.5958
4.9863 2.3879 1.5958
4.8857 2.5577 1.5958
4.7790 2.7233 1.5958
4.7056 2.9086 1.6092
4.6533 3.1110 1.6327
4.6021 3.3204 1.6599
4.5524 3.5384 1.6912
4.4306 3.7049 1.6990
4.2829 3.8493 1.6990
4.1302 3.9879 1.6990
3.9730 4.1204 1.6990
3.8115 4.2466 1.6990
3.6459 4.3665 1.6990
3.4765 4.4800 1.6990
3.3036 4.5869 1.6990
3.1274 4.6871 1.6990
2.9482 4.7806 1.6990
2.7663 4.8674 1.6990
0.9028 1.7298 0.5941
0.8400 1.7605 0.5958
0.7762 1.7889 0.5976
0.7114 1.8151 0.5993
0.6457 1.8389 0.6011
0.5792 1.8603 0.6029
0.5120 1.8794 0.6046
0.4441 1.8960 0.6064
0.3757 1.9102 0.6081
0.3068 1.9220 0.6099
0.2376 1.9313 0.6116
0.1680 1.9381 0.6134
0.0983 1.9425 0.6151
0.0284 1.9443 0.6168
-0.0415 1.9437 0.6185
-0.1113 1.9406 0.6201
-0.1810 1.9349 0.6218
-0.2504 1.9268 0.6234
-0.3195 1.9162 0.6250
-0.3882 1.9032 0.6265
-0.4564 1.8877 0.6281
-0.5240 1.8698 0.6296
-0.5909 1.8495 0.6310
-0.6571 1.8268 0.6325
-0.7224 1.8017 0.6339
-0.7868 1.7744 0.6352
-0.8502 1.7447 0.6365
-2.4308 4.5628 1.6990
-2.5886 4.4633 1.6990
-2.7428 4.3589 1.6990
-2.8931 4.2495 1.6990
-3.0394 4.1353 1.6990
-3.1816 4.0165 1.6990
-3.3195 3.8931 1.6990
-3.4530 3.7655 1.6990
-3.5820 3.6336 1.6990
-3.6864 3.4787 1.6898
-3.6274 3.1834 1.6108
-3.7018 3.0191 1.5959
-3.8050 2.8808 1.5959
-3.9036 2.7393 1.5959
-3.9972 2.5947 1.5959
-4.0860 2.4472 1.5959
-4.1698 2.2968 1.5959
-4.2485 2.1438 1.5959
-4.3221 1.9884 1.5959
-4.3905 1.8306 1.5959
-2.8650 -3.7063 1.5959
-2.7379 -3.8177 1.5959
-2.6066 -3.9249 1.5959
-2.4712 -4.0277 1.5959
-2.3320 -4.1260 1.5959
-2.1890 -4.2196 1.5959
-2.0423 -4.3082 1.5959
-1.8989 -4.4074 1.6016
-1.8241 -4.6895 1.6741
-1.6846 -4.8371 1.6990
-1.5148 -4.9092 1.6990
-1.3421 -4.9754 1.6990
-1.1666 -5.0355 1.6990
-0.9887 -5.0895 1.6990
-0.8084 -5.1370 1.6990
-0.6260 -5.1782 1.6990
-0.4417 -5.2128 1.6990
-0.2558 -5.2407 1.6990
-0.0686 -5.2619 1.6990
0.1198 -5.2762 1.6990
0.3091 -5.2837 1.6990
0.4990 -5.2842 1.6990
0.6893 -5.2777 1.6990
0.8796 -5.2641 1.6990
1.0698 -5.2434 1.6990
1.2595 -5.2156 1.6990
1.4484 -5.1806 1.6990
1.6363 -5.1386 1.6990
1.8230 -5.0894 1.6990
2.0080 -5.0331 1.6990
2.1911 -4.9698 1.6990
2.3721 -4.8994 1.6990
2.5506 -4.8222 1.6990
2.7264 -4.7380 1.6990
2.8992 -4.6471 1.6990
3.0686 -4.5496 1.6990
3.2345 -4.4454 1.6990
3.3965 -4.3349 1.6990
3.5543 -4.2180 1.6990
3.7078 -4.0951 1.6990
3.8566 -3.9661 1.6990
4.0006 -3.8314 1.6990
4.1393 -3.6911 1.6990
4.2727 -3.5454 1.6990
4.4005 -3.3946 1.6990
4.5224 -3.2387 1.6990
4.6383 -3.0782 1.6990
4.7480 -2.9132 1.6990
4.8512 -2.7440 1.6990
4.9479 -2.5709 1.6990
5.0378 -2.3941 1.6990
5.1208 -2.2138 1.6990
5.1967 -2.0305 1.6990
5.2654 -1.8444 1.6990
5.3269 -1.6558 1.6990
5.3810 -1.4649 1.6990
5.4277 -1.2721 1.6990
5.4668 -1.0778 1.6990
5.4983 -0.8821 1.6990
5.5152 -0.6847 1.6969
5.4691 -0.4822 1.6777
5.4239 -0.2842 1.6613
5.3797 -0.0903 1.6474
5.3386 0.1004 1.6368
5.2979 0.2885 1.6285
5.2571 0.4744 1.6223
5.2162 0.6585 1.6183
5.1750 0.8414 1.6163
5.1335 1.0234 1.6164
5.0916 1.2050 1.6185
5.0491 1.3865 1.6227
5.0060 1.5684 1.6289
4.9621 1.7511 1.6373
4.9179 1.9352 1.6479
4.8753 2.1220 1.6615
4.8322 2.3114 1.6776
4.7883 2.5039 1.6963
4.6921 2.6708 1.6990
4.5825 2.8294 1.6990
4.4673 2.9834 1.6990
4.3468 3.1327 1.6990
4.2210 3.2771 1.6990
4.0902 3.4164 1.6990
3.9547 3.5504 1.6990
3.8147 3.6791 1.6990
3.6704 3.8021 1.6990
3.5221 3.9195 1.6990
3.3699 4.0311 1.6990
3.2142 4.1368 1.6990
3.0551 4.2365 1.6990
2.8930 4.3300 1.6990
2.7280 4.4175 1.6990
0.8938 1.5704 0.5931
0.8367 1.6008 0.5947
0.7786 1.6292 0.5963
0.7195 1.6556 0.5979
0.6596 1.6798 0.5996
0.5988 1.7018 0.6012
0.5372 1.7216 0.6028
0.4750 1.7393 0.6045
0.4122 1.7547 0.6061
0.3488 1.7678 0.6077
0.2851 1.7787 0.6094
0.2210 1.7873 0.6110
0.1566 1.7937 0.6126
0.0920 1.7977 0.6142
0.0274 1.7994 0.6157
-0.0373 1.7988 0.6173
-0.1020 1.7959 0.6188
-0.1664 1.7907 0.6204
-0.2307 1.7831 0.6218
-0.2947 1.7733 0.6233
-0.3583 1.7613 0.6248
-0.4214 1.7469 0.6262
-0.4840 1.7303 0.6276
-0.5459 1.7115 0.6289
-0.6071 1.6905 0.6303
-0.6676 1.6673 0.6315
-0.7272 1.6419 0.6328
-0.7859 1.6145 0.6340
-0.8435 1.5849 0.6352
-2.4033 4.1476 1.6990
-2.5469 4.0510 1.6990
-2.6869 3.9497 1.6990
-2.8232 3.8440 1.6990
-2.9557 3.7339 1.6990
-3.0843 3.6195 1.6990
-3.2088 3.5011 1.6990
-3.3290 3.3787 1.6990
-3.4450 3.2525 1.6990
-3.5566 3.1226 1.6990
-3.5545 2.9001 1.6484
-3.5376 2.6793 1.5959
-3.6294 2.5478 1.5959
-3.7168 2.4133 1.5959
-3.7995 2.2761 1.5959
-3.8776 2.1363 1.5959
-3.9509 1.9940 1.5959
-4.0195 1.8494 1.5959
-4.0832 1.7026 1.5959
-2.6647 -3.4515 1.5959
-2.5459 -3.5546 1.5959
-2.4232 -3.6537 1.5959
-2.2968 -3.7487 1.5959
-2.1668 -3.8395 1.5959
-2.0334 -3.9258 1.5959
-1.9530 -4.1266 1.6434
-1.8702 -4.3484 1.6990
-1.7180 -4.4252 1.6990
-1.5628 -4.4968 1.6990
-1.4048 -4.5630 1.6990
-1.2440 -4.6236 1.6990
-1.0808 -4.6785 1.6990
-0.9153 -4.7277 1.6990
-0.7477 -4.7709 1.6990
-0.5782 -4.8082 1.6990
-0.4071 -4.8394 1.6990
-0.2345 -4.8644 1.6990
-0.0607 -4.8831 1.6990
0.1141 -4.8955 1.6990
0.2896 -4.9015 1.6990
0.4656 -4.9010 1.6990
0.6420 -4.8941 1.6990
0.8183 -4.8806 1.6990
0.9944 -4.8606 1.6990
1.1700 -4.8340 1.6990
1.3449 -4.8008 1.6990
1.5187 -4.7610 1.6990
1.6913 -4.7147 1.6990
1.8624 -4.6618 1.6990
2.0317 -4.6024 1.6990
2.1989 -4.5366 1.6990
2.3638 -4.4645 1.6990
2.5262 -4.3860 1.6990
2.6857 -4.3013 1.6990
2.8421 -4.2104 1.6990
2.9952 -4.1136 1.6990
3.1447 -4.0109 1.6990
3.2904 -3.9024 1.6990
3.4320 -3.7882 1.6990
3.5693 -3.6686 1.6990
3.7020 -3.5437 1.6990
3.8300 -3.4137 1.6990
3.9530 -3.2788 1.6990
4.0709 -3.1391 1.6990
4.1833 -2.9949 1.6990
4.2903 -2.8464 1.6990
4.3914 -2.6937 1.6990
4.4867 -2.5373 1.6990
4.5759 -2.3772 1.6990
4.6588 -2.2137 1.6990
4.7355 -2.0471 1.6990
4.8056 -1.8777 1.6990
4.8691 -1.7057 1.6990
4.9260 -1.5314 1.6990
