ply
format ascii 1.0
element vertex 2111
property float32 x
property float32 y
property float32 z
end_header
8.6932 -15.4073 -1.0999
9.4348 -15.4078 -1.1322
10.2098 -15.4084 -1.1680
11.1962 -15.6518 -1.2266
12.0651 -15.6525 -1.2710
12.9833 -15.6531 -1.3202
13.9578 -15.6538 -1.3747
14.9967 -15.6546 -1.4351
16.1094 -15.6554 -1.5022
17.3073 -15.6563 -1.5770
18.6041 -15.6572 -1.6606
20.0161 -15.6582 -1.7544
21.5638 -15.6593 -1.8601
23.2722 -15.6605 -1.9797
25.1728 -15.6619 -2.1161
27.3058 -15.6634 -2.2725
29.0152 -15.2919 -2.3951
31.6618 -15.2659 -2.5966
34.8587 -15.2960 -2.8448
42.6112 -16.9075 -3.4660
42.6125 -15.1677 -3.4598
46.5901 -14.7284 -3.7814
45.2569 7.2622 -4.1009
41.4014 8.1738 -3.8145
36.8037 8.6460 -3.4518
36.8047 10.0497 -3.5180
29.7449 9.2787 -2.9011
26.3882 9.2811 -2.6292
14.1488 5.5535 -1.4419
12.7845 5.5545 -1.3343
11.6278 5.5553 -1.2445
10.6322 5.5560 -1.1685
9.7642 5.5566 -1.1034
8.9988 5.5572 -1.0472
8.3173 5.5577 -0.9983
7.7050 5.5581 -0.9553
7.1507 5.5585 -0.9174
6.6451 5.5589 -0.8838
6.1810 5.5592 -0.8539
5.7524 5.5595 -0.8271
5.6743 5.8919 -0.8510
5.6746 6.3318 -0.8899
5.6749 6.8085 -0.9329
5.6753 7.3282 -0.9809
5.6757 7.8984 -1.0346
5.6762 8.5288 -1.0951
5.6767 9.2312 -1.1637
5.6772 10.0210 -1.2421
5.6779 10.9178 -1.3324
5.6786 11.9479 -1.4376
5.6795 13.1468 -1.5616
5.5567 14.2462 -1.6725
6.1049 17.4802 -2.0308
5.5594 17.9649 -2.0677
2.2390 8.2761 -0.9448
6.0428 26.0048 -2.9475
5.1442 26.4028 -2.9745
2.8430 18.0142 -2.0192
2.2432 18.5050 -2.0659
-10.0191 -5.1577 -0.5578
-10.0194 -5.6200 -0.5594
-10.0197 -6.1013 -0.5619
-10.0201 -6.6040 -0.5655
-10.0204 -7.1310 -0.5702
-10.0208 -7.6856 -0.5762
-10.0213 -8.2715 -0.5835
-10.0217 -8.8931 -0.5924
-10.0222 -9.5556 -0.6029
-10.0227 -10.2649 -0.6153
-10.0233 -11.0282 -0.6299
-10.0238 -11.8542 -0.6469
-10.0245 -12.7533 -0.6667
-10.0252 -13.7383 -0.6897
-10.0260 -14.8249 -0.7165
-10.0269 -16.0332 -0.7478
-10.0278 -17.3884 -0.7845
-10.0289 -18.9231 -0.8277
-10.0302 -20.6804 -0.8791
-10.0316 -22.7182 -0.9406
-10.0334 -25.1162 -1.0152
-10.0355 -27.9869 -1.1068
-10.0026 -31.3845 -1.2170
-6.3637 -22.7484 -0.8670
5.3723 -34.0753 -1.2531
5.4199 -27.8607 -1.0363
5.4691 -23.5809 -0.8891
5.6478 -20.9220 -0.8013
5.4832 -17.7621 -0.6926
6.0678 -17.4197 -0.6931
6.5297 -16.7879 -0.6830
6.8229 -15.8406 -0.6604
7.2996 -15.4063 -0.6597
7.9864 -15.4068 -0.6791
8.6993 -15.4073 -0.7006
9.4416 -15.4078 -0.7244
10.2173 -15.4084 -0.7508
11.2046 -15.6518 -0.7923
12.0743 -15.6525 -0.8250
12.9936 -15.6531 -0.8612
13.9692 -15.6538 -0.9014
15.0093 -15.6546 -0.9458
16.1234 -15.6554 -0.9953
17.3229 -15.6563 -1.0504
18.6215 -15.6572 -1.1119
20.0357 -15.6582 -1.1810
21.5859 -15.6593 -1.2588
23.2973 -15.6606 -1.3469
25.2015 -15.6619 -1.4474
27.3389 -15.6635 -1.5626
29.0524 -15.2919 -1.6554
31.4266 -15.1317 -1.7882
34.5405 -15.1339 -1.9657
42.6112 -16.8803 -2.4291
42.6125 -15.1408 -2.4367
46.9138 -14.8016 -2.6946
45.0905 7.2623 -3.0517
44.2785 8.7683 -3.0575
39.1116 9.2117 -2.7583
33.3082 9.1152 -2.4017
28.2395 8.8265 -2.0841
26.3419 9.2812 -1.9920
14.1262 5.5535 -1.0958
12.7659 5.5545 -1.0170
11.6121 5.5553 -0.9512
10.6189 5.5560 -0.8955
9.7527 5.5566 -0.8478
8.9889 5.5572 -0.8066
8.3086 5.5577 -0.7707
7.6974 5.5581 -0.7392
7.1439 5.5585 -0.7114
6.6391 5.5589 -0.6868
6.1756 5.5592 -0.6648
5.7476 5.5595 -0.6451
5.6743 5.8967 -0.6655
5.6746 6.3367 -0.6970
6.4815 7.7820 -0.8359
6.1645 7.9656 -0.8371
5.8446 8.1392 -0.8382
5.6762 8.5346 -0.8627
5.6767 9.2374 -0.9178
5.6772 10.0275 -0.9808
5.6779 10.9247 -1.0532
5.6786 11.9553 -1.1374
5.6795 13.1548 -1.2366
5.5567 14.2547 -1.3255
5.9704 17.1050 -1.5752
5.5594 17.9751 -1.6410
2.2387 8.2795 -0.7501
5.1159 22.0277 -1.9824
6.3275 32.4932 -2.9077
2.8241 17.9037 -1.5946
2.2197 18.3203 -1.6255
-9.9470 14.6377 -1.4744
-9.9380 13.5526 -1.3907
-10.0062 12.6670 -1.3263
-10.0068 11.7742 -1.2601
-10.0074 10.9537 -1.2005
-10.0190 -5.1512 -0.3037
-10.0194 -5.6134 -0.3003
-10.0197 -6.0945 -0.2973
-10.0201 -6.5970 -0.2948
-10.0204 -7.1239 -0.2928
-10.0208 -7.6783 -0.2914
-10.0213 -8.2640 -0.2905
-10.0217 -8.8854 -0.2902
-10.0222 -9.5476 -0.2907
-10.0227 -10.2567 -0.2919
-10.0232 -11.0197 -0.2939
-10.0238 -11.8453 -0.2969
-10.0245 -12.7440 -0.3009
-10.0252 -13.7286 -0.3062
-10.0260 -14.8148 -0.3130
-10.0269 -16.0225 -0.3214
-10.0278 -17.3771 -0.3319
-10.0289 -18.9111 -0.3449
-10.0302 -20.6676 -0.3609
-10.0316 -22.7045 -0.3808
-10.0334 -25.1013 -0.4055
-10.0355 -27.9707 -0.4365
-10.0074 -31.3816 -0.4747
-10.0412 -35.8742 -0.5278
-10.0453 -41.5644 -0.5967
5.5173 -34.9710 -0.4883
6.1860 -31.7776 -0.4525
5.4727 -23.5808 -0.3436
5.6475 -20.9070 -0.3128
5.4858 -17.7587 -0.2736
6.0705 -17.4160 -0.2773
6.5326 -16.7840 -0.2770
6.8261 -15.8371 -0.2717
7.3046 -15.4063 -0.2755
7.9920 -15.4068 -0.2880
8.7054 -15.4073 -0.3019
9.4484 -15.4078 -0.3172
10.2247 -15.4084 -0.3342
11.2129 -15.6519 -0.3585
11.4807 -14.8715 -0.3606
10.2446 -12.3319 -0.3172
14.5777 -16.3226 -0.4469
15.6635 -16.3234 -0.4767
16.8267 -16.3242 -0.5098
18.0791 -16.3251 -0.5467
19.4351 -16.3261 -0.5878
20.9120 -16.3271 -0.6341
22.5310 -16.3283 -0.6861
23.3223 -15.6606 -0.7145
26.2567 -16.2993 -0.8107
27.3717 -15.6635 -0.8529
29.0896 -15.2919 -0.9160
31.6618 -15.2241 -1.0089
34.9623 -15.2961 -1.1286
42.6113 -16.8531 -1.3951
42.6125 -15.1140 -1.4164
46.9138 -14.7724 -1.5846
44.9258 7.2624 -2.0131
41.4668 8.2363 -1.9088
36.8037 8.6903 -1.7417
31.5924 8.6648 -1.5383
27.6832 8.6695 -1.3880
24.5912 8.6796 -1.2707
14.1038 5.5535 -0.7517
12.7473 5.5545 -0.7015
11.5965 5.5553 -0.6595
10.6056 5.5560 -0.6240
9.7413 5.5566 -0.5935
8.9790 5.5572 -0.5672
8.3000 5.5577 -0.5443
7.6898 5.5581 -0.5242
7.1372 5.5585 -0.5064
6.6332 5.5589 -0.4906
6.1703 5.5592 -0.4766
5.7429 5.5595 -0.4640
5.6743 5.9014 -0.4805
5.6746 6.3416 -0.5048
6.6524 7.9932 -0.6230
6.6529 8.6029 -0.6577
6.6535 9.2721 -0.6963
6.6540 10.0118 -0.7397
6.6547 10.8361 -0.7886
6.5827 11.6344 -0.8351
6.1260 11.7944 -0.8359
5.6786 11.9627 -0.8381
5.6795 13.1628 -0.9126
5.5567 14.2632 -0.9795
6.2430 17.8962 -1.2186
5.5594 17.9854 -1.2154
2.2384 8.2828 -0.5560
5.1159 22.0397 -1.4709
5.1190 26.3008 -1.7465
2.8359 17.9873 -1.1895
2.2287 18.4034 -1.2129
2.2686 26.7325 -1.7573
-9.9744 20.4839 -1.4269
-10.0018 18.7970 -1.3240
-10.0029 17.2760 -1.2319
-10.0038 15.9322 -1.1514
-10.0047 14.7334 -1.0806
-9.9420 13.5682 -1.0112
-10.0061 12.6768 -0.9614
-10.0068 11.7836 -0.9109
-10.0074 10.9627 -0.8652
-10.0190 -5.1446 -0.0499
-10.0194 -5.6067 -0.0416
-10.0197 -6.0877 -0.0332
-10.0200 -6.5901 -0.0246
-10.0204 -7.1168 -0.0159
-10.0208 -7.6710 -0.0071
-10.0213 -8.2565 0.0020
-10.0217 -8.8777 0.0114
-10.0222 -9.5397 0.0210
-10.0227 -10.2485 0.0311
-10.0232 -11.0112 0.0416
-10.0238 -11.8365 0.0526
-10.0245 -12.7348 0.0642
-10.0252 -13.7190 0.0766
-10.0260 -14.8047 0.0898
-10.0268 -16.0119 0.1042
-10.0278 -17.3658 0.1198
-10.0289 -18.8991 0.1371
-10.0302 -20.6548 0.1563
-10.0316 -22.6907 0.1781
-10.0334 -25.0863 0.2032
-10.0355 -27.9544 0.2326
-10.0122 -31.3788 0.2671
-10.0412 -35.8542 0.3110
-10.0453 -41.5416 0.3661
-3.5421 -27.1256 0.2465
-3.7113 -39.3479 0.3593
5.5211 -34.9710 0.3091
6.1902 -31.7776 0.2767
5.4763 -23.5808 0.2016
5.6472 -20.8921 0.1748
5.4884 -17.7553 0.1449
6.0732 -17.4123 0.1380
6.5354 -16.7801 0.1286
6.8291 -15.8336 0.1167
7.3095 -15.4063 0.1085
7.9975 -15.4068 0.1029
8.7115 -15.4073 0.0967
9.4552 -15.4078 0.0898
10.2322 -15.4084 0.0823
11.2213 -15.6519 0.0751
11.4878 -14.8693 0.0625
10.2366 -12.3126 0.0436
14.5895 -16.3226 0.0459
15.6766 -16.3234 0.0328
16.8412 -16.3242 0.0182
18.0953 -16.3251 0.0019
12.4415 -10.4415 -0.0104
12.4495 -9.7106 -0.0218
12.4571 -9.0185 -0.0329
13.4083 -8.9939 -0.0471
14.5245 -9.0061 -0.0634
15.7811 -9.0199 -0.0822
29.7033 -15.5946 -0.1796
31.6618 -15.2032 -0.2176
35.0142 -15.2962 -0.2695
42.6113 -16.8260 -0.3629
42.4700 -15.0368 -0.3966
46.6783 -14.6693 -0.4743
44.7521 7.2609 -0.9838
41.3433 8.2364 -0.9532
36.5773 8.6587 -0.8840
31.5232 8.6648 -0.7982
27.6295 8.6695 -0.7327
24.5490 8.6798 -0.6817
14.0815 5.5535 -0.4094
12.7288 5.5545 -0.3875
11.5810 5.5553 -0.3691
10.5924 5.5560 -0.3536
9.7300 5.5567 -0.3403
8.9692 5.5572 -0.3288
8.2914 5.5577 -0.3187
7.6823 5.5581 -0.3099
7.1306 5.5585 -0.3021
6.6272 5.5589 -0.2952
6.1650 5.5592 -0.2890
5.7381 5.5595 -0.2835
5.6743 5.9060 -0.2959
5.6746 6.3464 -0.3128
6.6522 7.9987 -0.3884
6.6526 8.6087 -0.4124
6.6531 9.2781 -0.4389
6.6537 10.0181 -0.4685
6.6543 10.8427 -0.5017
6.6551 11.7698 -0.5394
6.5449 12.6089 -0.5727
5.9819 12.6093 -0.5682
5.6795 13.1707 -0.5891
5.3821 13.8231 -0.6142
6.1573 17.6607 -0.7801
5.4561 17.6612 -0.7760
5.1137 18.9330 -0.8279
5.1159 22.0516 -0.9603
5.1190 26.3146 -1.1419
2.8333 17.9800 -0.7779
2.1972 18.1519 -0.7833
-9.9928 31.2436 -1.3620
-9.9953 27.7795 -1.2163
-9.9973 24.9419 -1.0976
-9.9990 22.5695 -0.9988
-10.0005 20.5516 -0.9153
-10.0018 18.8101 -0.8437
-10.0029 17.2882 -0.7816
-6.3096 10.0560 -0.4586
-6.8166 10.0460 -0.4626
-9.9459 13.5838 -0.6321
-10.0061 12.6865 -0.5972
-10.0068 11.7929 -0.5622
-10.0074 10.9716 -0.5304
-10.0190 -5.1381 0.2036
-10.0194 -5.6001 0.2169
-10.0197 -6.0809 0.2308
-10.0200 -6.5832 0.2453
-10.0204 -7.1097 0.2607
-10.0208 -7.6637 0.2770
-10.0212 -8.2491 0.2943
-10.0217 -8.8701 0.3128
-10.0222 -9.5318 0.3325
-10.0227 -10.2403 0.3538
-10.0232 -11.0027 0.3768
-10.0238 -11.8277 0.4017
-10.0245 -12.7256 0.4290
-10.0252 -13.7093 0.4591
-10.0260 -14.7945 0.4924
-10.0268 -16.0012 0.5295
-10.0278 -17.3545 0.5713
-10.0289 -18.8872 0.6187
-10.0302 -20.6420 0.6733
-10.0316 -22.6769 0.7367
-10.0333 -25.0714 0.8115
-10.0355 -27.9381 0.9012
-10.0170 -31.3759 1.0091
-10.0411 -35.8343 1.1493
-10.0269 -41.4432 1.3259
-4.2339 -25.3123 0.8065
-3.3073 -25.3155 0.8053
-2.6853 -28.4570 0.9039
-2.7285 -46.7820 1.4841
-1.0320 -45.9972 1.4578
0.6148 -45.9041 1.4538
5.5249 -34.9710 1.1067
6.1943 -31.7776 1.0061
5.4799 -23.5807 0.7470
5.6469 -20.8772 0.6620
5.4910 -17.7518 0.5635
6.0760 -17.4085 0.5534
6.5383 -16.7762 0.5342
6.8323 -15.8301 0.5051
7.3145 -15.4063 0.4927
8.0030 -15.4068 0.4940
8.7177 -15.4073 0.4955
9.4619 -15.4078 0.4971
10.2397 -15.4084 0.4990
11.2297 -15.6519 0.5090
11.4948 -14.8671 0.4858
10.2354 -12.3015 0.4040
14.6013 -16.3226 0.5392
15.6897 -16.3234 0.5427
16.8557 -16.3242 0.5466
18.1115 -16.3251 0.5510
12.4395 -10.4301 0.3552
12.4476 -9.6996 0.3336
12.4552 -9.0080 0.3133
13.4207 -8.9926 0.3167
14.5387 -9.0048 0.3216
15.7975 -9.0185 0.3273
29.7033 -15.5746 0.5757
31.6618 -15.1824 0.5731
35.0662 -15.2962 0.5916
42.6113 -16.7988 0.6684
42.4700 -15.0102 0.6176
46.6783 -14.6405 0.6272
44.6999 7.2789 0.0371
44.1157 8.8149 -0.0042
36.4854 8.6588 -0.0375
31.4544 8.6649 -0.0619
27.5761 8.6696 -0.0805
24.5069 8.6800 -0.0952
14.0592 5.5535 -0.0684
12.7104 5.5545 -0.0746
11.5655 5.5553 -0.0798
10.5792 5.5560 -0.0841
9.7186 5.5567 -0.0878
8.9594 5.5572 -0.0910
8.2828 5.5577 -0.0938
7.6747 5.5581 -0.0963
7.1239 5.5585 -0.0984
6.6213 5.5589 -0.1003
6.1598 5.5592 -0.1020
5.7334 5.5595 -0.1034
5.6743 5.9107 -0.1114
5.6746 6.3513 -0.1210
6.6519 8.0043 -0.1541
6.6523 8.6145 -0.1673
6.6528 9.2841 -0.1817
6.6534 10.0244 -0.1975
6.6540 10.8492 -0.2151
6.6547 11.7767 -0.2347
6.5408 12.6089 -0.2525
5.9782 12.6093 -0.2536
5.6795 13.1787 -0.2660
5.3821 13.8313 -0.2800
6.1537 17.6607 -0.3585
5.4530 17.6612 -0.3593
5.1137 18.9435 -0.3861
5.9984 25.8693 -0.5279
5.1190 26.3285 -0.5378
2.8400 18.0317 -0.3686
2.2230 18.3738 -0.3757
-9.9802 48.7520 -0.9830
-9.9856 41.2085 -0.8280
-9.9896 35.6031 -0.7126
-9.9928 31.2643 -0.6230
-9.9953 27.7979 -0.5512
-9.9973 24.9586 -0.4922
-9.9990 22.5848 -0.4427
-10.0005 20.5656 -0.4004
-10.0018 18.8231 -0.3638
-10.0029 17.3004 -0.3316
-6.2968 10.0428 -0.1908
-6.8121 10.0466 -0.1889
-9.9499 13.5994 -0.2529
-10.0061 12.6963 -0.2332
-10.0068 11.8022 -0.2139
-10.0074 10.9806 -0.1959
-10.0190 -5.1316 0.4572
-10.0194 -5.5934 0.4754
-10.0197 -6.0741 0.4948
-10.0200 -6.5762 0.5154
-10.0204 -7.1026 0.5375
-10.0208 -7.6565 0.5612
-10.0212 -8.2416 0.5867
-10.0217 -8.8624 0.6142
-10.0222 -9.5238 0.6441
-10.0227 -10.2320 0.6766
-10.0232 -10.9941 0.7121
-10.0238 -11.8188 0.7510
-10.0245 -12.7164 0.7940
-10.0252 -13.6997 0.8417
-10.0260 -14.7845 0.8950
-10.0268 -15.9906 0.9549
-10.0278 -17.3432 1.0228
-10.0289 -18.8751 1.1005
-10.0302 -20.6292 1.1903
-10.0316 -22.6632 1.2954
-9.9970 -24.9658 1.4148
-9.1213 -28.5543 1.5946
-8.0549 -28.7297 1.5946
-6.9921 -28.8841 1.5946
-6.0056 -29.3761 1.6143
-4.2354 -25.3083 1.3853
-3.3084 -25.3114 1.3811
-2.4304 -25.7448 1.4012
-0.5195 -8.9036 0.4837
-0.2001 -8.9177 0.4839
0.1197 -8.9249 0.4840
0.4400 -8.9250 0.4841
0.7608 -8.9182 0.4842
3.5644 -29.3260 1.5945
4.6261 -29.2618 1.5945
5.6913 -29.1775 1.5945
5.4836 -23.5806 1.2933
5.6466 -20.8623 1.1491
5.4935 -17.7484 0.9826
6.0787 -17.4048 0.9692
6.5411 -16.7723 0.9402
6.8354 -15.8266 0.8939
7.3195 -15.4063 0.8775
8.0086 -15.4068 0.8857
8.7238 -15.4073 0.8949
9.4687 -15.4078 0.9051
10.2472 -15.4084 0.9164
11.2381 -15.6519 0.9437
11.5019 -14.8649 0.9096
10.2363 -12.2928 0.7646
14.6131 -16.3226 1.0333
15.7028 -16.3234 1.0536
16.8703 -16.3242 1.0761
18.1277 -16.3251 1.1012
12.4375 -10.4188 0.7207
12.4457 -9.6887 0.6889
12.4534 -8.9975 0.6594
13.4332 -8.9913 0.6812
14.5530 -9.0034 0.7075
15.8139 -9.0171 0.7378
29.7033 -15.5547 1.3310
25.1187 -12.0283 1.0820
34.7461 -15.1341 1.4399
38.2992 -15.0745 1.5279
41.4949 -14.6395 1.5946
43.0529 -13.4767 1.5946
44.6469 -12.2392 1.5946
26.3334 2.3874 0.6658
44.6999 7.3053 1.0570
44.1157 8.8412 1.0089
36.3939 8.6589 0.8049
31.3859 8.6650 0.6714
27.5229 8.6697 0.5694
24.4650 8.6803 0.4894
14.0371 5.5536 0.2716
12.6921 5.5545 0.2374
11.5501 5.5553 0.2089
10.5661 5.5561 0.1848
9.7073 5.5567 0.1641
8.9496 5.5572 0.1462
8.2743 5.5577 0.1307
7.6672 5.5581 0.1170
7.1172 5.5585 0.1050
6.6154 5.5589 0.0943
6.1545 5.5592 0.0848
5.7287 5.5595 0.0764
5.6743 5.9154 0.0731
5.6746 6.3562 0.0708
6.6516 8.0099 0.0803
6.6520 8.6203 0.0779
6.6525 9.2901 0.0756
6.6530 10.0306 0.0735
6.6536 10.8558 0.0716
6.6543 11.7836 0.0699
6.5367 12.6089 0.0674
5.9745 12.6093 0.0607
5.6795 13.1866 0.0572
5.3821 13.8394 0.0543
6.1501 17.6607 0.0627
5.4500 17.6612 0.0570
5.1137 18.9540 0.0559
5.9952 25.8693 0.0702
5.1190 26.3422 0.0663
2.8504 18.1066 0.0427
3.1538 26.0790 0.0585
-9.9801 48.7845 0.1379
-9.9856 41.2359 0.1270
-9.9896 35.6266 0.1203
-9.9928 31.2850 0.1163
-9.9953 27.8164 0.1142
-9.9973 24.9753 0.1134
-9.9990 22.6000 0.1136
-10.0005 20.5797 0.1146
-10.0017 18.8362 0.1163
-10.0028 17.3126 0.1185
-10.0038 15.9666 0.1211
-10.0046 14.7659 0.1240
-10.0054 13.6856 0.1273
-10.0061 12.7061 0.1308
-10.0068 11.8116 0.1346
-10.0074 10.9895 0.1387
-10.0190 -5.1251 0.7112
-10.0194 -5.5868 0.7343
-10.0197 -6.0674 0.7591
-10.0200 -6.5693 0.7858
-10.0204 -7.0955 0.8146
-10.0208 -7.6492 0.8457
-10.0212 -8.2341 0.8795
-10.0217 -8.8547 0.9161
-10.0222 -9.5159 0.9561
-10.0227 -10.2238 0.9998
-10.0232 -10.9856 1.0478
-10.0238 -11.8100 1.1008
-10.0245 -12.7072 1.1594
-10.0252 -13.6900 1.2249
-10.0260 -14.7743 1.2982
-9.9691 -15.8879 1.3730
-6.1613 -11.5887 0.9725
-6.1453 -12.6312 1.0465
-6.1724 -13.9359 1.1413
-6.1449 -15.3367 1.2428
-7.1444 -19.8664 1.5946
-6.4038 -20.0356 1.5946
-5.9779 -21.3098 1.6834
-5.2396 -21.6327 1.6977
-4.4499 -21.7547 1.6977
-3.6598 -21.8577 1.6977
-2.8693 -21.9418 1.6977
-0.5639 -5.9703 0.4606
-0.3493 -5.9852 0.4608
-0.1345 -5.9944 0.4609
0.0806 -5.9980 0.4610
0.2958 -5.9958 0.4610
0.5112 -5.9880 0.4610
0.7267 -5.9745 0.4610
0.9421 -5.9553 0.4609
4.0059 -20.5231 1.5945
4.7529 -20.4248 1.5945
5.3232 -19.6544 1.5431
5.4961 -17.7450 1.4025
6.0814 -17.4010 1.3859
6.5440 -16.7684 1.3471
6.8385 -15.8231 1.2835
7.3245 -15.4063 1.2632
8.0141 -15.4068 1.2784
7.2484 -12.7925 1.0755
9.4755 -15.4078 1.3141
10.2547 -15.4084 1.3350
11.2465 -15.6519 1.3795
11.4981 -14.8485 1.3333
10.2381 -12.2853 1.1257
14.6250 -16.3226 1.5289
15.7159 -16.3234 1.5659
16.9972 -16.4328 1.6178
17.5006 -15.7462 1.5945
12.4356 -10.4074 1.0866
12.4438 -9.6778 1.0446
12.4515 -8.9870 1.0058
13.3977 -8.9579 1.0431
14.5672 -9.0020 1.0946
15.7384 -8.9632 1.1429
22.6918 -11.8678 1.5946
24.6723 -11.7983 1.6798
25.7062 -11.1800 1.6977
26.4717 -10.4023 1.6977
27.2308 -9.5900 1.6977
27.9824 -8.7419 1.6977
28.7259 -7.8571 1.6977
29.4600 -6.9346 1.6977
30.1837 -5.9734 1.6977
30.8957 -4.9724 1.6977
29.6733 -3.6916 1.5945
30.3162 -2.6739 1.5945
30.6257 -1.5994 1.5781
31.5554 -0.5169 1.5945
32.4158 0.6294 1.6077
25.0813 1.3861 1.2222
22.2989 2.0348 1.0686
22.2826 2.8404 1.0512
25.1193 4.1201 1.1678
35.0556 7.0463 1.6077
35.4975 8.4669 1.6077
31.3175 8.6651 1.4023
27.4699 8.6697 1.2175
24.4231 8.6805 1.0728
14.0150 5.5536 0.6109
12.6737 5.5545 0.5489
10.8941 5.2468 0.4695
10.5530 5.5561 0.4533
9.6961 5.5567 0.4157
8.9398 5.5572 0.3833
8.2657 5.5577 0.3550
7.6597 5.5581 0.3302
7.1106 5.5585 0.3083
6.6095 5.5589 0.2888
6.1492 5.5592 0.2715
5.7240 5.5595 0.2561
5.6743 5.9201 0.2579
5.6746 6.3610 0.2628
6.6513 8.0154 0.3150
6.6517 8.6261 0.3233
6.6522 9.2962 0.3331
6.6527 10.0369 0.3447
6.6532 10.8624 0.3585
6.6539 11.7905 0.3749
6.5326 12.6089 0.3872
5.9708 12.6093 0.3749
5.6795 13.1946 0.3808
5.3821 13.8476 0.3889
6.1466 17.6607 0.4839
5.4469 17.6612 0.4733
5.1137 18.9645 0.4984
5.9919 25.8693 0.6683
5.1190 26.3561 0.6711
2.8503 18.1152 0.4558
3.1899 26.3900 0.6579
2.3294 47.7485 1.1779
-9.9801 48.8171 1.2603
-9.9856 41.2632 1.0834
-9.9896 35.6502 0.9544
-9.9927 31.3057 0.8566
-9.9952 27.8349 0.7804
-9.9973 24.9920 0.7198
-9.9990 22.6153 0.6707
-10.0005 20.5938 0.6304
-10.0017 18.8493 0.5970
-10.0028 17.3248 0.5692
-10.0038 15.9781 0.5458
-10.0046 14.7767 0.5261
-10.0054 13.6959 0.5094
-10.0061 12.7158 0.4954
-10.0068 11.8209 0.4836
-10.0074 10.9985 0.4737
-10.0190 -5.1185 0.9657
-10.0194 -5.5801 0.9938
-10.0197 -6.0606 1.0241
-10.0200 -6.5624 1.0569
-10.0204 -7.0884 1.0924
-10.0208 -7.6419 1.1309
-10.0212 -8.2266 1.1729
-10.0217 -8.8469 1.2187
-10.0222 -9.5079 1.2688
-10.0105 -10.2032 1.3222
-9.9652 -10.9137 1.3763
-6.1459 -8.3866 0.9863
-6.1407 -9.0428 1.0426
-6.1705 -9.8274 1.1126
-6.1493 -10.6214 1.1825
-6.1640 -11.5864 1.2702
-7.1817 -14.7523 1.5946
-6.4351 -14.5202 1.5495
-6.0606 -15.1172 1.5946
-5.8521 -16.2636 1.6977
-5.2499 -16.4161 1.6977
-4.6459 -16.5521 1.6977
-4.0402 -16.6717 1.6977
-3.4331 -16.7749 1.6977
-2.8247 -16.8618 1.6977
-2.2153 -16.9325 1.6977
-0.4906 -5.1918 0.5189
-0.3032 -5.1927 0.5178
-0.1165 -5.1936 0.5172
0.0699 -5.1944 0.5171
0.2566 -5.1953 0.5175
0.4440 -5.1962 0.5184
0.6326 -5.1970 0.5198
0.8229 -5.1979 0.5217
1.0154 -5.1988 0.5241
3.6627 -15.7295 1.5945
4.2355 -15.6279 1.5945
4.8073 -15.5107 1.5945
5.3780 -15.3779 1.5945
5.9473 -15.2292 1.5945
6.5151 -15.0646 1.5945
7.0811 -14.8840 1.5945
7.6452 -14.6873 1.5945
7.2344 -12.7588 1.4055
8.7665 -14.2446 1.5945
9.3231 -13.9984 1.5945
9.8768 -13.7354 1.5945
10.4273 -13.4553 1.5945
10.2405 -12.2784 1.4878
11.5171 -12.8435 1.5945
12.0558 -12.5113 1.5945
12.5899 -12.1612 1.5945
13.1379 -11.8102 1.5968
14.1110 -11.7985 1.6492
13.3505 -10.3729 1.5033
15.6221 -11.2638 1.6977
13.2964 -8.8806 1.3969
16.6892 -10.3016 1.6977
15.7775 -8.9746 1.5564
17.7228 -9.2571 1.6977
18.2255 -8.7034 1.6977
18.7179 -8.1285 1.6977
19.1992 -7.5323 1.6977
19.6687 -6.9144 1.6977
20.1256 -6.2748 1.6977
20.5690 -5.6134 1.6977
20.9980 -4.9300 1.6977
21.4117 -4.2245 1.6977
20.4828 -3.2843 1.5945
20.8398 -2.5803 1.5945
21.1795 -1.8555 1.5945
21.5009 -1.1102 1.5945
21.8029 -0.3443 1.5945
22.2680 0.4454 1.6077
22.5297 1.2583 1.6077
22.7683 2.0910 1.6077
22.9824 2.9432 1.6077
23.1708 3.8143 1.6077
23.3320 4.7038 1.6077
23.4648 5.6110 1.6077
23.5676 6.5351 1.6077
23.6392 7.4752 1.6077
23.6780 8.4303 1.6077
13.9929 5.5536 0.9499
12.6554 5.5546 0.8603
10.8795 5.2468 0.7417
10.5398 5.5561 0.7218
9.6848 5.5567 0.6674
8.9300 5.5572 0.6203
8.2572 5.5577 0.5793
7.6522 5.5582 0.5434
7.1040 5.5585 0.5116
6.6036 5.5589 0.4835
6.1440 5.5592 0.4584
5.7193 5.5595 0.4359
5.6743 5.9248 0.4431
5.6746 6.3659 0.4553
6.6510 8.0210 0.5502
6.6514 8.6318 0.5692
6.6518 9.3022 0.5912
6.6523 10.0432 0.6166
6.6529 10.8690 0.6461
6.6535 11.7974 0.6806
6.5285 12.6089 0.7074
5.9671 12.6093 0.6895
5.6795 13.2026 0.7052
5.3821 13.8558 0.7244
6.1430 17.6607 0.9056
5.4438 17.6612 0.8901
5.1137 18.9750 0.9418
5.9887 25.8693 1.2671
3.4769 17.9108 0.8675
2.7944 17.7689 0.8527
3.1341 25.9406 1.2359
2.8488 33.6404 1.5945
1.7525 35.9343 1.6977
0.4670 35.9785 1.6977
-0.8187 35.9515 1.6977
-2.1006 35.8531 1.6977
-3.3741 35.6842 1.6977
-4.6350 35.4456 1.6977
-5.8791 35.1387 1.6977
-6.6713 32.6543 1.5946
-7.7975 32.2428 1.5946
-8.8973 31.7731 1.5946
-9.9676 31.2474 1.5946
-9.9800 24.9656 1.3253
-9.9990 22.6307 1.2290
-10.0005 20.6079 1.1474
-10.0017 18.8624 1.0789
-10.0028 17.3371 1.0209
-10.0038 15.9896 0.9715
-10.0046 14.7876 0.9290
-10.0054 13.7062 0.8925
-10.0061 12.7256 0.8608
-10.0068 11.8303 0.8334
-10.0074 11.0074 0.8095
-10.0190 -5.1120 1.2211
-10.0194 -5.5734 1.2541
-10.0197 -6.0537 1.2899
-10.0011 -6.5430 1.3263
-9.9637 -7.0412 1.3633
-9.9785 -7.6024 1.4111
-6.1574 -5.8366 0.9723
-6.1384 -6.2515 1.0098
-6.1457 -6.7253 1.0558
-6.1687 -7.2569 1.1096
-6.1571 -7.7934 1.1629
-6.1399 -8.3726 1.2213
-6.3685 -9.3717 1.3388
-7.1496 -11.3792 1.5946
-6.7102 -11.5827 1.5946
-6.2671 -11.7726 1.5946
-5.9741 -12.2640 1.6366
-5.7184 -12.8952 1.6977
-5.2368 -13.0546 1.6977
-4.7524 -13.1997 1.6977
-4.2656 -13.3306 1.6977
-3.7766 -13.4475 1.6977
-3.2855 -13.5502 1.6977
-2.7928 -13.6388 1.6977
-2.2985 -13.7133 1.6977
-1.8030 -13.7738 1.6977
-0.4907 -5.1909 0.6377
-0.3032 -5.1918 0.6363
-0.1165 -5.1926 0.6355
0.0700 -5.1935 0.6354
0.2568 -5.1944 0.6360
0.4442 -5.1952 0.6372
0.6329 -5.1961 0.6390
0.8233 -5.1970 0.6416
1.0160 -5.1979 0.6448
3.1704 -13.6062 1.6977
3.6644 -13.5118 1.6977
4.1389 -13.3453 1.6904
4.5716 -13.0635 1.6700
4.9968 -12.7865 1.6517
5.4176 -12.5183 1.6359
5.8645 -12.3182 1.6306
6.3388 -12.1691 1.6339
6.8188 -12.0172 1.6388
7.3227 -11.8900 1.6492
7.8838 -11.8286 1.6713
8.4743 -11.7760 1.6977
8.9359 -11.5219 1.6977
9.3927 -11.2530 1.6977
9.8443 -10.9690 1.6977
10.2903 -10.6701 1.6977
10.7304 -10.3560 1.6977
11.1642 -10.0269 1.6977
11.5911 -9.6825 1.6977
12.0109 -9.3229 1.6977
12.4230 -8.9480 1.6977
12.8270 -8.5578 1.6977
13.2223 -8.1523 1.6977
13.6085 -7.7314 1.6977
13.9850 -7.2953 1.6977
14.3512 -6.8438 1.6977
14.7067 -6.3770 1.6977
15.0508 -5.8951 1.6977
15.3828 -5.3980 1.6977
15.7023 -4.8859 1.6977
16.0084 -4.3589 1.6977
15.3107 -3.5854 1.5946
15.5712 -3.0628 1.5946
15.8172 -2.5267 1.5946
16.0480 -1.9774 1.5946
16.2631 -1.4151 1.5945
16.4615 -0.8402 1.5945
16.6427 -0.2530 1.5945
16.9457 0.3490 1.6077
17.0916 0.9647 1.6077
17.2177 1.5914 1.6077
17.3233 2.2287 1.6077
17.4078 2.8760 1.6077
17.4702 3.5325 1.6077
17.5098 4.1976 1.6077
17.5259 4.8704 1.6077
17.5177 5.5502 1.6077
17.4844 6.2360 1.6077
13.9708 5.5536 1.2890
12.6371 5.5546 1.1717
10.8649 5.2468 1.0140
7.4441 3.9290 0.7004
9.6735 5.5567 0.9192
8.9202 5.5572 0.8576
8.2486 5.5577 0.8040
7.6446 5.5582 0.7568
7.0973 5.5585 0.7152
6.5977 5.5589 0.6783
6.1387 5.5592 0.6454
5.7146 5.5595 0.6160
5.6743 5.9295 0.6289
5.6746 6.3708 0.6484
6.6507 8.0266 0.7861
6.6511 8.6377 0.8159
6.6515 9.3082 0.8501
6.6520 10.0495 0.8893
6.6525 10.8756 0.9346
6.6531 11.8044 0.9872
6.5243 12.6089 1.0282
5.9635 12.6093 1.0047
5.6795 13.2106 1.0305
5.3821 13.8641 1.0609
6.1395 17.6607 1.3281
5.4407 17.6612 1.3077
5.1137 18.9856 1.3866
5.1114 22.0915 1.5945
4.3295 22.3147 1.5945
2.8352 18.0375 1.2782
2.7348 22.6462 1.5945
2.0508 24.2266 1.6977
1.1847 24.2982 1.6977
0.3160 24.3271 1.6977
-0.5530 24.3133 1.6977
-1.4200 24.2569 1.6977
-2.2826 24.1581 1.6977
-3.1384 24.0174 1.6977
-3.9852 23.8353 1.6977
-4.8209 23.6128 1.6977
-5.6433 23.3505 1.6977
-6.0585 21.6501 1.5946
-6.8003 21.3325 1.5946
-7.5240 20.9810 1.5946
-8.2281 20.5971 1.5946
-8.9111 20.1822 1.5946
-9.5716 19.7377 1.5946
-9.9474 15.9109 1.3907
-9.9796 14.7614 1.3300
-10.0054 13.7165 1.2768
-10.0061 12.7355 1.2274
-10.0068 11.8397 1.1843
-10.0074 11.0164 1.1465
-6.4125 -3.8699 0.9964
-6.1462 -4.0167 0.9826
-6.1370 -4.3325 1.0111
-6.1383 -4.6721 1.0441
-6.1583 -5.0463 1.0835
-6.1673 -5.4349 1.1245
-6.1544 -5.8288 1.1653
-6.1384 -6.2464 1.2098
-6.1565 -6.7319 1.2660
-6.4008 -7.5243 1.3769
-7.0657 -8.9369 1.5946
-6.7136 -9.1483 1.5946
-6.3569 -9.3482 1.5946
-5.9959 -9.5365 1.5946
-5.9699 -10.2980 1.6906
-5.6023 -10.5171 1.6977
-5.2060 -10.6806 1.6977
-4.8064 -10.8318 1.6977
-4.4035 -10.9708 1.6977
-3.9979 -11.0974 1.6977
-3.5896 -11.2116 1.6977
-3.1791 -11.3136 1.6977
-2.7665 -11.4032 1.6977
-2.3521 -11.4806 1.6977
-1.9361 -11.5456 1.6977
-1.5189 -11.5983 1.6977
-0.4908 -5.1899 0.7571
-0.3033 -5.1908 0.7554
-0.1165 -5.1917 0.7545
0.0701 -5.1926 0.7544
0.2569 -5.1934 0.7551
0.4445 -5.1943 0.7566
0.6332 -5.1952 0.7589
0.8237 -5.1960 0.7620
1.0164 -5.1969 0.7660
2.6690 -11.4468 1.6977
3.0839 -11.3636 1.6977
3.4970 -11.2680 1.6977
3.9082 -11.1600 1.6977
4.3170 -11.0396 1.6977
4.7233 -10.9066 1.6977
5.1268 -10.7612 1.6977
5.5271 -10.6034 1.6977
5.9241 -10.4330 1.6977
6.3173 -10.2501 1.6977
6.7065 -10.0547 1.6977
7.0914 -9.8468 1.6977
7.4716 -9.6264 1.6977
7.8468 -9.3935 1.6977
8.2167 -9.1480 1.6977
8.5809 -8.8901 1.6977
8.9391 -8.6197 1.6977
9.2909 -8.3369 1.6977
9.6359 -8.0416 1.6977
9.9737 -7.7339 1.6977
10.3039 -7.4140 1.6977
10.6261 -7.0817 1.6977
10.9399 -6.7373 1.6977
11.2449 -6.3808 1.6977
11.5405 -6.0123 1.6977
11.8264 -5.6319 1.6977
12.1021 -5.2397 1.6977
12.3671 -4.8360 1.6977
12.6209 -4.4208 1.6977
12.8630 -3.9944 1.6977
12.2978 -3.3410 1.5946
12.5017 -2.9199 1.5946
12.6931 -2.4890 1.5946
12.8717 -2.0484 1.5946
13.0368 -1.5985 1.5945
13.1879 -1.1397 1.5945
13.3247 -0.6722 1.5945
13.4464 -0.1964 1.5945
13.6655 0.2895 1.6077
13.7567 0.7846 1.6077
13.8313 1.2866 1.6077
13.8887 1.7951 1.6077
13.9286 2.3095 1.6077
13.9503 2.8292 1.6077
13.9534 3.3535 1.6077
13.9375 3.8817 1.6077
13.9021 4.4133 1.6077
13.8468 4.9472 1.6077
13.7712 5.4829 1.6077
12.6187 5.5546 1.4836
10.8504 5.2469 1.2867
7.4231 3.9229 0.8894
9.6622 5.5567 1.1716
8.9104 5.5572 1.0955
8.2400 5.5577 1.0291
7.6371 5.5582 0.9708
7.0906 5.5585 0.9194
6.5917 5.5589 0.8737
6.1334 5.5592 0.8330
5.7099 5.5595 0.7966
5.6743 5.9343 0.8154
5.6746 6.3757 0.8424
6.6504 8.0323 1.0230
6.6507 8.6435 1.0637
6.6512 9.3143 1.1100
6.6516 10.0559 1.1632
6.6521 10.8822 1.2243
6.6527 11.8114 1.2950
6.5202 12.6089 1.3500
5.9597 12.6093 1.3209
5.6795 13.2186 1.3573
5.3821 13.8723 1.3988
5.5580 15.9973 1.5869
5.0215 16.3097 1.5945
4.4474 16.5208 1.5945
3.8632 16.7060 1.5945
3.2704 16.8646 1.5945
2.6702 16.9963 1.5945
2.0889 17.3058 1.6136
1.5475 18.2891 1.6977
0.8940 18.3405 1.6977
0.2386 18.3619 1.6977
-0.4170 18.3533 1.6977
-1.0712 18.3147 1.6977
-1.7227 18.2461 1.6977
-2.3697 18.1479 1.6977
-3.0109 18.0204 1.6977
-3.6447 17.8642 1.6977
-4.2698 17.6796 1.6977
-4.8848 17.4673 1.6977
-5.4883 17.2282 1.6977
-5.9654 16.6460 1.6660
-6.2516 15.6599 1.5946
-6.7791 15.3640 1.5946
-7.2915 15.0463 1.5946
-7.7877 14.7076 1.5946
-8.2670 14.3489 1.5946
-8.7285 13.9714 1.5946
-9.1715 13.5762 1.5946
-9.5953 13.1643 1.5946
-6.1476 -3.1286 1.0649
-6.1624 -3.4196 1.0938
-6.1661 -3.7170 1.1233
-6.1591 -4.0208 1.1535
-6.1436 -4.3328 1.1848
-6.1372 -4.6668 1.2209
-6.1548 -5.0387 1.2654
-7.4895 -6.5942 1.5946
-7.2168 -6.8292 1.5946
-6.9382 -7.0546 1.5946
-6.6540 -7.2702 1.5946
-6.3645 -7.4759 1.5946
-6.0699 -7.6718 1.5946
-5.9644 -8.1216 1.6482
-5.8203 -8.5531 1.6977
-5.4925 -8.7298 1.6977
-5.1604 -8.8958 1.6977
-4.8245 -9.0510 1.6977
-4.4850 -9.1955 1.6977
-4.1421 -9.3291 1.6977
-3.7962 -9.4520 1.6977
-3.4475 -9.5640 1.6977
-3.0963 -9.6651 1.6977
-2.7428 -9.7553 1.6977
-2.3873 -9.8347 1.6977
-2.0300 -9.9031 1.6977
-1.6712 -9.9606 1.6977
-1.3112 -10.0072 1.6977
-0.4910 -5.1890 0.8772
-0.3033 -5.1899 0.8752
-0.1164 -5.1908 0.8741
0.0702 -5.1916 0.8741
0.2571 -5.1925 0.8749
0.4447 -5.1934 0.8767
0.6336 -5.1942 0.8795
0.8242 -5.1951 0.8833
1.0170 -5.1959 0.8881
2.3030 -9.8700 1.6977
2.6603 -9.7959 1.6977
3.0158 -9.7108 1.6977
3.3693 -9.6148 1.6977
3.7205 -9.5078 1.6977
4.0692 -9.3898 1.6977
4.4150 -9.2609 1.6977
4.7578 -9.1210 1.6977
5.0971 -8.9702 1.6977
5.4328 -8.8085 1.6977
5.7645 -8.6360 1.6977
6.0919 -8.4526 1.6977
6.4148 -8.2584 1.6977
6.7328 -8.0535 1.6977
7.0457 -7.8378 1.6977
7.3530 -7.6114 1.6977
7.6545 -7.3745 1.6977
7.9499 -7.1270 1.6977
8.2387 -6.8690 1.6977
8.5207 -6.6007 1.6977
8.7956 -6.3221 1.6977
9.0628 -6.0333 1.6977
9.3222 -5.7344 1.6977
9.5733 -5.4256 1.6977
9.8157 -5.1070 1.6977
10.0491 -4.7788 1.6977
10.2730 -4.4411 1.6977
10.4872 -4.0941 1.6977
10.0419 -3.5111 1.5946
10.2234 -3.1683 1.5946
10.3945 -2.8174 1.5946
10.5549 -2.4587 1.5946
10.7042 -2.0924 1.5946
10.8419 -1.7188 1.5946
10.9678 -1.3382 1.5945
11.0814 -0.9510 1.5945
11.1824 -0.5574 1.5945
11.2703 -0.1579 1.5945
11.3449 0.2471 1.5945
11.5007 0.6628 1.6077
11.5479 1.0811 1.6077
11.5805 1.5037 1.6077
11.5982 1.9301 1.6077
11.6006 2.3596 1.6077
11.5874 2.7919 1.6077
11.5584 3.2262 1.6077
11.5132 3.6620 1.6077
11.4516 4.0987 1.6077
11.3735 4.5355 1.6077
11.2784 4.9718 1.6077
10.8922 5.2742 1.5683
7.4021 3.9167 1.0782
9.6508 5.5567 1.4247
8.9005 5.5573 1.3340
8.2314 5.5577 1.2549
7.6295 5.5582 1.1855
7.0839 5.5586 1.1242
6.5858 5.5589 1.0698
6.1281 5.5592 1.0213
5.7051 5.5595 0.9779
5.6743 5.9390 1.0030
5.6746 6.3807 1.0374
6.6501 8.0379 1.2611
6.6504 8.6494 1.3127
6.6508 9.3204 1.3714
6.6513 10.0623 1.4384
6.6518 10.8889 1.5154
6.6523 11.8184 1.6045
6.2616 12.1165 1.6077
5.7967 12.2720 1.5945
5.3719 12.5104 1.5945
4.9363 12.7308 1.5945
4.4904 12.9321 1.5945
4.0355 13.1147 1.5945
3.5723 13.2777 1.5945
3.1018 13.4207 1.5945
2.6249 13.5431 1.5945
2.1426 13.6447 1.5945
1.7631 14.6140 1.6977
1.2414 14.6770 1.6977
0.7171 14.7170 1.6977
0.1916 14.7340 1.6977
-0.3342 14.7279 1.6977
-0.8590 14.6988 1.6977
-1.3818 14.6468 1.6977
-1.9014 14.5719 1.6977
-2.4168 14.4745 1.6977
-2.9268 14.3549 1.6977
-3.4304 14.2134 1.6977
-3.9266 14.0504 1.6977
-4.4144 13.8665 1.6977
-4.8928 13.6621 1.6977
-5.3609 13.4379 1.6977
-5.8179 13.1945 1.6977
-5.9510 12.2885 1.6132
-6.2885 11.8846 1.5946
-6.6818 11.6059 1.5946
-7.0619 11.3119 1.5946
-7.4279 11.0034 1.5946
-7.7796 10.6813 1.5946
-8.1163 10.3463 1.5946
-8.4378 9.9992 1.5946
-8.7435 9.6409 1.5946
-6.1361 -3.1186 1.2218
-6.1410 -3.4036 1.2522
-6.4271 -3.8699 1.3442
-7.4217 -4.8399 1.5946
-7.2119 -5.0809 1.5946
-6.4245 -4.8805 1.4645
-6.7724 -5.5391 1.5946
-6.5434 -5.7560 1.5946
-6.3085 -5.9645 1.5946
-6.0680 -6.1647 1.5946
-5.9648 -6.5120 1.6337
-5.9317 -6.9622 1.6977
-5.6596 -7.1479 1.6977
-5.3828 -7.3243 1.6977
-5.1014 -7.4914 1.6977
-4.8159 -7.6492 1.6977
-4.5263 -7.7974 1.6977
-4.2330 -7.9361 1.6977
-3.9363 -8.0653 1.6977
-3.6363 -8.1849 1.6977
-3.3335 -8.2948 1.6977
-3.0280 -8.3951 1.6977
-2.7200 -8.4856 1.6977
-2.4099 -8.5664 1.6977
-2.0978 -8.6375 1.6977
-1.7841 -8.6988 1.6977
-1.4689 -8.7503 1.6977
-0.6970 -5.3167 1.0266
-0.4911 -5.1880 0.9982
-0.3034 -5.1889 0.9959
-0.1164 -5.1898 0.9947
0.0703 -5.1907 0.9946
0.2573 -5.1916 0.9956
0.4450 -5.1924 0.9977
0.6339 -5.1933 1.0010
0.8246 -5.1941 1.0054
1.0175 -5.1950 1.0110
2.0236 -8.6670 1.6977
2.3372 -8.6004 1.6977
2.6490 -8.5239 1.6977
2.9588 -8.4376 1.6977
3.2664 -8.3415 1.6977
3.5715 -8.2356 1.6977
3.8738 -8.1200 1.6977
4.1732 -7.9947 1.6977
4.4693 -7.8596 1.6977
4.7619 -7.7150 1.6977
5.0506 -7.5608 1.6977
5.3352 -7.3970 1.6977
5.6155 -7.2237 1.6977
5.8912 -7.0410 1.6977
6.1619 -6.8490 1.6977
6.4274 -6.6476 1.6977
6.6874 -6.4370 1.6977
6.9416 -6.2173 1.6977
7.1896 -5.9886 1.6977
7.4313 -5.7510 1.6977
7.6662 -5.5045 1.6977
7.8941 -5.2494 1.6977
8.1146 -4.9858 1.6977
8.3275 -4.7137 1.6977
8.5323 -4.4334 1.6977
8.7289 -4.1451 1.6977
8.3753 -3.6151 1.5946
8.5434 -3.3297 1.5946
8.7026 -3.0372 1.5946
8.8528 -2.7379 1.5946
8.9937 -2.4321 1.5946
9.1249 -2.1199 1.5946
9.2461 -1.8017 1.5946
9.3570 -1.4777 1.5945
9.4573 -1.1482 1.5945
9.5468 -0.8135 1.5945
9.6251 -0.4740 1.5945
9.6919 -0.1300 1.5945
9.7469 0.2182 1.5945
9.8715 0.5748 1.6077
9.9026 0.9330 1.6077
9.9211 1.2942 1.6077
9.9267 1.6579 1.6077
9.9192 2.0237 1.6077
9.8983 2.3910 1.6077
9.8639 2.7593 1.6077
9.8157 3.1282 1.6077
9.7537 3.4971 1.6077
9.6777 3.8654 1.6077
9.5875 4.2326 1.6077
9.4831 4.5981 1.6077
9.3644 4.9612 1.6077
9.2313 5.3214 1.6077
8.8907 5.5573 1.5735
8.2228 5.5577 1.4817
7.6219 5.5582 1.4011
7.0772 5.5586 1.3299
6.5798 5.5589 1.2667
6.1228 5.5592 1.2104
5.7003 5.5595 1.1600
5.6743 5.9438 1.1918
5.6746 6.3857 1.2336
6.6497 8.0436 1.5007
6.6501 8.6553 1.5633
6.5422 9.1747 1.6077
6.2334 9.4366 1.6077
5.8644 9.6065 1.5945
5.5361 9.8417 1.5945
5.1974 10.0637 1.5945
4.8489 10.2720 1.5945
4.4913 10.4660 1.5945
4.1252 10.6453 1.5946
3.7512 10.8095 1.5946
3.3699 10.9580 1.5946
2.9822 11.0905 1.5946
2.5887 11.2067 1.5946
2.1902 11.3062 1.5946
1.9030 12.1250 1.6977
1.4705 12.1946 1.6977
1.0353 12.2459 1.6977
0.5981 12.2785 1.6977
0.1599 12.2926 1.6977
-0.2785 12.2880 1.6977
-0.7162 12.2648 1.6977
-1.1523 12.2230 1.6977
-1.5859 12.1628 1.6977
-2.0163 12.0843 1.6977
-2.4425 11.9878 1.6977
-2.8637 11.8735 1.6977
-3.2792 11.7417 1.6977
-3.6881 11.5928 1.6977
-4.0896 11.4272 1.6977
-4.4831 11.2453 1.6977
-4.8678 11.0476 1.6977
-5.2432 10.8346 1.6977
-5.6084 10.6068 1.6977
-5.9516 10.3450 1.6945
-5.9588 9.5520 1.6041
-6.2350 9.2432 1.5946
-6.5350 8.9793 1.5946
-6.8231 8.7046 1.5946
-7.0989 8.4194 1.5946
-7.3621 8.1246 1.5946
-6.3123 -3.2039 1.4217
-6.9177 -3.8293 1.5946
-6.4274 -3.8656 1.5188
-6.5718 -4.2809 1.5946
-6.3890 -4.4966 1.5946
-6.2001 -4.7053 1.5946
-6.0052 -4.9070 1.5946
-5.9662 -5.2436 1.6390
-5.9605 -5.6306 1.6977
-5.7355 -5.8221 1.6977
-5.5053 -6.0055 1.6977
-5.2701 -6.1809 1.6977
-5.0301 -6.3481 1.6977
-4.7856 -6.5071 1.6977
-4.5369 -6.6577 1.6977
-4.2841 -6.7999 1.6977
-4.0276 -6.9337 1.6977
-3.7676 -7.0589 1.6977
-3.5043 -7.1756 1.6977
-3.2380 -7.2836 1.6977
-2.9689 -7.3830 1.6977
-2.6972 -7.4736 1.6977
-2.4233 -7.5555 1.6977
-2.1473 -7.6286 1.6977
-1.8694 -7.6929 1.6977
-1.5900 -7.7483 1.6977
-1.3092 -7.7949 1.6977
-0.6768 -5.1607 1.1186
-0.4880 -5.1535 1.1130
-0.3034 -5.1880 1.1176
-0.1164 -5.1889 1.1162
0.0704 -5.1897 1.1161
0.2575 -5.1906 1.1173
0.4453 -5.1915 1.1197
0.6343 -5.1923 1.1235
0.8183 -5.1511 1.1194
1.0094 -5.1500 1.1253
1.8033 -7.7182 1.6977
2.0824 -7.6576 1.6977
2.3598 -7.5882 1.6977
2.6353 -7.5100 1.6977
2.9087 -7.4229 1.6977
3.1797 -7.3270 1.6977
3.4481 -7.2224 1.6977
3.7136 -7.1090 1.6977
3.9760 -6.9870 1.6977
4.2350 -6.8563 1.6977
4.4903 -6.7170 1.6977
4.7419 -6.5692 1.6977
4.9893 -6.4130 1.6977
5.2323 -6.2484 1.6977
5.4706 -6.0755 1.6977
5.7040 -5.8944 1.6977
5.9323 -5.7051 1.6977
6.1551 -5.5078 1.6977
6.3722 -5.3026 1.6977
6.5833 -5.0896 1.6977
6.7881 -4.8689 1.6977
6.9864 -4.6407 1.6977
7.1779 -4.4051 1.6977
7.3623 -4.1622 1.6977
7.5393 -3.9122 1.6977
7.2700 -3.4474 1.6011
7.3921 -3.1858 1.5946
7.5360 -2.9321 1.5946
7.6718 -2.6725 1.5946
7.7995 -2.4072 1.5946
7.9186 -2.1364 1.5946
8.0290 -1.8603 1.5946
8.1304 -1.5793 1.5945
8.2225 -1.2935 1.5945
8.3051 -1.0032 1.5945
8.3779 -0.7088 1.5945
8.4408 -0.4106 1.5945
8.4935 -0.1088 1.5945
8.5358 0.1962 1.5945
8.6387 0.5082 1.6077
8.6598 0.8212 1.6077
8.6696 1.1362 1.6077
8.6682 1.4530 1.6077
8.6553 1.7711 1.6077
8.6308 2.0901 1.6077
8.5945 2.4096 1.6077
8.5463 2.7290 1.6077
8.4862 3.0480 1.6077
8.4139 3.3661 1.6077
8.3295 3.6827 1.6077
8.2328 3.9973 1.6077
8.1240 4.3095 1.6077
8.0028 4.6188 1.6077
7.8695 4.9245 1.6077
7.7240 5.2261 1.6077
7.5664 5.5232 1.6077
7.0704 5.5586 1.5368
6.5738 5.5589 1.4648
6.1174 5.5592 1.4006
5.6955 5.5596 1.3431
5.6743 5.9487 1.3819
5.6746 6.3907 1.4312
6.0858 7.3671 1.5945
5.8395 7.6059 1.5945
5.5831 7.8353 1.5945
5.3170 8.0548 1.5945
5.0415 8.2640 1.5945
4.7570 8.4624 1.5945
4.4642 8.6495 1.5945
4.1632 8.8249 1.5946
3.8548 8.9883 1.5946
3.5393 9.1391 1.5946
3.2175 9.2771 1.5946
2.8897 9.4018 1.5946
0.8288 3.0840 0.5169
0.7184 3.1117 0.5163
0.6071 3.1355 0.5158
0.4950 3.1554 0.5153
0.3822 3.1712 0.5150
0.2690 3.1831 0.5148
0.1554 3.1909 0.5148
0.0416 3.1947 0.5148
-0.0723 3.1944 0.5149
-0.1861 3.1901 0.5152
-0.2997 3.1818 0.5155
-0.4130 3.1694 0.5160
-0.5257 3.1530 0.5166
-0.6378 3.1327 0.5173
-0.7492 3.1083 0.5181
-0.8596 3.0800 0.5190
-3.1636 9.9510 1.6977
-3.5092 9.8121 1.6977
-3.8482 9.6595 1.6977
-4.1801 9.4934 1.6977
-4.5043 9.3143 1.6977
-4.8202 9.1226 1.6977
-5.1274 8.9187 1.6977
-5.4253 8.7032 1.6977
-5.7136 8.4765 1.6977
-5.9539 8.1872 1.6870
-5.9550 7.6030 1.6152
-6.1205 7.2649 1.5946
-6.3512 7.0148 1.5946
-6.3123 -3.1996 1.5878
-6.1964 -3.4258 1.5946
-6.0470 -3.6325 1.5946
-5.9677 -3.8832 1.6153
-5.9674 -4.1955 1.6608
-5.9219 -4.4897 1.6977
-5.7378 -4.6841 1.6977
-5.5480 -4.8716 1.6977
-5.3529 -5.0523 1.6977
-5.1525 -5.2259 1.6977
-4.9472 -5.3923 1.6977
-4.7372 -5.5516 1.6977
-4.5228 -5.7035 1.6977
-4.3040 -5.8480 1.6977
-4.0813 -5.9849 1.6977
-3.8549 -6.1143 1.6977
-3.6248 -6.2361 1.6977
-3.3915 -6.3501 1.6977
-3.1551 -6.4564 1.6977
-2.9158 -6.5548 1.6977
-2.6739 -6.6453 1.6977
-2.4296 -6.7279 1.6977
-2.1831 -6.8026 1.6977
-1.9347 -6.8692 1.6977
-1.6845 -6.9278 1.6977
-1.4328 -6.9784 1.6977
-0.8943 -5.3216 1.2868
-0.6688 -5.0967 1.2264
-0.4825 -5.0931 1.2210
-0.3035 -5.1870 1.2404
-0.1163 -5.1879 1.2389
0.0706 -5.1888 1.2388
0.2577 -5.1896 1.2401
0.4456 -5.1905 1.2429
0.6346 -5.1913 1.2471
0.8098 -5.0936 1.2290
0.9981 -5.0888 1.2347
1.6249 -6.9498 1.6977
1.8762 -6.8945 1.6977
2.1258 -6.8311 1.6977
2.3737 -6.7596 1.6977
2.6195 -6.6801 1.6977
2.8630 -6.5926 1.6977
3.1040 -6.4971 1.6977
3.3423 -6.3937 1.6977
3.5777 -6.2825 1.6977
3.8099 -6.1634 1.6977
4.0386 -6.0366 1.6977
4.2637 -5.9021 1.6977
4.4848 -5.7601 1.6977
4.7019 -5.6104 1.6977
4.9146 -5.4534 1.6977
5.1226 -5.2889 1.6977
5.3259 -5.1173 1.6977
5.5240 -4.9384 1.6977
5.7167 -4.7525 1.6977
5.9039 -4.5597 1.6977
6.0852 -4.3601 1.6977
6.2605 -4.1538 1.6977
6.4294 -3.9410 1.6977
6.5918 -3.7219 1.6977
6.3376 -3.2843 1.5946
6.4771 -3.0669 1.5946
6.6096 -2.8442 1.5946
6.7351 -2.6161 1.5946
6.8533 -2.3829 1.5946
6.9639 -2.1448 1.5946
7.0668 -1.9020 1.5946
7.1616 -1.6548 1.5946
7.2483 -1.4034 1.5945
7.3266 -1.1480 1.5945
7.3963 -0.8889 1.5945
7.4572 -0.6264 1.5945
7.5091 -0.3607 1.5945
7.5518 -0.0921 1.5945
7.5852 0.1790 1.5945
7.6724 0.4561 1.6077
7.6868 0.7336 1.6077
7.5467 0.9937 1.5775
7.5412 1.2687 1.5775
7.5257 1.5446 1.5775
7.4985 1.8206 1.5772
7.6073 2.1376 1.6077
7.5603 2.4190 1.6077
7.5028 2.6997 1.6077
7.4348 2.9792 1.6077
7.3560 3.2571 1.6077
7.2667 3.5331 1.6077
7.1666 3.8066 1.6077
7.0559 4.0771 1.6077
6.9347 4.3444 1.6077
6.8029 4.6078 1.6077
6.6606 4.8669 1.6077
6.5080 5.1213 1.6077
6.3452 5.3705 1.6077
6.1120 5.5593 1.5920
5.6907 5.5596 1.5275
5.6743 5.9535 1.5737
5.5490 6.2541 1.5945
5.3396 6.4687 1.5945
5.1214 6.6755 1.5945
4.8946 6.8740 1.5945
4.6595 7.0637 1.5945
4.4165 7.2445 1.5945
4.1659 7.4157 1.5946
3.9081 7.5772 1.5946
3.6436 7.7284 1.5946
3.3727 7.8692 1.5946
3.0960 7.9991 1.5946
2.8138 8.1179 1.5946
0.8350 2.7185 0.5270
0.7377 2.7466 0.5264
0.6394 2.7713 0.5258
0.5404 2.7925 0.5253
0.4406 2.8102 0.5249
0.3402 2.8243 0.5247
0.2394 2.8348 0.5245
0.1383 2.8417 0.5244
0.0371 2.8451 0.5244
-0.0643 2.8448 0.5246
-0.1656 2.8410 0.5248
-0.2667 2.8335 0.5251
-0.3675 2.8225 0.5255
-0.4678 2.8078 0.5260
-0.5676 2.7896 0.5267
-0.6667 2.7679 0.5274
-0.7649 2.7427 0.5282
-0.8622 2.7140 0.5291
-3.0698 8.5894 1.6977
-3.3673 8.4581 1.6977
-3.6588 8.3152 1.6977
-3.9438 8.1610 1.6977
-4.2218 7.9958 1.6977
-4.4924 7.8200 1.6977
-4.7552 7.6340 1.6977
-5.0098 7.4382 1.6977
-5.2559 7.2330 1.6977
-5.4930 7.0188 1.6977
-5.7209 6.7961 1.6977
-5.9393 6.5654 1.6977
-5.9674 -3.0207 1.6596
-5.9676 -3.2951 1.6974
-5.8267 -3.4961 1.6977
-5.6786 -3.6909 1.6977
-5.5245 -3.8800 1.6977
-5.3648 -4.0633 1.6977
-5.1995 -4.2406 1.6977
-5.0290 -4.4118 1.6977
-4.8534 -4.5768 1.6977
-4.6730 -4.7355 1.6977
-4.4879 -4.8877 1.6977
-4.2984 -5.0334 1.6977
-4.1048 -5.1724 1.6977
-3.9071 -5.3047 1.6977
-3.7057 -5.4301 1.6977
-3.5007 -5.5487 1.6977
-3.2924 -5.6603 1.6977
-3.0810 -5.7649 1.6977
-2.8667 -5.8623 1.6977
-2.6496 -5.9526 1.6977
-2.4301 -6.0357 1.6977
-2.2083 -6.1115 1.6977
-1.9845 -6.1800 1.6977
-1.7588 -6.2412 1.6977
-1.5315 -6.2950 1.6977
-1.3028 -6.3414 1.6977
-1.0728 -6.3803 1.6977
-0.6669 -5.0800 1.3451
-0.4811 -5.0755 1.3389
-0.3035 -5.1860 1.3645
-0.1163 -5.1869 1.3629
0.0707 -5.1878 1.3628
0.2579 -5.1887 1.3643
0.4458 -5.1895 1.3673
0.6350 -5.1904 1.3720
0.8080 -5.0789 1.3486
0.9962 -5.0755 1.3553
1.4774 -6.3144 1.6977
1.7057 -6.2635 1.6977
1.9324 -6.2052 1.6977
2.1574 -6.1395 1.6977
2.3805 -6.0664 1.6977
2.6014 -5.9860 1.6977
2.8200 -5.8983 1.6977
3.0360 -5.8034 1.6977
3.2491 -5.7013 1.6977
3.4593 -5.5921 1.6977
3.6662 -5.4758 1.6977
3.8697 -5.3526 1.6977
4.0695 -5.2224 1.6977
4.2654 -5.0854 1.6977
4.4572 -4.9417 1.6977
4.6447 -4.7913 1.6977
4.8276 -4.6343 1.6977
5.0058 -4.4709 1.6977
5.1789 -4.3012 1.6977
5.3468 -4.1252 1.6977
5.5093 -3.9432 1.6977
5.6661 -3.7552 1.6977
5.8171 -3.5614 1.6977
5.9619 -3.3620 1.6977
5.7300 -2.9653 1.5946
5.8539 -2.7678 1.5946
5.9715 -2.5655 1.5946
6.0826 -2.3585 1.5946
6.1869 -2.1471 1.5946
6.2842 -1.9314 1.5946
6.3745 -1.7116 1.5946
6.4574 -1.4880 1.5946
6.5329 -1.2608 1.5946
6.6006 -1.0301 1.5945
6.6606 -0.7963 1.5945
6.7125 -0.5596 1.5945
6.7563 -0.3203 1.5945
6.7917 -0.0787 1.5945
6.8187 0.1651 1.5945
6.8370 0.4106 1.5945
6.8467 0.6577 1.5945
6.9046 0.9134 1.6077
6.8633 1.1590 1.6000
6.8460 1.4094 1.6000
6.8526 1.6681 1.6077
6.8168 1.9198 1.6077
6.7716 2.1710 1.6077
6.7171 2.4213 1.6077
6.6532 2.6703 1.6077
6.5798 2.9178 1.6077
6.4969 3.1632 1.6077
6.4047 3.4062 1.6077
6.3030 3.6465 1.6077
6.1921 3.8836 1.6077
6.0217 4.0831 1.5945
5.8934 4.3107 1.5945
5.7560 4.5340 1.5945
5.6098 4.7526 1.5945
5.4549 4.9660 1.5945
5.2914 5.1739 1.5945
5.1195 5.3759 1.5945
4.9395 5.5716 1.5945
4.7515 5.7607 1.5945
4.5558 5.9427 1.5945
4.3527 6.1173 1.5945
4.1424 6.2842 1.5946
3.9252 6.4431 1.5946
3.7015 6.5936 1.5946
3.4716 6.7353 1.5946
3.2359 6.8681 1.5946
2.9947 6.9915 1.5946
2.7484 7.1055 1.5946
0.8383 2.4200 0.5353
0.7516 2.4485 0.5346
0.6641 2.4738 0.5340
0.5756 2.4960 0.5335
0.4864 2.5151 0.5330
0.3966 2.5310 0.5327
0.3063 2.5436 0.5324
0.2156 2.5531 0.5323
0.1246 2.5593 0.5322
0.0334 2.5623 0.5322
-0.0578 2.5621 0.5324
-0.1490 2.5586 0.5326
-0.2400 2.5518 0.5328
-0.3307 2.5419 0.5332
-0.4210 2.5287 0.5337
-0.5108 2.5123 0.5342
-0.6000 2.4927 0.5349
-0.6884 2.4700 0.5356
-0.7760 2.4441 0.5364
-0.8625 2.4151 0.5373
-2.9900 7.5157 1.6977
-3.2496 7.3904 1.6977
-3.5036 7.2552 1.6977
-3.7515 7.1103 1.6977
-3.9932 6.9560 1.6977
-4.2280 6.7927 1.6977
-4.4558 6.6206 1.6977
-4.6761 6.4401 1.6977
-4.8887 6.2517 1.6977
-5.0933 6.0556 1.6977
-5.2897 5.8523 1.6977
-5.5667 -2.8141 1.6977
-5.4446 -3.0025 1.6977
-5.3166 -3.1862 1.6977
-5.1828 -3.3649 1.6977
-5.0435 -3.5384 1.6977
-4.8989 -3.7067 1.6977
-4.7492 -3.8696 1.6977
-4.5945 -4.0269 1.6977
-4.4351 -4.1787 1.6977
-4.2712 -4.3246 1.6977
-4.1029 -4.4647 1.6977
-3.9304 -4.5988 1.6977
-3.7541 -4.7268 1.6977
-3.5739 -4.8487 1.6977
-3.3903 -4.9644 1.6977
-3.2033 -5.0737 1.6977
-3.0131 -5.1766 1.6977
-2.8200 -5.2730 1.6977
-2.6242 -5.3629 1.6977
-2.4258 -5.4463 1.6977
-2.2251 -5.5230 1.6977
-2.0222 -5.5929 1.6977
-1.8174 -5.6562 1.6977
-1.6108 -5.7127 1.6977
-1.4027 -5.7624 1.6977
-1.1933 -5.8052 1.6977
-0.9827 -5.8411 1.6977
-0.6724 -5.1190 1.4805
-0.4843 -5.1069 1.4714
-0.3097 -5.2886 1.5198
-0.1327 -5.9159 1.6977
0.0807 -5.9173 1.6977
0.2941 -5.9117 1.6977
0.5072 -5.8991 1.6977
0.6513 -5.3199 1.5361
0.8144 -5.1151 1.4836
1.0060 -5.1218 1.4941
1.3533 -5.7797 1.6977
1.5622 -5.7326 1.6977
1.7697 -5.6787 1.6977
1.9755 -5.6179 1.6977
2.1796 -5.5504 1.6977
2.3815 -5.4761 1.6977
2.5813 -5.3951 1.6977
2.7786 -5.3074 1.6977
2.9732 -5.2132 1.6977
3.1650 -5.1124 1.6977
3.3538 -5.0052 1.6977
3.5392 -4.8915 1.6977
3.7212 -4.7716 1.6977
3.8996 -4.6454 1.6977
4.0741 -4.5130 1.6977
4.2445 -4.3745 1.6977
4.4107 -4.2301 1.6977
4.5723 -4.0799 1.6977
4.7293 -3.9238 1.6977
4.8814 -3.7622 1.6977
5.0284 -3.5950 1.6977
5.1701 -3.4225 1.6977
5.3064 -3.2448 1.6977
5.1355 -2.8922 1.6036
5.2238 -2.6997 1.5946
5.3352 -2.5188 1.5946
5.4407 -2.3337 1.5946
5.5401 -2.1444 1.5946
5.6333 -1.9512 1.5946
5.7200 -1.7542 1.5946
5.8002 -1.5537 1.5946
5.8737 -1.3497 1.5946
5.9403 -1.1426 1.5945
5.9998 -0.9326 1.5945
6.0521 -0.7198 1.5945
6.0971 -0.5045 1.5945
6.1346 -0.2870 1.5945
6.1645 -0.0676 1.5945
6.1868 0.1536 1.5945
6.2012 0.3763 1.5945
6.2077 0.6002 1.5945
6.2062 0.8249 1.5945
6.1965 1.0503 1.5945
6.1786 1.2759 1.5945
6.1525 1.5016 1.5945
6.1180 1.7269 1.5945
6.0753 1.9517 1.5945
6.0241 2.1754 1.5945
5.9645 2.3979 1.5945
5.8966 2.6188 1.5945
5.8203 2.8378 1.5945
5.7356 3.0544 1.5945
5.6426 3.2684 1.5945
5.5413 3.4795 1.5945
5.4319 3.6872 1.5945
5.3143 3.8912 1.5945
5.1888 4.0912 1.5945
5.0554 4.2869 1.5945
4.9142 4.4778 1.5945
4.7655 4.6637 1.5945
4.6093 4.8442 1.5945
4.4460 5.0190 1.5945
4.2756 5.1877 1.5945
4.0984 5.3501 1.5946
3.9147 5.5058 1.5946
3.7246 5.6546 1.5946
3.5286 5.7961 1.5946
3.3268 5.9300 1.5946
3.1195 6.0562 1.5946
2.9072 6.1743 1.5946
2.6900 6.2841 1.5946
0.8392 2.1709 0.5421
0.7615 2.1995 0.5414
0.6828 2.2254 0.5408
0.6032 2.2484 0.5403
0.5228 2.2685 0.5398
0.4418 2.2859 0.5394
0.3603 2.3003 0.5391
0.2782 2.3118 0.5389
0.1958 2.3204 0.5387
0.1132 2.3260 0.5387
0.0304 2.3287 0.5387
-0.0525 2.3285 0.5388
-0.1353 2.3253 0.5390
-0.2180 2.3191 0.5392
-0.3003 2.3101 0.5396
-0.3823 2.2980 0.5400
-0.4639 2.2831 0.5405
-0.5448 2.2653 0.5411
-0.6252 2.2446 0.5418
-0.7047 2.2211 0.5425
-0.7833 2.1948 0.5433
-0.8610 2.1656 0.5442
-2.9196 6.6446 1.6977
-3.1484 6.5244 1.6977
-3.3719 6.3955 1.6977
-3.5899 6.2582 1.6977
-3.8019 6.1128 1.6977
-4.0078 5.9596 1.6977
-4.2070 5.7987 1.6977
-4.3996 5.6307 1.6977
-4.5850 5.4558 1.6977
-4.7631 5.2742 1.6977
-5.1113 -2.5803 1.6977
-5.0004 -2.7540 1.6977
-4.8840 -2.9234 1.6977
-4.7622 -3.0882 1.6977
-4.6353 -3.2484 1.6977
-4.5033 -3.4039 1.6977
-4.3666 -3.5543 1.6977
-4.2252 -3.6998 1.6977
-4.0794 -3.8401 1.6977
-3.9294 -3.9751 1.6977
-3.7752 -4.1047 1.6977
-3.6172 -4.2288 1.6977
-3.4554 -4.3474 1.6977
-3.2901 -4.4603 1.6977
-3.1215 -4.5674 1.6977
-2.9497 -4.6687 1.6977
-2.7750 -4.7641 1.6977
-2.5975 -4.8535 1.6977
-2.4173 -4.9369 1.6977
-2.2348 -5.0142 1.6977
-2.0501 -5.0853 1.6977
-1.8633 -5.1502 1.6977
-1.6747 -5.2089 1.6977
-1.4845 -5.2613 1.6977
-1.2928 -5.3074 1.6977
-1.0997 -5.3472 1.6977
-0.9057 -5.3805 1.6977
-0.7107 -5.4075 1.6977
-0.5150 -5.4280 1.6977
-0.3188 -5.4422 1.6977
-0.1222 -5.4498 1.6977
0.0745 -5.4510 1.6977
0.2712 -5.4458 1.6977
0.4676 -5.4341 1.6977
0.6636 -5.4160 1.6977
0.8590 -5.3914 1.6977
1.0536 -5.3604 1.6977
1.2473 -5.3231 1.6977
1.4397 -5.2793 1.6977
1.6308 -5.2292 1.6977
1.8203 -5.1727 1.6977
2.0081 -5.1100 1.6977
2.1939 -5.0410 1.6977
2.3776 -4.9659 1.6977
2.5591 -4.8845 1.6977
2.7380 -4.7971 1.6977
2.9142 -4.7036 1.6977
3.0875 -4.6042 1.6977
3.2578 -4.4989 1.6977
3.4247 -4.3877 1.6977
3.5883 -4.2708 1.6977
3.7481 -4.1483 1.6977
3.9042 -4.0202 1.6977
4.0562 -3.8866 1.6977
4.2040 -3.7476 1.6977
4.3474 -3.6034 1.6977
4.4863 -3.4540 1.6977
4.6203 -3.2997 1.6977
4.7495 -3.1404 1.6977
4.8734 -2.9764 1.6977
4.9921 -2.8078 1.6977
4.7951 -2.4747 1.5946
4.8961 -2.3081 1.5946
4.9916 -2.1376 1.5946
5.0815 -1.9635 1.5946
5.1655 -1.7857 1.5946
5.2436 -1.6046 1.5945
5.3157 -1.4204 1.5945
5.3814 -1.2331 1.5945
5.4408 -1.0430 1.5945
5.4937 -0.8504 1.5945
5.5400 -0.6553 1.5945
5.5795 -0.4582 1.5945
5.6121 -0.2590 1.5945
5.6378 -0.0582 1.5945
5.6565 0.1440 1.5945
5.6679 0.3475 1.5945
5.6721 0.5520 1.5945
5.6690 0.7571 1.5945
5.6583 0.9626 1.5945
5.6402 1.1683 1.5945
5.6146 1.3739 1.5945
5.5815 1.5791 1.5945
5.5407 1.7836 1.5945
5.4924 1.9871 1.5945
5.4364 2.1892 1.5945
5.3729 2.3899 1.5945
5.3017 2.5886 1.5945
5.2230 2.7851 1.5945
5.1368 2.9791 1.5945
5.0432 3.1703 1.5945
4.9422 3.3584 1.5945
4.8339 3.5431 1.5945
4.7184 3.7240 1.5945
4.5958 3.9009 1.5945
4.4663 4.0734 1.5945
4.3301 4.2413 1.5945
4.1872 4.4042 1.5946
4.0378 4.5619 1.5946
3.8822 4.7141 1.5946
3.7205 4.8605 1.5946
3.5530 5.0008 1.5946
3.3798 5.1348 1.5946
3.2013 5.2622 1.5946
3.0177 5.3828 1.5946
2.8292 5.4963 1.5946
0.9072 1.9280 0.5488
0.8381 1.9592 0.5480
0.7680 1.9879 0.5473
0.6968 2.0141 0.5466
0.6248 2.0377 0.5461
0.5520 2.0588 0.5456
0.4785 2.0773 0.5451
0.4044 2.0931 0.5448
0.3297 2.1063 0.5445
0.2546 2.1168 0.5443
0.1792 2.1247 0.5442
0.1036 2.1298 0.5441
0.0278 2.1323 0.5441
-0.0480 2.1320 0.5442
-0.1238 2.1291 0.5444
-0.1994 2.1235 0.5446
-0.2748 2.1151 0.5449
-0.3498 2.1041 0.5453
