ply
format ascii 1.0
element vertex 2125
property float32 x
property float32 y
property float32 z
end_header
-3.6632 -31.6186 -1.5095
4.3275 -31.7786 -1.5304
2.8182 -9.8524 -0.4883
25.9401 -22.7153 -1.5785
12.0259 -8.4372 -0.6636
11.5333 -7.4902 -0.6182
11.3231 -6.7901 -0.5906
11.2708 -6.2214 -0.5729
11.1507 -5.6440 -0.5532
10.8817 -5.0269 -0.5276
10.6347 -4.4581 -0.5047
10.4615 -3.9514 -0.4866
10.5378 -3.5547 -0.4810
10.6717 -3.1792 -0.4786
10.8077 -2.8027 -0.4769
10.9177 -2.4177 -0.4746
10.9080 -2.0089 -0.4676
10.9502 -1.6138 -0.4635
11.0641 -1.2278 -0.4630
11.1807 -0.8370 -0.4631
11.2047 -0.4363 -0.4599
11.2022 -0.0349 -0.4562
11.2424 0.3676 -0.4548
11.3978 0.7818 -0.4585
11.4860 1.2021 -0.4601
11.4909 1.6203 -0.4589
11.4967 2.0431 -0.4583
11.4924 2.4697 -0.4578
11.4740 2.8990 -0.4575
11.4700 3.3389 -0.4582
11.4751 3.7909 -0.4600
11.4812 4.2544 -0.4625
11.6193 4.7852 -0.4710
11.6676 5.3011 -0.4767
11.6832 5.8213 -0.4818
11.6985 6.3613 -0.4878
11.6200 6.8685 -0.4907
11.5987 7.4285 -0.4970
11.5988 8.0281 -0.5052
11.6925 8.7279 -0.5187
11.7549 9.4479 -0.5322
11.7762 10.1798 -0.5454
11.8146 10.9758 -0.5610
11.8278 11.8042 -0.5772
11.7873 12.6375 -0.5929
11.6884 13.4671 -0.6077
11.6990 14.4962 -0.6307
11.3061 15.0835 -0.6341
10.9039 15.6867 -0.6387
3.2036 4.9800 -0.1968
10.5297 17.7326 -0.6814
10.9262 19.9975 -0.7487
12.0577 24.0780 -0.8800
11.5594 25.3062 -0.9045
11.1809 26.9941 -0.9453
10.5103 28.1879 -0.9688
2.7078 12.4758 -0.4047
-12.6860 2.9325 -0.1799
-12.7765 2.4754 -0.1834
-12.6593 1.9855 -0.1842
-5.9580 0.7171 -0.0880
-13.1546 1.1073 -0.1973
-14.9634 0.7215 -0.2282
-26.9685 0.3340 -0.4188
-26.9839 -0.6319 -0.4270
-27.1085 -1.6071 -0.4376
-27.1460 -2.5869 -0.4475
-11.8972 -1.5652 -0.2005
-12.4158 -2.0879 -0.2141
-11.5734 -2.3751 -0.2044
-11.3629 -2.7591 -0.2057
-11.6483 -3.2741 -0.2165
-11.7110 -3.7488 -0.2236
-11.7312 -4.2238 -0.2303
-10.4492 -4.1906 -0.2112
-10.4154 -4.6163 -0.2170
-10.3393 -5.0328 -0.2223
-10.2616 -5.4577 -0.2280
-10.6778 -6.1791 -0.2454
-10.1405 -6.3633 -0.2415
-10.4904 -7.1186 -0.2591
-10.1850 -7.4574 -0.2614
-14.0929 -11.1151 -0.3763
-17.2902 -14.6705 -0.4812
-17.4034 -15.8723 -0.5057
-8.0140 -26.4379 -0.6728
-7.3080 -27.6364 -0.6997
-6.4925 -28.6686 -0.7228
-5.6346 -29.7949 -0.7488
-4.6824 -30.7527 -0.7711
-3.6671 -31.6656 -0.7928
-2.5905 -32.5218 -0.8138
-1.4495 -33.1616 -0.8301
-0.2664 -33.8215 -0.8476
0.9592 -34.3317 -0.8622
2.2130 -34.6736 -0.8733
3.4966 -35.0105 -0.8851
4.3272 -31.7752 -0.8071
6.0823 -35.1890 -0.8987
7.3892 -35.1918 -0.9046
2.4389 -9.8482 -0.2550
2.8179 -9.8524 -0.2573
11.4459 -35.2003 -0.9276
14.3071 -35.2064 -0.9480
15.7996 -35.2095 -0.9599
17.3412 -35.2128 -0.9730
18.9384 -35.2162 -0.9874
20.5987 -35.2197 -1.0033
22.3304 -35.2233 -1.0208
24.1429 -35.2271 -1.0401
26.0472 -35.2312 -1.0612
28.0554 -35.2354 -1.0845
30.1821 -35.2399 -1.1102
32.4440 -35.2447 -1.1385
34.8608 -35.2498 -1.1698
25.9375 -22.7185 -0.8011
11.9931 -9.0743 -0.3434
11.3454 -7.9620 -0.3136
11.0398 -7.1719 -0.2950
10.7863 -6.4703 -0.2790
10.7330 -5.9266 -0.2692
10.5205 -5.3270 -0.2561
10.2904 -4.7557 -0.2434
10.1273 -4.2473 -0.2331
10.0166 -3.7853 -0.2245
10.0478 -3.3913 -0.2196
10.1130 -3.0146 -0.2157
10.1779 -2.6412 -0.2121
10.2858 -2.2796 -0.2096
10.3961 -1.9165 -0.2074
10.4602 -1.5435 -0.2045
10.5664 -1.1745 -0.2026
10.6742 -0.8010 -0.2009
10.7842 -0.4219 -0.1994
10.8048 -0.0357 -0.1965
10.8376 0.3523 -0.1940
10.9811 0.7511 -0.1937
11.1297 1.1628 -0.1936
11.1859 1.5751 -0.1921
11.1897 1.9864 -0.1899
11.1872 2.4019 -0.1878
11.1673 2.8193 -0.1856
11.1474 3.2428 -0.1837
11.1413 3.6783 -0.1822
11.1430 4.1268 -0.1811
11.2271 4.6213 -0.1815
11.3789 5.1674 -0.1832
11.3934 5.6743 -0.1830
11.4041 6.1987 -0.1830
11.3499 6.7062 -0.1822
11.2677 7.2138 -0.1813
11.2381 7.7756 -0.1815
11.2300 8.3798 -0.1824
11.4305 9.1842 -0.1870
11.4462 9.8914 -0.1891
11.4664 10.6490 -0.1918
11.4946 11.4682 -0.1950
11.4965 12.3221 -0.1984
11.3279 13.0480 -0.1995
11.1945 13.8672 -0.2018
11.0345 14.7171 -0.2043
10.6386 15.3007 -0.2031
3.2042 4.9796 -0.0634
9.8864 16.6448 -0.2034
9.8535 18.0294 -0.2121
9.8840 19.7320 -0.2239
11.3221 24.7801 -0.2719
10.6322 25.6623 -0.2728
9.9252 26.6114 -0.2747
9.6854 29.1104 -0.2924
11.4033 38.8655 -0.3808
12.0636 47.3242 -0.4532
2.7087 12.4758 -0.1171
-12.5568 2.9004 0.1121
-13.2167 2.5583 0.1134
-12.7043 1.9903 0.1047
-5.9379 0.7136 0.0470
-13.5588 1.1389 0.1031
-26.4060 1.2684 0.1926
-26.4536 0.3228 0.1850
-26.4683 -0.6248 0.1774
-26.4829 -1.5749 0.1699
-26.5204 -2.5323 0.1628
-26.5373 -3.4963 0.1556
-12.0903 -2.0355 0.0677
-11.9061 -2.4456 0.0635
-11.4906 -2.7924 0.0583
-11.8734 -3.3397 0.0571
-11.9321 -3.8220 0.0544
-10.7155 -3.8604 0.0461
-10.4999 -4.2131 0.0425
-10.4251 -4.6229 0.0396
-10.3146 -5.0231 0.0366
-10.9932 -5.8493 0.0362
-10.7035 -6.1965 0.0325
-10.4403 -6.5539 0.0290
-10.6258 -7.2131 0.0268
-10.4514 -7.6551 0.0236
-17.5231 -13.8251 0.0348
-16.6565 -14.1374 0.0285
-18.0750 -16.4900 0.0258
-8.0125 -26.4405 -0.0505
-7.3064 -27.6388 -0.0558
-6.4907 -28.6695 -0.0607
-5.6331 -29.7968 -0.0658
-4.6809 -30.7541 -0.0704
-3.6657 -31.6670 -0.0748
-2.5892 -32.5226 -0.0790
-1.4483 -33.1623 -0.0824
-0.2653 -33.8220 -0.0858
0.9600 -34.3320 -0.0886
2.2136 -34.6738 -0.0907
3.4970 -35.0106 -0.0926
4.3268 -31.7717 -0.0847
6.0822 -35.1890 -0.0943
7.3888 -35.1918 -0.0946
8.7154 -35.1946 -0.0946
2.8177 -9.8524 -0.0264
11.4447 -35.2003 -0.0939
14.3053 -35.2064 -0.0920
15.7975 -35.2095 -0.0906
17.3387 -35.2128 -0.0888
18.9356 -35.2161 -0.0867
20.5955 -35.2197 -0.0843
22.3267 -35.2233 -0.0814
24.1388 -35.2271 -0.0781
26.0424 -35.2312 -0.0743
28.0501 -35.2354 -0.0700
30.1761 -35.2399 -0.0651
32.4373 -35.2447 -0.0595
34.8532 -35.2498 -0.0531
25.9348 -22.7217 -0.0244
11.9166 -9.7088 -0.0079
11.2998 -8.5520 -0.0044
10.8325 -7.6043 -0.0014
10.5871 -6.8799 0.0014
10.3630 -6.2184 0.0041
10.1801 -5.6232 0.0066
10.0568 -5.0942 0.0091
9.9407 -4.5960 0.0115
9.8307 -4.1248 0.0139
9.7516 -3.6869 0.0162
9.7483 -3.2920 0.0187
9.8130 -2.9270 0.0213
9.8771 -2.5650 0.0240
9.9407 -2.2049 0.0267
10.0040 -1.8461 0.0295
10.0479 -1.4845 0.0323
10.1288 -1.1277 0.0353
10.2121 -0.7682 0.0385
10.3136 -0.4054 0.0418
10.4167 -0.0363 0.0452
10.4612 0.3381 0.0485
10.5942 0.7227 0.0523
10.7312 1.1191 0.0563
10.8727 1.5290 0.0606
10.8988 1.9327 0.0643
10.8979 2.3377 0.0681
10.8767 2.7438 0.0718
10.8551 3.1556 0.0757
10.8330 3.5744 0.0798
10.8243 4.0065 0.0841
10.8607 4.4682 0.0889
10.9971 4.9917 0.0949
11.1177 5.5346 0.1011
11.1229 6.0433 0.1066
11.0924 6.5514 0.1121
11.0083 7.0451 0.1173
10.9216 7.5539 0.1227
10.8832 8.1183 0.1291
10.9745 8.8149 0.1375
11.1345 9.6189 0.1474
11.1358 10.3387 0.1560
11.1622 11.1332 0.1657
11.1701 11.9688 0.1759
11.0755 12.7535 0.1854
10.8685 13.4595 0.1937
10.7011 14.2685 0.2036
10.3860 14.9334 0.2114
3.2047 4.9791 0.0700
9.6288 16.2067 0.2265
9.4382 17.2648 0.2400
9.3783 18.7175 0.2591
9.4106 20.5910 0.2839
10.4144 25.1299 0.3455
9.7243 26.0655 0.3575
9.2460 27.7819 0.3803
9.3502 31.8589 0.4356
10.3241 40.4879 0.5533
-13.5031 3.1164 0.4328
-13.0270 2.5191 0.4107
-12.7497 1.9951 0.3958
-12.8015 1.5360 0.3918
-13.3820 1.1216 0.4042
-13.3726 0.6399 0.3991
-23.6076 0.2837 0.6970
-23.6421 -0.5624 0.6912
-23.6645 -1.4117 0.6859
-23.5799 -2.2560 0.6784
-23.7992 -3.1401 0.6804
-12.8654 -2.1685 0.3659
-12.1339 -2.4948 0.3438
-11.8968 -2.8934 0.3361
-12.1253 -3.4130 0.3421
-12.0005 -3.8463 0.3386
-11.4477 -4.1265 0.3234
-10.8378 -4.3510 0.3070
-10.3528 -4.5931 0.2944
-11.2914 -5.5012 0.3229
-10.9814 -5.8455 0.3164
-10.6516 -6.1689 0.3096
-10.7585 -6.7562 0.3161
-10.8829 -7.3903 0.3237
-13.8694 -10.1622 0.4185
-18.0506 -14.2460 0.5538
-16.6936 -14.1735 0.5218
-8.0109 -26.4431 0.5718
-7.3049 -27.6413 0.5881
-6.4888 -28.6704 0.6014
-5.6315 -29.7988 0.6173
-4.6793 -30.7555 0.6303
-3.6642 -31.6683 0.6432
-2.5878 -32.5234 0.6559
-1.4471 -33.1629 0.6652
-0.2644 -33.8225 0.6760
0.9608 -34.3322 0.6850
2.2142 -34.6739 0.6919
3.4973 -35.0106 0.6999
4.3265 -31.7683 0.6374
6.0821 -35.1890 0.7100
7.3884 -35.1918 0.7153
8.7148 -35.1946 0.7220
10.0651 -35.1974 0.7301
11.4436 -35.2003 0.7398
14.3035 -35.2064 0.7639
15.7954 -35.2095 0.7786
17.3362 -35.2128 0.7952
18.9328 -35.2161 0.8138
20.5923 -35.2197 0.8346
22.3230 -35.2233 0.8578
24.1346 -35.2271 0.8837
26.0377 -35.2312 0.9124
28.0447 -35.2354 0.9443
30.1701 -35.2399 0.9798
32.4305 -35.2447 1.0193
34.8455 -35.2498 1.0632
11.8685 -10.4007 0.3442
11.1521 -9.0882 0.3166
10.6822 -8.0868 0.2976
10.3860 -7.2929 0.2845
10.1665 -6.6086 0.2745
9.9329 -5.9623 0.2649
9.8649 -5.4510 0.2603
9.7547 -4.9430 0.2551
9.6503 -4.4635 0.2507
9.5510 -4.0092 0.2468
9.5001 -3.5936 0.2446
9.4888 -3.2061 0.2438
9.5303 -2.8444 0.2447
9.5935 -2.4931 0.2466
9.6558 -2.1435 0.2488
9.7176 -1.7950 0.2513
9.7339 -1.4399 0.2530
9.7873 -1.0915 0.2560
9.8644 -0.7439 0.2600
9.9418 -0.3926 0.2644
10.0196 -0.0368 0.2692
10.0854 0.3241 0.2740
10.2335 0.6962 0.2816
10.3602 1.0785 0.2890
10.4904 1.4732 0.2971
10.6226 1.8817 0.3057
10.6225 2.2766 0.3111
10.6008 2.6721 0.3163
10.5776 3.0728 0.3219
10.5537 3.4800 0.3280
10.5288 3.8949 0.3347
10.5175 4.3247 0.3423
10.6400 4.8273 0.3550
10.7690 5.3586 0.3689
10.8552 5.8954 0.3823
10.8462 6.4035 0.3933
10.7605 6.8839 0.4024
10.6719 7.3785 0.4122
10.5799 7.8893 0.4228
10.5535 8.4740 0.4371
10.7180 9.2562 0.4610
10.8311 10.0527 0.4847
10.8350 10.8037 0.5056
10.8527 11.6252 0.5292
10.8340 12.4719 0.5535
10.6259 13.1554 0.5704
10.4070 13.8724 0.5887
10.1531 14.5946 0.6072
3.2053 4.9787 0.2034
9.4178 15.8473 0.6369
9.0279 16.5099 0.6535
8.9707 17.8990 0.6989
8.9088 19.4876 0.7516
8.9042 21.4798 0.8193
9.5313 25.5412 0.9646
8.8228 26.5027 0.9923
8.5501 29.1240 1.0822
8.5186 33.3969 1.2331
8.4182 38.7468 1.4230
7.8731 43.7309 1.5991
6.2726 43.7764 1.5956
-13.1937 3.0426 0.7283
-12.9412 2.5002 0.7054
-13.5811 2.1227 0.7317
-13.2181 1.5836 0.7049
-13.2097 1.1047 0.6981
-20.6575 0.9847 1.0831
-20.6457 0.2443 1.0753
-20.5454 -0.4926 1.0643
-20.4300 -1.2226 1.0538
-20.3667 -1.9524 1.0474
-20.3497 -2.6888 1.0447
-13.5947 -2.2940 0.6976
-13.7208 -2.8237 0.7047
-12.4717 -3.0357 0.6419
-12.2551 -3.4520 0.6329
-12.3229 -3.9522 0.6395
-11.3609 -4.0976 0.5933
-11.0896 -4.4544 0.5836
-10.4447 -4.6361 0.5548
-11.1942 -5.4564 0.6010
-10.7883 -5.7451 0.5865
-10.9710 -6.3565 0.6048
-10.7415 -6.7481 0.6016
-10.6281 -7.2199 0.6059
-14.1794 -10.3929 0.8244
-17.5839 -13.8824 1.0447
-17.4514 -14.8216 1.0618
-8.0094 -26.4457 1.1948
-5.9980 -22.7030 1.0124
-5.4867 -24.2503 1.0692
-4.8271 -25.5511 1.1155
-4.0600 -26.6950 1.1558
-3.2145 -27.7931 1.1952
-2.2827 -28.7041 1.2280
-1.2845 -29.4601 1.2557
3.1627 -31.6581 1.3501
4.3136 -31.6728 1.3561
14.0815 -34.6641 1.5956
15.2863 -34.0791 1.5956
16.4636 -33.4449 1.5956
17.6110 -32.7626 1.5956
18.7252 -32.0315 1.5955
19.8084 -31.2607 1.5956
21.3624 -31.1862 1.6345
23.0448 -31.1872 1.6818
24.3078 -30.5462 1.6987
25.2970 -29.5538 1.6987
26.2418 -28.5248 1.6987
27.1405 -27.4613 1.6987
12.1242 -11.4198 0.7357
10.8092 -9.4746 0.6376
10.4790 -8.5419 0.6024
10.1802 -7.7089 0.5715
9.9366 -6.9794 0.5460
9.7143 -6.3165 0.5236
9.5522 -5.7356 0.5059
9.5496 -5.2786 0.4980
9.4699 -4.8005 0.4871
9.3761 -4.3385 0.4765
9.2864 -3.8999 0.4671
9.2610 -3.5049 0.4617
9.2533 -3.1282 0.4580
9.2631 -2.7663 0.4559
9.3254 -2.4251 0.4570
9.3866 -2.0855 0.4587
9.4434 -1.7461 0.4608
9.4575 -1.4007 0.4614
9.4707 -1.0579 0.4626
9.5410 -0.7212 0.4672
9.6139 -0.3814 0.4726
9.6869 -0.0373 0.4787
9.7503 0.3116 0.4849
9.7574 0.6620 0.4890
9.9121 1.0300 0.5013
10.0945 1.4157 0.5158
10.2570 1.8149 0.5301
10.3578 2.2178 0.5423
10.3383 2.6039 0.5489
10.3138 2.9941 0.5561
10.2881 3.3904 0.5641
10.2612 3.7938 0.5729
10.2330 4.2056 0.5826
10.3050 4.6730 0.5991
10.4202 5.1827 0.6195
10.5414 5.7226 0.6419
10.5944 6.2524 0.6617
10.5233 6.7297 0.6753
10.4331 7.2108 0.6891
10.3392 7.7071 0.7041
10.2413 8.2205 0.7204
10.3039 8.8957 0.7502
10.4568 9.7023 0.7897
10.5262 10.4926 0.8264
10.5315 11.2779 0.8617
10.5363 12.1257 0.9007
10.3936 12.8642 0.9310
10.1331 13.5035 0.9541
9.7461 14.0056 0.9678
3.2060 4.9783 0.3371
9.2118 15.4965 1.0297
8.8303 16.1440 1.0544
8.5721 17.0991 1.0994
8.4830 18.5511 1.1759
8.4146 20.2931 1.2699
8.3673 22.4157 1.3866
8.2468 24.7653 1.5164
7.5756 25.7970 1.5655
6.8578 26.8775 1.6185
5.7966 26.6719 1.5956
4.8294 26.8157 1.5956
3.8601 26.9293 1.5956
-13.5559 3.1237 1.0629
-14.2816 2.7566 1.1073
-13.8694 2.1652 1.0647
-13.0488 1.5610 0.9930
-14.1210 1.1783 1.0666
-18.9440 0.8996 1.4221
-18.7637 0.2186 1.4016
-18.4917 -0.4468 1.3761
-18.2183 -1.0936 1.3524
-17.9258 -1.7218 1.3291
-17.9031 -2.3689 1.3274
-15.1097 -2.5526 1.1218
-13.8778 -2.8588 1.0331
-12.9320 -3.1503 0.9665
-12.5410 -3.5350 0.9423
-12.2452 -3.9298 0.9262
-11.8808 -4.2876 0.9060
-11.3881 -4.5767 0.8768
-11.0477 -4.9061 0.8601
-10.8619 -5.2967 0.8563
-11.5200 -6.1373 0.9213
-10.7912 -6.2548 0.8769
-10.7283 -6.7424 0.8873
-10.3843 -7.0569 0.8758
-13.9975 -10.2632 1.2061
-18.4192 -14.5466 1.6248
-17.9920 -15.2857 1.6283
-19.4108 -17.7252 1.8064
-21.2833 -20.8796 2.0416
-9.8259 -23.1537 1.6665
-8.6287 -22.5431 1.5956
-7.8337 -22.8867 1.5956
-7.0241 -23.1993 1.5956
-6.2014 -23.4799 1.5956
-5.3668 -23.7279 1.5956
-4.5430 -24.0555 1.6031
-3.8448 -25.2894 1.6727
-2.9875 -25.8421 1.6989
-2.0641 -25.9694 1.6994
-1.1352 -26.0599 1.6999
-0.2025 -26.1125 1.7004
0.7324 -26.1271 1.7009
1.6678 -26.1042 1.7013
2.6020 -26.0427 1.7018
3.5319 -25.9326 1.7015
4.4566 -25.7854 1.7012
5.3743 -25.6010 1.7009
6.2829 -25.3771 1.7004
7.1790 -25.1093 1.6994
8.0656 -24.8149 1.6991
8.3964 -22.9992 1.5956
9.2048 -22.6621 1.5956
9.9983 -22.2931 1.5956
10.7755 -21.8930 1.5956
11.5352 -21.4627 1.5956
12.2761 -21.0029 1.5956
12.9970 -20.5146 1.5956
13.6967 -19.9988 1.5956
14.3742 -19.4566 1.5956
24.8528 -31.2370 2.6386
22.1515 -25.8842 2.2572
16.3888 -17.8185 1.6079
11.5317 -11.6706 1.0924
10.4630 -9.8573 0.9597
10.1415 -8.8915 0.9030
9.7347 -7.9372 0.8434
9.7035 -7.3499 0.8198
9.4931 -6.6698 0.7838
9.2997 -6.0488 0.7519
9.2363 -5.5477 0.7327
9.2400 -5.1093 0.7205
9.2007 -4.6658 0.7064
9.1165 -4.2201 0.6903
9.0369 -3.7968 0.6760
9.0331 -3.4203 0.6686
9.0286 -3.0539 0.6623
9.0232 -2.6964 0.6569
9.0713 -2.3607 0.6564
9.1314 -2.0304 0.6576
9.1810 -1.6992 0.6590
9.1958 -1.3636 0.6588
9.2094 -1.0304 0.6593
9.2374 -0.6999 0.6618
9.3064 -0.3709 0.6680
9.3750 -0.0379 0.6752
9.4362 0.2998 0.6827
9.4422 0.6388 0.6872
9.4470 0.9798 0.6925
9.5920 1.3434 0.7090
9.7602 1.7251 0.7285
9.9344 2.1252 0.7498
9.9944 2.5152 0.7637
9.9487 2.8861 0.7706
9.9007 3.2607 0.7785
9.8503 3.6398 0.7874
9.7973 4.0244 0.7973
9.7493 4.4189 0.8088
9.7465 4.8455 0.8255
10.1549 5.5104 0.8796
10.3130 6.0839 0.9149
10.2959 6.5817 0.9370
10.1891 7.0397 0.9530
9.9954 7.4483 0.9625
9.7969 7.8612 0.9732
9.5933 8.2796 0.9851
9.4949 8.8071 1.0099
9.9148 9.8801 1.0950
10.2282 10.9498 1.1757
10.1849 11.7179 1.2218
10.1081 12.5073 1.2691
9.7615 13.0047 1.2868
9.3850 13.4830 1.3035
3.2065 4.9778 0.4710
8.6017 14.4662 1.3421
8.4089 15.3695 1.4003
8.2073 16.3670 1.4667
7.8315 17.1219 1.5114
7.4377 17.9323 1.5615
7.0130 18.7824 1.6156
6.2465 18.7532 1.5956
5.5618 18.9340 1.5956
4.8728 19.0922 1.5956
4.1801 19.2279 1.5956
3.4845 19.3409 1.5956
2.7864 19.4313 1.5956
-13.6636 3.1460 1.3895
-15.6948 3.0264 1.5796
-14.2070 2.2153 1.4169
-13.8575 1.6552 1.3712
-16.9862 1.4143 1.6698
-16.8288 0.7960 1.6455
-16.8225 0.1928 1.6382
-16.7840 -0.4086 1.6299
-16.7340 -1.0076 1.6225
-16.5491 -1.5927 1.6041
-16.4766 -2.1833 1.5987
-16.4485 -2.7819 1.5996
-14.0391 -2.8947 1.3702
-12.7958 -3.1196 1.2551
-12.9214 -3.6448 1.2754
-12.9265 -4.1511 1.2857
-12.2585 -4.4264 1.2304
-11.8646 -4.7707 1.2035
-11.7941 -5.2401 1.2109
-10.7926 -5.2653 1.1232
-11.6653 -6.2174 1.2327
-11.4837 -6.6589 1.2342
-11.2197 -7.0539 1.2285
-14.1902 -9.6468 1.5859
-13.8196 -10.1363 1.5794
-15.5937 -12.3193 1.8262
-15.5372 -13.2044 1.8685
-15.4275 -14.0922 1.9095
-16.4466 -16.1396 2.1001
-16.4234 -17.3130 2.1692
-16.3359 -18.5038 2.2379
-15.7811 -19.2195 2.2491
-15.1360 -19.8407 2.2515
-14.4765 -20.4541 2.2555
-11.7584 -17.9420 1.9265
-9.2210 -15.2322 1.5956
-8.6885 -15.5850 1.5956
-8.1418 -15.9177 1.5956
-7.5817 -16.2297 1.5956
-7.0090 -16.5205 1.5956
-6.4247 -16.7895 1.5956
-5.8294 -17.0360 1.5956
-5.5618 -18.3749 1.6987
-4.9085 -18.5905 1.6989
-4.2470 -18.7831 1.6993
-3.5778 -18.9514 1.6999
-2.9017 -19.0933 1.7004
-2.2197 -19.2086 1.7008
-1.5330 -19.2970 1.7013
-0.8423 -19.3512 1.7011
-0.1497 -19.3771 1.7008
0.5435 -19.3739 1.7003
1.2362 -19.3434 1.6998
1.9271 -19.2857 1.6993
2.6152 -19.2011 1.6988
3.0998 -17.9357 1.5956
3.7389 -17.8112 1.5956
4.3724 -17.6617 1.5956
4.9995 -17.4877 1.5956
5.6190 -17.2893 1.5956
6.2300 -17.0669 1.5956
9.4277 -23.2139 2.2020
10.0749 -22.4670 2.1658
9.9012 -20.1196 1.9743
9.5828 -17.8327 1.7843
9.3744 -16.0411 1.6395
9.7012 -15.3151 1.6018
10.0333 -14.6524 1.5713
10.3131 -13.9621 1.5382
10.5028 -13.2032 1.4974
10.6707 -12.4713 1.4593
10.1779 -11.0681 1.3393
9.7662 -9.8860 1.2402
9.6597 -9.1026 1.1869
9.2958 -8.1520 1.1079
9.2072 -7.5090 1.0670
9.2344 -6.9964 1.0428
9.0863 -6.3858 1.0020
8.9282 -5.8090 0.9633
8.9396 -5.3713 0.9456
8.9491 -4.9501 0.9296
8.9455 -4.5381 0.9142
8.8702 -4.1077 0.8933
8.8161 -3.7056 0.8763
8.8155 -3.3396 0.8663
8.8139 -2.9829 0.8575
8.8112 -2.6346 0.8500
8.8300 -2.2995 0.8458
8.8889 -1.9782 0.8466
8.9320 -1.6547 0.8471
8.9474 -1.3284 0.8461
8.9615 -1.0043 0.8460
8.9741 -0.6817 0.8470
9.0170 -0.3610 0.8519
9.0816 -0.0384 0.8600
9.1407 0.2887 0.8687
9.1458 0.6170 0.8735
9.1494 0.9472 0.8793
9.1516 1.2799 0.8861
9.2856 1.6395 0.9070
9.4399 2.0176 0.9314
9.5443 2.4001 0.9525
9.5214 2.7602 0.9624
9.4878 3.1228 0.9726
9.4366 3.4850 0.9825
9.3824 3.8520 0.9936
9.3250 4.2246 1.0058
9.2872 4.6150 1.0219
9.2544 5.0196 1.0404
9.3319 5.5029 1.0736
9.7009 6.1990 1.1441
9.7117 6.7074 1.1761
9.5636 7.1241 1.1915
9.3707 7.5167 1.2034
9.1724 7.9137 1.2167
8.9683 8.3161 1.2314
8.8677 8.8340 1.2633
8.7846 9.4016 1.3017
8.8500 10.1791 1.3677
8.8218 10.9126 1.4260
8.6302 11.4943 1.4638
8.4239 12.0989 1.5045
3.2071 4.9774 0.6055
7.8559 13.2083 1.5744
7.5052 13.7139 1.6045
7.1363 14.2274 1.6365
6.7593 14.7737 1.6731
5.9281 14.2888 1.5956
5.4046 14.4708 1.5956
4.8762 14.6350 1.5956
4.3433 14.7814 1.5956
3.8065 14.9098 1.5956
3.2665 15.0203 1.5956
2.7236 15.1128 1.5956
2.3194 16.1684 1.6987
-16.3857 3.7697 2.0496
-16.1650 3.1141 2.0021
-15.9538 2.4847 1.9590
-15.8633 1.8918 1.9338
-15.7245 1.3064 1.9053
-15.5821 0.7342 1.8791
-15.4588 0.1743 1.8577
-15.3988 -0.3778 1.8464
-15.3618 -0.9279 1.8401
-15.3282 -1.4781 1.8367
-15.2133 -2.0189 1.8258
-15.0353 -2.5458 1.8096
-14.5013 -2.9929 1.7527
-14.7830 -3.6071 1.7966
-13.2749 -3.7472 1.6245
-14.2026 -4.5638 1.7525
-13.4531 -4.8606 1.6761
-13.0636 -5.2556 1.6459
-11.5377 -5.1287 1.4721
-11.4002 -5.5643 1.4754
-11.4119 -6.0850 1.5005
-11.9239 -6.9169 1.5954
-11.3602 -7.1450 1.5495
-14.3928 -9.7881 2.0049
-14.2695 -10.4700 2.0339
-14.0985 -11.1418 2.0603
-13.8795 -11.7995 2.0840
-13.6234 -12.4482 2.1064
-13.6824 -13.4311 2.1837
-9.6603 -10.1866 1.5956
-9.3089 -10.5473 1.5956
-8.9436 -10.8954 1.5956
-8.5648 -11.2301 1.5956
-8.1730 -11.5510 1.5956
-7.7687 -11.8574 1.5956
-7.3525 -12.1489 1.5956
-6.9249 -12.4250 1.5956
-6.4865 -12.6851 1.5956
-6.0379 -12.9287 1.5956
-5.6754 -13.3808 1.6229
-5.4431 -14.2285 1.6987
-4.9372 -14.4326 1.6987
-4.4232 -14.6176 1.6987
-3.9020 -14.7830 1.6987
-3.3744 -14.9286 1.6987
-2.8411 -15.0539 1.6987
-2.3028 -15.1588 1.6987
-1.7607 -15.2431 1.6987
-1.2153 -15.3066 1.6987
-0.6675 -15.3492 1.6987
-0.1183 -15.3706 1.6987
0.4316 -15.3710 1.6987
0.9813 -15.3502 1.6987
1.5298 -15.3082 1.6987
2.0764 -15.2452 1.6987
2.4613 -14.2411 1.5956
2.9686 -14.1427 1.5956
3.4718 -14.0247 1.5956
3.9699 -13.8876 1.5956
4.4623 -13.7314 1.5956
4.9480 -13.5565 1.5956
5.4265 -13.3632 1.5956
5.8969 -13.1518 1.5956
6.3586 -12.9226 1.5956
7.2090 -13.4173 1.6889
7.5658 -12.9484 1.6644
7.8973 -12.4695 1.6398
8.2127 -11.9958 1.6170
8.4792 -11.4814 1.5894
8.7323 -10.9798 1.5643
8.7955 -10.2818 1.5108
8.7785 -9.5483 1.4504
8.9052 -9.0164 1.4192
8.8629 -8.3537 1.3662
8.7152 -7.6448 1.3026
8.7566 -7.1434 1.2720
8.7932 -6.6639 1.2441
8.7113 -6.1240 1.2030
8.6435 -5.6255 1.1674
8.6603 -5.2052 1.1460
8.6747 -4.8001 1.1268
8.6868 -4.4085 1.1095
8.6357 -4.0008 1.0863
8.6049 -3.6185 1.0678
8.6073 -3.2623 1.0554
8.6084 -2.9150 1.0444
8.6080 -2.5755 1.0349
8.6064 -2.2429 1.0269
8.6580 -1.9284 1.0266
8.6951 -1.6125 1.0260
8.7112 -1.2949 1.0243
8.7255 -0.9795 1.0237
8.7383 -0.6654 1.0243
8.7494 -0.3520 1.0260
8.8048 -0.0388 1.0343
8.8620 0.2782 1.0442
8.8663 0.5965 1.0492
8.8689 0.9165 1.0554
8.8697 1.2388 1.0627
8.8686 1.5641 1.0714
8.9905 1.9197 1.0964
9.1308 2.2943 1.1257
9.1059 2.6379 1.1364
9.0781 2.9860 1.1483
9.0471 3.3392 1.1617
8.9996 3.6929 1.1746
8.9412 4.0488 1.1880
8.8857 4.4136 1.2038
8.8486 4.7975 1.2241
8.8076 5.1917 1.2463
8.7627 5.5973 1.2703
8.8910 6.1384 1.3229
8.9207 6.6429 1.3649
8.8128 7.0668 1.3892
8.6970 7.5011 1.4153
8.5727 7.9467 1.4435
8.3810 8.3466 1.4636
8.2756 8.8542 1.5025
8.1489 9.3700 1.5424
7.8583 9.7179 1.5551
7.5553 10.0599 1.5683
7.2398 10.3953 1.5818
3.2077 4.9770 0.7405
6.6598 11.1942 1.6316
6.1073 11.1568 1.5956
5.6956 11.3522 1.5956
5.2782 11.5333 1.5956
4.8554 11.7000 1.5956
4.4279 11.8522 1.5956
3.9959 11.9897 1.5956
3.5601 12.1124 1.5956
3.1208 12.2202 1.5956
2.6786 12.3132 1.5956
2.3783 13.1917 1.6987
1.9027 13.2588 1.6987
-14.8294 3.4089 2.2036
-14.8415 2.8564 2.1845
-14.6886 2.2850 2.1443
-14.6768 1.7476 2.1278
-14.6564 1.2149 2.1129
-14.6142 0.6858 2.0976
-14.5097 0.1609 2.0761
-14.4566 -0.3574 2.0647
-14.3969 -0.8724 2.0550
-14.3305 -1.3846 2.0469
-14.2368 -1.8920 2.0376
-14.0684 -2.3848 2.0201
-13.8913 -2.8697 2.0038
-13.7088 -3.3477 1.9893
-13.5401 -3.8249 1.9792
-13.4882 -4.3370 1.9888
-13.4200 -4.8515 1.9988
-13.3403 -5.3699 2.0100
-13.1787 -5.8611 2.0118
-12.5114 -6.1095 1.9380
-13.0727 -6.9736 2.0581
-12.9718 -7.5279 2.0791
-12.8574 -8.0898 2.1015
-9.5541 -6.4998 1.5954
-9.3346 -6.8515 1.5956
-9.1011 -7.1949 1.5956
-8.8546 -7.5300 1.5956
-8.5955 -7.8565 1.5956
-8.3241 -8.1737 1.5956
-8.0406 -8.4812 1.5956
-7.7455 -8.7785 1.5956
-7.4390 -9.0651 1.5956
-7.1216 -9.3405 1.5956
-6.7937 -9.6043 1.5956
-6.4557 -9.8561 1.5956
-6.1080 -10.0954 1.5956
-5.7512 -10.3218 1.5956
-5.6503 -11.0527 1.6740
-5.3357 -11.4281 1.6987
-4.9296 -11.6257 1.6987
-4.5159 -11.8080 1.6987
-4.0952 -11.9749 1.6987
-3.6682 -12.1258 1.6987
-3.2352 -12.2607 1.6987
-2.7972 -12.3792 1.6987
-2.3547 -12.4812 1.6987
-1.9083 -12.5663 1.6987
-1.4587 -12.6345 1.6987
-1.0066 -12.6857 1.6987
-0.5527 -12.7197 1.6987
-0.0976 -12.7365 1.6987
0.3579 -12.7359 1.6987
0.8132 -12.7181 1.6987
1.2676 -12.6829 1.6987
1.7204 -12.6305 1.6987
2.1708 -12.5609 1.6987
2.4594 -11.7173 1.5956
2.8763 -11.6200 1.5956
3.2891 -11.5069 1.5956
3.6972 -11.3783 1.5956
4.1000 -11.2343 1.5956
4.4968 -11.0752 1.5956
4.8872 -10.9013 1.5956
5.2705 -10.7128 1.5956
5.6461 -10.5100 1.5956
6.0135 -10.2933 1.5956
6.3722 -10.0630 1.5956
7.1092 -10.3858 1.6876
7.3463 -9.9493 1.6600
7.5871 -9.5415 1.6380
7.8056 -9.1263 1.6155
8.0051 -8.7088 1.5932
8.1802 -8.2842 1.5700
8.2413 -7.7696 1.5295
8.2966 -7.2793 1.4925
8.3460 -6.8102 1.4588
8.3902 -6.3603 1.4280
8.3644 -5.8818 1.3890
8.3750 -5.4524 1.3597
8.3965 -5.0483 1.3353
8.4153 -4.6582 1.3132
8.4315 -4.2806 1.2933
8.4123 -3.8989 1.2704
8.4026 -3.5350 1.2514
8.4077 -3.1882 1.2367
8.4111 -2.8498 1.2237
8.4130 -2.5187 1.2125
8.4133 -2.1941 1.2028
8.4377 -1.8809 1.1983
8.4694 -1.5722 1.1965
8.4859 -1.2630 1.1942
8.5005 -0.9558 1.1931
8.5133 -0.6498 1.1934
8.5244 -0.3445 1.1950
8.5431 -0.0393 1.1992
8.5984 0.2683 1.2101
8.6021 0.5771 1.2153
8.6037 0.8875 1.2219
8.6033 1.2000 1.2297
8.6008 1.5152 1.2390
8.5962 1.8339 1.2496
8.7046 2.1854 1.2787
8.7233 2.5253 1.2966
8.6937 2.8578 1.3093
8.6606 3.1948 1.3235
8.6240 3.5369 1.3391
8.5836 3.8849 1.3563
8.5229 4.2314 1.3726
8.4750 4.5930 1.3932
8.4301 4.9672 1.4170
8.3810 5.3515 1.4428
8.3272 5.7470 1.4708
8.2684 6.1550 1.5012
8.2083 6.5798 1.5349
8.0304 6.9239 1.5498
7.8278 7.2540 1.5626
7.6154 7.5819 1.5761
7.3929 7.9074 1.5903
7.1601 8.2306 1.6052
6.9062 8.5380 1.6183
6.6318 8.8277 1.6296
6.1708 8.8579 1.5956
3.2083 4.9765 0.8764
5.5057 9.2519 1.5956
5.1642 9.4312 1.5956
4.8171 9.5985 1.5956
4.4650 9.7537 1.5956
4.1082 9.8967 1.5956
3.7471 10.0272 1.5956
3.3822 10.1453 1.5956
3.0138 10.2508 1.5956
2.6424 10.3436 1.5956
2.4103 11.0761 1.6955
2.0143 11.1688 1.6987
1.6118 11.2268 1.6987
-9.2617 2.1273 1.5954
-9.3478 1.7974 1.5954
-9.4224 1.4640 1.5954
-9.4853 1.1277 1.5954
-9.5364 0.7887 1.5954
-9.5756 0.4476 1.5954
-9.6028 0.1047 1.5954
-9.6178 -0.2396 1.5954
-9.6206 -0.5848 1.5954
-9.6111 -0.9305 1.5954
-9.5893 -1.2762 1.5954
-9.5551 -1.6216 1.5954
-9.5085 -1.9662 1.5954
-9.4495 -2.3095 1.5954
-9.3781 -2.6511 1.5954
-9.2943 -2.9905 1.5954
-9.1982 -3.3272 1.5954
-9.0898 -3.6608 1.5954
-8.9693 -3.9910 1.5954
-8.8366 -4.3171 1.5954
-8.6920 -4.6387 1.5954
-8.5355 -4.9554 1.5954
-8.3673 -5.2667 1.5954
-8.1876 -5.5722 1.5954
-7.9965 -5.8714 1.5954
-7.7943 -6.1639 1.5954
-7.5812 -6.4493 1.5954
-7.3579 -6.7274 1.5955
-7.1237 -6.9972 1.5955
-6.8795 -7.2586 1.5956
-6.6254 -7.5112 1.5956
-6.3618 -7.7546 1.5956
-6.0890 -7.9884 1.5956
-5.8073 -8.2121 1.5956
-5.6599 -8.6434 1.6369
-5.5561 -9.1857 1.6987
-5.2304 -9.3898 1.6987
-4.8970 -9.5819 1.6987
-4.5563 -9.7615 1.6987
-4.2088 -9.9285 1.6987
-3.8549 -10.0826 1.6987
-3.4953 -10.2234 1.6987
-3.1302 -10.3508 1.6987
-2.7604 -10.4645 1.6987
-2.3864 -10.5643 1.6987
-2.0086 -10.6501 1.6987
-1.6275 -10.7216 1.6987
-1.2439 -10.7788 1.6987
-0.8583 -10.8216 1.6987
-0.4710 -10.8499 1.6987
-0.0829 -10.8635 1.6987
0.3055 -10.8626 1.6987
0.6937 -10.8470 1.6987
1.0812 -10.8167 1.6987
1.4672 -10.7719 1.6987
1.8513 -10.7126 1.6987
2.2329 -10.6388 1.6987
2.4529 -9.9104 1.5956
2.8050 -9.8144 1.5956
3.1532 -9.7052 1.5956
3.4969 -9.5830 1.5956
3.8356 -9.4479 1.5956
4.1689 -9.3003 1.5956
4.4962 -9.1403 1.5956
4.8171 -8.9683 1.5956
5.1312 -8.7844 1.5956
5.4379 -8.5890 1.5956
5.7368 -8.3824 1.5956
6.0276 -8.1648 1.5956
6.3098 -7.9368 1.5956
6.9673 -8.1478 1.6887
7.1519 -7.7824 1.6667
7.3061 -7.4006 1.6416
7.4499 -7.0251 1.6183
7.5870 -6.6584 1.5973
7.7130 -6.2953 1.5773
7.8281 -5.9358 1.5585
7.9421 -5.5865 1.5425
8.0329 -5.2313 1.5249
8.1144 -4.8803 1.5084
8.1695 -4.5237 1.4899
8.1892 -4.1592 1.4676
8.1988 -3.8015 1.4463
8.2083 -3.4549 1.4275
8.2159 -3.1170 1.4108
8.2216 -2.7871 1.3961
8.2255 -2.4641 1.3832
8.2276 -2.1472 1.3721
8.2281 -1.8357 1.3627
8.2537 -1.5337 1.3594
8.2706 -1.2325 1.3565
8.2855 -0.9331 1.3550
8.2984 -0.6350 1.3550
8.3093 -0.3374 1.3564
8.3183 -0.0398 1.3593
8.3479 0.2589 1.3673
8.3516 0.5587 1.3728
8.3523 0.8599 1.3796
8.3509 1.1631 1.3880
8.3471 1.4689 1.3978
8.3411 1.7778 1.4091
8.3327 2.0904 1.4220
8.3694 2.4211 1.4448
8.3383 2.7392 1.4581
8.3037 3.0613 1.4729
8.2652 3.3880 1.4893
8.2228 3.7198 1.5074
8.1714 4.0550 1.5263
8.0562 4.3641 1.5356
7.9355 4.6739 1.5462
7.8087 4.9842 1.5579
7.6730 5.2936 1.5702
7.5282 5.6020 1.5832
7.3743 5.9093 1.5969
7.2109 6.2153 1.6112
7.0303 6.5128 1.6244
6.8335 6.8013 1.6366
6.4113 6.8554 1.5956
6.1530 7.0709 1.5956
5.8878 7.2770 1.5956
5.6160 7.4735 1.5956
5.3380 7.6603 1.5956
3.1620 4.9034 0.9983
3.0529 5.1287 1.0224
4.4696 8.1605 1.5956
4.1699 8.3066 1.5956
3.8657 8.4422 1.5956
3.5573 8.5672 1.5956
3.2451 8.6814 1.5956
2.9295 8.7847 1.5956
2.6107 8.8771 1.5956
2.4068 9.4184 1.6775
2.0924 9.6121 1.6987
1.7455 9.6751 1.6987
1.3969 9.7262 1.6987
-8.1356 1.8671 1.5954
-8.2096 1.5770 1.5954
-8.2734 1.2839 1.5954
-8.3270 0.9884 1.5954
-8.3701 0.6907 1.5954
-8.4027 0.3912 1.5954
-8.4247 0.0903 1.5954
-8.4361 -0.2118 1.5954
-8.4367 -0.5144 1.5954
-8.4265 -0.8174 1.5954
-8.4055 -1.1203 1.5954
-8.3737 -1.4228 1.5954
-8.3310 -1.7244 1.5954
-8.2774 -2.0247 1.5954
-8.2131 -2.3234 1.5954
-8.1379 -2.6201 1.5954
-8.0519 -2.9143 1.5954
-7.9553 -3.2057 1.5954
-7.8480 -3.4938 1.5954
-7.7303 -3.7783 1.5954
-7.6021 -4.0588 1.5954
-7.4636 -4.3349 1.5954
-7.3149 -4.6061 1.5954
-7.1563 -4.8722 1.5954
-6.9879 -5.1327 1.5954
-6.8098 -5.3872 1.5954
-6.6223 -5.6354 1.5954
-6.4255 -5.8768 1.5954
-6.2198 -6.1113 1.5954
-6.0054 -6.3383 1.5954
-5.7825 -6.5575 1.5955
-5.6577 -6.8985 1.6260
-5.6459 -7.4091 1.6956
-5.3935 -7.6291 1.6987
-5.1232 -7.8260 1.6987
-4.8455 -8.0130 1.6987
-4.5607 -8.1898 1.6987
-4.2694 -8.3561 1.6987
-3.9718 -8.5116 1.6987
-3.6683 -8.6560 1.6987
-3.3595 -8.7892 1.6987
-3.0456 -8.9109 1.6987
-2.7273 -9.0210 1.6987
-2.4048 -9.1191 1.6987
-2.0787 -9.2052 1.6987
-1.7494 -9.2792 1.6987
-1.4174 -9.3408 1.6987
-1.0832 -9.3900 1.6987
-0.7472 -9.4266 1.6987
-0.4099 -9.4508 1.6987
-0.0719 -9.4622 1.6987
0.2663 -9.4611 1.6987
0.6044 -9.4472 1.6987
0.9417 -9.4207 1.6987
1.2779 -9.3816 1.6987
1.6124 -9.3299 1.6987
1.9447 -9.2658 1.6987
2.2743 -9.1893 1.6987
2.4429 -8.5482 1.5956
2.7462 -8.4534 1.5956
3.0456 -8.3473 1.5956
3.3408 -8.2301 1.5956
3.6313 -8.1021 1.5956
3.9166 -7.9633 1.5956
4.1965 -7.8140 1.5956
4.4704 -7.6545 1.5956
4.7381 -7.4849 1.5956
4.9991 -7.3056 1.5956
5.2530 -7.1169 1.5956
5.4995 -6.9189 1.5956
5.7384 -6.7121 1.5956
5.9692 -6.4967 1.5956
6.1916 -6.2732 1.5956
6.7076 -6.3266 1.6708
6.8407 -6.0049 1.6512
6.9689 -5.6895 1.6338
7.0938 -5.3805 1.6188
7.2094 -5.0726 1.6046
7.3076 -4.7604 1.5895
7.3898 -4.4460 1.5738
7.4635 -4.1343 1.5590
7.5289 -3.8253 1.5451
7.6040 -3.5272 1.5358
7.6664 -3.2283 1.5262
7.6976 -2.9219 1.5128
7.7219 -2.6192 1.5004
7.7396 -2.3200 1.4890
7.7509 -2.0242 1.4785
7.7598 -1.7326 1.4697
7.7899 -1.4490 1.4669
7.8365 -1.1693 1.4691
7.8820 -0.8892 1.4731
7.9211 -0.6076 1.4778
7.9538 -0.3244 1.4831
7.9801 -0.0397 1.4892
7.9999 0.2466 1.4960
7.9916 0.5331 1.4995
7.9904 0.8211 1.5063
7.9819 1.1102 1.5137
7.9661 1.4002 1.5217
7.9428 1.6913 1.5304
7.9121 1.9833 1.5396
7.8737 2.2761 1.5495
7.8050 2.5624 1.5556
7.7273 2.8472 1.5619
7.6421 3.1309 1.5688
7.5494 3.4135 1.5764
7.4492 3.6950 1.5845
7.3413 3.9751 1.5933
7.2257 4.2540 1.6027
7.1023 4.5315 1.6127
6.9711 4.8076 1.6233
6.8319 5.0820 1.6346
6.6846 5.3548 1.6465
6.2792 5.4105 1.5956
6.0733 5.6245 1.5956
5.8602 5.8308 1.5956
5.6404 6.0293 1.5956
5.4141 6.2199 1.5956
5.1816 6.4022 1.5956
4.9431 6.5762 1.5956
4.6991 6.7416 1.5956
3.1592 4.8976 1.1329
3.0471 5.1175 1.1589
3.9363 7.1848 1.5956
3.6728 7.3143 1.5956
3.4053 7.4347 1.5956
3.1340 7.5456 1.5956
2.8593 7.6470 1.5956
2.5944 7.7776 1.6036
0.8960 3.0456 0.6214
0.7862 3.0758 0.6218
0.6755 3.1020 0.6221
0.5639 3.1242 0.6225
0.4515 3.1425 0.6228
-7.2470 1.6618 1.5954
-7.3117 1.4031 1.5954
-7.3674 1.1419 1.5954
-7.4138 0.8786 1.5954
-7.4509 0.6134 1.5954
-7.4787 0.3467 1.5954
-7.4971 0.0789 1.5954
-7.5059 -0.1898 1.5954
-7.5052 -0.4591 1.5954
-7.4948 -0.7285 1.5954
-7.4749 -0.9977 1.5954
-7.4452 -1.2665 1.5954
-7.4060 -1.5344 1.5954
-7.3571 -1.8011 1.5954
-7.2986 -2.0662 1.5954
-7.2305 -2.3294 1.5954
-7.1529 -2.5904 1.5954
-7.0658 -2.8488 1.5954
-6.9693 -3.1042 1.5954
-6.8636 -3.3563 1.5954
-6.7486 -3.6047 1.5954
-6.6246 -3.8492 1.5954
-6.4915 -4.0892 1.5954
-6.3497 -4.3247 1.5954
-6.1992 -4.5550 1.5954
-6.0403 -4.7801 1.5954
-5.8825 -5.0075 1.5980
-5.6977 -5.2128 1.5954
-5.6719 -5.5747 1.6410
-5.6680 -5.9840 1.6987
-5.4568 -6.1901 1.6987
-5.2379 -6.3884 1.6987
-5.0117 -6.5788 1.6987
-4.7784 -6.7610 1.6987
-4.5383 -6.9346 1.6987
-4.2918 -7.0994 1.6987
-4.0391 -7.2551 1.6987
-3.7806 -7.4016 1.6987
-3.5167 -7.5385 1.6987
-3.2477 -7.6656 1.6987
-2.9739 -7.7828 1.6987
-2.6959 -7.8898 1.6987
-2.4138 -7.9866 1.6987
-2.1282 -8.0728 1.6987
-1.8394 -8.1484 1.6987
-1.5479 -8.2133 1.6987
-1.2540 -8.2674 1.6987
-0.9582 -8.3104 1.6987
-0.6609 -8.3425 1.6987
-0.3625 -8.3635 1.6987
-0.0634 -8.3734 1.6987
0.2359 -8.3721 1.6987
0.5350 -8.3597 1.6987
0.8334 -8.3361 1.6987
1.1308 -8.3015 1.6987
1.4267 -8.2558 1.6987
1.7207 -8.1991 1.6987
2.0123 -8.1315 1.6987
2.3012 -8.0531 1.6987
2.4299 -7.4807 1.5956
2.6949 -7.3871 1.5956
2.9563 -7.2837 1.5956
3.2134 -7.1707 1.5956
3.4661 -7.0483 1.5956
3.7140 -6.9166 1.5956
3.9567 -6.7759 1.5956
4.1939 -6.6263 1.5956
4.4252 -6.4681 1.5956
4.6503 -6.3016 1.5956
4.8691 -6.1269 1.5956
5.0810 -5.9444 1.5956
5.2859 -5.7543 1.5956
5.4834 -5.5569 1.5956
5.6734 -5.3525 1.5956
5.8556 -5.1414 1.5956
6.0297 -4.9240 1.5956
6.1954 -4.7004 1.5956
6.3528 -4.4712 1.5956
6.6977 -4.3645 1.6438
6.7794 -4.0801 1.6288
6.8530 -3.7975 1.6147
6.9350 -3.5249 1.6052
7.0096 -3.2529 1.5965
7.0770 -2.9814 1.5885
7.1325 -2.7087 1.5802
7.1600 -2.4300 1.5681
7.1812 -2.1540 1.5569
7.1960 -1.8807 1.5467
7.2205 -1.6136 1.5406
7.2503 -1.3499 1.5378
7.2741 -1.0868 1.5358
7.2975 -0.8246 1.5357
7.3328 -0.5638 1.5401
7.3620 -0.3017 1.5452
7.3849 -0.0382 1.5510
7.4016 0.2267 1.5575
7.3896 0.4915 1.5600
7.3676 0.7557 1.5623
7.3392 1.0193 1.5653
7.3161 1.2845 1.5715
7.2923 1.5513 1.5796
7.2614 1.8187 1.5883
7.2233 2.0866 1.5976
7.1735 2.3535 1.6065
7.1007 2.6148 1.6125
7.0207 2.8748 1.6190
6.9337 3.1336 1.6260
6.8396 3.3910 1.6337
6.7383 3.6470 1.6419
6.4084 3.7714 1.5956
6.2609 3.9932 1.5956
6.1059 4.2093 1.5956
5.9436 4.4197 1.5956
5.7742 4.6239 1.5956
5.5979 4.8219 1.5956
5.4151 5.0133 1.5956
5.2258 5.1980 1.5956
5.0305 5.3757 1.5956
4.8293 5.5464 1.5956
4.6224 5.7097 1.5956
4.4103 5.8656 1.5956
4.1930 6.0139 1.5956
3.1564 4.8919 1.2683
3.0412 5.1062 1.2960
3.5136 6.4113 1.5956
3.2787 6.5276 1.5956
3.0402 6.6356 1.5956
2.7982 6.7352 1.5956
2.5532 6.8263 1.5956
0.8942 2.6800 0.6190
0.7976 2.7103 0.6193
0.6999 2.7371 0.6197
0.6013 2.7604 0.6200
0.5020 2.7802 0.6203
0.4020 2.7965 0.6206
-6.5271 1.4955 1.5954
-6.5846 1.2623 1.5954
-6.6339 1.0270 1.5954
-6.6748 0.7897 1.5954
-6.7073 0.5509 1.5954
-6.7314 0.3108 1.5954
-6.7470 0.0697 1.5954
-6.7540 -0.1721 1.5954
-6.7524 -0.4144 1.5954
-6.7422 -0.6567 1.5954
-6.7233 -0.8988 1.5954
-6.6957 -1.1404 1.5954
-6.6595 -1.3811 1.5954
-6.6145 -1.6207 1.5954
-6.5610 -1.8588 1.5954
-6.4989 -2.0951 1.5954
-6.4282 -2.3294 1.5954
-6.3491 -2.5612 1.5954
-6.2615 -2.7903 1.5954
-6.1656 -3.0164 1.5954
-6.0615 -3.2392 1.5954
-5.9493 -3.4583 1.5954
-5.8291 -3.6734 1.5954
-5.7010 -3.8843 1.5954
-5.6727 -4.1697 1.6263
-5.6685 -4.4874 1.6681
-5.6120 -4.7789 1.6987
-5.4438 -4.9821 1.6987
-5.2680 -5.1794 1.6987
-5.0850 -5.3702 1.6987
-4.8950 -5.5544 1.6987
-4.6981 -5.7318 1.6987
-4.4947 -5.9019 1.6987
-4.2850 -6.0646 1.6987
-4.0693 -6.2197 1.6987
-3.8478 -6.3668 1.6987
-3.6209 -6.5059 1.6987
-3.3889 -6.6366 1.6987
-3.1521 -6.7587 1.6987
-2.9107 -6.8721 1.6987
-2.6651 -6.9766 1.6987
-2.4157 -7.0720 1.6987
-2.1628 -7.1582 1.6987
-1.9067 -7.2351 1.6987
-1.6479 -7.3024 1.6987
-1.3866 -7.3601 1.6987
-1.1232 -7.4082 1.6987
-0.8582 -7.4465 1.6987
-0.5918 -7.4749 1.6987
-0.3245 -7.4935 1.6987
-0.0566 -7.5021 1.6987
0.2115 -7.5008 1.6987
0.4794 -7.4896 1.6987
0.7467 -7.4684 1.6987
1.0131 -7.4374 1.6987
1.2782 -7.3964 1.6987
1.5415 -7.3457 1.6987
1.8027 -7.2852 1.6987
2.0616 -7.2151 1.6987
2.3176 -7.1354 1.6987
2.4143 -6.6187 1.5956
2.6485 -6.5263 1.5956
2.8790 -6.4254 1.5956
3.1055 -6.3159 1.5956
3.3277 -6.1983 1.5956
3.5454 -6.0725 1.5956
3.7581 -5.9388 1.5956
3.9656 -5.7975 1.5956
4.1677 -5.6486 1.5956
4.3640 -5.4925 1.5956
4.5543 -5.3293 1.5956
4.7383 -5.1593 1.5956
4.9158 -4.9828 1.5956
5.0866 -4.8000 1.5956
5.2504 -4.6112 1.5956
5.4070 -4.4167 1.5956
5.5562 -4.2167 1.5956
5.6979 -4.0115 1.5956
5.8318 -3.8015 1.5956
5.9579 -3.5869 1.5956
6.0758 -3.3680 1.5956
6.1856 -3.1453 1.5956
6.2871 -2.9188 1.5956
6.3802 -2.6891 1.5956
6.6210 -2.5158 1.6342
6.6701 -2.2650 1.6272
6.6936 -2.0090 1.6163
6.7121 -1.7555 1.6065
6.7471 -1.5091 1.6029
6.7764 -1.2630 1.6001
6.7998 -1.0172 1.5981
6.8175 -0.7717 1.5968
6.8295 -0.5264 1.5962
6.8477 -0.2819 1.5992
6.8679 -0.0368 1.6047
6.8820 0.2095 1.6109
6.8727 0.4558 1.6136
6.8522 0.7014 1.6158
6.8255 0.9466 1.6186
6.7927 1.1913 1.6221
6.7538 1.4353 1.6262
6.7087 1.6788 1.6309
6.6673 1.9246 1.6387
6.6230 2.1715 1.6480
6.3246 2.3276 1.5956
6.2292 2.5493 1.5956
6.1261 2.7672 1.5956
6.0155 2.9810 1.5956
5.8975 3.1906 1.5956
5.7723 3.3956 1.5956
5.6401 3.5958 1.5956
5.5011 3.7910 1.5956
5.3556 3.9810 1.5956
5.2035 4.1655 1.5956
5.0453 4.3444 1.5956
4.8810 4.5174 1.5956
4.7110 4.6844 1.5956
4.5354 4.8452 1.5956
4.3544 4.9995 1.5956
4.1684 5.1473 1.5956
3.9775 5.2884 1.5956
3.7819 5.4226 1.5956
3.1536 4.8861 1.4048
3.0353 5.0949 1.4338
3.1699 5.7826 1.5956
2.9583 5.8880 1.5956
2.7433 5.9859 1.5956
2.5251 6.0762 1.5956
0.8910 2.3814 0.6170
0.8050 2.4118 0.6173
0.7180 2.4390 0.6177
0.6300 2.4631 0.6180
0.5413 2.4841 0.6183
0.4519 2.5019 0.6186
0.3619 2.5166 0.6188
-5.9316 1.3579 1.5954
-5.9832 1.1459 1.5954
-6.0273 0.9319 1.5954
-6.0639 0.7163 1.5954
-6.0928 0.4993 1.5954
-6.1140 0.2811 1.5954
-6.1274 0.0621 1.5954
-6.1331 -0.1575 1.5954
-6.1309 -0.3774 1.5954
-6.1209 -0.5974 1.5954
-6.1031 -0.8171 1.5954
-6.0773 -1.0363 1.5954
-6.0437 -1.2546 1.5954
-6.0023 -1.4719 1.5954
-5.9530 -1.6878 1.5954
-5.8959 -1.9020 1.5954
-5.8312 -2.1143 1.5954
-5.7587 -2.3243 1.5954
-5.6786 -2.5319 1.5954
-5.6718 -2.7761 1.6185
-5.6656 -3.0290 1.6447
-5.6660 -3.2950 1.6760
-5.6260 -3.5468 1.6987
-5.5017 -3.7500 1.6987
-5.3701 -3.9487 1.6987
-5.2311 -4.1427 1.6987
-5.0851 -4.3317 1.6987
-4.9321 -4.5154 1.6987
-4.7724 -4.6936 1.6987
-4.6062 -4.8660 1.6987
-4.4336 -5.0325 1.6987
-4.2549 -5.1926 1.6987
-4.0703 -5.3462 1.6987
-3.8801 -5.4931 1.6987
-3.6844 -5.6331 1.6987
-3.4836 -5.7658 1.6987
-3.2779 -5.8913 1.6987
-3.0677 -6.0091 1.6987
-2.8530 -6.1193 1.6987
-2.6344 -6.2215 1.6987
-2.4119 -6.3157 1.6987
-2.1861 -6.4017 1.6987
-1.9571 -6.4793 1.6987
-1.7252 -6.5485 1.6987
-1.4910 -6.6092 1.6987
-1.2545 -6.6611 1.6987
-1.0161 -6.7043 1.6987
-0.7763 -6.7387 1.6987
-0.5352 -6.7643 1.6987
-0.2933 -6.7809 1.6987
-0.0510 -6.7886 1.6987
0.1916 -6.7873 1.6987
0.4339 -6.7770 1.6987
0.6758 -6.7578 1.6987
0.9167 -6.7296 1.6987
1.1565 -6.6926 1.6987
1.3948 -6.6467 1.6987
1.6311 -6.5921 1.6987
1.8653 -6.5287 1.6987
2.0969 -6.4568 1.6987
2.3257 -6.3764 1.6987
2.3964 -5.9060 1.5956
2.6051 -5.8148 1.5956
2.8101 -5.7160 1.5956
3.0113 -5.6097 1.5956
3.2084 -5.4962 1.5956
3.4010 -5.3755 1.5956
3.5890 -5.2478 1.5956
3.7721 -5.1134 1.5956
3.9500 -4.9724 1.5956
4.1224 -4.8250 1.5956
4.2893 -4.6714 1.5956
4.4503 -4.5120 1.5956
4.6052 -4.3468 1.5956
4.7538 -4.1762 1.5956
4.8961 -4.0004 1.5956
5.0316 -3.8196 1.5956
5.1603 -3.6342 1.5956
5.2821 -3.4443 1.5956
5.3967 -3.2502 1.5956
5.5042 -3.0523 1.5956
5.6041 -2.8507 1.5956
5.6967 -2.6458 1.5956
5.7816 -2.4379 1.5956
5.8588 -2.2273 1.5956
5.9282 -2.0142 1.5956
5.9898 -1.7990 1.5956
6.0435 -1.5818 1.5956
6.0893 -1.3631 1.5956
6.1271 -1.1432 1.5956
6.1568 -0.9222 1.5956
6.1785 -0.7006 1.5956
6.1922 -0.4785 1.5956
6.1980 -0.2564 1.5956
6.1957 -0.0344 1.5956
6.1854 0.1871 1.5956
6.1673 0.4078 1.5956
6.1412 0.6275 1.5956
6.1074 0.8458 1.5956
6.0658 1.0626 1.5956
6.0165 1.2775 1.5956
5.9597 1.4902 1.5956
5.8954 1.7005 1.5956
5.8237 1.9082 1.5956
5.7448 2.1130 1.5956
5.6588 2.3146 1.5956
5.5657 2.5128 1.5956
5.4658 2.7074 1.5956
5.3592 2.8981 1.5956
5.2460 3.0847 1.5956
5.1264 3.2670 1.5956
5.0006 3.4448 1.5956
4.8688 3.6178 1.5956
4.7311 3.7860 1.5956
4.5876 3.9490 1.5956
4.4387 4.1067 1.5956
4.2845 4.2589 1.5956
4.1251 4.4055 1.5956
3.9609 4.5463 1.5956
3.7920 4.6811 1.5956
3.6186 4.8098 1.5956
3.4410 4.9323 1.5956
3.1507 4.8803 1.5425
3.0294 5.0835 1.5726
2.8848 5.2610 1.5956
2.6924 5.3572 1.5956
2.4969 5.4467 1.5956
0.8864 2.1323 0.6153
0.8093 2.1626 0.6157
0.7312 2.1901 0.6160
0.6522 2.2149 0.6163
0.5723 2.2368 0.6166
0.4917 2.2559 0.6169
0.4105 2.2720 0.6171
0.3288 2.2853 0.6173
-5.6563 1.2938 1.6618
-5.6568 1.0822 1.6478
-5.6595 0.8739 1.6366
-5.6622 0.6677 1.6277
-5.6644 0.4630 1.6208
-5.6661 0.2594 1.6158
-5.6673 0.0563 1.6127
-5.6680 -0.1467 1.6116
-5.6682 -0.3501 1.6124
-5.6680 -0.5543 1.6151
-5.6672 -0.7599 1.6198
-5.6659 -0.9673 1.6264
-5.6641 -1.1770 1.6351
-5.6620 -1.3896 1.6459
-5.6624 -1.6066 1.6599
-5.6629 -1.8281 1.6762
-5.6634 -2.0547 1.6952
-5.6041 -2.2632 1.6987
-5.5256 -2.4650 1.6987
-5.4399 -2.6639 1.6987
-5.3469 -2.8599 1.6987
-5.2468 -3.0525 1.6987
-5.1397 -3.2416 1.6987
-5.0258 -3.4269 1.6987
-4.9050 -3.6081 1.6987
-4.7777 -3.7849 1.6987
-4.6439 -3.9572 1.6987
-4.5038 -4.1247 1.6987
-4.3577 -4.2871 1.6987
-4.2055 -4.4442 1.6987
-4.0476 -4.5957 1.6987
-3.8842 -4.7416 1.6987
-3.7154 -4.8815 1.6987
-3.5414 -5.0152 1.6987
-3.3626 -5.1426 1.6987
-3.1791 -5.2634 1.6987
-2.9912 -5.3775 1.6987
-2.7991 -5.4847 1.6987
-2.6031 -5.5849 1.6987
-2.4034 -5.6779 1.6987
-2.2004 -5.7635 1.6987
-1.9943 -5.8417 1.6987
-1.7852 -5.9123 1.6987
-1.5737 -5.9751 1.6987
-1.3599 -6.0302 1.6987
-1.1441 -6.0774 1.6987
-0.9267 -6.1166 1.6987
-0.7079 -6.1478 1.6987
-0.4880 -6.1709 1.6987
-0.2674 -6.1860 1.6987
-0.0463 -6.1928 1.6987
0.1749 -6.1916 1.6987
0.3959 -6.1821 1.6987
0.6165 -6.1646 1.6987
0.8363 -6.1389 1.6987
1.0550 -6.1051 1.6987
1.2723 -6.0633 1.6987
1.4878 -6.0135 1.6987
1.7014 -5.9558 1.6987
1.9127 -5.8902 1.6987
2.1214 -5.8170 1.6987
2.3272 -5.7361 1.6987
2.3857 -5.3260 1.6019
2.5681 -5.2246 1.5985
2.7470 -5.1183 1.5956
2.9269 -5.0148 1.5956
3.1028 -4.9049 1.5956
3.2744 -4.7887 1.5956
3.4416 -4.6662 1.5956
3.6040 -4.5378 1.5956
3.7616 -4.4036 1.5956
3.9141 -4.2637 1.5956
4.0612 -4.1185 1.5956
4.2028 -3.9680 1.5956
4.3388 -3.8126 1.5956
4.4689 -3.6523 1.5956
4.5929 -3.4876 1.5956
4.7107 -3.3185 1.5956
4.8222 -3.1454 1.5956
4.9273 -2.9685 1.5956
5.0257 -2.7880 1.5956
5.1174 -2.6042 1.5956
5.2024 -2.4173 1.5956
5.2803 -2.2277 1.5956
5.3513 -2.0354 1.5956
5.4152 -1.8410 1.5956
5.4720 -1.6445 1.5956
5.5216 -1.4463 1.5956
5.5639 -1.2466 1.5956
5.5989 -1.0457 1.5956
5.6266 -0.8439 1.5956
5.6470 -0.6414 1.5956
5.6601 -0.4385 1.5956
5.6659 -0.2355 1.5956
5.6644 -0.0326 1.5956
5.6555 0.1699 1.5956
5.6395 0.3718 1.5956
5.6162 0.5727 1.5956
5.5858 0.7724 1.5956
5.5483 0.9708 1.5956
5.5038 1.1674 1.5956
5.4523 1.3622 1.5956
5.3940 1.5547 1.5956
5.3290 1.7449 1.5956
5.2573 1.9325 1.5956
5.1790 2.1172 1.5956
5.0943 2.2988 1.5956
5.0033 2.4771 1.5956
4.9062 2.6519 1.5956
4.8030 2.8230 1.5956
4.6939 2.9902 1.5956
4.5791 3.1532 1.5956
4.4588 3.3119 1.5956
4.3330 3.4662 1.5956
4.2020 3.6158 1.5956
4.0659 3.7605 1.5956
3.9250 3.9003 1.5956
3.7793 4.0349 1.5956
3.6291 4.1642 1.5956
3.4746 4.2880 1.5956
3.3159 4.4062 1.5956
3.1534 4.5188 1.5956
2.9871 4.6254 1.5956
2.8173 4.7262 1.5956
2.6442 4.8208 1.5956
2.4680 4.9093 1.5956
0.8807 1.9206 0.6140
0.8112 1.9508 0.6143
0.7407 1.9786 0.6146
0.6692 2.0038 0.6149
0.5969 2.0264 0.6152
0.5238 2.0465 0.6154
0.4500 2.0639 0.6157
0.3757 2.0787 0.6159
0.3009 2.0909 0.6161
-5.3259 1.2172 1.6987
-5.3713 1.0266 1.6987
-5.4100 0.8343 1.6987
-5.4419 0.6407 1.6987
-5.4669 0.4458 1.6987
-5.4850 0.2500 1.6987
-5.4961 0.0535 1.6987
-5.5002 -0.1435 1.6987
-5.4973 -0.3406 1.6987
-5.4873 -0.5378 1.6987
-5.4703 -0.7346 1.6987
-5.4462 -0.9309 1.6987
-5.4151 -1.1264 1.6987
-5.3770 -1.3209 1.6987
-5.3319 -1.5140 1.6987
-5.2798 -1.7056 1.6987
-5.2209 -1.8953 1.6987
-5.1551 -2.0831 1.6987
-5.0825 -2.2684 1.6987
-5.0032 -2.4513 1.6987
-4.9173 -2.6313 1.6987
-4.8248 -2.8082 1.6987
-4.7260 -2.9819 1.6987
-4.6208 -3.1520 1.6987
-4.5095 -3.3184 1.6987
-4.3921 -3.4807 1.6987
-4.2688 -3.6388 1.6987
-4.1397 -3.7925 1.6987
-4.0051 -3.9415 1.6987
-3.8649 -4.0856 1.6987
-3.7196 -4.2246 1.6987
-3.5691 -4.3583 1.6987
-3.4138 -4.4866 1.6987
-3.2538 -4.6092 1.6987
-3.0893 -4.7260 1.6987
-2.9206 -4.8367 1.6987
-2.7477 -4.9413 1.6987
-2.5712 -5.0395 1.6987
-2.3910 -5.1313 1.6987
-2.2075 -5.2165 1.6987
-2.0209 -5.2949 1.6987
-1.8315 -5.3664 1.6987
-1.6394 -5.4310 1.6987
-1.4451 -5.4886 1.6987
-1.2487 -5.5390 1.6987
-1.0505 -5.5821 1.6987
-0.8508 -5.6180 1.6987
-0.6499 -5.6465 1.6987
-0.4479 -5.6676 1.6987
-0.2453 -5.6813 1.6987
-0.0424 -5.6875 1.6987
0.1608 -5.6863 1.6987
0.3637 -5.6776 1.6987
0.5662 -5.6614 1.6987
0.7681 -5.6378 1.6987
0.9688 -5.6068 1.6987
1.1684 -5.5684 1.6987
1.3663 -5.5227 1.6987
1.5624 -5.4698 1.6987
1.7565 -5.4097 1.6987
1.9481 -5.3425 1.6987
2.1372 -5.2683 1.6987
2.3233 -5.1873 1.6987
2.3836 -4.8499 1.6156
2.5228 -4.7013 1.5956
2.6881 -4.6065 1.5956
2.8497 -4.5057 1.5956
3.0074 -4.3991 1.5956
3.1611 -4.2868 1.5956
3.3104 -4.1690 1.5956
3.4553 -4.0459 1.5956
3.5955 -3.9176 1.5956
3.7309 -3.7844 1.5956
3.8612 -3.6463 1.5956
3.9863 -3.5037 1.5956
4.1060 -3.3567 1.5956
4.2202 -3.2055 1.5956
4.3288 -3.0504 1.5956
4.4315 -2.8915 1.5956
4.5283 -2.7291 1.5956
4.6191 -2.5634 1.5956
4.7037 -2.3946 1.5956
4.7821 -2.2230 1.5956
4.8542 -2.0488 1.5956
4.9198 -1.8723 1.5956
4.9789 -1.6936 1.5956
5.0315 -1.5131 1.5956
5.0774 -1.3310 1.5956
5.1167 -1.1474 1.5956
5.1493 -0.9628 1.5956
5.1753 -0.7772 1.5956
5.1945 -0.5910 1.5956
5.2069 -0.4044 1.5956
5.2127 -0.2177 1.5956
5.2117 -0.0310 1.5956
5.2040 0.1553 1.5956
5.1897 0.3411 1.5956
5.1687 0.5260 1.5956
5.1411 0.7099 1.5956
5.1071 0.8925 1.5956
5.0665 1.0736 1.5956
5.0195 1.2530 1.5956
4.9663 1.4304 1.5956
4.9068 1.6056 1.5956
4.8412 1.7784 1.5956
4.7694 1.9487 1.5956
4.6918 2.1161 1.5956
4.6084 2.2805 1.5956
4.5193 2.4417 1.5956
4.4246 2.5995 1.5956
4.3245 2.7536 1.5956
4.2190 2.9041 1.5956
4.1084 3.0505 1.5956
3.9928 3.1929 1.5956
3.8724 3.3310 1.5956
3.7472 3.4646 1.5956
3.6175 3.5936 1.5956
3.4835 3.7179 1.5956
3.3453 3.8373 1.5956
3.2030 3.9517 1.5956
3.0570 4.0609 1.5956
2.9073 4.1649 1.5956
2.7541 4.2635 1.5956
2.5977 4.3566 1.5956
2.4382 4.4441 1.5956
0.8740 1.7380 0.6128
0.8110 1.7681 0.6131
0.7470 1.7960 0.6134
0.6821 1.8215 0.6136
0.6163 1.8447 0.6139
0.5497 1.8656 0.6142
0.4824 1.8840 0.6144
0.4144 1.9001 0.6146
0.3460 1.9137 0.6148
0.2772 1.9249 0.6150
-4.9316 1.1260 1.6987
-4.9734 0.9495 1.6987
-5.0088 0.7715 1.6987
-5.0380 0.5921 1.6987
-5.0608 0.4117 1.6987
-5.0772 0.2304 1.6987
-5.0871 0.0485 1.6987
-5.0905 -0.1338 1.6987
-5.0875 -0.3163 1.6987
-5.0779 -0.4987 1.6987
-5.0618 -0.6808 1.6987
-5.0391 -0.8624 1.6987
-5.0100 -1.0432 1.6987
-4.9744 -1.2230 1.6987
-4.9323 -1.4016 1.6987
-4.8838 -1.5788 1.6987
-4.8289 -1.7542 1.6987
-4.7677 -1.9276 1.6987
-4.7002 -2.0990 1.6987
-4.6266 -2.2679 1.6987
-4.5468 -2.4342 1.6987
-4.4610 -2.5976 1.6987
-4.3694 -2.7580 1.6987
-4.2718 -2.9151 1.6987
-4.1686 -3.0687 1.6987
-4.0598 -3.2186 1.6987
-3.9456 -3.3645 1.6987
-3.8260 -3.5063 1.6987
-3.7013 -3.6438 1.6987
-3.5717 -3.7768 1.6987
-3.4371 -3.9050 1.6987
-3.2979 -4.0284 1.6987
-3.1542 -4.1467 1.6987
-3.0062 -4.2597 1.6987
-2.8541 -4.3674 1.6987
-2.6980 -4.4695 1.6987
-2.5383 -4.5659 1.6987
-2.3750 -4.6564 1.6987
-2.2085 -4.7410 1.6987
-2.0389 -4.8195 1.6987
-1.8664 -4.8917 1.6987
-1.6914 -4.9576 1.6987
-1.5140 -5.0171 1.6987
-1.3345 -5.0701 1.6987
-1.1530 -5.1165 1.6987
-0.9700 -5.1562 1.6987
-0.7855 -5.1893 1.6987
-0.6000 -5.2155 1.6987
-0.4135 -5.2349 1.6987
-0.2264 -5.2474 1.6987
-0.0389 -5.2531 1.6987
0.1486 -5.2519 1.6987
0.3360 -5.2438 1.6987
0.5231 -5.2289 1.6987
0.7094 -5.2070 1.6987
0.8948 -5.1784 1.6987
1.0790 -5.1430 1.6987
1.2618 -5.1008 1.6987
1.4430 -5.0520 1.6987
1.6221 -4.9965 1.6987
1.7992 -4.9346 1.6987
1.9737 -4.8661 1.6987
2.1456 -4.7914 1.6987
2.3147 -4.7104 1.6987
2.3810 -4.4378 1.6305
2.4827 -4.2552 1.5956
2.6320 -4.1623 1.5956
2.7778 -4.0639 1.5956
2.9198 -3.9604 1.5956
3.0579 -3.8517 1.5956
3.1918 -3.7382 1.5956
3.3215 -3.6198 1.5956
3.4466 -3.4969 1.5956
3.5671 -3.3695 1.5956
3.6829 -3.2379 1.5956
3.7937 -3.1023 1.5956
3.8994 -2.9628 1.5956
4.0000 -2.8195 1.5956
4.0951 -2.6729 1.5956
4.1848 -2.5229 1.5956
4.2689 -2.3700 1.5956
4.3474 -2.2141 1.5956
4.4201 -2.0557 1.5956
4.4870 -1.8948 1.5956
4.5479 -1.7317 1.5956
4.6029 -1.5667 1.5956
4.6518 -1.3999 1.5956
4.6946 -1.2315 1.5956
4.7312 -1.0619 1.5956
4.7617 -0.8913 1.5956
4.7860 -0.7197 1.5956
4.8041 -0.5476 1.5956
4.8160 -0.3750 1.5956
4.8216 -0.2023 1.5956
4.8211 -0.0297 1.5956
4.8143 0.1427 1.5956
4.8014 0.3145 1.5956
4.7823 0.4857 1.5956
4.7572 0.6559 1.5956
4.7260 0.8249 1.5956
4.6888 0.9926 1.5956
4.6457 1.1586 1.5956
4.5967 1.3229 1.5956
4.5419 1.4852 1.5956
4.4815 1.6453 1.5956
4.4155 1.8030 1.5956
4.3439 1.9581 1.5956
4.2669 2.1105 1.5956
4.1847 2.2599 1.5956
4.0973 2.4061 1.5956
4.0048 2.5491 1.5956
3.9074 2.6885 1.5956
3.8052 2.8244 1.5956
3.6984 2.9564 1.5956
3.5870 3.0845 1.5956
3.4713 3.2084 1.5956
3.3514 3.3281 1.5956
3.2274 3.4435 1.5956
3.0995 3.5543 1.5956
2.9679 3.6604 1.5956
2.8327 3.7618 1.5956
2.6941 3.8584 1.5956
2.5523 3.9499 1.5956
2.4075 4.0363 1.5956
0.8663 1.5786 0.6117
0.8091 1.6085 0.6120
0.7508 1.6363 0.6123
0.6916 1.6621 0.6126
0.6315 1.6858 0.6128
0.5705 1.7072 0.6131
0.5089 1.7265 0.6133
0.4466 1.7436 0.6135
