ply
format ascii 1.0
element vertex 2169
property float32 x
property float32 y
property float32 z
end_header
5.4801 -4.2192 0.7840
5.9086 -4.2204 0.8245
6.3829 -4.2218 0.8705
6.8369 -4.1775 0.9130
6.8383 -3.8485 0.8958
5.6474 -2.9166 0.7270
5.4842 -2.5875 0.6949
5.4955 -2.3557 0.6866
5.4964 -2.1261 0.6781
5.4974 -1.9027 0.6707
5.3783 -1.6479 0.6499
5.4962 -1.4705 0.6588
5.5927 -1.2832 0.6658
5.6567 -1.0859 0.6698
6.0314 -0.9348 0.7113
6.3222 -0.7487 0.7436
6.3701 -0.5234 0.7482
6.1410 -0.2832 0.7213
6.1419 -0.0626 0.7223
6.3731 0.1638 0.7514
6.3741 0.3931 0.7544
6.3750 0.6235 0.7584
6.1071 0.8195 0.7312
6.1081 1.0440 0.7370
6.1090 1.2714 0.7439
6.1100 1.5023 0.7518
6.1245 4.8777 1.1390
6.1261 5.2494 1.1756
6.1278 5.6448 1.2159
6.1296 6.0676 1.2607
6.1316 6.5220 1.3104
6.1337 7.0127 1.3657
6.1360 7.5459 1.4277
6.1210 8.1057 1.4930
6.1153 8.7337 1.5693
5.8840 9.0811 1.5946
5.5474 9.2754 1.5946
5.2046 9.4579 1.5946
4.8562 9.6282 1.5946
4.5025 9.7863 1.5946
4.1440 9.9320 1.5946
3.7810 10.0652 1.5946
3.4140 10.1857 1.5946
3.0434 10.2935 1.5946
2.6696 10.3884 1.5946
2.3883 10.9050 1.6608
2.0382 11.2219 1.6979
1.6328 11.2816 1.6979
1.2258 11.3274 1.6979
0.8177 11.3592 1.6979
0.4088 11.3770 1.6979
-0.0002 11.3809 1.6979
-0.4090 11.3708 1.6979
-0.8172 11.3468 1.6979
-1.2242 11.3089 1.6979
-1.6297 11.2572 1.6979
-2.0332 11.1916 1.6979
-2.4342 11.1123 1.6979
-2.8323 11.0193 1.6979
-3.2272 10.9129 1.6979
-3.6182 10.7929 1.6979
-4.0051 10.6597 1.6979
-4.3873 10.5132 1.6979
-4.7644 10.3538 1.6979
-5.1362 10.1814 1.6979
-5.5020 9.9963 1.6979
-5.6648 9.4699 1.6409
-5.8573 9.0381 1.6004
-6.1616 8.7980 1.5948
-6.4792 8.5782 1.5948
-6.7893 8.3475 1.5948
-7.0916 8.1060 1.5948
-7.3858 7.8540 1.5948
-7.6714 7.5917 1.5948
-7.9482 7.3196 1.5948
-8.2157 7.0376 1.5948
-8.4736 6.7463 1.5948
-8.7217 6.4458 1.5948
-8.9595 6.1366 1.5948
-9.1868 5.8189 1.5948
-9.4033 5.4930 1.5948
-9.6086 5.1593 1.5948
-9.7153 3.1461 1.4815
-9.7047 1.6610 1.4185
-9.6846 1.3017 1.4052
-9.6824 0.9490 1.3965
-9.6833 0.5991 1.3901
-9.6843 0.2507 1.3854
-9.6855 -0.0971 1.3826
-9.6869 -0.4452 1.3816
-9.6796 -0.7938 1.3811
-9.6903 -1.1461 1.3849
-9.6922 -1.5008 1.3894
-9.6944 -1.8597 1.3957
-9.6978 -2.2239 1.4040
-9.7212 -2.5998 1.4173
-9.6043 -6.3519 1.5948
-9.3868 -6.7041 1.5948
-9.1562 -7.0488 1.5948
-8.9126 -7.3853 1.5948
-8.6564 -7.7131 1.5948
-6.2643 -5.9984 1.1910
-8.1073 -8.3408 1.5948
-7.8150 -8.6397 1.5948
-7.5115 -8.9279 1.5948
-7.1969 -9.2051 1.5948
-6.8719 -9.4707 1.5948
-6.5368 -9.7244 1.5948
-6.1920 -9.9658 1.5948
-5.8380 -10.1943 1.5948
-5.7517 -10.9351 1.6753
-5.4344 -11.2976 1.6979
-5.0312 -11.4979 1.6979
-4.6205 -11.6830 1.6979
-4.2026 -11.8527 1.6979
-3.7784 -12.0068 1.6979
-3.3483 -12.1449 1.6979
-2.9129 -12.2668 1.6979
-2.4729 -12.3722 1.6979
-2.0290 -12.4611 1.6979
-1.5818 -12.5331 1.6979
-1.1320 -12.5882 1.6979
-0.6802 -12.6263 1.6979
-0.2271 -12.6472 1.6979
0.2266 -12.6511 1.6979
0.6802 -12.6377 1.6979
1.1331 -12.6072 1.6979
1.5845 -12.5595 1.6979
2.0338 -12.4947 1.6979
2.3295 -11.6582 1.5946
2.7457 -11.5656 1.5946
3.1580 -11.4574 1.5946
3.5658 -11.3336 1.5946
3.9685 -11.1946 1.5946
4.3655 -11.0404 1.5946
4.7562 -10.8715 1.5946
5.1401 -10.6880 1.5946
5.3942 -10.2576 1.5593
4.2746 -7.4657 1.1583
2.7345 -4.4019 0.6982
5.0133 -7.4595 1.2120
4.2726 -5.8897 0.9821
4.4793 -5.7304 0.9826
4.8221 -5.7328 1.0131
5.1864 -5.7350 1.0468
4.2349 -4.3580 0.8236
4.3615 -4.1775 0.8195
4.7314 -4.2170 0.8611
5.0888 -4.2181 0.8992
5.4788 -4.2192 0.9421
5.9071 -4.2204 0.9904
6.3811 -4.2218 1.0453
6.8370 -4.1789 1.0964
6.8384 -3.8498 1.0754
5.6468 -2.9173 0.8724
5.4848 -2.5888 0.8338
5.4955 -2.3566 0.8234
5.4964 -2.1270 0.8130
5.4709 -1.8944 0.8000
5.3782 -1.6487 0.7787
5.4958 -1.4713 0.7889
5.5922 -1.2840 0.7971
5.6559 -1.0866 0.8016
6.0322 -0.9359 0.8511
6.3210 -0.7496 0.8892
6.3701 -0.5244 0.8946
6.1485 -0.2846 0.8631
6.1483 -0.0637 0.8638
6.3731 0.1628 0.8974
6.3741 0.3920 0.9006
6.3750 0.6224 0.9051
6.1071 0.8184 0.8723
6.1081 1.0429 0.8789
6.1090 1.2703 0.8868
6.1100 1.5012 0.8959
6.1245 4.8762 1.3196
6.1261 5.2478 1.3616
6.1278 5.6432 1.4080
6.1296 6.0660 1.4595
6.1316 6.5202 1.5168
6.1337 7.0109 1.5806
5.9230 7.2821 1.5946
5.6510 7.4814 1.5946
5.3725 7.6709 1.5946
5.0879 7.8504 1.5946
4.7976 8.0197 1.5946
4.5019 8.1788 1.5946
4.2011 8.3273 1.5946
3.8957 8.4652 1.5946
3.5859 8.5924 1.5946
3.2723 8.7087 1.5946
2.9550 8.8140 1.5946
2.6345 8.9082 1.5946
2.3816 9.2650 1.6432
2.1140 9.6499 1.6979
1.7649 9.7144 1.6979
1.4140 9.7668 1.6979
1.0617 9.8070 1.6979
0.7083 9.8351 1.6979
0.3543 9.8510 1.6979
0.0001 9.8548 1.6979
-0.3540 9.8464 1.6979
-0.7075 9.8258 1.6979
-1.0601 9.7931 1.6979
-1.4113 9.7483 1.6979
-1.7607 9.6915 1.6979
-2.1080 9.6227 1.6979
-2.4528 9.5420 1.6979
-2.7947 9.4495 1.6979
-3.1332 9.3453 1.6979
-3.4681 9.2295 1.6979
-3.7989 9.1022 1.6979
-4.1253 8.9635 1.6979
-4.4468 8.8136 1.6979
-4.7631 8.6527 1.6979
-5.0739 8.4809 1.6979
-5.3788 8.2984 1.6979
-5.6698 8.0944 1.6956
-5.6791 7.5176 1.6153
-5.8746 7.2216 1.5948
-6.1355 7.0117 1.5948
-6.3891 6.7928 1.5948
-6.6353 6.5650 1.5948
-6.8736 6.3286 1.5948
-7.1038 6.0838 1.5948
-7.3257 5.8310 1.5948
-7.5388 5.5703 1.5948
-7.7430 5.3020 1.5948
-7.9381 5.0265 1.5948
-8.1235 4.7440 1.5948
-8.2993 4.4548 1.5948
-8.4651 4.1593 1.5948
-8.6207 3.8578 1.5948
-8.7657 3.5506 1.5948
-8.9002 3.2381 1.5948
-9.0238 2.9206 1.5948
-9.1363 2.5985 1.5948
-9.2375 2.2721 1.5948
-9.3274 1.9420 1.5948
-9.4056 1.6083 1.5948
-9.4721 1.2715 1.5948
-9.5267 0.9321 1.5948
-9.5694 0.5904 1.5948
-9.6000 0.2469 1.5948
-9.6183 -0.0980 1.5948
-9.6243 -0.4439 1.5948
-9.6181 -0.7904 1.5948
-9.5994 -1.1370 1.5948
-9.5683 -1.4833 1.5948
-9.5247 -1.8288 1.5948
-9.4687 -2.1730 1.5948
-9.4002 -2.5156 1.5948
-9.3193 -2.8561 1.5948
-9.2260 -3.1939 1.5948
-9.1205 -3.5287 1.5948
-9.0026 -3.8600 1.5948
-8.8727 -4.1873 1.5948
-8.7307 -4.5101 1.5948
-8.5769 -4.8281 1.5948
-8.4114 -5.1408 1.5948
-8.2343 -5.4476 1.5948
-8.0458 -5.7482 1.5948
-7.8461 -6.0422 1.5948
-7.6356 -6.3290 1.5948
-7.4144 -6.6084 1.5948
-6.2538 -5.9901 1.3886
-6.9408 -7.1427 1.5948
-6.6892 -7.3970 1.5948
-6.4280 -7.6421 1.5948
-6.1575 -7.8777 1.5948
-5.8783 -8.1033 1.5948
-5.7429 -8.5455 1.6383
-5.6369 -9.0745 1.6979
-5.3137 -9.2809 1.6979
-4.9826 -9.4754 1.6979
-4.6443 -9.6575 1.6979
-4.2991 -9.8271 1.6979
-3.9475 -9.9839 1.6979
-3.5900 -10.1275 1.6979
-3.2271 -10.2578 1.6979
-2.8594 -10.3745 1.6979
-2.4873 -10.4774 1.6979
-2.1113 -10.5663 1.6979
-1.7321 -10.6412 1.6979
-1.3502 -10.7018 1.6979
-0.9661 -10.7481 1.6979
-0.5804 -10.7799 1.6979
-0.1936 -10.7972 1.6979
0.1937 -10.8000 1.6979
0.5808 -10.7882 1.6979
0.9673 -10.7619 1.6979
1.3526 -10.7211 1.6979
1.7361 -10.6658 1.6979
2.1173 -10.5962 1.6979
2.3437 -9.8730 1.5946
2.6957 -9.7809 1.5946
3.0439 -9.6757 1.5946
3.3878 -9.5575 1.5946
3.7269 -9.4265 1.5946
4.0607 -9.2829 1.5946
4.3888 -9.1269 1.5946
4.7106 -8.9589 1.5946
4.2836 -7.4825 1.3591
4.6316 -7.4570 1.3847
4.8515 -7.2199 1.3731
4.2802 -5.9011 1.1516
4.4784 -5.7302 1.1498
4.8214 -5.7329 1.1854
5.0599 -5.5963 1.1950
4.2793 -4.4045 0.9736
4.4007 -4.2160 0.9672
4.7302 -4.2169 1.0068
5.0876 -4.2180 1.0512
5.4774 -4.2192 1.1010
5.9056 -4.2204 1.1573
6.3794 -4.2218 1.2212
6.8372 -4.1802 1.2810
6.8386 -3.8511 1.2562
5.6461 -2.9180 1.0186
5.4854 -2.5900 0.9736
5.4955 -2.3576 0.9611
5.4964 -2.1279 0.9487
5.4974 -1.9045 0.9379
5.3780 -1.6496 0.9082
5.4954 -1.4721 0.9199
5.5918 -1.2849 0.9292
5.6551 -1.0874 0.9341
6.0330 -0.9370 0.9919
6.3197 -0.7505 1.0356
6.3701 -0.5255 1.0418
6.1410 -0.2853 1.0037
6.1419 -0.0647 1.0044
6.3731 0.1617 1.0443
6.3740 0.3909 1.0478
6.3750 0.6213 1.0527
6.1071 0.8174 1.0143
6.1081 1.0419 1.0217
6.1090 1.2692 1.0306
6.1100 1.5001 1.0409
6.1245 4.8747 1.5014
6.1261 5.2462 1.5489
6.1014 5.6173 1.5946
5.8888 5.8260 1.5946
5.6692 6.0269 1.5946
5.4430 6.2197 1.5946
5.2104 6.4044 1.5946
4.9718 6.5806 1.5946
4.7274 6.7482 1.5946
4.4776 6.9070 1.5946
4.2226 7.0569 1.5946
3.9628 7.1977 1.5946
3.6985 7.3293 1.5946
3.4300 7.4514 1.5946
3.1576 7.5641 1.5946
2.8817 7.6672 1.5946
2.6026 7.7607 1.5946
0.9007 3.0447 0.6190
0.7907 3.0751 0.6193
0.6797 3.1016 0.6196
0.5678 3.1240 0.6199
0.4551 3.1425 0.6202
0.3419 3.1570 0.6205
0.2282 3.1674 0.6207
0.1142 3.1738 0.6210
0.0001 3.1761 0.6212
-0.1141 3.1743 0.6213
-0.2281 3.1685 0.6215
-0.3419 3.1586 0.6216
-0.4553 3.1447 0.6217
-0.5681 3.1268 0.6218
-0.6802 3.1048 0.6218
-0.7915 3.0789 0.6219
-2.4622 8.3246 1.6979
-2.7604 8.2325 1.6979
-3.0553 8.1302 1.6979
-3.3466 8.0177 1.6979
-3.6340 7.8951 1.6979
-3.9171 7.7627 1.6979
-4.1955 7.6204 1.6979
-4.4690 7.4686 1.6979
-4.7371 7.3073 1.6979
-4.9997 7.1367 1.6979
-5.2564 6.9569 1.6979
-5.5069 6.7683 1.6979
-5.6767 6.4862 1.6760
-5.6861 6.0442 1.6123
-5.8404 5.7774 1.5948
-6.0496 5.5687 1.5948
-6.2514 5.3526 1.5948
-6.4459 5.1294 1.5948
-6.6326 4.8994 1.5948
-6.8113 4.6627 1.5948
-6.9819 4.4197 1.5948
-7.1440 4.1707 1.5948
-7.2975 3.9158 1.5948
-7.4421 3.6554 1.5948
-7.5777 3.3897 1.5948
-7.7040 3.1192 1.5948
-7.8208 2.8440 1.5948
-7.9281 2.5646 1.5948
-8.0255 2.2812 1.5948
-8.1130 1.9942 1.5948
-8.1904 1.7039 1.5948
-8.2576 1.4106 1.5948
-8.3145 1.1147 1.5948
-8.3609 0.8166 1.5948
-8.3967 0.5167 1.5948
-8.4218 0.2152 1.5948
-8.4363 -0.0874 1.5948
-8.4400 -0.3908 1.5948
-8.4328 -0.6945 1.5948
-8.4147 -0.9982 1.5948
-8.3858 -1.3015 1.5948
-8.3459 -1.6039 1.5948
-8.2951 -1.9052 1.5948
-8.2335 -2.2049 1.5948
-8.1610 -2.5026 1.5948
-8.0777 -2.7979 1.5948
-7.9837 -3.0904 1.5948
-7.8790 -3.3797 1.5948
-7.7638 -3.6655 1.5948
-7.6380 -3.9472 1.5948
-7.5020 -4.2246 1.5948
-7.3558 -4.4972 1.5948
-7.1996 -4.7647 1.5948
-7.0334 -5.0266 1.5948
-6.8577 -5.2826 1.5948
-6.6724 -5.5323 1.5948
-6.4779 -5.7754 1.5948
-6.2433 -5.9817 1.5869
-6.0621 -6.2402 1.5948
-5.8413 -6.4612 1.5948
-5.7373 -6.8228 1.6303
-5.7229 -7.3234 1.6979
-5.4625 -7.5320 1.6979
-5.1942 -7.7310 1.6979
-4.9187 -7.9202 1.6979
-4.6359 -8.0992 1.6979
-4.3466 -8.2678 1.6979
-4.0509 -8.4257 1.6979
-3.7493 -8.5726 1.6979
-3.4423 -8.7084 1.6979
-3.1302 -8.8327 1.6979
-2.8135 -8.9454 1.6979
-2.4927 -9.0463 1.6979
-2.1680 -9.1353 1.6979
-1.8402 -9.2121 1.6979
-1.5095 -9.2767 1.6979
-1.1766 -9.3290 1.6979
-0.8417 -9.3688 1.6979
-0.5055 -9.3961 1.6979
-0.1685 -9.4108 1.6979
0.1690 -9.4129 1.6979
0.5064 -9.4024 1.6979
0.8432 -9.3793 1.6979
1.1789 -9.3437 1.6979
1.5130 -9.2955 1.6979
1.8452 -9.2349 1.6979
2.1748 -9.1619 1.6979
2.3493 -8.5247 1.5946
2.6528 -8.4332 1.5946
2.9526 -8.3305 1.5946
3.2482 -8.2167 1.5946
3.5394 -8.0920 1.5946
3.8255 -7.9566 1.5946
4.1063 -7.8107 1.5946
4.2927 -7.4994 1.5624
4.6309 -7.4570 1.5880
4.6830 -6.9703 1.5201
4.2879 -5.9127 1.3231
4.4775 -5.7301 1.3182
4.8206 -5.7330 1.3589
4.9328 -5.4567 1.3355
4.2858 -4.4122 1.1178
4.3999 -4.2160 1.1084
4.7290 -4.2168 1.1535
5.0862 -4.2179 1.2041
5.4759 -4.2191 1.2611
5.9040 -4.2204 1.3253
6.3776 -4.2218 1.3983
6.8374 -4.1815 1.4669
6.8388 -3.8524 1.4383
5.6454 -2.9186 1.1659
5.4860 -2.5913 1.1145
5.4685 -2.3469 1.0945
5.4964 -2.1289 1.0855
5.4974 -1.9055 1.0729
5.3779 -1.6505 1.0387
5.4950 -1.4730 1.0519
5.5914 -1.2857 1.0623
5.6543 -1.0882 1.0676
5.9973 -0.9325 1.1269
6.3185 -0.7514 1.1831
6.3701 -0.5266 1.1902
6.1410 -0.2863 1.1464
6.1419 -0.0657 1.1470
6.3731 0.1606 1.1922
6.3740 0.3898 1.1960
6.3750 0.6202 1.2014
6.1071 0.8163 1.1574
6.1080 1.0408 1.1656
6.1090 1.2681 1.1754
6.1100 1.4990 1.1870
5.7968 4.6124 1.5946
5.6211 4.8123 1.5946
5.4387 5.0057 1.5946
5.2498 5.1924 1.5946
5.0547 5.3721 1.5946
4.8536 5.5447 1.5946
4.6467 5.7100 1.5946
4.4344 5.8678 1.5946
4.2169 6.0179 1.5946
3.9945 6.1601 1.5946
3.7674 6.2945 1.5946
3.5359 6.4206 1.5946
3.3004 6.5386 1.5946
3.0610 6.6482 1.5946
2.8182 6.7493 1.5946
2.5828 6.8702 1.6012
0.8986 2.6790 0.6168
0.8018 2.7095 0.6172
0.7038 2.7365 0.6175
0.6050 2.7601 0.6178
0.5054 2.7801 0.6181
0.4052 2.7965 0.6183
0.3044 2.8094 0.6186
0.2032 2.8186 0.6188
0.1018 2.8243 0.6190
0.0002 2.8263 0.6191
-0.1014 2.8247 0.6193
-0.2029 2.8195 0.6194
-0.3042 2.8107 0.6195
-0.4051 2.7982 0.6196
-0.5055 2.7822 0.6197
-0.6053 2.7626 0.6197
-0.7043 2.7395 0.6198
-0.8024 2.7128 0.6198
-2.4646 7.3496 1.6979
-2.7279 7.2580 1.6979
-2.9879 7.1573 1.6979
-3.2443 7.0476 1.6979
-3.4969 6.9291 1.6979
-3.7453 6.8018 1.6979
-3.9892 6.6658 1.6979
-4.2284 6.5214 1.6979
-4.4625 6.3687 1.6979
-4.6913 6.2079 1.6979
-4.9145 6.0391 1.6979
-5.1318 5.8625 1.6979
-5.3430 5.6783 1.6979
-5.5477 5.4867 1.6979
-5.6821 5.2293 1.6791
-5.6879 4.8690 1.6266
-5.7495 4.5741 1.5948
-5.9154 4.3685 1.5948
-6.0742 4.1570 1.5948
-6.2256 3.9398 1.5948
-6.3694 3.7173 1.5948
-6.5055 3.4896 1.5948
-6.6336 3.2571 1.5948
-6.7536 3.0199 1.5948
-6.8653 2.7784 1.5948
-6.9685 2.5329 1.5948
-7.0631 2.2836 1.5948
-7.1489 2.0308 1.5948
-7.2259 1.7749 1.5948
-7.2938 1.5161 1.5948
-7.3526 1.2547 1.5948
-7.4021 0.9911 1.5948
-7.4423 0.7256 1.5948
-7.4730 0.4585 1.5948
-7.4943 0.1902 1.5948
-7.5060 -0.0791 1.5948
-7.5081 -0.3489 1.5948
-7.5005 -0.6190 1.5948
-7.4833 -0.8890 1.5948
-7.4564 -1.1586 1.5948
-7.4198 -1.4273 1.5948
-7.3735 -1.6949 1.5948
-7.3176 -1.9610 1.5948
-7.2520 -2.2252 1.5948
-7.1768 -2.4872 1.5948
-7.0922 -2.7467 1.5948
-6.9981 -3.0033 1.5948
-6.8947 -3.2566 1.5948
-6.7820 -3.5063 1.5948
-6.6602 -3.7520 1.5948
-6.5294 -3.9934 1.5948
-6.3897 -4.2302 1.5948
-6.2414 -4.4620 1.5948
-6.0845 -4.6885 1.5948
-5.9193 -4.9094 1.5948
-5.7460 -5.1243 1.5948
-5.7289 -5.4904 1.6419
-5.7232 -5.8929 1.6979
-5.5140 -6.1008 1.6979
-5.2972 -6.3011 1.6979
-5.0729 -6.4934 1.6979
-4.8415 -6.6775 1.6979
-4.6033 -6.8531 1.6979
-4.3585 -7.0200 1.6979
-4.1076 -7.1779 1.6979
-3.8508 -7.3266 1.6979
-3.5885 -7.4657 1.6979
-3.3210 -7.5952 1.6979
-3.0488 -7.7148 1.6979
-2.7721 -7.8243 1.6979
-2.4914 -7.9235 1.6979
-2.2071 -8.0123 1.6979
-1.9196 -8.0905 1.6979
-1.6291 -8.1581 1.6979
-1.3363 -8.2148 1.6979
-1.0414 -8.2607 1.6979
-0.7450 -8.2956 1.6979
-0.4473 -8.3194 1.6979
-0.1489 -8.3322 1.6979
0.1498 -8.3338 1.6979
0.4484 -8.3244 1.6979
0.7466 -8.3039 1.6979
1.0437 -8.2722 1.6979
1.3395 -8.2296 1.6979
1.6335 -8.1760 1.6979
1.9253 -8.1114 1.6979
2.2144 -8.0361 1.6979
2.3485 -7.4667 1.5946
2.6140 -7.3760 1.5946
2.8758 -7.2755 1.5946
3.1337 -7.1654 1.5946
3.3872 -7.0458 1.5946
2.7337 -5.2005 1.1989
3.8797 -6.7790 1.5946
4.1181 -6.6322 1.5946
4.3507 -6.4767 1.5946
4.2957 -5.9244 1.4965
4.4768 -5.7302 1.4880
4.6916 -5.5807 1.4930
4.8243 -5.3377 1.4744
4.2924 -4.4199 1.2636
4.3992 -4.2163 1.2507
4.7278 -4.2167 1.3014
5.0849 -4.2178 1.3583
5.4744 -4.2190 1.4223
5.9023 -4.2203 1.4946
6.3756 -4.2217 1.5767
9.1833 -5.6179 2.2220
9.3632 -5.2762 2.2206
5.6448 -2.9193 1.3145
5.4867 -2.5925 1.2566
5.4954 -2.3595 1.2398
5.4964 -2.1298 1.2234
5.4974 -1.9064 1.2090
5.3777 -1.6514 1.1703
5.4945 -1.4738 1.1849
5.5909 -1.2866 1.1964
5.6535 -1.0890 1.2022
6.0345 -0.9393 1.2768
6.3172 -0.7523 1.3317
6.3701 -0.5277 1.3398
6.1683 -0.2887 1.2960
6.1693 -0.0671 1.2965
6.3730 0.1595 1.3415
6.3740 0.3887 1.3455
6.3750 0.6191 1.3513
6.1071 0.8152 1.3016
6.1080 1.0397 1.3107
6.1090 1.2670 1.3215
6.1100 1.4978 1.3343
5.2229 4.1545 1.5946
5.0651 4.3351 1.5946
4.9013 4.5098 1.5946
4.7315 4.6785 1.5946
4.5561 4.8409 1.5946
4.3753 4.9969 1.5946
4.1892 5.1464 1.5946
3.9981 5.2891 1.5946
3.8023 5.4249 1.5946
3.6021 5.5536 1.5946
3.3976 5.6752 1.5946
3.1891 5.7894 1.5946
2.9769 5.8962 1.5946
2.7612 5.9955 1.5946
2.5423 6.0870 1.5946
0.8951 2.3804 0.6151
0.8089 2.4109 0.6154
0.7217 2.4384 0.6157
0.6336 2.4627 0.6160
0.5446 2.4839 0.6163
0.4550 2.5019 0.6165
0.3648 2.5167 0.6168
0.2740 2.5282 0.6170
0.1830 2.5365 0.6172
0.0917 2.5416 0.6173
0.0002 2.5434 0.6175
-0.0912 2.5420 0.6176
-0.1826 2.5372 0.6178
-0.2737 2.5293 0.6179
-0.3645 2.5181 0.6179
-0.4549 2.5036 0.6180
-0.5447 2.4859 0.6180
-0.6338 2.4651 0.6181
-0.7221 2.4410 0.6181
-0.8095 2.4139 0.6181
-2.4615 6.5485 1.6979
-2.6961 6.4575 1.6979
-2.9274 6.3583 1.6979
-3.1552 6.2511 1.6979
-3.3792 6.1360 1.6979
-3.5991 6.0131 1.6979
-3.8147 5.8825 1.6979
-4.0258 5.7445 1.6979
-4.2319 5.5990 1.6979
-4.4330 5.4464 1.6979
-4.6287 5.2868 1.6979
-4.8189 5.1203 1.6979
-5.0033 4.9472 1.6979
-5.1815 4.7676 1.6979
-5.3536 4.5817 1.6979
-5.5191 4.3898 1.6979
-5.6779 4.1920 1.6979
-5.6879 3.8915 1.6566
-5.6952 3.6031 1.6185
-5.7409 3.3494 1.5948
-5.8827 3.1545 1.6002
-5.9779 2.9340 1.5948
-6.0854 2.7201 1.5948
-6.1854 2.5022 1.5948
-6.2777 2.2807 1.5948
-6.3623 2.0559 1.5948
-6.4389 1.8280 1.5948
-6.5074 1.5973 1.5948
-6.5678 1.3641 1.5948
-6.6200 1.1286 1.5948
-6.6638 0.8911 1.5948
-6.6992 0.6520 1.5948
-6.7260 0.4115 1.5948
-6.7444 0.1700 1.5948
-6.7540 -0.0723 1.5948
-6.7551 -0.3151 1.5948
-6.7475 -0.5581 1.5948
-6.7311 -0.8009 1.5948
-6.7060 -1.0432 1.5948
-6.6723 -1.2847 1.5948
-6.6298 -1.5252 1.5948
-6.5786 -1.7642 1.5948
-6.5189 -2.0015 1.5948
-6.4505 -2.2368 1.5948
-6.3736 -2.4697 1.5948
-6.2882 -2.6999 1.5948
-6.1945 -2.9271 1.5948
-6.0926 -3.1511 1.5948
-5.9824 -3.3715 1.5948
-5.8642 -3.5879 1.5948
-5.7381 -3.8001 1.5948
-5.7258 -4.0948 1.6294
-5.7236 -4.4118 1.6710
-5.6573 -4.6935 1.6979
-5.4910 -4.8984 1.6979
-5.3172 -5.0973 1.6979
-5.1360 -5.2898 1.6979
-4.9478 -5.4758 1.6979
-4.7527 -5.6549 1.6979
-4.5511 -5.8269 1.6979
-4.3430 -5.9916 1.6979
-4.1290 -6.1486 1.6979
-3.9090 -6.2977 1.6979
-3.6837 -6.4388 1.6979
-3.4531 -6.5716 1.6979
-3.2176 -6.6958 1.6979
-2.9775 -6.8114 1.6979
-2.7333 -6.9182 1.6979
-2.4851 -7.0159 1.6979
-2.2333 -7.1044 1.6979
-1.9783 -7.1836 1.6979
-1.7204 -7.2533 1.6979
-1.4600 -7.3135 1.6979
-1.1975 -7.3641 1.6979
-0.9332 -7.4049 1.6979
-0.6674 -7.4359 1.6979
-0.4007 -7.4571 1.6979
-0.1333 -7.4683 1.6979
0.1345 -7.4697 1.6979
0.4021 -7.4611 1.6979
0.6692 -7.4426 1.6979
0.9355 -7.4142 1.6979
1.2006 -7.3760 1.6979
1.4640 -7.3280 1.6979
1.7255 -7.2702 1.6979
1.9847 -7.2028 1.6979
2.2411 -7.1259 1.6979
2.3428 -6.6114 1.5946
2.5775 -6.5216 1.5946
2.8087 -6.4231 1.5946
3.0360 -6.3162 1.5946
3.2591 -6.2009 1.5946
3.4778 -6.0776 1.5946
2.7525 -4.4336 1.1890
3.9003 -5.8072 1.5946
4.1037 -5.6606 1.5946
4.3014 -5.5067 1.5946
4.4932 -5.3457 1.5946
4.6788 -5.1778 1.5946
4.2992 -4.4277 1.4112
4.3984 -4.2165 1.3943
4.7266 -4.2166 1.4505
5.0835 -4.2177 1.5139
5.4729 -4.2188 1.5851
5.6497 -4.0407 1.5946
5.7857 -3.8322 1.5946
5.9140 -3.6190 1.5946
6.0342 -3.4014 1.5946
5.6441 -2.9199 1.4644
5.4873 -2.5938 1.4000
5.4954 -2.3604 1.3810
5.4964 -2.1308 1.3626
5.4974 -1.9074 1.3464
5.3776 -1.6522 1.3031
5.4941 -1.4746 1.3192
5.5905 -1.2874 1.3318
5.6527 -1.0899 1.3380
5.9372 -0.9252 1.3982
6.0808 -0.7252 1.4266
6.3701 -0.5288 1.4908
6.1683 -0.2897 1.4419
6.1693 -0.0682 1.4423
6.3730 0.1584 1.4921
6.3740 0.3876 1.4964
6.3750 0.6179 1.5027
6.1071 0.8141 1.4472
6.1080 1.0386 1.4571
6.1090 1.2659 1.4690
6.1100 1.4967 1.4830
4.7479 3.7754 1.5946
4.6049 3.9399 1.5946
4.4563 4.0991 1.5946
4.3023 4.2528 1.5946
4.1432 4.4009 1.5946
3.9790 4.5431 1.5946
3.8101 4.6794 1.5946
3.6366 4.8095 1.5946
3.4587 4.9334 1.5946
3.2768 5.0508 1.5946
3.0910 5.1617 1.5946
2.9015 5.2660 1.5946
2.7086 5.3635 1.5946
2.5125 5.4541 1.5946
0.8903 2.1311 0.6137
0.8131 2.1617 0.6140
0.7348 2.1894 0.6143
0.6556 2.2143 0.6145
0.5755 2.2365 0.6148
0.4947 2.2557 0.6150
0.4133 2.2720 0.6153
0.3314 2.2854 0.6155
0.2490 2.2959 0.6157
0.1662 2.3035 0.6158
0.0833 2.3081 0.6160
0.0003 2.3097 0.6161
-0.0828 2.3083 0.6163
-0.1658 2.3041 0.6164
-0.2486 2.2968 0.6165
-0.3310 2.2866 0.6165
-0.4131 2.2734 0.6166
-0.4946 2.2574 0.6166
-0.5756 2.2384 0.6167
-0.6558 2.2165 0.6167
-0.7351 2.1918 0.6166
-0.8136 2.1643 0.6166
-0.8911 2.1340 0.6166
-2.6643 5.7861 1.6979
-2.8715 5.6884 1.6979
-3.0753 5.5834 1.6979
-3.2754 5.4714 1.6979
-3.4715 5.3523 1.6979
-3.6633 5.2265 1.6979
-3.8508 5.0939 1.6979
-4.0336 4.9548 1.6979
-4.2115 4.8093 1.6979
-4.3843 4.6575 1.6979
-4.5517 4.4998 1.6979
-4.7137 4.3361 1.6979
-4.8698 4.1667 1.6979
-5.0201 3.9919 1.6979
-5.1642 3.8117 1.6979
-5.3019 3.6265 1.6979
-5.4332 3.4363 1.6979
-5.5578 3.2416 1.6979
-5.6755 3.0423 1.6979
-5.6926 2.7930 1.6704
-5.6944 2.5443 1.6416
-5.7011 2.3053 1.6171
-5.7072 2.0724 1.5951
-5.7824 1.8675 1.5948
-5.8515 1.6602 1.5948
-5.9132 1.4504 1.5948
-5.9675 1.2384 1.5948
-6.0144 1.0243 1.5948
-6.0536 0.8085 1.5948
-6.0851 0.5912 1.5948
-6.1089 0.3727 1.5948
-6.1249 0.1533 1.5948
-6.1331 -0.0668 1.5948
-6.1334 -0.2872 1.5948
-6.1258 -0.5077 1.5948
-6.1103 -0.7281 1.5948
-6.0869 -0.9480 1.5948
-6.0556 -1.1671 1.5948
-6.0164 -1.3852 1.5948
-5.9694 -1.6019 1.5948
-5.9146 -1.8171 1.5948
-5.8519 -2.0303 1.5948
-5.7816 -2.2414 1.5948
-5.7254 -2.4594 1.6009
-5.7211 -2.7046 1.6241
-5.7174 -2.9583 1.6503
-5.7185 -3.2240 1.6812
-5.6605 -3.4645 1.6979
-5.5382 -3.6690 1.6979
-5.4085 -3.8691 1.6979
-5.2714 -4.0645 1.6979
-5.1272 -4.2550 1.6979
-4.9760 -4.4403 1.6979
-4.8180 -4.6201 1.6979
-4.6535 -4.7942 1.6979
-4.4826 -4.9623 1.6979
-4.3055 -5.1242 1.6979
-4.1224 -5.2796 1.6979
-3.9337 -5.4283 1.6979
-3.7395 -5.5701 1.6979
-3.5401 -5.7047 1.6979
-3.3357 -5.8321 1.6979
-3.1267 -5.9519 1.6979
-2.9133 -6.0641 1.6979
-2.6957 -6.1684 1.6979
-2.4744 -6.2646 1.6979
-2.2496 -6.3528 1.6979
-2.0216 -6.4326 1.6979
-1.7906 -6.5040 1.6979
-1.5571 -6.5668 1.6979
-1.3214 -6.6211 1.6979
-1.0837 -6.6666 1.6979
-0.8444 -6.7033 1.6979
-0.6039 -6.7312 1.6979
-0.3625 -6.7502 1.6979
-0.1204 -6.7602 1.6979
0.1219 -6.7613 1.6979
0.3641 -6.7535 1.6979
0.6058 -6.7367 1.6979
0.8468 -6.7110 1.6979
1.0867 -6.6764 1.6979
1.3251 -6.6329 1.6979
1.5618 -6.5807 1.6979
1.7963 -6.5198 1.6979
2.0284 -6.4503 1.6979
2.2578 -6.3722 1.6979
2.3330 -5.9035 1.5946
2.5423 -5.8145 1.5946
2.7481 -5.7180 1.5946
2.9502 -5.6138 1.5946
3.1482 -5.5024 1.5946
3.3419 -5.3838 1.5946
3.5310 -5.2581 1.5946
3.7153 -5.1257 1.5946
3.8944 -4.9866 1.5946
4.0683 -4.8411 1.5946
4.2366 -4.6893 1.5946
4.3060 -4.4357 1.5609
4.3977 -4.2167 1.5394
4.7060 -4.1991 1.5946
4.8499 -4.0248 1.5946
4.9873 -3.8455 1.5946
5.1178 -3.6614 1.5946
5.2415 -3.4727 1.5946
5.3581 -3.2798 1.5946
5.4675 -3.0829 1.5946
5.5695 -2.8824 1.5946
5.4880 -2.5951 1.5451
5.3562 -2.3016 1.4852
5.3195 -2.0631 1.4549
5.3445 -1.8553 1.4440
5.3774 -1.6531 1.4374
5.4937 -1.4754 1.4548
5.5901 -1.2883 1.4687
5.6519 -1.0907 1.4752
5.8976 -0.9200 1.5313
6.1652 -0.7364 1.5946
6.1810 -0.5142 1.5946
6.1683 -0.2908 1.5894
6.1693 -0.0692 1.5897
6.1803 0.1525 1.5946
6.1641 0.3737 1.5946
6.1400 0.5941 1.5946
6.1071 0.8130 1.5944
6.0682 1.0307 1.5946
6.0207 1.2465 1.5946
5.9655 1.4602 1.5946
4.3478 3.4562 1.5946
4.2172 3.6071 1.5946
4.0814 3.7532 1.5946
3.9407 3.8942 1.5946
3.7951 4.0301 1.5946
3.6450 4.1606 1.5946
3.4905 4.2857 1.5946
3.3318 4.4052 1.5946
3.1690 4.5190 1.5946
3.0025 4.6268 1.5946
2.8324 4.7287 1.5946
2.6589 4.8245 1.5946
2.4823 4.9141 1.5946
0.8844 1.9194 0.6125
0.8148 1.9498 0.6128
0.7441 1.9778 0.6130
0.6725 2.0032 0.6133
0.6000 2.0260 0.6135
0.5267 2.0462 0.6138
0.4528 2.0638 0.6140
0.3783 2.0787 0.6142
0.3033 2.0910 0.6144
0.2279 2.1006 0.6146
0.1522 2.1075 0.6147
0.0763 2.1117 0.6149
0.0003 2.1131 0.6150
-0.0757 2.1119 0.6151
-0.1516 2.1080 0.6152
-0.2274 2.1013 0.6153
-0.3028 2.0919 0.6154
-0.3779 2.0799 0.6154
-0.4525 2.0652 0.6155
-0.5266 2.0478 0.6155
-0.6000 2.0278 0.6155
-0.6726 2.0051 0.6155
-0.7444 1.9799 0.6154
-0.8152 1.9522 0.6154
-0.8851 1.9219 0.6153
-2.6321 5.2134 1.6979
-2.8188 5.1170 1.6979
-3.0021 5.0142 1.6979
-3.1818 4.9049 1.6979
-3.3575 4.7894 1.6979
-3.5292 4.6677 1.6979
-3.6966 4.5400 1.6979
-3.8594 4.4064 1.6979
-4.0176 4.2672 1.6979
-4.1709 4.1224 1.6979
-4.3190 3.9722 1.6979
-4.4619 3.8168 1.6979
-4.5993 3.6563 1.6979
-4.7310 3.4911 1.6979
-4.8570 3.3212 1.6979
-4.9769 3.1468 1.6979
-5.0907 2.9682 1.6979
-5.1982 2.7855 1.6979
-5.2993 2.5990 1.6979
-5.3937 2.4089 1.6979
-5.4815 2.2155 1.6979
-5.5624 2.0189 1.6979
-5.6364 1.8193 1.6979
-5.6977 1.6156 1.6962
-5.6986 1.3968 1.6789
-5.6995 1.1817 1.6640
-5.7004 0.9698 1.6515
-5.7021 0.7606 1.6414
-5.7048 0.5533 1.6338
-5.7070 0.3472 1.6282
-5.7087 0.1419 1.6246
-5.7099 -0.0632 1.6229
-5.7108 -0.2684 1.6232
-5.7111 -0.4744 1.6254
-5.7110 -0.6815 1.6297
-5.7105 -0.8904 1.6359
-5.7095 -1.1014 1.6442
-5.7103 -1.3158 1.6553
-5.7112 -1.5337 1.6688
-5.7122 -1.7560 1.6847
-5.6954 -1.9772 1.6979
-5.6265 -2.1824 1.6979
-5.5501 -2.3852 1.6979
-5.4663 -2.5853 1.6979
-5.3753 -2.7824 1.6979
-5.2772 -2.9763 1.6979
-5.1720 -3.1667 1.6979
-5.0598 -3.3532 1.6979
-4.9408 -3.5358 1.6979
-4.8153 -3.7140 1.6979
-4.6832 -3.8878 1.6979
-4.5448 -4.0567 1.6979
-4.4002 -4.2206 1.6979
-4.2495 -4.3793 1.6979
-4.0932 -4.5325 1.6979
-3.9311 -4.6799 1.6979
-3.7638 -4.8215 1.6979
-3.5912 -4.9570 1.6979
-3.4137 -5.0861 1.6979
-3.2314 -5.2087 1.6979
-3.0447 -5.3247 1.6979
-2.8538 -5.4338 1.6979
-2.6588 -5.5358 1.6979
-2.4601 -5.6308 1.6979
-2.2581 -5.7183 1.6979
-2.0528 -5.7985 1.6979
-1.8446 -5.8711 1.6979
-1.6338 -5.9360 1.6979
-1.4207 -5.9931 1.6979
-1.2055 -6.0424 1.6979
-0.9886 -6.0838 1.6979
-0.7703 -6.1171 1.6979
-0.5508 -6.1424 1.6979
-0.3305 -6.1596 1.6979
-0.1097 -6.1687 1.6979
0.1113 -6.1696 1.6979
0.3323 -6.1624 1.6979
0.5529 -6.1470 1.6979
0.7727 -6.1235 1.6979
0.9916 -6.0920 1.6979
1.2091 -6.0523 1.6979
1.4250 -6.0048 1.6979
1.6390 -5.9492 1.6979
1.8507 -5.8859 1.6979
2.0600 -5.8148 1.6979
2.2665 -5.7360 1.6979
2.3295 -5.3287 1.6014
2.5287 -5.2623 1.6081
2.6920 -5.1233 1.5946
2.8727 -5.0218 1.5946
3.0496 -4.9137 1.5946
3.2223 -4.7992 1.5946
3.3906 -4.6786 1.5946
3.5543 -4.5518 1.5946
3.7131 -4.4192 1.5946
3.8669 -4.2810 1.5946
4.0154 -4.1372 1.5946
4.1585 -3.9882 1.5946
4.2960 -3.8342 1.5946
4.4276 -3.6753 1.5946
4.5533 -3.5118 1.5946
4.6728 -3.3439 1.5946
4.7860 -3.1719 1.5946
4.8929 -2.9959 1.5946
4.9931 -2.8164 1.5946
5.0866 -2.6334 1.5946
5.1734 -2.4473 1.5946
5.2533 -2.2583 1.5946
5.3261 -2.0667 1.5946
5.3919 -1.8727 1.5946
5.4273 -1.6694 1.5878
5.4932 -1.4763 1.5921
5.5463 -1.2792 1.5946
5.5833 -1.0784 1.5946
5.6129 -0.8766 1.5946
5.6352 -0.6741 1.5946
5.6501 -0.4710 1.5946
5.6577 -0.2677 1.5946
5.6580 -0.0645 1.5946
5.6510 0.1384 1.5946
5.6367 0.3408 1.5946
5.6151 0.5423 1.5946
5.5863 0.7427 1.5946
5.5504 0.9417 1.5946
5.5075 1.1392 1.5946
5.4575 1.3348 1.5946
4.0060 3.1835 1.5946
3.8859 3.3227 1.5946
3.7610 3.4575 1.5946
3.6315 3.5876 1.5946
3.4976 3.7131 1.5946
3.3595 3.8336 1.5946
3.2172 3.9491 1.5946
3.0711 4.0594 1.5946
2.9212 4.1645 1.5946
2.7679 4.2641 1.5946
2.6112 4.3583 1.5946
2.4514 4.4468 1.5946
0.8775 1.7367 0.6114
0.8144 1.7670 0.6117
0.7503 1.7951 0.6120
0.6852 1.8208 0.6122
0.6193 1.8442 0.6125
0.5525 1.8652 0.6127
0.4851 1.8838 0.6129
0.4170 1.9000 0.6131
0.3484 1.9138 0.6133
0.2793 1.9251 0.6135
0.2099 1.9339 0.6136
0.1402 1.9402 0.6138
0.0703 1.9441 0.6139
0.0003 1.9454 0.6140
-0.0697 1.9443 0.6141
-0.1396 1.9406 0.6142
-0.2093 1.9345 0.6143
-0.2788 1.9258 0.6144
-0.3479 1.9147 0.6144
-0.4166 1.9012 0.6145
-0.4848 1.8852 0.6145
-0.5524 1.8667 0.6145
-0.6193 1.8458 0.6145
-0.6853 1.8226 0.6144
-0.7506 1.7970 0.6144
-0.8149 1.7691 0.6143
-0.8781 1.7390 0.6143
-2.5993 4.7177 1.6979
-2.7682 4.6228 1.6979
-2.9338 4.5219 1.6979
-3.0958 4.4152 1.6979
-3.2539 4.3028 1.6979
-3.4082 4.1850 1.6979
-3.5582 4.0617 1.6979
-3.7039 3.9331 1.6979
-3.8450 3.7994 1.6979
-3.9814 3.6608 1.6979
-4.1129 3.5174 1.6979
-4.2394 3.3694 1.6979
-4.3606 3.2169 1.6979
-4.4764 3.0601 1.6979
-4.5867 2.8992 1.6979
-4.6913 2.7344 1.6979
-4.7901 2.5659 1.6979
-4.8830 2.3940 1.6979
-4.9697 2.2186 1.6979
-5.0503 2.0403 1.6979
-5.1245 1.8590 1.6979
-5.1923 1.6751 1.6979
-5.2536 1.4887 1.6979
-5.3083 1.3002 1.6979
-5.3563 1.1096 1.6979
-5.3974 0.9173 1.6979
-5.4318 0.7235 1.6979
-5.4593 0.5285 1.6979
-5.4798 0.3324 1.6979
-5.4932 0.1356 1.6979
-5.4997 -0.0618 1.6979
-5.4991 -0.2595 1.6979
-5.4914 -0.4571 1.6979
-5.4767 -0.6546 1.6979
-5.4548 -0.8515 1.6979
-5.4258 -1.0478 1.6979
-5.3899 -1.2430 1.6979
-5.3469 -1.4369 1.6979
-5.2969 -1.6294 1.6979
-5.2399 -1.8201 1.6979
-5.1760 -2.0088 1.6979
-5.1054 -2.1952 1.6979
-5.0280 -2.3791 1.6979
-4.9439 -2.5602 1.6979
-4.8533 -2.7383 1.6979
-4.7562 -2.9132 1.6979
-4.6527 -3.0846 1.6979
-4.5430 -3.2522 1.6979
-4.4272 -3.4159 1.6979
-4.3055 -3.5754 1.6979
-4.1780 -3.7305 1.6979
-4.0448 -3.8809 1.6979
-3.9061 -4.0265 1.6979
-3.7621 -4.1671 1.6979
-3.6130 -4.3024 1.6979
-3.4589 -4.4322 1.6979
-3.3001 -4.5564 1.6979
-3.1369 -4.6749 1.6979
-2.9692 -4.7873 1.6979
-2.7975 -4.8936 1.6979
-2.6219 -4.9936 1.6979
-2.4427 -5.0872 1.6979
-2.2601 -5.1742 1.6979
-2.0743 -5.2544 1.6979
-1.8856 -5.3279 1.6979
-1.6943 -5.3944 1.6979
-1.5006 -5.4538 1.6979
-1.3048 -5.5061 1.6979
-1.1072 -5.5512 1.6979
-0.9079 -5.5891 1.6979
-0.7073 -5.6196 1.6979
-0.5058 -5.6427 1.6979
-0.3034 -5.6584 1.6979
-0.1006 -5.6667 1.6979
0.1024 -5.6674 1.6979
0.3053 -5.6607 1.6979
0.5079 -5.6466 1.6979
0.7098 -5.6250 1.6979
0.9108 -5.5960 1.6979
1.1106 -5.5597 1.6979
1.3089 -5.5160 1.6979
1.5054 -5.4650 1.6979
1.7000 -5.4069 1.6979
1.8922 -5.3416 1.6979
2.0819 -5.2694 1.6979
2.2687 -5.1902 1.6979
2.3288 -4.8469 1.6123
2.4728 -4.7069 1.5946
2.6389 -4.6137 1.5946
2.8015 -4.5146 1.5946
2.9602 -4.4096 1.5946
3.1149 -4.2989 1.5946
3.2654 -4.1826 1.5946
3.4114 -4.0610 1.5946
3.5529 -3.9341 1.5946
3.6895 -3.8022 1.5946
3.8212 -3.6655 1.5946
3.9477 -3.5241 1.5946
4.0689 -3.3783 1.5946
4.1845 -3.2282 1.5946
4.2946 -3.0741 1.5946
4.3989 -2.9162 1.5946
4.4973 -2.7546 1.5946
4.5898 -2.5898 1.5946
4.6760 -2.4217 1.5946
4.7561 -2.2508 1.5946
4.8298 -2.0771 1.5946
4.8972 -1.9011 1.5946
4.9580 -1.7229 1.5946
5.0123 -1.5427 1.5946
5.0600 -1.3608 1.5946
5.1010 -1.1774 1.5946
5.1353 -0.9928 1.5946
5.1630 -0.8073 1.5946
5.1839 -0.6210 1.5946
5.1980 -0.4342 1.5946
5.2054 -0.2472 1.5946
5.2060 -0.0603 1.5946
5.1999 0.1264 1.5946
5.1871 0.3126 1.5946
5.1677 0.4981 1.5946
5.1416 0.6826 1.5946
5.1089 0.8659 1.5946
5.0697 1.0477 1.5946
5.0241 1.2278 1.5946
3.7102 2.9474 1.5946
3.5992 3.0766 1.5946
3.4837 3.2016 1.5946
3.3639 3.3223 1.5946
3.2401 3.4387 1.5946
3.1122 3.5505 1.5946
2.9806 3.6577 1.5946
2.8454 3.7601 1.5946
2.7067 3.8575 1.5946
2.5710 3.9597 1.5985
2.4196 4.0374 1.5946
0.8697 1.5772 0.6105
0.8124 1.6073 0.6108
0.7540 1.6354 0.6110
0.6946 1.6613 0.6113
0.6344 1.6851 0.6115
0.5733 1.7068 0.6117
0.5115 1.7262 0.6120
0.4491 1.7435 0.6122
0.3860 1.7585 0.6123
0.3225 1.7712 0.6125
0.2586 1.7817 0.6127
0.1943 1.7898 0.6128
0.1298 1.7957 0.6130
0.0651 1.7992 0.6131
0.0003 1.8005 0.6132
-0.0644 1.7994 0.6133
-0.1291 1.7960 0.6134
-0.1937 1.7903 0.6135
-0.2580 1.7823 0.6135
-0.3220 1.7720 0.6136
-0.3856 1.7594 0.6136
-0.4487 1.7446 0.6136
-0.5112 1.7275 0.6136
-0.5731 1.7082 0.6136
-0.6343 1.6867 0.6136
-0.6947 1.6630 0.6135
-0.7541 1.6371 0.6135
-0.8127 1.6092 0.6134
-0.8702 1.5792 0.6133
-2.5655 4.2836 1.6979
-2.7189 4.1899 1.6979
-2.8689 4.0910 1.6979
-3.0155 3.9867 1.6979
-3.1583 3.8774 1.6979
-3.2972 3.7630 1.6979
-3.4321 3.6437 1.6979
-3.5627 3.5198 1.6979
-3.6890 3.3912 1.6979
-3.8107 3.2581 1.6979
-3.9277 3.1209 1.6979
-4.0398 2.9794 1.6979
-4.1469 2.8340 1.6979
-4.2490 2.6849 1.6979
-4.3456 2.5321 1.6979
-4.4370 2.3759 1.6979
-4.5227 2.2165 1.6979
-4.6028 2.0540 1.6979
-4.6772 1.8887 1.6979
-4.7457 1.7207 1.6979
-4.8082 1.5503 1.6979
-4.8647 1.3776 1.6979
-4.9150 1.2029 1.6979
-4.9591 1.0264 1.6979
-4.9970 0.8484 1.6979
-5.0285 0.6689 1.6979
-5.0536 0.4883 1.6979
-5.0722 0.3067 1.6979
-5.0844 0.1245 1.6979
-5.0901 -0.0582 1.6979
-5.0892 -0.2411 1.6979
-5.0818 -0.4240 1.6979
-5.0677 -0.6067 1.6979
-5.0472 -0.7889 1.6979
-5.0201 -0.9704 1.6979
-4.9865 -1.1509 1.6979
-4.9464 -1.3303 1.6979
-4.8998 -1.5082 1.6979
-4.8468 -1.6845 1.6979
-4.7874 -1.8590 1.6979
-4.7218 -2.0312 1.6979
-4.6499 -2.2012 1.6979
-4.5718 -2.3686 1.6979
-4.4877 -2.5331 1.6979
-4.3977 -2.6947 1.6979
-4.3018 -2.8529 1.6979
-4.2001 -3.0078 1.6979
-4.0928 -3.1589 1.6979
-3.9800 -3.3062 1.6979
-3.8619 -3.4493 1.6979
-3.7386 -3.5882 1.6979
-3.6102 -3.7226 1.6979
-3.4770 -3.8523 1.6979
-3.3390 -3.9772 1.6979
-3.1964 -4.0970 1.6979
-3.0496 -4.2116 1.6979
-2.8985 -4.3208 1.6979
-2.7435 -4.4245 1.6979
-2.5847 -4.5226 1.6979
-2.4223 -4.6148 1.6979
-2.2567 -4.7010 1.6979
-2.0879 -4.7812 1.6979
-1.9162 -4.8552 1.6979
-1.7418 -4.9229 1.6979
-1.5651 -4.9842 1.6979
-1.3861 -5.0389 1.6979
-1.2052 -5.0871 1.6979
-1.0225 -5.1287 1.6979
-0.8385 -5.1635 1.6979
-0.6532 -5.1916 1.6979
-0.4670 -5.2129 1.6979
-0.2801 -5.2273 1.6979
-0.0928 -5.2348 1.6979
0.0947 -5.2355 1.6979
0.2822 -5.2293 1.6979
0.4692 -5.2162 1.6979
0.6557 -5.1962 1.6979
0.8414 -5.1695 1.6979
1.0259 -5.1359 1.6979
1.2091 -5.0956 1.6979
1.3906 -5.0485 1.6979
1.5703 -4.9949 1.6979
1.7478 -4.9347 1.6979
1.9231 -4.8680 1.6979
2.0957 -4.7950 1.6979
2.2655 -4.7157 1.6979
2.3274 -4.4308 1.6248
2.4378 -4.2627 1.5946
2.5880 -4.1713 1.5946
2.7347 -4.0744 1.5946
2.8777 -3.9722 1.5946
3.0168 -3.8649 1.5946
3.1519 -3.7527 1.5946
3.2826 -3.6356 1.5946
3.4090 -3.5139 1.5946
3.5308 -3.3877 1.5946
3.6478 -3.2572 1.5946
3.7599 -3.1226 1.5946
3.8670 -2.9840 1.5946
3.9689 -2.8418 1.5946
4.0655 -2.6959 1.5946
4.1567 -2.5468 1.5946
4.2423 -2.3945 1.5946
4.3223 -2.2393 1.5946
4.3965 -2.0814 1.5946
4.4649 -1.9210 1.5946
4.5274 -1.7584 1.5946
4.5839 -1.5937 1.5946
4.6344 -1.4272 1.5946
4.6788 -1.2591 1.5946
4.7170 -1.0896 1.5946
4.7491 -0.9190 1.5946
4.7749 -0.7474 1.5946
4.7945 -0.5752 1.5946
4.8079 -0.4025 1.5946
4.8150 -0.2296 1.5946
4.8159 -0.0566 1.5946
4.8106 0.1161 1.5946
4.7991 0.2884 1.5946
4.7814 0.4600 1.5946
4.7576 0.6307 1.5946
4.7276 0.8003 1.5946
4.6917 0.9687 1.5946
4.6498 1.1355 1.5946
3.4516 2.7411 1.5946
3.3484 2.8613 1.5946
3.2411 2.9777 1.5946
3.1299 3.0902 1.5946
3.0147 3.1986 1.5946
2.8959 3.3028 1.5946
2.7736 3.4026 1.5946
2.6478 3.4981 1.5946
2.5189 3.5889 1.5946
2.3868 3.6751 1.5946
0.8610 1.4363 0.6097
0.8087 1.4662 0.6100
0.7554 1.4942 0.6102
0.7011 1.5203 0.6105
0.6459 1.5445 0.6107
0.5899 1.5666 0.6109
0.5331 1.5867 0.6111
0.4757 1.6048 0.6113
0.4176 1.6209 0.6115
0.3590 1.6348 0.6117
0.3000 1.6466 0.6118
0.2405 1.6563 0.6120
0.1808 1.6639 0.6121
0.1208 1.6694 0.6123
0.0606 1.6727 0.6124
0.0004 1.6738 0.6125
-0.0599 1.6728 0.6126
-0.1200 1.6697 0.6126
-0.1801 1.6644 0.6127
-0.2399 1.6569 0.6128
-0.2994 1.6473 0.6128
-0.3585 1.6356 0.6128
-0.4171 1.6218 0.6128
-0.4753 1.6059 0.6128
-0.5328 1.5880 0.6128
-0.5897 1.5679 0.6128
-0.6458 1.5459 0.6128
-0.7011 1.5219 0.6127
-0.7556 1.4959 0.6127
-0.8090 1.4679 0.6126
-0.8614 1.4381 0.6125
-2.5307 3.8993 1.6979
-2.6703 3.8071 1.6979
-2.8066 3.7099 1.6979
-2.9395 3.6081 1.6979
-3.0687 3.5015 1.6979
-3.1942 3.3904 1.6979
-3.3156 3.2749 1.6979
-3.4330 3.1551 1.6979
-3.5462 3.0312 1.6979
-3.6549 2.9033 1.6979
-3.7591 2.7716 1.6979
-3.8587 2.6362 1.6979
-3.9534 2.4973 1.6979
-4.0432 2.3551 1.6979
-4.1280 2.2097 1.6979
-4.2076 2.0612 1.6979
-4.2819 1.9100 1.6979
-4.3509 1.7561 1.6979
-4.4144 1.5998 1.6979
-4.4724 1.4412 1.6979
-4.5246 1.2805 1.6979
-4.5712 1.1180 1.6979
-4.6120 0.9538 1.6979
-4.6470 0.7881 1.6979
-4.6760 0.6212 1.6979
-4.6991 0.4532 1.6979
-4.7162 0.2844 1.6979
-4.7272 0.1149 1.6979
-4.7323 -0.0549 1.6979
-4.7312 -0.2250 1.6979
-4.7240 -0.3950 1.6979
-4.7107 -0.5648 1.6979
-4.6914 -0.7341 1.6979
-4.6659 -0.9028 1.6979
-4.6344 -1.0706 1.6979
-4.5968 -1.2372 1.6979
-4.5533 -1.4025 1.6979
-4.5038 -1.5662 1.6979
-4.4484 -1.7282 1.6979
-4.3871 -1.8882 1.6979
-4.3201 -2.0460 1.6979
-4.2474 -2.2014 1.6979
-4.1690 -2.3542 1.6979
-4.0851 -2.5041 1.6979
-3.9958 -2.6510 1.6979
-3.9012 -2.7947 1.6979
-3.8013 -2.9349 1.6979
-3.6964 -3.0715 1.6979
-3.5865 -3.2043 1.6979
-3.4718 -3.3332 1.6979
-3.3524 -3.4578 1.6979
-3.2285 -3.5781 1.6979
-3.1003 -3.6939 1.6979
-2.9678 -3.8050 1.6979
-2.8313 -3.9112 1.6979
-2.6909 -4.0125 1.6979
-2.5469 -4.1086 1.6979
-2.3994 -4.1995 1.6979
-2.2486 -4.2849 1.6979
-2.0947 -4.3649 1.6979
-1.9380 -4.4391 1.6979
-1.7786 -4.5077 1.6979
-1.6167 -4.5704 1.6979
-1.4525 -4.6271 1.6979
-1.2864 -4.6779 1.6979
-1.1184 -4.7225 1.6979
-0.9489 -4.7610 1.6979
-0.7781 -4.7932 1.6979
-0.6061 -4.8192 1.6979
-0.4333 -4.8388 1.6979
-0.2598 -4.8521 1.6979
-0.0860 -4.8591 1.6979
0.0881 -4.8597 1.6979
0.2620 -4.8539 1.6979
0.4356 -4.8417 1.6979
0.6087 -4.8232 1.6979
0.7810 -4.7983 1.6979
0.9522 -4.7672 1.6979
1.1222 -4.7298 1.6979
1.2907 -4.6861 1.6979
1.4574 -4.6364 1.6979
1.6222 -4.5806 1.6979
1.7849 -4.5188 1.6979
1.9451 -4.4510 1.6979
2.1027 -4.3775 1.6979
2.2575 -4.2983 1.6979
2.3254 -4.0668 1.6388
2.4022 -3.8724 1.5946
2.5386 -3.7830 1.5948
2.6712 -3.6879 1.5946
2.8004 -3.5884 1.5946
2.9259 -3.4843 1.5946
3.0474 -3.3757 1.5946
3.1648 -3.2629 1.5946
3.2779 -3.1458 1.5946
3.3867 -3.0248 1.5946
3.4909 -2.8999 1.5946
3.5905 -2.7714 1.5946
3.6853 -2.6394 1.5946
3.7751 -2.5041 1.5946
3.8599 -2.3657 1.5946
3.9396 -2.2244 1.5946
4.0141 -2.0804 1.5946
4.0832 -1.9339 1.5946
4.1469 -1.7850 1.5946
4.2052 -1.6340 1.5946
4.2579 -1.4811 1.5946
4.3050 -1.3265 1.5946
4.3464 -1.1704 1.5946
4.3822 -1.0131 1.5946
4.4122 -0.8546 1.5946
4.4364 -0.6953 1.5946
4.4549 -0.5353 1.5946
4.4676 -0.3748 1.5946
4.4745 -0.2142 1.5946
4.4756 -0.0535 1.5946
4.4709 0.1071 1.5946
4.4604 0.2672 1.5946
4.4442 0.4267 1.5946
4.4223 0.5854 1.5946
4.3948 0.7431 1.5946
4.3616 0.8997 1.5946
4.3229 1.0548 1.5946
3.2232 2.5589 1.5946
3.1270 2.6712 1.5946
3.0270 2.7801 1.5946
2.9232 2.8852 1.5946
2.8158 2.9866 1.5946
2.7049 3.0840 1.5946
2.5907 3.1774 1.5946
2.4734 3.2666 1.5946
0.8982 1.2795 0.6088
0.8515 1.3108 0.6090
0.8038 1.3404 0.6093
0.7550 1.3684 0.6095
0.7052 1.3945 0.6097
0.6545 1.4189 0.6099
0.6030 1.4414 0.6102
0.5507 1.4621 0.6104
0.4977 1.4809 0.6106
0.4441 1.4977 0.6107
0.3899 1.5127 0.6109
0.3352 1.5257 0.6111
0.2800 1.5368 0.6112
0.2245 1.5458 0.6114
0.1688 1.5529 0.6115
0.1128 1.5580 0.6116
0.0566 1.5611 0.6117
0.0004 1.5621 0.6118
-0.0558 1.5612 0.6119
-0.1120 1.5582 0.6120
-0.1680 1.5533 0.6120
-0.2238 1.5463 0.6121
-0.2794 1.5374 0.6121
-0.3346 1.5264 0.6122
-0.3893 1.5135 0.6122
-0.4436 1.4987 0.6122
-0.4973 1.4819 0.6122
-0.5504 1.4632 0.6121
-0.6028 1.4426 0.6121
-0.6544 1.4202 0.6121
-0.7052 1.3959 0.6120
-0.7551 1.3698 0.6119
-0.8040 1.3419 0.6118
-0.8519 1.3123 0.6117
-0.8987 1.2811 0.6116
-2.6221 3.4653 1.6979
-2.7462 3.3701 1.6979
-2.8668 3.2704 1.6979
-2.9839 3.1665 1.6979
-3.0973 3.0586 1.6979
-3.2069 2.9466 1.6979
-3.3125 2.8307 1.6979
-3.4140 2.7112 1.6979
-3.5112 2.5881 1.6979
-3.6040 2.4615 1.6979
-3.6924 2.3317 1.6979
-3.7761 2.1988 1.6979
-3.8551 2.0629 1.6979
-3.9293 1.9242 1.6979
-3.9986 1.7828 1.6979
-4.0628 1.6391 1.6979
-4.1220 1.4930 1.6979
-4.1759 1.3449 1.6979
-4.2245 1.1948 1.6979
-4.2679 1.0430 1.6979
-4.3057 0.8896 1.6979
-4.3382 0.7349 1.6979
-4.3651 0.5790 1.6979
-4.3864 0.4222 1.6979
-4.4022 0.2646 1.6979
-4.4123 0.1064 1.6979
-4.4167 -0.0521 1.6979
-4.4155 -0.2108 1.6979
-4.4086 -0.3695 1.6979
-4.3960 -0.5279 1.6979
-4.3777 -0.6859 1.6979
-4.3537 -0.8432 1.6979
-4.3241 -0.9997 1.6979
-4.2888 -1.1552 1.6979
-4.2480 -1.3093 1.6979
-4.2016 -1.4620 1.6979
-4.1497 -1.6131 1.6979
-4.0924 -1.7623 1.6979
-4.0297 -1.9093 1.6979
-3.9616 -2.0542 1.6979
-3.8883 -2.1966 1.6979
-3.8099 -2.3363 1.6979
-3.7265 -2.4732 1.6979
-3.6380 -2.6071 1.6979
-3.5447 -2.7377 1.6979
-3.4467 -2.8650 1.6979
-3.3441 -2.9887 1.6979
-3.2370 -3.1087 1.6979
-3.1256 -3.2248 1.6979
-3.0099 -3.3368 1.6979
-2.8902 -3.4446 1.6979
-2.7666 -3.5481 1.6979
-2.6393 -3.6470 1.6979
-2.5083 -3.7413 1.6979
-2.3740 -3.8308 1.6979
-2.2364 -3.9153 1.6979
-2.0958 -3.9949 1.6979
-1.9523 -4.0692 1.6979
-1.8062 -4.1384 1.6979
-1.6575 -4.2021 1.6979
-1.5066 -4.2605 1.6979
-1.3536 -4.3133 1.6979
-1.1987 -4.3604 1.6979
-1.0422 -4.4019 1.6979
-0.8842 -4.4377 1.6979
-0.7250 -4.4677 1.6979
-0.5647 -4.4918 1.6979
-0.4036 -4.5101 1.6979
-0.2420 -4.5225 1.6979
-0.0800 -4.5289 1.6979
0.0822 -4.5294 1.6979
0.2443 -4.5240 1.6979
0.4061 -4.5126 1.6979
0.5673 -4.4953 1.6979
0.7279 -4.4722 1.6979
0.8874 -4.4431 1.6979
1.0458 -4.4083 1.6979
1.2029 -4.3677 1.6979
1.3583 -4.3214 1.6979
1.5119 -4.2694 1.6979
1.6634 -4.2118 1.6979
1.8128 -4.1488 1.6979
1.9596 -4.0803 1.6979
2.1039 -4.0065 1.6979
2.2454 -3.9275 1.6979
2.3253 -3.7490 1.6562
2.3658 -3.5261 1.5946
2.4897 -3.4379 1.5946
2.6102 -3.3453 1.5946
2.7271 -3.2483 1.5946
2.8405 -3.1472 1.5946
2.9500 -3.0421 1.5946
3.0556 -2.9331 1.5946
3.1571 -2.8204 1.5946
3.2543 -2.7040 1.5946
3.3473 -2.5843 1.5946
3.4357 -2.4614 1.5946
3.5196 -2.3354 1.5946
3.5988 -2.2064 1.5946
3.6733 -2.0748 1.5946
3.7429 -1.9406 1.5946
3.8075 -1.8040 1.5946
3.8671 -1.6653 1.5946
3.9215 -1.5246 1.5946
3.9709 -1.3821 1.5946
4.0150 -1.2379 1.5946
4.0538 -1.0924 1.5946
4.0873 -0.9457 1.5946
4.1155 -0.7979 1.5946
4.1383 -0.6493 1.5946
4.1558 -0.5001 1.5946
4.1678 -0.3505 1.5946
4.1744 -0.2006 1.5946
4.1756 -0.0507 1.5946
4.1715 0.0991 1.5946
4.1619 0.2485 1.5946
4.1470 0.3974 1.5946
4.1268 0.5455 1.5946
4.1013 0.6927 1.5946
4.0705 0.8388 1.5946
4.0346 0.9836 1.5946
3.0200 2.3967 1.5946
2.9300 2.5021 1.5946
2.8363 2.6041 1.5946
2.7392 2.7028 1.5946
2.6386 2.7978 1.5946
2.5348 2.8892 1.5946
2.4279 2.9768 1.5946
0.8840 1.1671 0.6081
0.8413 1.1981 0.6084
0.7976 1.2274 0.6086
0.7528 1.2552 0.6088
0.7071 1.2813 0.6091
0.6605 1.3058 0.6093
0.6130 1.3286 0.6095
0.5648 1.3497 0.6097
0.5158 1.3691 0.6099
0.4662 1.3867 0.6101
0.4160 1.4025 0.6102
0.3652 1.4165 0.6104
0.3140 1.4287 0.6106
0.2623 1.4390 0.6107
0.2104 1.4475 0.6108
0.1581 1.4541 0.6109
0.1057 1.4589 0.6111
0.0531 1.4618 0.6112
0.0004 1.4628 0.6113
-0.0523 1.4619 0.6113
-0.1049 1.4591 0.6114
-0.1573 1.4545 0.6115
-0.2096 1.4479 0.6115
-0.2616 1.4396 0.6115
-0.3133 1.4293 0.6116
-0.3646 1.4172 0.6116
-0.4154 1.4033 0.6116
-0.4657 1.3876 0.6116
-0.5154 1.3701 0.6115
-0.5645 1.3508 0.6115
-0.6128 1.3297 0.6115
-0.6604 1.3070 0.6114
-0.7071 1.2825 0.6113
-0.7529 1.2565 0.6113
-0.7978 1.2287 0.6112
-0.8416 1.1994 0.6111
-0.8844 1.1685 0.6110
-2.5739 3.1580 1.6979
-2.6869 3.0646 1.6979
-2.7966 2.9671 1.6979
-2.9028 2.8658 1.6979
-3.0055 2.7608 1.6979
-3.1043 2.6522 1.6979
-3.1993 2.5401 1.6979
-3.2903 2.4246 1.6979
-3.3773 2.3060 1.6979
-3.4599 2.1842 1.6979
-3.5383 2.0596 1.6979
-3.6122 1.9322 1.6979
-3.6816 1.8021 1.6979
-3.7464 1.6696 1.6979
-3.8064 1.5349 1.6979
-3.8617 1.3980 1.6979
-3.9120 1.2591 1.6979
-3.9575 1.1185 1.6979
-3.9979 0.9762 1.6979
-4.0332 0.8325 1.6979
-4.0634 0.6876 1.6979
-4.0884 0.5416 1.6979
-4.1083 0.3947 1.6979
-4.1228 0.2470 1.6979
-4.1322 0.0989 1.6979
-4.1361 -0.0496 1.6979
-4.1348 -0.1982 1.6979
-4.1281 -0.3468 1.6979
-4.1162 -0.4951 1.6979
-4.0988 -0.6430 1.6979
-4.0762 -0.7903 1.6979
-4.0483 -0.9368 1.6979
-4.0151 -1.0823 1.6979
-3.9767 -1.2266 1.6979
-3.9331 -1.3694 1.6979
-3.8843 -1.5108 1.6979
-3.8305 -1.6503 1.6979
-3.7716 -1.7879 1.6979
-3.7078 -1.9234 1.6979
-3.6390 -2.0566 1.6979
-3.5655 -2.1873 1.6979
-3.4873 -2.3153 1.6979
-3.4044 -2.4405 1.6979
-3.3170 -2.5627 1.6979
-3.2251 -2.6817 1.6979
-3.1290 -2.7974 1.6979
-3.0286 -2.9095 1.6979
-2.9243 -3.0180 1.6979
-2.8160 -3.1227 1.6979
-2.7039 -3.2235 1.6979
-2.5881 -3.3201 1.6979
-2.4689 -3.4126 1.6979
-2.3464 -3.5007 1.6979
-2.2206 -3.5842 1.6979
-2.0919 -3.6633 1.6979
-1.9603 -3.7376 1.6979
-1.8260 -3.8070 1.6979
-1.6893 -3.8716 1.6979
-1.5502 -3.9311 1.6979
-1.4090 -3.9856 1.6979
-1.2659 -4.0349 1.6979
-1.1210 -4.0790 1.6979
-0.9746 -4.1177 1.6979
-0.8268 -4.1511 1.6979
-0.6779 -4.1791 1.6979
-0.5280 -4.2016 1.6979
-0.3774 -4.2186 1.6979
-0.2262 -4.2301 1.6979
-0.0747 -4.2361 1.6979
0.0770 -4.2365 1.6979
0.2286 -4.2315 1.6979
0.3799 -4.2208 1.6979
0.5307 -4.2046 1.6979
0.6808 -4.1830 1.6979
0.8300 -4.1559 1.6979
0.9781 -4.1233 1.6979
1.1250 -4.0853 1.6979
1.2703 -4.0420 1.6979
1.4140 -3.9934 1.6979
1.5557 -3.9396 1.6979
1.6954 -3.8807 1.6979
1.8328 -3.8167 1.6979
1.9678 -3.7478 1.6979
2.1001 -3.6740 1.6979
2.2296 -3.5954 1.6979
2.3265 -3.4680 1.6765
2.3386 -3.2298 1.6014
2.4414 -3.1296 1.5946
2.5509 -3.0390 1.5946
2.6570 -2.9445 1.5946
2.7595 -2.8463 1.5946
2.8583 -2.7444 1.5946
2.9533 -2.6390 1.5946
3.0444 -2.5303 1.5946
3.1314 -2.4184 1.5946
3.2143 -2.3034 1.5946
3.2929 -2.1856 1.5946
3.3671 -2.0651 1.5946
3.4369 -1.9419 1.5946
3.5021 -1.8165 1.5946
3.5627 -1.6887 1.5946
3.6186 -1.5590 1.5946
3.6697 -1.4274 1.5946
3.7160 -1.2941 1.5946
3.7574 -1.1592 1.5946
3.7940 -1.0231 1.5946
3.8255 -0.8858 1.5946
3.8520 -0.7476 1.5946
3.8736 -0.6085 1.5946
3.8900 -0.4689 1.5946
3.9015 -0.3288 1.5946
3.9078 -0.1885 1.5946
3.9091 -0.0482 1.5946
3.9054 0.0920 1.5946
3.8966 0.2319 1.5946
3.8829 0.3713 1.5946
3.8641 0.5100 1.5946
3.8404 0.6479 1.5946
3.8118 0.7847 1.5946
3.7783 0.9204 1.5946
2.8377 2.2512 1.5946
2.7532 2.3503 1.5946
2.6653 2.4463 1.5946
2.5741 2.5391 1.5946
2.4797 2.6285 1.5946
2.3822 2.7145 1.5946
0.8694 1.0656 0.6076
0.8304 1.0960 0.6078
0.7903 1.1251 0.6080
0.7492 1.1526 0.6083
0.7072 1.1787 0.6085
0.6642 1.2033 0.6087
0.6205 1.2263 0.6089
0.5759 1.2477 0.6091
0.5306 1.2676 0.6093
0.4846 1.2857 0.6095
0.4379 1.3023 0.6096
0.3907 1.3171 0.6098
0.3431 1.3303 0.6099
0.2950 1.3417 0.6101
0.2464 1.3514 0.6102
0.1976 1.3594 0.6103
0.1486 1.3656 0.6105
0.0993 1.3701 0.6106
0.0499 1.3728 0.6107
0.0004 1.3737 0.6107
-0.0491 1.3729 0.6108
-0.0985 1.3703 0.6109
-0.1477 1.3659 0.6109
-0.1968 1.3598 0.6110
-0.2457 1.3519 0.6110
-0.2942 1.3423 0.6110
-0.3424 1.3309 0.6110
-0.3902 1.3178 0.6110
-0.4374 1.3031 0.6110
-0.4841 1.2866 0.6110
-0.5302 1.2685 0.6110
-0.5755 1.2487 0.6109
-0.6202 1.2273 0.6109
-0.6641 1.2044 0.6108
-0.7071 1.1799 0.6108
-0.7492 1.1538 0.6107
-0.7904 1.1263 0.6106
-0.8306 1.0973 0.6105
-0.8697 1.0668 0.6104
-2.5255 2.8798 1.6979
-2.6285 2.7882 1.6979
-2.7283 2.6929 1.6979
-2.8247 2.5941 1.6979
-2.9175 2.4920 1.6979
-3.0068 2.3865 1.6979
-3.0922 2.2780 1.6979
-3.1738 2.1664 1.6979
-3.2514 2.0519 1.6979
-3.3250 1.9347 1.6979
-3.3943 1.8149 1.6979
-3.4594 1.6927 1.6979
-3.5202 1.5681 1.6979
-3.5765 1.4415 1.6979
-3.6283 1.3128 1.6979
-3.6755 1.1823 1.6979
-3.7180 1.0501 1.6979
-3.7559 0.9164 1.6979
-3.7889 0.7814 1.6979
-3.8172 0.6452 1.6979
-3.8405 0.5080 1.6979
-3.8590 0.3700 1.6979
-3.8726 0.2313 1.6979
-3.8811 0.0921 1.6979
-3.8847 -0.0473 1.6979
-3.8833 -0.1869 1.6979
-3.8769 -0.3264 1.6979
-3.8655 -0.4658 1.6979
-3.8491 -0.6046 1.6979
-3.8277 -0.7429 1.6979
-3.8013 -0.8804 1.6979
-3.7700 -1.0170 1.6979
-3.7338 -1.1524 1.6979
-3.6927 -1.2865 1.6979
-3.6468 -1.4192 1.6979
-3.5961 -1.5501 1.6979
-3.5407 -1.6793 1.6979
-3.4806 -1.8064 1.6979
-3.4160 -1.9314 1.6979
-3.3468 -2.0540 1.6979
-3.2732 -2.1741 1.6979
-3.1953 -2.2915 1.6979
-3.1132 -2.4061 1.6979
-3.0268 -2.5177 1.6979
-2.9365 -2.6262 1.6979
-2.8422 -2.7313 1.6979
-2.7442 -2.8331 1.6979
-2.6425 -2.9312 1.6979
-2.5372 -3.0257 1.6979
-2.4285 -3.1163 1.6979
-2.3166 -3.2030 1.6979
-2.2015 -3.2855 1.6979
-2.0835 -3.3639 1.6979
-1.9626 -3.4379 1.6979
-1.8391 -3.5075 1.6979
-1.7131 -3.5726 1.6979
-1.5847 -3.6331 1.6979
-1.4542 -3.6889 1.6979
-1.3218 -3.7400 1.6979
-1.1875 -3.7861 1.6979
-1.0516 -3.8274 1.6979
-0.9142 -3.8637 1.6979
-0.7755 -3.8949 1.6979
-0.6358 -3.9211 1.6979
-0.4952 -3.9422 1.6979
-0.3539 -3.9581 1.6979
-0.2121 -3.9689 1.6979
-0.0699 -3.9745 1.6979
0.0723 -3.9749 1.6979
0.2145 -3.9701 1.6979
0.3564 -3.9601 1.6979
0.4979 -3.9449 1.6979
0.6387 -3.9246 1.6979
0.7787 -3.8991 1.6979
0.9177 -3.8686 1.6979
1.0554 -3.8330 1.6979
1.1918 -3.7924 1.6979
1.3265 -3.7469 1.6979
1.4595 -3.6964 1.6979
1.5905 -3.6412 1.6979
1.7195 -3.5812 1.6979
1.8461 -3.5166 1.6979
1.9702 -3.4474 1.6979
2.0918 -3.3737 1.6979
2.2105 -3.2957 1.6979
2.3263 -3.2135 1.6979
2.3336 -2.9921 1.6246
2.3934 -2.8519 1.5946
2.4929 -2.7633 1.5946
2.5892 -2.6712 1.5946
2.6820 -2.5757 1.5946
2.7712 -2.4769 1.5946
2.8567 -2.3749 1.5946
2.9385 -2.2700 1.5946
3.0163 -2.1622 1.5946
3.0901 -2.0517 1.5946
3.1599 -1.9386 1.5946
3.2255 -1.8232 1.5946
3.2868 -1.7054 1.5946
3.3438 -1.5856 1.5946
3.3963 -1.4639 1.5946
3.4444 -1.3404 1.5946
3.4880 -1.2154 1.5946
3.5270 -1.0889 1.5946
3.5614 -0.9611 1.5946
3.5912 -0.8323 1.5946
3.6162 -0.7025 1.5946
3.6366 -0.5720 1.5946
3.6522 -0.4409 1.5946
3.6630 -0.3094 1.5946
3.6692 -0.1777 1.5946
3.6705 -0.0459 1.5946
3.6672 0.0857 1.5946
3.6591 0.2171 1.5946
3.6463 0.3480 1.5946
3.6288 0.4782 1.5946
3.6067 0.6077 1.5946
3.5799 0.7363 1.5946
3.5486 0.8637 1.5946
2.6732 2.1200 1.5946
2.5937 2.2134 1.5946
2.5110 2.3039 1.5946
2.4251 2.3913 1.5946
0.8890 0.9421 0.6068
0.8544 0.9733 0.6071
0.8187 1.0032 0.6073
0.7820 1.0319 0.6075
0.7443 1.0592 0.6077
0.7056 1.0852 0.6079
0.6660 1.1098 0.6081
0.6256 1.1329 0.6083
0.5843 1.1546 0.6085
0.5424 1.1748 0.6087
0.4997 1.1934 0.6089
0.4564 1.2106 0.6091
0.4125 1.2261 0.6092
0.3680 1.2401 0.6094
0.3231 1.2525 0.6095
0.2778 1.2633 0.6097
0.2321 1.2724 0.6098
0.1862 1.2799 0.6099
0.1399 1.2858 0.6100
0.0935 1.2900 0.6101
0.0470 1.2925 0.6102
0.0004 1.2934 0.6103
