ply
format ascii 1.0
element vertex 2125
property float32 x
property float32 y
property float32 z
end_header
14.8425 -2.5710 -1.9741
14.7957 -2.0203 -1.9573
14.6687 -1.4703 -1.9326
14.5457 -0.9335 -1.9110
14.4263 -0.4081 -1.8924
14.4275 0.1086 -1.8921
14.5470 0.6308 -1.9097
14.6684 1.1634 -1.9301
14.7922 1.7080 -1.9534
15.4241 2.3432 -2.0468
19.7107 3.7209 -2.6318
12.3546 -36.6530 -4.1486
12.3295 -32.6654 -3.7461
12.1182 -28.9266 -3.3661
11.9512 -25.8864 -3.0612
11.9887 -23.6995 -2.8525
11.7457 -21.2907 -2.6125
10.9417 -18.2561 -2.2875
9.7178 -14.9711 -1.9189
9.5914 -13.6781 -1.7967
9.5879 -12.6818 -1.7104
9.6697 -11.8807 -1.6485
9.8432 -11.2464 -1.6089
10.0270 -10.6609 -1.5761
10.1391 -10.0346 -1.5367
10.3122 -9.4997 -1.5108
10.4630 -8.9680 -1.4854
10.5616 -8.4157 -1.4561
10.7293 -7.9384 -1.4395
10.9124 -7.4846 -1.4276
11.1219 -7.0565 -1.4215
11.3307 -6.6324 -1.4173
11.5244 -6.2029 -1.4132
11.8663 -5.8491 -1.4289
12.1995 -5.4795 -1.4448
12.5253 -5.0952 -1.4612
12.7514 -4.6624 -1.4675
12.9808 -4.2260 -1.4759
13.3071 -3.8110 -1.4969
13.9329 -3.4557 -1.5527
14.5283 -3.0558 -1.6061
14.6756 -2.5419 -1.6117
14.6581 -2.0013 -1.6011
14.5638 -1.4596 -1.5844
14.4918 -0.9299 -1.5722
14.4208 -0.4078 -1.5621
14.4691 0.1091 -1.5670
14.6021 0.6333 -1.5831
14.7246 1.1680 -1.6001
14.8495 1.7147 -1.6195
15.3964 2.3391 -1.6874
19.5496 3.6906 -2.1558
2.9848 -13.4918 -1.1665
10.9455 -36.7689 -3.2415
11.5344 -34.2170 -3.0522
11.6671 -30.9086 -2.7938
11.3865 -27.1783 -2.4929
11.4102 -24.7132 -2.3038
11.5025 -22.7371 -2.1576
11.0525 -20.0332 -1.9381
9.8011 -16.3521 -1.6156
9.3912 -14.4672 -1.4623
9.3815 -13.3781 -1.3859
9.3876 -12.4163 -1.3208
9.4861 -11.6546 -1.2756
9.6420 -11.0160 -1.2433
9.7925 -10.4110 -1.2143
9.9700 -9.8669 -1.1922
10.1432 -9.3436 -1.1726
10.2952 -8.8238 -1.1533
10.4056 -8.2911 -1.1321
10.5839 -7.8305 -1.1207
10.7640 -7.3825 -1.1115
10.9713 -6.9607 -1.1068
11.1777 -6.5426 -1.1037
11.3332 -6.0997 -1.0972
11.6905 -5.7621 -1.1114
12.0168 -5.3972 -1.1237
12.3514 -5.0242 -1.1378
12.5744 -4.5975 -1.1428
12.8014 -4.1673 -1.1495
13.0718 -3.7434 -1.1613
13.7012 -3.3980 -1.2060
14.3272 -3.0133 -1.2511
14.5132 -2.5135 -1.2590
14.6605 -2.0015 -1.2650
14.5871 -1.4617 -1.2537
14.5148 -0.9312 -1.2440
14.4435 -0.4083 -1.2361
14.4646 0.1092 -1.2377
14.6573 0.6359 -1.2556
14.7809 1.1726 -1.2691
14.9070 1.7215 -1.2846
15.3689 2.3350 -1.3310
19.4450 3.6710 -1.6944
2.9877 -13.5036 -0.8544
11.7873 -45.4892 -2.9048
10.5290 -35.3671 -2.2824
11.0703 -32.8380 -2.1446
10.9173 -28.9201 -1.9142
10.8175 -25.8183 -1.7344
10.9805 -23.7810 -1.6239
10.9662 -21.6757 -1.5068
10.2999 -18.6680 -1.3233
9.4441 -15.7557 -1.1408
9.1756 -14.1345 -1.0471
9.1813 -13.0920 -0.9942
9.1944 -12.1602 -0.9484
9.3100 -11.4377 -0.9180
9.4676 -10.8162 -0.8952
9.6043 -10.2105 -0.8735
9.8072 -9.7053 -0.8603
9.9802 -9.1932 -0.8465
10.1333 -8.6846 -0.8330
10.2656 -8.1792 -0.8197
10.4429 -7.7259 -0.8116
10.6200 -7.2835 -0.8050
10.8253 -6.8678 -0.8018
11.0294 -6.4555 -0.7997
11.1540 -6.0030 -0.7930
11.5043 -5.6701 -0.8033
11.8401 -5.3176 -0.8133
12.1676 -4.9492 -0.8234
12.4029 -4.5345 -0.8282
12.6319 -4.1119 -0.8334
12.8970 -3.6932 -0.8420
13.4747 -3.3416 -0.8716
14.0851 -2.9621 -0.9040
14.3550 -2.4859 -0.9153
14.5347 -1.9841 -0.9220
14.6104 -1.4639 -0.9231
14.5378 -0.9325 -0.9161
14.4662 -0.4088 -0.9104
14.4602 0.1093 -0.9099
14.6637 0.6363 -0.9237
14.8374 1.1772 -0.9369
14.9647 1.7282 -0.9485
15.3416 2.3310 -0.9772
19.8409 3.7458 -1.2717
-21.2754 44.9684 -3.0852
-22.0755 -44.2769 -1.9116
-20.0691 -44.1429 -1.8747
-18.8262 -45.6824 -1.9114
2.9917 -13.5204 -0.5428
10.2462 -39.5380 -1.6026
10.1912 -34.2297 -1.4026
10.5000 -31.1437 -1.2919
10.2794 -27.2284 -1.1451
10.3353 -24.6660 -1.0532
10.5894 -22.9328 -0.9956
10.4348 -20.6242 -0.9119
9.6192 -17.4334 -0.7862
9.1131 -15.2028 -0.7005
8.9703 -13.8175 -0.6517
8.9900 -12.8186 -0.6199
9.0095 -11.9151 -0.5920
9.1408 -11.2294 -0.5743
9.2998 -10.6240 -0.5605
9.4032 -9.9963 -0.5453
9.6405 -9.5399 -0.5394
9.8229 -9.0479 -0.5316
9.9769 -8.5502 -0.5234
10.1297 -8.0706 -0.5164
10.3061 -7.6243 -0.5115
10.4804 -7.1874 -0.5075
10.6835 -6.7775 -0.5056
10.8854 -6.3709 -0.5044
10.9807 -5.9095 -0.4991
11.2757 -5.5572 -0.5035
11.6690 -5.2405 -0.5127
11.9897 -4.8766 -0.5191
12.2365 -4.4735 -0.5229
12.4673 -4.0581 -0.5265
12.7273 -3.6444 -0.5320
13.2297 -3.2807 -0.5480
13.8518 -2.9129 -0.5694
14.2006 -2.4590 -0.5801
14.3871 -1.9638 -0.5847
14.6241 -1.4651 -0.5921
14.5608 -0.9338 -0.5881
14.4890 -0.4093 -0.5845
14.4558 0.1094 -0.5832
14.6591 0.6362 -0.5921
14.8689 1.1798 -0.6021
15.0226 1.7350 -0.6106
15.3145 2.3270 -0.6257
20.2521 3.8236 -0.8326
-13.8055 44.8404 -1.8570
-22.7538 43.9530 -1.9501
-26.8030 -41.8247 -0.7967
-25.3109 -42.7950 -0.7984
-23.2252 -42.6857 -0.7813
-21.2300 -42.5826 -0.7661
-19.3147 -42.4851 -0.7524
-17.7826 -43.1519 -0.7536
10.1475 -45.8550 -0.7826
9.5251 -36.7521 -0.6340
9.8992 -33.2463 -0.5805
9.9336 -29.4616 -0.5214
9.8074 -25.9765 -0.4666
9.9995 -23.8632 -0.4357
10.1374 -21.9525 -0.4081
9.8522 -19.4716 -0.3691
9.1254 -16.5376 -0.3201
8.8051 -14.6882 -0.2909
8.7743 -13.5150 -0.2742
8.8069 -12.5569 -0.2616
8.8322 -11.6801 -0.2503
8.9780 -11.0288 -0.2435
9.1381 -10.4389 -0.2381
9.2108 -9.7913 -0.2311
9.4454 -9.3466 -0.2289
9.6707 -8.9073 -0.2270
9.8254 -8.4201 -0.2238
9.9976 -7.9650 -0.2215
10.1730 -7.5256 -0.2197
10.3453 -7.0945 -0.2182
10.5456 -6.6898 -0.2176
10.7414 -6.2864 -0.2172
10.8130 -5.8190 -0.2147
11.0564 -5.4489 -0.2158
11.4883 -5.1591 -0.2209
11.8173 -4.8062 -0.2241
12.0747 -4.4141 -0.2262
12.3072 -4.0058 -0.2280
12.5623 -3.5969 -0.2305
12.9939 -3.2220 -0.2365
13.6264 -2.8653 -0.2463
14.0498 -2.4327 -0.2525
14.2427 -1.9439 -0.2548
14.5539 -1.4579 -0.2596
14.5838 -0.9351 -0.2596
14.5117 -0.4098 -0.2582
14.4514 0.1095 -0.2572
14.6546 0.6362 -0.2613
14.8642 1.1795 -0.2658
15.0810 1.7419 -0.2708
15.2875 2.3230 -0.2760
24.1069 4.5514 -0.4381
-13.8047 44.8414 -0.7996
-16.9438 43.6517 -0.7946
-25.2336 -42.6656 0.3204
-23.3245 -42.8696 0.3145
-21.1899 -42.5035 0.3050
-19.2876 -42.4272 0.2982
-17.7877 -43.1661 0.2977
9.3057 -42.0465 0.2523
9.1489 -35.2973 0.2124
9.4685 -31.7970 0.1920
9.4080 -27.9008 0.1694
9.4249 -24.9616 0.1526
9.6932 -23.1307 0.1425
9.7961 -21.2122 0.1319
9.4238 -18.6239 0.1171
8.8076 -15.9608 0.1016
8.5748 -14.3033 0.0924
8.5886 -13.2283 0.0868
8.6298 -12.3038 0.0822
8.6619 -11.4543 0.0780
8.8209 -10.8354 0.0754
8.9411 -10.2134 0.0728
9.0262 -9.5947 0.0702
9.2583 -9.1610 0.0689
9.4855 -8.7363 0.0678
9.6907 -8.3042 0.0667
9.8690 -7.8622 0.0655
10.0434 -7.4294 0.0645
10.2146 -7.0046 0.0635
10.4114 -6.6043 0.0629
10.5779 -6.1904 0.0621
10.6506 -5.7313 0.0610
10.8457 -5.3448 0.0606
11.2647 -5.0584 0.0615
11.6499 -4.7379 0.0623
11.9174 -4.3564 0.0626
12.1513 -3.9548 0.0627
12.4017 -3.5507 0.0630
12.7665 -3.1654 0.0639
13.3985 -2.8172 0.0662
13.9022 -2.4070 0.0679
14.1012 -1.9244 0.0682
14.4069 -1.4430 0.0691
14.5418 -0.9323 0.0693
14.5345 -0.4102 0.0689
14.4630 0.1097 0.0683
14.6501 0.6361 0.0690
14.8596 1.1793 0.0700
15.0764 1.7415 0.0711
15.2740 2.3210 0.0722
23.5934 4.4546 0.1119
23.5954 5.3362 0.1126
-20.8575 40.2944 0.2568
-22.6486 40.1642 0.2626
-26.3396 39.7621 0.2750
-28.3883 39.6918 0.2831
-42.2951 -23.0857 1.4051
-38.9053 -23.0803 1.3190
-30.0122 -19.2896 1.0400
-32.6040 -22.6446 1.1571
-25.5222 -19.1159 0.9293
-23.6088 -19.0392 0.8836
-24.2676 -22.6199 0.9659
-18.8152 -18.8407 0.7749
-17.4634 -18.7866 0.7462
-31.3823 -36.2824 1.3949
-30.9832 -38.5263 1.4369
-29.0801 -38.9356 1.4116
-27.6580 -39.9378 1.4103
-26.7901 -41.8069 1.4405
-25.2328 -42.6655 1.4371
-23.1677 -42.5828 1.4045
-21.1891 -42.5034 1.3749
-19.2869 -42.4272 1.3482
-17.7876 -43.1678 1.3495
-7.1567 -33.2780 0.9794
-2.8496 -41.4687 1.1910
-1.3776 -41.9779 1.2021
8.3908 -45.5865 1.3174
8.4313 -38.0918 1.1075
8.8473 -34.1308 0.9996
9.0004 -30.2226 0.8929
8.9543 -26.5532 0.7925
9.1174 -24.1456 0.7290
9.4122 -22.4587 0.6869
9.4657 -20.4954 0.6360
8.9479 -17.6824 0.5576
8.5114 -15.4232 0.4950
8.3854 -13.9866 0.4577
8.4125 -12.9564 0.4330
8.4590 -12.0598 0.4124
8.4986 -11.2380 0.3939
8.6692 -10.6486 0.3834
8.7510 -9.9958 0.3705
8.8489 -9.4058 0.3597
9.0784 -8.9826 0.3553
9.3029 -8.5678 0.3514
9.4825 -8.1255 0.3466
9.7436 -7.7620 0.3453
9.9171 -7.3356 0.3416
10.0872 -6.9169 0.3383
10.2805 -6.5210 0.3363
10.4192 -6.0973 0.3332
10.4929 -5.6462 0.3285
10.6427 -5.2445 0.3267
11.0495 -4.9616 0.3332
11.4738 -4.6661 0.3404
11.7640 -4.3001 0.3439
11.9993 -3.9052 0.3462
12.2451 -3.5057 0.3491
12.5469 -3.1108 0.3540
13.1588 -2.7666 0.3679
13.7577 -2.3818 0.3817
13.9626 -1.9053 0.3850
14.2628 -1.4284 0.3913
14.4952 -0.9291 0.3963
14.5070 -0.4093 0.3957
14.4857 0.1100 0.3948
14.6456 0.6360 0.3993
14.8549 1.1790 0.4057
15.0678 1.7406 0.4127
15.2861 2.3230 0.4205
19.3427 3.6521 0.5352
23.1512 5.2359 0.6452
46.8826 12.3826 1.3176
46.8108 14.1745 1.3287
46.7376 15.9999 1.3418
46.6628 17.8648 1.3570
5.9803 16.5955 0.4841
5.7825 23.7877 0.6738
5.6563 27.5275 0.7742
4.9745 29.5364 0.8261
4.7223 35.8280 0.9977
4.3381 45.4094 1.2608
-0.1686 13.8556 0.3843
-1.1966 24.9242 0.6929
-4.1633 21.5096 0.6113
-4.6191 19.9982 0.5734
-5.3719 19.9684 0.5784
-10.6154 22.4424 0.6989
-20.7459 40.0811 1.2721
-22.4411 39.7983 1.2895
-10.5608 17.2546 0.5717
-18.1078 27.3368 0.9278
-10.4600 14.6256 0.5094
-24.5809 31.8921 1.1421
-10.2092 12.3081 0.4541
-27.9271 31.3158 1.1931
-34.1466 26.6939 1.2397
-46.3390 -13.5658 2.4965
-9.5882 -3.1838 0.5224
-9.5730 -3.5641 0.5283
-40.0115 -16.5505 2.2393
-37.5388 -17.1262 2.1340
-34.5933 -17.3044 2.0005
-32.1046 -17.5234 1.8916
-30.1676 -17.8968 1.8140
-9.4718 -6.0878 0.5822
-9.4527 -6.5653 0.5951
-26.4878 -19.8393 1.7109
-23.8938 -19.2693 1.5867
-23.1926 -20.1158 1.5867
-9.4094 -8.7707 0.6647
-20.2572 -20.2850 1.4810
-20.9139 -22.4988 1.5866
-21.4084 -24.7516 1.6898
-9.2500 -11.5022 0.7619
-13.9413 -18.6666 1.2023
-18.6488 -26.9293 1.6898
-17.6791 -27.5895 1.6898
-10.9560 -18.5257 1.1095
-15.6718 -28.8061 1.6898
-14.6367 -29.3608 1.6898
-13.5822 -29.8791 1.6898
-4.0189 -9.7537 0.5429
-3.6166 -9.7548 0.5351
-3.5376 -10.7027 0.5795
-8.9798 -30.8300 1.6500
-7.8881 -31.2018 1.6529
-6.8580 -31.8917 1.6744
-5.7676 -32.4300 1.6898
-4.6056 -32.6344 1.6898
-3.4365 -32.7977 1.6898
-2.2615 -32.9196 1.6898
-1.0823 -32.9998 1.6898
0.0998 -33.0381 1.6898
1.2833 -33.0345 1.6898
0.6106 -8.1657 0.4183
0.9041 -8.1538 0.4188
4.5325 -30.7721 1.5867
5.6350 -30.6109 1.5867
6.7318 -30.4104 1.5867
8.4592 -32.6308 1.7161
8.5178 -28.5998 1.5181
8.5477 -25.3456 1.3598
8.8487 -23.4323 1.2724
9.1653 -21.8682 1.2037
9.0623 -19.6209 1.0964
8.4972 -16.7908 0.9540
8.2342 -14.9201 0.8633
8.2038 -13.6831 0.8076
8.2433 -12.6951 0.7657
6.8692 -9.7928 0.6047
7.1049 -9.3945 0.5950
8.5225 -10.4679 0.6814
8.5687 -9.7871 0.6562
6.7649 -7.1903 0.4977
6.8667 -6.7940 0.4866
9.1271 -8.4055 0.6246
9.2077 -7.8897 0.6100
9.6212 -7.6642 0.6184
9.7937 -7.2441 0.6121
9.9628 -6.8313 0.6066
10.1527 -6.4397 0.6033
10.2650 -6.0068 0.5965
10.3396 -5.5635 0.5885
10.4470 -5.1479 0.5834
10.8422 -4.8683 0.5950
11.2537 -4.5764 0.6079
11.6143 -4.2452 0.6184
11.8509 -3.8566 0.6230
12.0922 -3.4617 0.6284
12.3379 -3.0587 0.6348
12.9272 -2.7177 0.6594
13.5554 -2.3466 0.6864
13.8264 -1.8865 0.6960
14.1213 -1.4141 0.7076
14.4488 -0.9260 0.7216
14.4606 -0.4079 0.7207
14.4637 0.1100 0.7204
14.6325 0.6356 0.7292
14.8353 1.1776 0.7408
15.0450 1.7381 0.7537
15.2624 2.3195 0.7681
18.4713 3.4877 0.9351
22.7229 5.1392 1.1587
46.8826 12.3828 2.4113
46.8108 14.1746 2.4319
46.7376 16.0000 2.4560
6.3872 6.5145 0.4541
6.2042 6.7985 0.4582
6.1157 9.0065 0.5426
6.1346 11.5262 0.6516
6.2008 13.9792 0.7639
5.8701 14.6249 0.7875
5.7857 16.0546 0.8532
5.7144 17.8339 0.9368
5.6275 20.0002 1.0399
5.5192 22.7028 1.1700
5.3798 26.1796 1.3391
4.9746 29.5337 1.5015
4.1339 31.3594 1.5867
3.0069 31.4682 1.5867
0.5778 9.7058 0.4883
0.2298 9.7113 0.4882
-0.1179 9.7060 0.4881
-0.4650 9.6899 0.4882
-2.4432 29.1025 1.4706
-3.9999 33.2956 1.6898
-5.1857 33.1086 1.6898
-4.1587 21.4884 1.1044
-3.8413 16.6325 0.8619
-3.7366 13.8909 0.7268
-3.8170 12.4016 0.6561
-4.3023 12.3830 0.6633
-4.7982 12.3640 0.6716
-5.3067 12.3446 0.6809
-10.5636 22.3343 1.2528
-10.4800 20.2486 1.1569
-10.4083 18.4597 1.0761
-10.3460 16.9046 1.0071
-10.2912 15.5370 0.9477
-10.2425 14.3221 0.8960
-10.1988 13.2329 0.8508
-10.1722 12.2640 0.8119
-23.5629 26.4231 1.8053
-25.2531 26.3554 1.8625
-10.1095 9.8215 0.7197
-28.9818 26.2059 1.9964
-31.0559 26.1227 2.0748
-33.2995 26.0328 2.1624
-10.0069 7.2614 0.6329
-3.6499 2.4540 0.2253
-3.6454 2.2658 0.2200
-3.6410 2.0862 0.2152
-37.9334 -9.6449 2.9085
-33.8750 -9.9168 2.6231
-9.5882 -3.1838 0.7509
-9.5701 -3.5630 0.7590
-28.1536 -11.6455 2.2645
-27.4585 -12.5272 2.2433
-26.9250 -13.4685 2.2377
-9.8247 -5.3626 0.8319
-9.5706 -5.6778 0.8271
-9.4255 -6.0581 0.8327
-9.4065 -6.5332 0.8511
-9.3866 -7.0306 0.8715
-9.3656 -7.5530 0.8940
-9.3435 -8.1041 0.9189
-9.3201 -8.6876 0.9465
-9.2953 -9.3082 0.9770
-9.2687 -9.9713 1.0110
-9.2401 -10.6833 1.0487
-9.2093 -11.4519 1.0909
-19.0410 -25.4954 2.3616
-17.6947 -25.5521 2.3061
-16.4246 -25.6324 2.2583
-15.3165 -25.8997 2.2315
-10.2266 -18.7979 1.5866
-9.5499 -19.1575 1.5866
-8.8607 -19.4931 1.5866
-4.0186 -9.7534 0.7814
-3.6163 -9.7545 0.7703
-3.5328 -10.6887 0.8333
-6.3858 -21.9257 1.6898
-5.5989 -22.1484 1.6898
-4.8042 -22.3432 1.6898
-4.0029 -22.5096 1.6898
-3.1958 -22.6476 1.6898
-2.3840 -22.7568 1.6898
-1.5684 -22.8371 1.6898
-0.7502 -22.8885 1.6898
0.0697 -22.9107 1.6898
0.8902 -22.9037 1.6898
0.6107 -8.1656 0.6034
0.9043 -8.1538 0.6043
3.1411 -21.3222 1.5867
3.9042 -21.2060 1.5867
4.6630 -21.0627 1.5867
5.4166 -20.8923 1.5867
6.1640 -20.6950 1.5867
6.9042 -20.4710 1.5867
8.5880 -22.7405 1.7844
8.9078 -21.2523 1.6908
8.6721 -18.7748 1.5167
8.1696 -16.1426 1.3262
7.9852 -14.4681 1.2107
6.8898 -11.4909 0.9811
6.8522 -10.5523 0.9209
6.8189 -9.7205 0.8687
6.8470 -9.0531 0.8300
7.1869 -8.8271 0.8319
8.3934 -9.5865 0.9308
6.7649 -7.1900 0.7209
6.8670 -6.7940 0.7050
8.8764 -8.1743 0.8803
8.9478 -7.6667 0.8592
9.3658 -7.4604 0.8727
9.6732 -7.1546 0.8765
6.6597 -4.5662 0.5880
6.6456 -4.2150 0.5728
6.7447 -3.9467 0.5686
10.1904 -5.4829 0.8416
10.2634 -5.0571 0.8318
10.6420 -4.7782 0.8478
11.0414 -4.4898 0.8659
11.4239 -4.1753 0.8833
11.7057 -3.8092 0.8936
11.9427 -3.4187 0.9015
6.5417 -1.6217 0.4889
6.5317 -1.3731 0.4841
6.5219 -1.1289 0.4799
13.6926 -1.8681 1.0016
13.9823 -1.4000 1.0182
14.3058 -0.9167 1.0385
14.3706 -0.4052 1.0412
14.3917 0.1096 1.0421
14.5996 0.6343 1.0580
14.8132 1.1760 1.0756
15.0222 1.7356 1.0944
15.2388 2.3160 1.1153
6.4280 1.2138 0.4733
6.4185 1.4517 0.4760
47.5455 12.5581 3.5571
47.4971 14.3826 3.5894
6.3231 3.8303 0.5346
6.3108 4.1387 0.5458
6.2341 6.3583 0.6445
6.2042 6.7983 0.6662
6.4581 8.8143 0.7915
6.0971 8.9790 0.7863
6.0479 9.6311 0.8242
6.0130 10.3832 0.8698
5.9789 11.2333 0.9227
5.9404 12.1943 0.9838
5.8964 13.2925 1.0551
5.8455 14.5630 1.1389
5.7857 16.0539 1.2390
5.7144 17.8330 1.3601
5.6276 19.9991 1.5095
5.1573 21.2128 1.5867
4.3930 21.3755 1.5867
3.6236 21.5104 1.5867
0.9163 6.9502 0.5101
0.6664 6.9723 0.5099
0.4160 6.9862 0.5097
0.1656 6.9920 0.5096
-0.0848 6.9896 0.5096
-0.3348 6.9791 0.5096
-0.5842 6.9605 0.5096
-2.7606 22.9840 1.6898
-3.5799 22.8597 1.6898
-3.9523 20.4245 1.5200
-3.8000 16.4552 1.2345
-3.7367 13.8923 1.0521
-3.8162 12.4000 0.9493
-4.3014 12.3815 0.9596
-4.7973 12.3625 0.9713
-5.3057 12.3430 0.9845
-4.3597 9.2181 0.7476
-4.3249 8.3565 0.6902
-4.6038 8.1656 0.6879
-10.3460 16.9055 1.4553
-10.2912 15.5378 1.3691
-10.2425 14.3228 1.2941
-10.1988 13.2336 1.2285
-10.1594 12.2491 1.1707
-10.1235 11.3528 1.1195
-10.0905 10.5314 1.0740
-10.0602 9.7739 1.0333
-10.0320 9.0715 0.9968
-10.0058 8.4167 0.9641
-9.9812 7.8034 0.9346
-9.9580 7.2262 0.9080
-3.6500 2.4541 0.3247
-3.6454 2.2659 0.3170
-3.6411 2.0863 0.3101
-9.5708 -2.4334 0.9579
-9.5562 -2.7975 0.9659
-9.5414 -3.1682 0.9753
-9.5262 -3.5466 0.9861
-9.5107 -3.9340 0.9985
-9.4947 -4.3317 1.0125
-9.4783 -4.7413 1.0282
-9.4614 -5.1643 1.0457
-9.4438 -5.6025 1.0653
-9.4255 -6.0581 1.0869
-9.4065 -6.5333 1.1110
-9.3866 -7.0306 1.1375
-9.3656 -7.5531 1.1670
-9.3435 -8.1042 1.1995
-9.3201 -8.6877 1.2355
-9.2953 -9.3083 1.2755
-9.2687 -9.9714 1.3198
-9.2401 -10.6835 1.3692
-9.2093 -11.4521 1.4243
-10.7473 -14.3907 1.7404
-9.3228 -13.4631 1.5866
-8.8366 -13.7908 1.5866
-8.3389 -14.1012 1.5866
-7.8304 -14.3937 1.5866
-7.3117 -14.6681 1.5866
-6.7835 -14.9240 1.5866
-4.0183 -9.7531 1.0206
-3.6160 -9.7542 1.0063
-3.5280 -10.6748 1.0872
-4.8872 -16.7811 1.6898
-4.2845 -16.9501 1.6898
-3.6760 -17.0976 1.6898
-3.0625 -17.2235 1.6898
-2.4447 -17.3274 1.6898
-1.8234 -17.4093 1.6898
-1.1994 -17.4690 1.6898
-0.5735 -17.5065 1.6898
0.0536 -17.5217 1.6898
0.6811 -17.5146 1.6898
0.6109 -8.1656 0.7892
0.9045 -8.1538 0.7904
2.5576 -17.3589 1.6898
2.9846 -16.2093 1.5867
3.5643 -16.0980 1.5867
4.1398 -15.9659 1.5867
4.7104 -15.8134 1.5867
3.1244 -9.2631 0.9397
5.8341 -15.4474 1.5867
6.3858 -15.2343 1.5867
8.2473 -17.8541 1.8884
7.8952 -15.5994 1.6781
7.7504 -14.0420 1.5389
6.8898 -11.4903 1.2850
6.8522 -10.5518 1.2063
6.8188 -9.7200 1.1379
6.7890 -8.9760 1.0782
6.7621 -8.3049 1.0257
6.7377 -7.6951 0.9792
6.7153 -7.1370 0.9378
6.6947 -6.6232 0.9009
6.6756 -6.1474 0.8679
6.6579 -5.7044 0.8382
6.8094 -5.4239 0.8319
7.0015 -5.1784 0.8319
6.6497 -4.5592 0.7700
6.6456 -4.2149 0.7513
6.7450 -3.9466 0.7458
10.0450 -5.4045 1.0883
10.1185 -4.9855 1.0759
10.4485 -4.6911 1.0921
10.8363 -4.4062 1.1151
11.1482 -4.0744 1.1311
11.5636 -3.7628 1.1586
11.7964 -3.3767 1.1687
6.5417 -1.6216 0.6418
6.5317 -1.3730 0.6354
6.5219 -1.1288 0.6300
13.5610 -1.8500 1.3024
13.8457 -1.3861 1.3239
14.1397 -0.9059 1.3478
14.2791 -0.4024 1.3586
14.3277 0.1093 1.3625
14.5025 0.6302 1.3801
14.7911 1.1743 1.4105
14.9993 1.7330 1.4352
15.2152 2.3125 1.4626
6.4280 1.2138 0.6216
6.4185 1.4517 0.6253
21.9875 5.8076 2.1607
6.3231 3.8303 0.7023
6.3108 4.1386 0.7170
6.5605 5.7965 0.8319
6.3241 6.0042 0.8288
6.1767 6.2997 0.8386
6.1587 6.7484 0.8686
6.1394 7.2309 0.9019
6.1185 7.7525 0.9392
6.0957 8.3196 0.9810
6.0709 8.9401 1.0280
6.0435 9.6238 1.0813
6.0130 10.3829 1.1419
5.9790 11.2329 1.2113
5.9404 12.1939 1.2914
5.8964 13.2920 1.3848
5.8455 14.5624 1.4948
5.7857 16.0532 1.6259
5.0800 15.8524 1.5866
4.5080 16.0196 1.5866
3.9306 16.1660 1.5866
3.3484 16.2915 1.5866
2.7623 16.3959 1.5866
0.8477 6.4283 0.6189
0.6137 6.4201 0.6158
0.3820 6.4120 0.6135
0.1518 6.4039 0.6120
-0.0774 6.3959 0.6113
-0.3063 6.3878 0.6114
-0.5353 6.3798 0.6123
-2.1058 17.5354 1.6898
-2.7312 17.4426 1.6898
-3.3526 17.3273 1.6898
-3.8262 16.5703 1.6289
-3.6335 13.5100 1.3405
-3.8154 12.3985 1.2434
-4.3005 12.3799 1.2567
-4.7964 12.3609 1.2719
-5.3046 12.3414 1.2891
-4.3598 9.2187 0.9790
-4.3249 8.3571 0.9037
-4.6064 8.1705 0.9011
-8.6179 14.0824 1.5867
-9.1131 13.7597 1.5867
-9.5962 13.4197 1.5867
-10.0667 13.0627 1.5867
-10.1594 12.2497 1.5317
-10.1235 11.3533 1.4646
-10.0906 10.5319 1.4049
-10.0602 9.7744 1.3515
-10.0320 9.0719 1.3037
-10.0058 8.4171 1.2607
-9.9812 7.8038 1.2220
-9.9581 7.2265 1.1871
-3.6500 2.4543 0.4245
-3.6455 2.2661 0.4144
-3.6411 2.0865 0.4053
-9.5708 -2.4334 1.1829
-9.5562 -2.7975 1.1928
-9.5414 -3.1682 1.2044
-9.5262 -3.5466 1.2177
-9.5107 -3.9340 1.2330
-9.4947 -4.3317 1.2503
-9.4783 -4.7413 1.2697
-9.4614 -5.1643 1.2913
-9.4438 -5.6026 1.3155
-9.4255 -6.0582 1.3422
-9.4065 -6.5333 1.3719
-9.3866 -7.0307 1.4048
-9.3656 -7.5532 1.4411
-9.3435 -8.1042 1.4813
-9.3201 -8.6878 1.5259
-9.2953 -9.3084 1.5752
-9.0215 -9.7057 1.5866
-8.6692 -10.0236 1.5866
-8.3059 -10.3288 1.5866
-7.9318 -10.6210 1.5866
-7.5476 -10.8998 1.5866
-7.1537 -11.1647 1.5866
-6.7505 -11.4155 1.5866
-6.3386 -11.6519 1.5866
-5.9184 -11.8735 1.5866
-5.4906 -12.0801 1.5866
-4.0180 -9.7527 1.2609
-3.6157 -9.7539 1.2433
-3.5232 -10.6608 1.3416
-3.9549 -13.5807 1.6898
-3.4669 -13.7168 1.6898
-2.9744 -13.8354 1.6898
-2.4777 -13.9363 1.6898
-1.9778 -14.0196 1.6898
-1.4750 -14.0851 1.6898
-0.9700 -14.1325 1.6898
-0.4636 -14.1620 1.6898
0.0437 -14.1734 1.6898
0.5512 -14.1667 1.6898
0.6111 -8.1656 0.9757
0.9047 -8.1538 0.9773
2.0686 -14.0380 1.6898
2.5706 -13.9590 1.6898
2.8823 -13.0165 1.5867
3.3474 -12.9088 1.5867
3.8085 -12.7846 1.5867
3.1215 -9.2538 1.1613
4.7163 -12.4869 1.5867
5.1619 -12.3138 1.5867
5.6011 -12.1248 1.5867
6.0334 -11.9202 1.5867
6.4582 -11.7002 1.5867
6.8898 -11.4897 1.5901
6.8522 -10.5512 1.4928
6.8188 -9.7195 1.4084
6.7890 -8.9756 1.3346
6.7621 -8.3045 1.2696
6.7377 -7.6947 1.2121
6.7153 -7.1367 1.1610
6.6947 -6.6229 1.1154
6.6756 -6.1471 1.0745
6.6579 -5.7041 1.0378
6.6413 -5.2897 1.0048
6.6256 -4.9001 0.9750
6.6109 -4.5324 0.9481
6.5969 -4.1838 0.9237
6.5836 -3.8520 0.9017
6.5709 -3.5352 0.8819
6.5588 -3.2314 0.8639
6.5470 -2.9393 0.8478
6.5357 -2.6574 0.8333
6.6177 -2.4185 0.8319
6.7015 -2.1805 0.8319
6.5231 -1.8671 0.8008
6.5181 -1.6156 0.7924
6.5126 -1.3689 0.7852
6.5067 -1.1261 0.7789
6.5623 -0.8951 0.7811
13.7110 -1.3725 1.6249
13.9997 -0.8967 1.6539
14.2033 -0.4002 1.6750
14.2640 0.1089 1.6813
14.4063 0.6261 1.6994
14.7113 1.1681 1.7390
14.9765 1.7305 1.7764
6.5208 0.9911 0.7771
6.4187 1.2121 0.7695
6.4066 1.4491 0.7737
6.3939 1.6889 0.7789
6.7149 2.0334 0.8264
6.6830 2.2879 0.8319
6.5970 2.5257 0.8319
6.5025 2.7603 0.8319
6.3996 2.9913 0.8319
6.3000 3.2243 0.8335
6.2886 3.5080 0.8481
6.2768 3.8022 0.8643
6.2645 4.1083 0.8823
6.2517 4.4278 0.9023
6.2383 4.7625 0.9245
6.2242 5.1146 0.9490
6.2093 5.4862 0.9761
6.1935 5.8801 1.0062
6.1767 6.2996 1.0396
6.1587 6.7483 1.0766
6.1394 7.2308 1.1179
6.1185 7.7523 1.1641
6.0957 8.3194 1.2159
6.0709 8.9399 1.2741
6.0435 9.6235 1.3401
6.0130 10.3826 1.4151
5.9790 11.2326 1.5011
5.9404 12.1935 1.6003
5.4517 12.2891 1.5866
5.0074 12.4738 1.5866
4.5567 12.6424 1.5866
4.1003 12.7946 1.5866
3.6389 12.9302 1.5866
3.1730 13.0491 1.5866
2.7032 13.1511 1.5866
2.2302 13.2362 1.5866
0.8479 6.4295 0.7667
0.6140 6.4213 0.7628
0.3822 6.4131 0.7600
0.1519 6.4051 0.7581
-0.0773 6.3970 0.7572
-0.3062 6.3890 0.7573
-0.5353 6.3810 0.7583
-1.7006 14.1634 1.6898
-2.2058 14.0893 1.6898
-2.7080 13.9972 1.6898
-3.2063 13.8872 1.6898
-3.7002 13.7594 1.6898
-4.1420 13.4607 1.6708
-4.6724 13.4512 1.6898
-5.1493 13.2713 1.6898
-5.6193 13.0744 1.6898
-4.3598 9.2194 1.2113
-4.3249 8.3576 1.1181
-4.6089 8.1754 1.1154
-6.9663 11.3841 1.5867
-7.3671 11.1240 1.5867
-7.7583 10.8499 1.5867
-8.1392 10.5620 1.5867
-8.5096 10.2608 1.5867
-8.8688 9.9467 1.5867
-9.2165 9.6200 1.5867
-9.5522 9.2812 1.5867
-4.0792 3.6890 0.6554
-4.1977 3.5314 0.6539
-4.3101 3.3699 0.6524
-4.4160 3.2048 0.6508
-3.6501 2.4544 0.5247
-3.6456 2.2662 0.5122
-3.6412 2.0866 0.5009
-9.5708 -2.4333 1.4091
-9.5562 -2.7975 1.4209
-9.5414 -3.1682 1.4347
-9.5262 -3.5466 1.4506
-9.5107 -3.9340 1.4688
-9.4947 -4.3317 1.4894
-9.4783 -4.7413 1.5125
-9.4614 -5.1643 1.5383
-9.4438 -5.6026 1.5670
-9.3526 -6.0113 1.5866
-9.1317 -6.3425 1.5866
-8.8992 -6.6657 1.5866
-8.6553 -6.9804 1.5866
-8.4004 -7.2863 1.5866
-8.1347 -7.5829 1.5866
-7.8586 -7.8699 1.5866
-7.5725 -8.1469 1.5866
-7.2767 -8.4137 1.5866
-6.9716 -8.6697 1.5866
-6.6575 -8.9148 1.5866
-6.3348 -9.1485 1.5866
-6.0040 -9.3707 1.5866
-5.6685 -9.5860 1.5874
-5.4390 -9.9986 1.6222
-5.2901 -10.6133 1.6898
-4.9075 -10.7976 1.6898
-4.5186 -10.9682 1.6898
-4.1237 -11.1249 1.6898
-3.7235 -11.2674 1.6898
-3.3183 -11.3957 1.6898
-2.9088 -11.5094 1.6898
-2.4954 -11.6085 1.6898
-2.0787 -11.6928 1.6898
-1.6591 -11.7622 1.6898
-1.2372 -11.8166 1.6898
-0.8135 -11.8559 1.6898
-0.3887 -11.8801 1.6898
0.0369 -11.8892 1.6898
0.4626 -11.8830 1.6898
0.6113 -8.1656 1.1633
0.9048 -8.1538 1.1652
1.7352 -11.7735 1.6898
2.1561 -11.7067 1.6898
2.5744 -11.6249 1.6898
2.8255 -10.8951 1.5970
3.1938 -10.7202 1.5867
3.1186 -9.2445 1.3836
3.9547 -10.4696 1.5867
4.3280 -10.3240 1.5867
4.6961 -10.1650 1.5867
5.0582 -9.9930 1.5867
5.4141 -9.8080 1.5867
5.7632 -9.6104 1.5867
6.1051 -9.4004 1.5867
6.4393 -9.1782 1.5867
6.7890 -8.9751 1.5922
6.7621 -8.3041 1.5148
6.7376 -7.6943 1.4463
6.7153 -7.1364 1.3854
6.6947 -6.6226 1.3310
6.6756 -6.1468 1.2823
6.6579 -5.7039 1.2386
6.6412 -5.2895 1.1992
6.6256 -4.8999 1.1637
6.6109 -4.5322 1.1316
6.5969 -4.1836 1.1026
6.5836 -3.8519 1.0764
6.5709 -3.5350 1.0527
6.5587 -3.2313 1.0314
6.5470 -2.9392 1.0121
6.5357 -2.6573 0.9948
6.5248 -2.3844 0.9793
6.5142 -2.1195 0.9656
6.5038 -1.8615 0.9534
6.4937 -1.6095 0.9427
6.4838 -1.3627 0.9334
6.4741 -1.1204 0.9255
6.4646 -0.8817 0.9189
6.4551 -0.6461 0.9135
6.4458 -0.4128 0.9094
6.4365 -0.1813 0.9065
6.4273 0.0491 0.9048
6.4180 0.2790 0.9042
6.4088 0.5089 0.9048
6.3996 0.7395 0.9066
6.3903 0.9713 0.9095
6.3809 1.2050 0.9137
6.3715 1.4411 0.9191
6.3619 1.6804 0.9257
6.3521 1.9236 0.9337
6.3422 2.1712 0.9430
6.3320 2.4243 0.9538
6.3217 2.6835 0.9661
6.3110 2.9498 0.9799
6.3000 3.2243 0.9955
6.2886 3.5080 1.0129
6.2768 3.8022 1.0323
6.2645 4.1083 1.0539
6.2517 4.4278 1.0777
6.2383 4.7625 1.1042
6.2242 5.1145 1.1334
6.2093 5.4861 1.1658
6.1935 5.8800 1.2017
6.1767 6.2995 1.2416
6.1587 6.7482 1.2858
6.1394 7.2306 1.3351
6.1185 7.7522 1.3902
6.0957 8.3192 1.4520
6.0709 8.9397 1.5216
6.0435 9.6233 1.6003
5.6456 9.7478 1.5866
5.2922 9.9422 1.5866
4.9322 10.1236 1.5866
4.5659 10.2920 1.5866
4.1939 10.4470 1.5866
3.8166 10.5886 1.5866
3.4345 10.7164 1.5866
3.0482 10.8304 1.5866
2.6581 10.9304 1.5866
2.2646 11.0163 1.5866
1.8685 11.0880 1.5866
0.8482 6.4307 0.9154
0.6142 6.4224 0.9107
0.3823 6.4143 0.9073
0.1521 6.4062 0.9050
-0.0772 6.3982 0.9039
-0.3061 6.3902 0.9039
-0.5352 6.3821 0.9051
-1.4248 11.8688 1.6898
-1.8483 11.8073 1.6898
-2.2692 11.7307 1.6898
-2.6870 11.6390 1.6898
-3.1011 11.5324 1.6898
-3.5110 11.4111 1.6898
-3.9163 11.2753 1.6898
-4.3162 11.1250 1.6898
-4.7105 10.9605 1.6898
-5.0985 10.7821 1.6898
-4.3250 8.3582 1.3337
-4.6114 8.1804 1.3312
-6.2202 10.1655 1.6898
-6.2394 9.4218 1.6027
-6.5055 9.0983 1.5867
-6.8252 8.8573 1.5867
-7.1361 8.6052 1.5867
-7.4378 8.3421 1.5867
-3.5529 3.7086 0.7293
-3.5465 3.4461 0.7024
-3.5406 3.2020 0.6782
-3.5351 2.9741 0.6565
-3.5880 2.8055 0.6474
-3.6778 2.6692 0.6461
-3.6501 2.4546 0.6255
-3.6456 2.2663 0.6106
-3.6413 2.0867 0.5971
-9.2780 -2.3588 1.5867
-9.1872 -2.6894 1.5867
-9.0847 -3.0165 1.5867
-8.9707 -3.3397 1.5867
-8.8452 -3.6587 1.5867
-8.7085 -3.9730 1.5867
-8.5606 -4.2822 1.5867
-8.4019 -4.5860 1.5867
-8.2324 -4.8840 1.5867
-8.0525 -5.1757 1.5867
-7.8623 -5.4609 1.5867
-7.6620 -5.7391 1.5867
-7.4512 -6.0094 1.5866
-7.2317 -6.2726 1.5866
-7.0029 -6.5279 1.5866
-6.7652 -6.7750 1.5866
-6.5188 -7.0134 1.5866
-6.2640 -7.2429 1.5866
-6.0012 -7.4632 1.5866
-5.7428 -7.6901 1.5899
-5.5201 -7.9722 1.6061
-5.4957 -8.5776 1.6871
-5.1939 -8.7838 1.6898
-4.8767 -8.9652 1.6898
-4.5532 -9.1353 1.6898
-4.2238 -9.2938 1.6898
-3.8890 -9.4404 1.6898
-3.5490 -9.5750 1.6898
-3.2045 -9.6975 1.6898
-2.8557 -9.8076 1.6898
-2.5032 -9.9052 1.6898
-2.1473 -9.9902 1.6898
-1.7886 -10.0624 1.6898
-1.4275 -10.1219 1.6898
-1.0644 -10.1684 1.6898
-0.6998 -10.2020 1.6898
-0.3342 -10.2225 1.6898
0.0319 -10.2299 1.6898
0.3982 -10.2243 1.6898
0.6114 -8.1656 1.3520
0.9050 -8.1538 1.3543
1.4931 -10.1290 1.6898
1.8551 -10.0712 1.6898
2.2149 -10.0005 1.6898
2.5721 -9.9170 1.6898
2.7604 -9.2648 1.5941
3.0766 -9.1194 1.5867
3.4019 -9.0054 1.5867
3.7229 -8.8798 1.5867
4.0393 -8.7428 1.5867
4.3506 -8.5945 1.5867
4.6565 -8.4352 1.5867
4.9566 -8.2649 1.5867
5.2504 -8.0840 1.5867
5.5377 -7.8926 1.5867
5.8179 -7.6910 1.5867
6.0908 -7.4795 1.5867
6.3560 -7.2582 1.5867
6.7153 -7.1360 1.6112
6.6947 -6.6223 1.5480
6.6756 -6.1465 1.4915
6.6579 -5.7036 1.4406
6.6412 -5.2892 1.3949
6.6256 -4.8997 1.3536
6.6109 -4.5320 1.3163
6.5969 -4.1834 1.2826
6.5836 -3.8517 1.2522
6.5709 -3.5349 1.2247
6.5587 -3.2311 1.1998
6.5470 -2.9390 1.1775
6.5357 -2.6571 1.1574
6.5248 -2.3843 1.1394
6.5142 -2.1194 1.1234
6.5038 -1.8614 1.1093
6.4937 -1.6094 1.0968
6.4838 -1.3626 1.0861
6.4741 -1.1203 1.0769
6.4646 -0.8816 1.0692
6.4551 -0.6460 1.0630
6.4458 -0.4127 1.0583
6.4365 -0.1812 1.0549
6.4272 0.0492 1.0529
6.4180 0.2791 1.0522
6.4088 0.5090 1.0529
6.3996 0.7396 1.0550
6.3903 0.9714 1.0585
6.3809 1.2050 1.0633
6.3715 1.4412 1.0696
6.3619 1.6805 1.0773
6.3521 1.9236 1.0866
6.3422 2.1713 1.0975
6.3320 2.4243 1.1100
6.3217 2.6835 1.1243
6.3110 2.9498 1.1405
6.3000 3.2243 1.1586
6.2886 3.5080 1.1789
6.2768 3.8022 1.2014
6.2645 4.1083 1.2265
6.2517 4.4278 1.2543
6.2383 4.7625 1.2850
6.2242 5.1144 1.3191
6.2093 5.4860 1.3568
6.1935 5.8800 1.3985
6.1767 6.2994 1.4449
6.1587 6.7481 1.4963
6.1394 7.2305 1.5537
6.1185 7.7520 1.6178
5.7239 7.8115 1.5866
5.4400 8.0105 1.5866
5.1492 8.1991 1.5866
4.8519 8.3771 1.5866
4.5483 8.5443 1.5866
4.2390 8.7005 1.5866
3.9243 8.8454 1.5866
3.6047 8.9788 1.5866
3.2805 9.1007 1.5866
2.9522 9.2108 1.5866
2.6201 9.3090 1.5866
2.2849 9.3952 1.5866
1.9468 9.4693 1.5866
1.7109 10.1515 1.6898
0.8485 6.4319 1.0651
0.6144 6.4236 1.0596
0.3825 6.4155 1.0555
0.1522 6.4074 1.0528
-0.0771 6.3993 1.0515
-0.3060 6.3913 1.0515
-0.5352 6.3833 1.0529
-0.8446 7.0373 1.1653
-1.5890 10.1525 1.6898
-1.9510 10.0869 1.6898
-2.3103 10.0084 1.6898
-2.6665 9.9171 1.6898
-3.0191 9.8132 1.6898
-3.3677 9.6966 1.6898
-3.7118 9.5678 1.6898
-4.0510 9.4267 1.6898
-4.3849 9.2735 1.6898
-4.7130 9.1086 1.6898
-5.0349 8.9320 1.6898
-5.3503 8.7441 1.6898
-5.6586 8.5451 1.6898
-5.9595 8.3352 1.6898
-6.1752 8.0141 1.6688
-6.1620 7.4308 1.5927
-6.3986 7.1770 1.5867
-3.5530 3.7088 0.8477
-3.5466 3.4463 0.8164
-3.5407 3.2022 0.7883
-3.5352 2.9743 0.7630
-3.5300 2.7603 0.7403
-3.5251 2.5585 0.7197
-3.5205 2.3675 0.7011
-3.5161 2.1859 0.6843
-3.5119 2.0127 0.6692
-8.1375 -2.0688 1.5867
-8.0579 -2.3588 1.5867
-7.9681 -2.6457 1.5867
-7.8681 -2.9292 1.5867
-7.7580 -3.2090 1.5867
-7.6381 -3.4847 1.5867
-7.5084 -3.7559 1.5867
-7.3692 -4.0224 1.5867
-7.2205 -4.2837 1.5867
-7.0627 -4.5396 1.5867
-6.8958 -4.7897 1.5867
-6.7201 -5.0337 1.5867
-6.5359 -5.2712 1.5867
-6.3433 -5.5021 1.5867
-6.1425 -5.7260 1.5867
-5.9334 -5.9421 1.5866
-5.7172 -6.1511 1.5866
-5.5809 -6.4531 1.6117
-5.5622 -6.9174 1.6767
-5.3530 -7.1683 1.6898
-5.0934 -7.3561 1.6898
-4.8273 -7.5345 1.6898
-4.5549 -7.7033 1.6898
-4.2767 -7.8623 1.6898
-3.9929 -8.0113 1.6898
-3.7040 -8.1501 1.6898
-3.4102 -8.2786 1.6898
-3.1121 -8.3965 1.6898
-2.8099 -8.5037 1.6898
-2.5040 -8.6001 1.6898
-2.1948 -8.6855 1.6898
-1.8827 -8.7599 1.6898
-1.5681 -8.8231 1.6898
-1.2515 -8.8750 1.6898
-0.9331 -8.9156 1.6898
-0.6134 -8.9448 1.6898
-0.2929 -8.9626 1.6898
0.0282 -8.9689 1.6898
0.3493 -8.9637 1.6898
0.6701 -8.9471 1.6898
0.9902 -8.9190 1.6898
1.3091 -8.8795 1.6898
1.6264 -8.8286 1.6898
1.9418 -8.7664 1.6898
2.2548 -8.6930 1.6898
2.5190 -8.4537 1.6594
2.7107 -8.0340 1.5948
2.9819 -7.8932 1.5867
3.2632 -7.7830 1.5867
3.5405 -7.6627 1.5867
3.8132 -7.5325 1.5867
4.0812 -7.3927 1.5867
4.3441 -7.2432 1.5867
4.6015 -7.0845 1.5867
4.8531 -6.9166 1.5867
5.0986 -6.7397 1.5867
5.3376 -6.5542 1.5867
5.5698 -6.3601 1.5867
5.7950 -6.1579 1.5867
6.0128 -5.9476 1.5867
6.2231 -5.7296 1.5867
6.4253 -5.5042 1.5867
6.6412 -5.2890 1.5920
6.6256 -4.8995 1.5449
6.6109 -4.5318 1.5024
6.5969 -4.1832 1.4640
6.5836 -3.8515 1.4292
6.5709 -3.5347 1.3979
6.5587 -3.2310 1.3696
6.5470 -2.9389 1.3441
6.5357 -2.6570 1.3212
6.5248 -2.3842 1.3007
6.5142 -2.1192 1.2824
6.5038 -1.8613 1.2663
6.4937 -1.6093 1.2521
6.4838 -1.3625 1.2399
6.4741 -1.1202 1.2294
6.4646 -0.8816 1.2207
6.4551 -0.6459 1.2136
6.4458 -0.4127 1.2082
6.4365 -0.1811 1.2044
6.4272 0.0493 1.2021
6.4180 0.2791 1.2014
6.4088 0.5090 1.2022
6.3996 0.7396 1.2046
6.3903 0.9714 1.2085
6.3809 1.2051 1.2141
6.3715 1.4412 1.2212
6.3619 1.6805 1.2301
6.3521 1.9236 1.2407
6.3422 2.1713 1.2531
6.3320 2.4243 1.2674
6.3217 2.6835 1.2837
6.3110 2.9498 1.3022
6.3000 3.2243 1.3229
6.2886 3.5080 1.3460
6.2768 3.8022 1.3718
6.2645 4.1082 1.4004
6.2517 4.4277 1.4321
6.2383 4.7624 1.4672
6.2242 5.1144 1.5061
6.2093 5.4860 1.5491
6.1935 5.8799 1.5968
5.9405 6.0584 1.5866
5.7195 6.2667 1.5866
5.4911 6.4669 1.5866
5.2557 6.6588 1.5866
5.0135 6.8420 1.5866
4.7650 7.0163 1.5866
4.5103 7.1817 1.5866
4.2500 7.3377 1.5866
3.9842 7.4843 1.5866
3.7133 7.6211 1.5866
3.4377 7.7482 1.5866
3.1577 7.8652 1.5866
2.8738 7.9721 1.5866
2.5863 8.0687 1.5866
0.8615 3.0607 0.5955
0.7515 3.0896 0.5956
0.6404 3.1146 0.5957
0.5285 3.1356 0.5958
0.4160 3.1527 0.5959
0.3029 3.1657 0.5960
0.1894 3.1748 0.5962
0.0756 3.1798 0.5963
-0.0382 3.1807 0.5965
-0.1521 3.1776 0.5967
-0.2658 3.1705 0.5968
-0.3791 3.1593 0.5970
-0.4920 3.1441 0.5972
-0.6044 3.1249 0.5974
-0.7159 3.1017 0.5976
-0.8266 3.0746 0.5978
-2.6456 8.5999 1.6898
-2.9512 8.4980 1.6898
-3.2529 8.3853 1.6898
-3.5502 8.2619 1.6898
-3.8430 8.1279 1.6898
-4.1306 7.9835 1.6898
-4.4129 7.8290 1.6898
-4.6894 7.6645 1.6898
-4.9598 7.4902 1.6898
-5.2237 7.3065 1.6898
-5.4809 7.1134 1.6898
-5.7309 6.9113 1.6898
-5.9736 6.7004 1.6898
-3.5530 3.7091 0.9671
-3.5467 3.4465 0.9313
-3.5408 3.2025 0.8992
-3.5353 2.9745 0.8704
-3.5301 2.7604 0.8444
-3.5252 2.5587 0.8209
-3.5206 2.3676 0.7997
-3.5162 2.1861 0.7805
-3.5120 2.0128 0.7632
-7.2399 -1.8406 1.5867
-7.1692 -2.0986 1.5867
-7.0893 -2.3539 1.5867
-7.0003 -2.6061 1.5867
-6.9024 -2.8551 1.5867
-6.7957 -3.1003 1.5867
-6.6803 -3.3417 1.5867
-6.5565 -3.5787 1.5867
-6.4242 -3.8112 1.5867
-6.2837 -4.0389 1.5867
-6.1352 -4.2614 1.5867
-5.9789 -4.4785 1.5867
-5.8150 -4.6898 1.5867
-5.6669 -4.9155 1.5933
-5.6431 -5.2605 1.6384
-5.6223 -5.6306 1.6898
-5.4174 -5.8287 1.6898
-5.2056 -6.0193 1.6898
-4.9871 -6.2023 1.6898
-4.7622 -6.3774 1.6898
-4.5312 -6.5443 1.6898
-4.2944 -6.7030 1.6898
-4.0520 -6.8531 1.6898
-3.8045 -6.9945 1.6898
-3.5520 -7.1270 1.6898
-3.2949 -7.2504 1.6898
-3.0336 -7.3645 1.6898
-2.7683 -7.4693 1.6898
-2.4994 -7.5646 1.6898
-2.2273 -7.6502 1.6898
-1.9522 -7.7261 1.6898
-1.6746 -7.7921 1.6898
-1.3947 -7.8482 1.6898
-1.1130 -7.8942 1.6898
-0.8298 -7.9302 1.6898
-0.5454 -7.9560 1.6898
-0.2603 -7.9717 1.6898
0.0253 -7.9771 1.6898
0.3109 -7.9724 1.6898
0.5962 -7.9575 1.6898
0.8808 -7.9323 1.6898
1.1644 -7.8971 1.6898
1.4466 -7.8516 1.6898
1.7271 -7.7962 1.6898
2.0054 -7.7307 1.6898
2.2813 -7.6553 1.6898
2.4740 -7.3321 1.6367
2.6702 -7.0675 1.5977
2.9019 -6.9208 1.5867
3.1484 -6.8137 1.5867
3.3909 -6.6978 1.5867
3.6291 -6.5733 1.5867
3.8628 -6.4403 1.5867
4.0916 -6.2990 1.5867
4.3152 -6.1496 1.5867
4.5333 -5.9923 1.5867
4.7457 -5.8272 1.5867
4.9521 -5.6545 1.5867
5.1522 -5.4746 1.5867
5.3452 -5.2870 1.5866
5.5320 -5.0931 1.5866
5.7117 -4.8926 1.5866
5.8841 -4.6858 1.5866
6.0490 -4.4729 1.5866
6.2062 -4.2542 1.5866
6.3555 -4.0300 1.5866
6.5836 -3.8514 1.6078
6.5709 -3.5345 1.5726
6.5587 -3.2308 1.5407
6.5470 -2.9387 1.5121
6.5357 -2.6569 1.4864
6.5248 -2.3840 1.4633
6.5142 -2.1191 1.4428
6.5038 -1.8611 1.4247
6.4937 -1.6092 1.4088
6.4838 -1.3624 1.3950
6.4741 -1.1201 1.3832
6.4646 -0.8815 1.3734
6.4551 -0.6458 1.3655
6.4458 -0.4126 1.3594
6.4365 -0.1811 1.3551
6.4272 0.0493 1.3525
6.4180 0.2792 1.3517
6.4088 0.5091 1.3527
6.3996 0.7396 1.3554
6.3903 0.9715 1.3598
6.3809 1.2051 1.3661
6.3714 1.4413 1.3742
6.3619 1.6805 1.3841
6.3521 1.9236 1.3961
6.3422 2.1713 1.4100
6.3320 2.4243 1.4261
6.3217 2.6835 1.4445
6.3110 2.9498 1.4653
6.3000 3.2243 1.4886
6.2886 3.5080 1.5146
6.2768 3.8022 1.5436
6.2645 4.1082 1.5758
6.2517 4.4277 1.6114
5.9951 4.5767 1.5866
5.8272 4.7881 1.5866
5.6518 4.9934 1.5866
5.4692 5.1922 1.5866
5.2796 5.3843 1.5866
5.0832 5.5694 1.5866
4.8803 5.7474 1.5866
4.6711 5.9179 1.5866
4.4559 6.0808 1.5866
4.2350 6.2359 1.5866
4.0088 6.3829 1.5866
3.7774 6.5216 1.5866
3.5412 6.6520 1.5866
3.3005 6.7737 1.5866
3.0556 6.8867 1.5866
2.8068 6.9908 1.5866
2.5545 7.0860 1.5866
0.8639 2.6951 0.5962
0.7669 2.7243 0.5963
0.6689 2.7500 0.5964
0.5700 2.7722 0.5965
0.4705 2.7909 0.5966
0.3703 2.8061 0.5967
0.2696 2.8177 0.5968
0.1686 2.8257 0.5969
0.0674 2.8301 0.5970
-0.0340 2.8309 0.5972
-0.1353 2.8281 0.5973
-0.2364 2.8217 0.5975
-0.3373 2.8117 0.5976
-0.4378 2.7982 0.5978
-0.5378 2.7810 0.5980
-0.6370 2.7604 0.5982
-0.7356 2.7362 0.5984
-0.8331 2.7085 0.5986
-2.6239 7.5561 1.6898
-2.8922 7.4560 1.6898
-3.1567 7.3464 1.6898
-3.4170 7.2274 1.6898
-3.6729 7.0992 1.6898
-3.9240 6.9620 1.6898
-4.1699 6.8158 1.6898
-4.4105 6.6610 1.6898
-4.6453 6.4977 1.6898
-4.8741 6.3262 1.6898
-5.0966 6.1465 1.6898
-5.3124 5.9591 1.6898
-3.5531 3.7093 1.0874
-3.5468 3.4467 1.0472
-3.5408 3.2027 1.0111
-3.5353 2.9746 0.9786
-3.5302 2.7606 0.9494
-3.5253 2.5588 0.9229
-3.5206 2.3678 0.8991
-3.5162 2.1862 0.8775
-3.5121 2.0129 0.8581
-6.5145 -1.6561 1.5867
-6.4508 -1.8883 1.5867
-6.3789 -2.1180 1.5867
-6.2989 -2.3450 1.5867
-6.2108 -2.5690 1.5867
-6.1148 -2.7897 1.5867
-6.0110 -3.0069 1.5867
-5.9165 -3.2294 1.5913
-5.7805 -3.4294 1.5867
-5.7143 -3.6729 1.6036
-5.6953 -3.9559 1.6370
-5.6833 -4.2571 1.6762
-5.5722 -4.4941 1.6898
-5.4079 -4.6909 1.6898
-5.2367 -4.8818 1.6898
-5.0588 -5.0664 1.6898
-4.8744 -5.2446 1.6898
-4.6838 -5.4161 1.6898
-4.4872 -5.5807 1.6898
-4.2848 -5.7382 1.6898
-4.0769 -5.8883 1.6898
-3.8638 -6.0310 1.6898
-3.6457 -6.1660 1.6898
-3.4229 -6.2932 1.6898
-3.1957 -6.4123 1.6898
-2.9643 -6.5233 1.6898
-2.7292 -6.6259 1.6898
-2.4905 -6.7201 1.6898
-2.2486 -6.8058 1.6898
-2.0037 -6.8827 1.6898
-1.7562 -6.9509 1.6898
-1.5064 -7.0102 1.6898
-1.2546 -7.0605 1.6898
-1.0012 -7.1019 1.6898
-0.7463 -7.1341 1.6898
-0.4905 -7.1573 1.6898
-0.2340 -7.1712 1.6898
0.0229 -7.1760 1.6898
0.2798 -7.1717 1.6898
0.5365 -7.1581 1.6898
0.7925 -7.1354 1.6898
1.0476 -7.1036 1.6898
1.3014 -7.0626 1.6898
1.5536 -7.0126 1.6898
1.8040 -6.9535 1.6898
2.0521 -6.8856 1.6898
2.2976 -6.8088 1.6898
2.4419 -6.4629 1.6244
2.6102 -6.2247 1.5867
2.8318 -6.1282 1.5867
3.0499 -6.0239 1.5867
3.2641 -5.9118 1.5867
3.4742 -5.7921 1.5867
3.6798 -5.6649 1.5867
3.8809 -5.5305 1.5867
4.0766 -5.3883 1.5866
4.2675 -5.2398 1.5866
4.4531 -5.0845 1.5866
4.6329 -4.9225 1.5866
4.8069 -4.7543 1.5866
4.9747 -4.5799 1.5866
5.1362 -4.3995 1.5866
5.2912 -4.2135 1.5866
5.4394 -4.0220 1.5866
5.5807 -3.8253 1.5866
5.7148 -3.6236 1.5866
5.8416 -3.4171 1.5866
5.9610 -3.2063 1.5866
6.0727 -2.9913 1.5866
6.1767 -2.7723 1.5866
6.2727 -2.5498 1.5866
6.5248 -2.3839 1.6275
6.5142 -2.1190 1.6047
6.5038 -1.8610 1.5846
6.4937 -1.6091 1.5669
6.4838 -1.3623 1.5516
6.4741 -1.1200 1.5385
6.4646 -0.8814 1.5276
6.4551 -0.6458 1.5188
6.4458 -0.4125 1.5120
6.4365 -0.1810 1.5073
6.4272 0.0494 1.5044
6.4180 0.2792 1.5036
6.4088 0.5091 1.5046
6.3996 0.7397 1.5076
6.3903 0.9715 1.5126
6.3809 1.2052 1.5195
6.3714 1.4413 1.5285
6.3619 1.6806 1.5396
6.3521 1.9237 1.5529
6.3422 2.1713 1.5685
6.3320 2.4243 1.5864
6.3217 2.6835 1.6068
6.3110 2.9499 1.6299
6.0365 3.0895 1.5866
5.9220 3.3035 1.5866
5.7999 3.5133 1.5866
5.6704 3.7185 1.5866
5.5335 3.9190 1.5866
5.3896 4.1144 1.5866
5.2387 4.3045 1.5866
5.0811 4.4890 1.5866
4.9169 4.6678 1.5866
4.7465 4.8405 1.5866
4.5699 5.0070 1.5866
4.3875 5.1670 1.5866
4.1995 5.3204 1.5866
4.0061 5.4669 1.5866
3.8076 5.6063 1.5866
3.6042 5.7385 1.5866
3.3962 5.8633 1.5866
3.1839 5.9805 1.5866
2.9675 6.0901 1.5866
2.7474 6.1917 1.5866
2.5237 6.2854 1.5866
0.8640 2.3965 0.5968
0.7776 2.4258 0.5969
0.6903 2.4521 0.5969
0.6021 2.4753 0.5970
0.5132 2.4953 0.5971
0.4235 2.5121 0.5972
0.3334 2.5257 0.5973
0.2428 2.5362 0.5974
0.1518 2.5433 0.5975
0.0607 2.5473 0.5976
-0.0305 2.5480 0.5977
-0.1217 2.5455 0.5979
-0.2128 2.5397 0.5980
-0.3036 2.5307 0.5982
-0.3940 2.5184 0.5983
-0.4840 2.5030 0.5985
-0.5733 2.4844 0.5986
-0.6619 2.4626 0.5988
-0.7498 2.4376 0.5990
-0.8367 2.4095 0.5992
-2.6010 6.7058 1.6898
-2.8389 6.6073 1.6898
-3.0731 6.5004 1.6898
-3.3033 6.3852 1.6898
-3.5292 6.2619 1.6898
-3.7505 6.1305 1.6898
-3.9669 5.9914 1.6898
-4.1782 5.8446 1.6898
-4.3840 5.6904 1.6898
-4.5842 5.5289 1.6898
-4.7785 5.3604 1.6898
-3.5532 3.7096 1.2089
-3.5468 3.4470 1.1642
-3.4249 3.0979 1.0872
-3.5169 2.9593 1.0822
-3.5302 2.7608 1.0554
-3.5253 2.5590 1.0260
-3.5207 2.3679 0.9995
-3.5163 2.1863 0.9755
-3.5121 2.0131 0.9538
-5.9154 -1.5038 1.5867
-5.8576 -1.7146 1.5867
-5.7923 -1.9232 1.5867
-5.7757 -2.1502 1.6023
-5.7620 -2.3833 1.6211
-5.7488 -2.6227 1.6428
-5.7388 -2.8707 1.6683
-5.7051 -3.1141 1.6898
-5.5900 -3.3164 1.6898
-5.4677 -3.5145 1.6898
-5.3385 -3.7081 1.6898
-5.2024 -3.8969 1.6898
-5.0597 -4.0808 1.6898
-4.9105 -4.2596 1.6898
-4.7551 -4.4328 1.6898
-4.5935 -4.6005 1.6898
-4.4261 -4.7622 1.6898
-4.2530 -4.9179 1.6898
-4.0744 -5.0674 1.6898
-3.8906 -5.2103 1.6898
-3.7018 -5.3467 1.6898
-3.5082 -5.4762 1.6898
-3.3102 -5.5988 1.6898
-3.1079 -5.7142 1.6898
-2.9016 -5.8223 1.6898
-2.6915 -5.9230 1.6898
-2.4779 -6.0161 1.6898
-2.2611 -6.1016 1.6898
-2.0414 -6.1793 1.6898
-1.8191 -6.2491 1.6898
-1.5944 -6.3109 1.6898
-1.3676 -6.3647 1.6898
-1.1389 -6.4103 1.6898
-0.9088 -6.4478 1.6898
-0.6775 -6.4770 1.6898
-0.4452 -6.4979 1.6898
-0.2123 -6.5105 1.6898
0.0209 -6.5148 1.6898
0.2542 -6.5108 1.6898
0.4872 -6.4984 1.6898
0.7196 -6.4777 1.6898
0.9512 -6.4487 1.6898
1.1816 -6.4114 1.6898
1.4106 -6.3659 1.6898
1.6378 -6.3122 1.6898
1.8630 -6.2505 1.6898
2.0858 -6.1807 1.6898
2.3061 -6.1029 1.6898
2.4167 -5.7629 1.6184
2.5706 -5.5626 1.5867
2.7682 -5.4673 1.5866
2.9626 -5.3655 1.5866
3.1532 -5.2568 1.5866
3.3399 -5.1413 1.5866
3.5223 -5.0192 1.5866
3.7002 -4.8906 1.5866
3.8735 -4.7557 1.5866
4.0418 -4.6147 1.5866
4.2050 -4.4677 1.5866
4.3628 -4.3149 1.5866
4.5151 -4.1565 1.5866
4.6616 -3.9928 1.5866
4.8022 -3.8239 1.5866
4.9366 -3.6501 1.5866
5.0648 -3.4715 1.5866
5.1865 -3.2884 1.5866
5.3015 -3.1010 1.5866
5.4097 -2.9097 1.5866
5.5111 -2.7145 1.5866
5.6053 -2.5158 1.5866
5.6924 -2.3138 1.5866
5.7722 -2.1088 1.5866
5.8446 -1.9011 1.5866
5.9095 -1.6909 1.5866
5.9668 -1.4784 1.5866
6.0164 -1.2640 1.5866
6.0584 -1.0480 1.5866
6.0925 -0.8306 1.5866
6.1188 -0.6120 1.5866
6.1373 -0.3927 1.5866
6.1478 -0.1728 1.5866
6.1505 0.0473 1.5866
6.1452 0.2674 1.5866
6.1320 0.4872 1.5866
6.1110 0.7064 1.5866
6.0821 0.9247 1.5866
6.0453 1.1418 1.5866
6.0008 1.3575 1.5866
5.9486 1.5714 1.5866
5.8886 1.7833 1.5866
5.8212 1.9930 1.5866
5.7462 2.2001 1.5866
5.6639 2.4043 1.5866
5.5742 2.6055 1.5866
5.4774 2.8033 1.5866
5.3735 2.9975 1.5866
5.2628 3.1879 1.5866
5.1452 3.3741 1.5866
5.0211 3.5560 1.5866
4.8904 3.7333 1.5866
4.7535 3.9058 1.5866
4.6105 4.0733 1.5866
4.4616 4.2355 1.5866
4.3069 4.3922 1.5866
4.1468 4.5433 1.5866
3.9813 4.6885 1.5866
3.8107 4.8277 1.5866
3.6352 4.9607 1.5866
3.4551 5.0872 1.5866
3.2706 5.2072 1.5866
3.0819 5.3205 1.5866
2.8893 5.4269 1.5866
2.6930 5.5264 1.5866
2.4932 5.6187 1.5866
0.8622 2.1473 0.5973
0.7848 2.1767 0.5973
0.7064 2.2034 0.5974
0.6271 2.2273 0.5975
0.5470 2.2483 0.5975
0.4662 2.2665 0.5976
0.3847 2.2817 0.5977
0.3028 2.2941 0.5978
0.2205 2.3036 0.5979
0.1379 2.3101 0.5980
0.0551 2.3137 0.5981
-0.0277 2.3143 0.5982
-0.1105 2.3120 0.5983
-0.1932 2.3067 0.5985
-0.2757 2.2985 0.5986
-0.3578 2.2874 0.5987
-0.4395 2.2733 0.5989
-0.5206 2.2563 0.5990
-0.6011 2.2365 0.5992
-0.6809 2.2138 0.5993
-0.7598 2.1883 0.5995
-0.8377 2.1600 0.5997
-2.5767 5.9975 1.6898
-2.7894 5.9006 1.6898
-2.9983 5.7961 1.6898
-3.2034 5.6842 1.6898
-3.4043 5.5650 1.6898
-3.6008 5.4388 1.6898
-3.7927 5.3056 1.6898
-3.9796 5.1657 1.6898
-4.1614 5.0192 1.6898
-4.3378 4.8663 1.6898
-3.5533 3.7098 1.3318
-3.3599 3.2655 1.2149
-3.3577 3.0373 1.1741
-3.4518 2.9046 1.1700
-3.5303 2.7610 1.1625
-3.5254 2.5592 1.1301
-3.5208 2.3681 1.1009
-3.5164 2.1865 1.0745
-3.5122 2.0132 1.0506
-5.7635 -1.4652 1.6898
-5.7072 -1.6706 1.6898
-5.6436 -1.8738 1.6898
-5.5728 -2.0747 1.6898
-5.4949 -2.2729 1.6898
-5.4100 -2.4681 1.6898
-5.3181 -2.6603 1.6898
-5.2195 -2.8490 1.6898
-5.1142 -3.0341 1.6898
-5.0023 -3.2153 1.6898
-4.8841 -3.3925 1.6898
-4.7596 -3.5652 1.6898
-4.6290 -3.7335 1.6898
-4.4925 -3.8970 1.6898
-4.3502 -4.0555 1.6898
-4.2024 -4.2088 1.6898
-4.0492 -4.3568 1.6898
-3.8908 -4.4993 1.6898
-3.7274 -4.6359 1.6898
-3.5593 -4.7667 1.6898
-3.3865 -4.8914 1.6898
-3.2094 -5.0099 1.6898
-3.0282 -5.1220 1.6898
-2.8431 -5.2275 1.6898
-2.6543 -5.3264 1.6898
-2.4621 -5.4185 1.6898
-2.2667 -5.5037 1.6898
-2.0684 -5.5818 1.6898
-1.8674 -5.6528 1.6898
-1.6640 -5.7166 1.6898
-1.4584 -5.7732 1.6898
-1.2509 -5.8223 1.6898
-1.0417 -5.8640 1.6898
-0.8312 -5.8982 1.6898
-0.6196 -5.9248 1.6898
-0.4071 -5.9439 1.6898
-0.1941 -5.9554 1.6898
0.0192 -5.9593 1.6898
0.2326 -5.9555 1.6898
0.4457 -5.9441 1.6898
0.6584 -5.9251 1.6898
0.8702 -5.8985 1.6898
1.0809 -5.8643 1.6898
1.2903 -5.8226 1.6898
1.4981 -5.7735 1.6898
1.7041 -5.7169 1.6898
1.9079 -5.6530 1.6898
2.1094 -5.5819 1.6898
2.3081 -5.5035 1.6898
2.4101 -5.2150 1.6265
2.5320 -5.0003 1.5866
2.7097 -4.9072 1.5866
2.8840 -4.8077 1.5866
3.0546 -4.7020 1.5866
3.2214 -4.5903 1.5866
3.3842 -4.4726 1.5866
3.5425 -4.3492 1.5866
3.6964 -4.2202 1.5866
3.8456 -4.0857 1.5866
3.9900 -3.9459 1.5866
4.1291 -3.8011 1.5866
4.2631 -3.6513 1.5866
4.3916 -3.4968 1.5866
4.5145 -3.3378 1.5866
4.6316 -3.1744 1.5866
4.7428 -3.0070 1.5866
4.8480 -2.8356 1.5866
4.9469 -2.6606 1.5866
5.0395 -2.4821 1.5866
5.1257 -2.3004 1.5866
5.2053 -2.1157 1.5866
5.2782 -1.9282 1.5866
5.3443 -1.7383 1.5866
5.4036 -1.5460 1.5866
5.4560 -1.3518 1.5866
5.5013 -1.1557 1.5866
5.5396 -0.9582 1.5866
5.5708 -0.7594 1.5866
5.5948 -0.5596 1.5866
5.6117 -0.3590 1.5866
5.6213 -0.1579 1.5866
5.6237 0.0433 1.5866
5.6188 0.2446 1.5866
5.6068 0.4455 1.5866
5.5875 0.6459 1.5866
5.5610 0.8455 1.5866
5.5274 1.0440 1.5866
5.4867 1.2412 1.5866
5.4389 1.4368 1.5866
5.3841 1.6306 1.5866
5.3225 1.8222 1.5866
5.2539 2.0116 1.5866
5.1786 2.1983 1.5866
5.0966 2.3822 1.5866
5.0081 2.5631 1.5866
4.9131 2.7407 1.5866
4.8118 2.9147 1.5866
4.7044 3.0850 1.5866
4.5909 3.2513 1.5866
4.4715 3.4134 1.5866
4.3463 3.5712 1.5866
4.2156 3.7243 1.5866
4.0795 3.8726 1.5866
3.9381 4.0160 1.5866
3.7916 4.1541 1.5866
3.6404 4.2869 1.5866
3.4844 4.4142 1.5866
3.3240 4.5358 1.5866
3.1593 4.6515 1.5866
2.9906 4.7613 1.5866
2.8181 4.8649 1.5866
2.6420 4.9622 1.5866
2.4625 5.0532 1.5866
0.8589 1.9355 0.5977
0.7890 1.9650 0.5978
0.7182 1.9919 0.5978
0.6464 2.0163 0.5979
0.5739 2.0382 0.5979
0.5006 2.0574 0.5980
0.4266 2.0740 0.5980
0.3521 2.0880 0.5981
0.2772 2.0993 0.5982
0.2019 2.1080 0.5983
0.1263 2.1139 0.5984
0.0505 2.1172 0.5985
-0.0253 2.1178 0.5986
-0.1011 2.1156 0.5987
-0.1768 2.1108 0.5988
-0.2522 2.1033 0.5989
-0.3273 2.0931 0.5991
-0.4021 2.0802 0.5992
-0.4764 2.0646 0.5993
-0.5500 2.0465 0.5995
-0.6230 2.0257 0.5996
-0.6951 2.0023 0.5998
-0.7665 1.9764 0.5999
-0.8368 1.9479 0.6001
-2.5510 5.3967 1.6898
-2.7422 5.3012 1.6898
-2.9298 5.1989 1.6898
-3.1136 5.0900 1.6898
-3.2934 4.9746 1.6898
-3.4689 4.8529 1.6898
-3.6399 4.7250 1.6898
-3.8062 4.5910 1.6898
-3.9676 4.4512 1.6898
-4.1239 4.3058 1.6898
-3.3123 3.2193 1.3093
-3.3249 3.0078 1.2711
-3.4188 2.8770 1.2669
-3.5304 2.7612 1.2709
-3.5255 2.5593 1.2355
-3.5208 2.3682 1.2035
-3.5165 2.1866 1.1747
-3.5122 2.0133 1.1486
-5.3060 -1.3488 1.6898
-5.2542 -1.5379 1.6898
-5.1957 -1.7251 1.6898
-5.1305 -1.9100 1.6898
-5.0588 -2.0925 1.6898
-4.9806 -2.2722 1.6898
-4.8960 -2.4491 1.6898
-4.8052 -2.6229 1.6898
-4.7082 -2.7933 1.6898
-4.6053 -2.9601 1.6898
-4.4964 -3.1232 1.6898
-4.3818 -3.2823 1.6898
-4.2615 -3.4372 1.6898
-4.1359 -3.5877 1.6898
-4.0049 -3.7336 1.6898
-3.8688 -3.8748 1.6898
-3.7277 -4.0110 1.6898
-3.5819 -4.1421 1.6898
-3.4315 -4.2679 1.6898
-3.2766 -4.3883 1.6898
-3.1176 -4.5031 1.6898
-2.9545 -4.6121 1.6898
-2.7877 -4.7153 1.6898
-2.6172 -4.8124 1.6898
-2.4435 -4.9034 1.6898
-2.2665 -4.9882 1.6898
-2.0866 -5.0665 1.6898
-1.9040 -5.1384 1.6898
-1.7190 -5.2038 1.6898
-1.5317 -5.2625 1.6898
-1.3424 -5.3145 1.6898
-1.1514 -5.3597 1.6898
-0.9589 -5.3980 1.6898
-0.7651 -5.4294 1.6898
-0.5703 -5.4539 1.6898
-0.3746 -5.4714 1.6898
-0.1785 -5.4820 1.6898
0.0178 -5.4855 1.6898
0.2142 -5.4820 1.6898
0.4104 -5.4714 1.6898
0.6061 -5.4539 1.6898
0.8011 -5.4293 1.6898
0.9950 -5.3978 1.6898
1.1878 -5.3594 1.6898
1.3791 -5.3141 1.6898
1.5686 -5.2620 1.6898
1.7562 -5.2031 1.6898
1.9416 -5.1376 1.6898
2.1245 -5.0654 1.6898
2.3048 -4.9868 1.6898
2.3901 -4.7199 1.6271
2.4941 -4.5164 1.5866
2.6545 -4.4248 1.5866
2.8115 -4.3275 1.5866
2.9650 -4.2246 1.5866
3.1147 -4.1163 1.5866
3.2604 -4.0026 1.5866
3.4020 -3.8839 1.5866
3.5393 -3.7601 1.5866
3.6721 -3.6314 1.5866
3.8001 -3.4981 1.5866
3.9234 -3.3602 1.5866
4.0416 -3.2180 1.5866
4.1547 -3.0716 1.5866
4.2624 -2.9213 1.5866
4.3647 -2.7671 1.5866
4.4615 -2.6094 1.5866
4.5525 -2.4483 1.5866
4.6377 -2.2841 1.5866
4.7169 -2.1168 1.5866
4.7901 -1.9468 1.5866
4.8572 -1.7743 1.5866
4.9180 -1.5995 1.5866
4.9725 -1.4226 1.5866
