ply
format ascii 1.0
element vertex 2099
property float32 x
property float32 y
property float32 z
end_header
9.3956 -2.2206 -1.3265
9.5084 -1.8903 -1.3367
9.6224 -1.5568 -1.3490
9.7377 -1.2193 -1.3633
9.8548 -0.8766 -1.3797
9.9740 -0.5278 -1.3985
10.0700 -0.1714 -1.4160
10.1612 0.1914 -1.4349
10.2857 0.5630 -1.4606
10.4202 0.9460 -1.4901
11.5128 13.9346 -2.8582
-1.1501 39.5537 -6.7336
-2.3492 36.0446 -6.1617
-3.3676 33.1958 -5.7050
-4.2095 30.5059 -5.2768
-4.9652 28.3893 -4.9485
-5.8038 27.3409 -4.8082
-6.9387 27.7287 -4.9257
-8.1277 28.1351 -5.0548
-9.1910 27.9918 -5.0926
-10.5556 28.6245 -5.2804
-12.3642 30.1371 -5.6445
-14.4590 31.9172 -6.0776
-21.4783 36.3675 -7.3412
-22.4363 35.0417 -7.2349
-23.6274 34.1281 -7.2192
-24.5076 32.8074 -7.1226
-25.3339 31.4807 -7.0278
-26.3731 30.4567 -7.0052
-27.2580 29.2768 -6.9527
-4.4297 4.4267 -1.0879
-4.1627 3.8704 -0.9867
-4.5075 3.8977 -1.0336
-6.5278 5.2459 -1.4511
-6.7877 5.0633 -1.4656
-6.8596 4.7422 -1.4414
-6.9365 4.4348 -1.4210
-14.2923 -8.6315 -2.2082
-14.6076 -9.5542 -2.2956
-3.9812 -2.8131 -0.6375
-3.8618 -2.9422 -0.6314
-26.4213 -28.9231 -4.9509
-26.4003 -31.0694 -5.1233
-24.7156 -31.2967 -4.9827
-23.2969 -31.7815 -4.8957
5.8942 -12.4209 -1.5142
6.0877 -11.7245 -1.4532
6.3197 -11.1734 -1.4107
6.5233 -10.6261 -1.3693
6.7055 -10.0930 -1.3301
6.8779 -9.5885 -1.2949
7.0417 -9.1092 -1.2635
7.1979 -8.6520 -1.2353
7.3474 -8.2144 -1.2102
7.4911 -7.7940 -1.1880
7.6295 -7.3889 -1.1683
7.7633 -6.9973 -1.1510
7.8931 -6.6175 -1.1359
8.0193 -6.2480 -1.1230
8.1425 -5.8876 -1.1120
8.2630 -5.5350 -1.1030
8.3812 -5.1891 -1.0958
8.4975 -4.8488 -1.0903
8.6122 -4.5131 -1.0865
8.7256 -4.1811 -1.0844
8.8381 -3.8519 -1.0839
8.8934 -3.5024 -1.0782
9.0614 -3.1985 -1.0878
9.1728 -2.8725 -1.0921
9.2844 -2.5459 -1.0981
9.3965 -2.2178 -1.1057
9.5094 -1.8874 -1.1150
9.6234 -1.5538 -1.1260
9.7388 -1.2161 -1.1388
9.8560 -0.8733 -1.1534
9.9752 -0.5243 -1.1700
10.0969 -0.1682 -1.1886
10.2215 0.1964 -1.2093
10.3493 0.5705 -1.2323
10.4809 0.9557 -1.2578
10.6169 1.3536 -1.2859
10.7577 1.7656 -1.3169
10.9040 2.1939 -1.3509
11.0567 2.6405 -1.3883
11.1729 3.0959 -1.4238
11.3159 3.5773 -1.4657
11.4812 4.0881 -1.5136
11.5008 13.9329 -2.4412
-1.1599 39.5252 -5.8159
-1.9477 29.7669 -4.3999
-3.0946 30.4326 -4.5238
-4.2238 30.5589 -4.5737
-4.9693 28.3774 -4.2812
-5.7992 27.2931 -4.1554
-6.9507 27.7560 -4.2698
-8.1407 28.1626 -4.3826
-9.3923 28.5903 -4.5064
-10.7139 29.0419 -4.6423
-12.1043 29.4939 -4.7875
-13.5957 30.0036 -4.9522
-25.0889 42.4763 -7.4343
-23.6400 36.9189 -6.6093
-24.0076 34.6761 -6.3603
-25.0505 33.5342 -6.3128
-26.6145 33.0731 -6.4019
-28.0768 32.4264 -6.4666
-4.1882 4.1859 -0.8918
-4.2355 3.9386 -0.8704
-6.3195 5.4657 -1.2561
-6.6643 5.3568 -1.2839
-14.2884 -8.6202 -1.8258
-14.6034 -9.5418 -1.8958
-3.9838 -2.8122 -0.5264
-3.8605 -2.9384 -0.5201
-25.0314 -22.0612 -3.5283
-23.7515 -22.4986 -3.4357
-24.3519 -24.7853 -3.6237
-26.4396 -28.9168 -4.0580
-24.5760 -28.8961 -3.9015
-24.8982 -31.4991 -4.1009
-24.3884 -33.2399 -4.1818
4.7950 -15.5242 -1.4326
5.1279 -14.7098 -1.3699
5.4080 -13.8901 -1.3077
5.6652 -13.1374 -1.2526
5.9028 -12.4419 -1.2035
6.1236 -11.7959 -1.1598
6.3297 -11.1926 -1.1207
6.5231 -10.6267 -1.0858
6.7054 -10.0933 -1.0545
6.8778 -9.5886 -1.0266
7.0417 -9.1091 -1.0016
7.1980 -8.6517 -0.9794
7.3476 -8.2139 -0.9596
7.4913 -7.7934 -0.9421
7.6298 -7.3881 -0.9267
7.7636 -6.9963 -0.9133
7.8935 -6.6164 -0.9016
8.0198 -6.2468 -0.8917
8.1430 -5.8863 -0.8835
8.2635 -5.5335 -0.8767
8.3817 -5.1875 -0.8715
8.4981 -4.8470 -0.8677
8.6128 -4.5113 -0.8653
8.7263 -4.1792 -0.8643
8.8388 -3.8498 -0.8646
8.8935 -3.4999 -0.8607
9.0622 -3.1961 -0.8691
9.1736 -2.8700 -0.8734
9.2853 -2.5433 -0.8790
9.3974 -2.2151 -0.8860
9.5104 -1.8846 -0.8943
9.6244 -1.5508 -0.9041
9.7399 -1.2129 -0.9154
9.8571 -0.8700 -0.9282
9.9764 -0.5208 -0.9426
10.0981 -0.1645 -0.9587
10.2228 0.2002 -0.9766
10.3507 0.5746 -0.9964
10.4824 0.9600 -1.0182
10.6184 1.3581 -1.0423
10.7593 1.7704 -1.0687
10.9058 2.1990 -1.0977
11.0585 2.6459 -1.1295
11.2183 3.1137 -1.1644
11.3862 3.6050 -1.2027
11.4815 4.0939 -1.2359
11.7507 4.6717 -1.2911
11.9501 5.2551 -1.3421
12.1631 5.8784 -1.3985
12.3183 6.5088 -1.4524
11.4889 13.9312 -2.0272
5.6484 49.1904 -6.0550
3.8327 48.8185 -6.0126
2.0947 49.4124 -6.0960
0.3155 49.4040 -6.1121
-1.1695 39.4969 -4.9056
-2.0743 31.5806 -3.9421
-2.8347 27.8108 -3.4929
-3.9386 28.4489 -3.5991
-4.9733 28.3656 -3.6188
-5.8052 27.2952 -3.5156
-6.9565 27.7579 -3.6136
-8.1462 28.1645 -3.7103
-9.3975 28.5921 -3.8161
-10.7189 29.0436 -3.9322
-12.1089 29.4955 -4.0561
-13.6123 30.0323 -4.2003
-25.6069 36.9849 -5.7510
-27.0793 36.2501 -5.7853
-30.2310 37.5686 -6.1649
-30.4113 35.1250 -5.9379
-32.4450 34.8551 -6.0827
-4.3421 4.3403 -0.7837
-4.3658 4.0605 -0.7603
-6.4505 5.5802 -1.0865
-14.2846 -8.6090 -1.4456
-14.5992 -9.5296 -1.4984
-14.9440 -10.5388 -1.5583
-25.1717 -22.1644 -2.7847
-23.8847 -22.6042 -2.7065
-22.5343 -22.9145 -2.6218
-23.0121 -25.1455 -2.7561
-25.0268 -29.3996 -3.0943
-23.3850 -29.5578 -2.9939
-24.1938 -32.9444 -3.2181
2.6342 -21.8319 -1.4742
3.1998 -20.3521 -1.3739
3.6798 -18.9477 -1.2809
4.1032 -17.7085 -1.2007
4.4804 -16.6045 -1.1312
4.8196 -15.6121 -1.0705
5.1268 -14.7131 -1.0172
5.4071 -13.8928 -0.9702
5.6645 -13.1395 -0.9286
5.9023 -12.4436 -0.8916
6.1232 -11.7971 -0.8588
6.3294 -11.1936 -0.8295
6.5229 -10.6273 -0.8034
6.7052 -10.0937 -0.7801
6.8778 -9.5888 -0.7593
7.0417 -9.1090 -0.7408
7.1981 -8.6514 -0.7245
7.3478 -8.2134 -0.7100
7.4915 -7.7927 -0.6972
7.6300 -7.3873 -0.6861
7.7640 -6.9954 -0.6765
7.8938 -6.6153 -0.6683
8.0202 -6.2456 -0.6614
8.1434 -5.8849 -0.6558
8.2640 -5.5320 -0.6514
8.3823 -5.1859 -0.6482
8.4987 -4.8453 -0.6460
8.6134 -4.5094 -0.6450
8.7270 -4.1772 -0.6450
8.8395 -3.8478 -0.6461
8.8936 -3.4975 -0.6440
9.0630 -3.1938 -0.6514
9.1745 -2.8676 -0.6556
9.2862 -2.5407 -0.6608
9.3984 -2.2124 -0.6672
9.5114 -1.8817 -0.6746
9.6255 -1.5478 -0.6832
9.7410 -1.2098 -0.6929
9.8582 -0.8667 -0.7039
9.9776 -0.5174 -0.7162
10.0994 -0.1609 -0.7298
10.2241 0.2040 -0.7448
10.3521 0.5786 -0.7614
10.4839 0.9643 -0.7796
10.6200 1.3626 -0.7996
10.7610 1.7752 -0.8215
10.9075 2.2041 -0.8454
11.0603 2.6513 -0.8717
11.2203 3.1194 -0.9004
11.3883 3.6111 -0.9319
11.4817 4.0997 -0.9594
11.7531 4.6787 -1.0044
11.9526 5.2626 -1.0461
12.1658 5.8865 -1.0923
12.3948 6.5564 -1.1433
12.6419 7.2796 -1.2000
12.9101 8.0646 -1.2632
13.2032 8.9222 -1.3340
13.5020 9.8484 -1.4113
13.8211 10.8623 -1.4973
11.4766 13.9289 -1.6156
3.8282 48.9510 -4.9093
2.0806 49.4172 -4.9688
-1.0050 33.6417 -3.4108
-2.0810 31.5611 -3.2184
-2.9613 28.9849 -2.9759
-3.6259 26.1472 -2.7058
-4.6899 26.7170 -2.7898
-5.8183 27.3312 -2.8828
-6.9559 27.7346 -2.9583
-8.1443 28.1407 -3.0388
-9.3942 28.5678 -3.1268
-10.7140 29.0188 -3.2231
-12.1135 29.4971 -3.3288
-13.6165 30.0338 -3.4480
-16.7404 33.6491 -3.9351
-31.7329 36.6539 -5.0895
-32.6899 35.1217 -5.0338
-4.1985 3.9055 -0.6004
-14.2808 -8.5979 -1.0674
-14.5950 -9.5173 -1.1030
-3.8751 -2.7301 -0.2966
-25.1884 -22.1587 -2.0262
-23.9007 -22.5987 -1.9628
-22.6608 -23.0224 -1.9043
-22.7961 -24.8869 -1.9653
-23.8618 -28.0057 -2.1163
-23.6528 -29.8691 -2.1646
-22.5878 -30.7293 -2.1401
-13.2756 -19.4897 -1.3069
-21.5813 -44.1817 -2.5937
-20.2513 -45.5337 -2.5967
-0.7521 -31.7382 -1.4627
0.3499 -28.6923 -1.3095
1.2534 -26.0484 -1.1792
2.0068 -23.8436 -1.0725
2.6461 -21.9726 -0.9837
3.1968 -20.3610 -0.9089
3.6773 -18.9549 -0.8451
4.1011 -17.7145 -0.7904
4.4788 -16.6094 -0.7429
4.8182 -15.6161 -0.7016
5.1256 -14.7164 -0.6654
5.4061 -13.8955 -0.6336
5.6637 -13.1416 -0.6055
5.9017 -12.4453 -0.5806
6.1227 -11.7984 -0.5586
6.3291 -11.1945 -0.5391
6.5227 -10.6280 -0.5218
6.7051 -10.0941 -0.5064
6.8777 -9.5889 -0.4928
7.0418 -9.1089 -0.4808
7.1982 -8.6511 -0.4703
7.3479 -8.2129 -0.4611
7.4917 -7.7921 -0.4531
7.6303 -7.3865 -0.4462
7.7643 -6.9944 -0.4405
7.8942 -6.6142 -0.4357
8.0206 -6.2443 -0.4318
8.1439 -5.8835 -0.4289
8.2645 -5.5305 -0.4268
8.3828 -5.1843 -0.4255
8.4993 -4.8436 -0.4251
8.6141 -4.5076 -0.4254
8.7276 -4.1752 -0.4265
8.8402 -3.8457 -0.4283
8.8937 -3.4951 -0.4281
9.0638 -3.1915 -0.4343
9.1753 -2.8651 -0.4384
9.2871 -2.5381 -0.4433
9.3993 -2.2097 -0.4490
9.5123 -1.8789 -0.4556
9.6265 -1.5449 -0.4629
9.7420 -1.2067 -0.4711
9.8593 -0.8634 -0.4803
9.9787 -0.5139 -0.4904
10.1006 -0.1572 -0.5015
10.2254 0.2079 -0.5137
10.3535 0.5827 -0.5271
10.4853 0.9686 -0.5417
10.6215 1.3671 -0.5576
10.7626 1.7800 -0.5750
10.9092 2.2091 -0.5940
11.0622 2.6566 -0.6146
11.2222 3.1251 -0.6372
11.3904 3.6171 -0.6619
11.4820 4.1055 -0.6838
11.7555 4.6856 -0.7185
11.9552 5.2701 -0.7510
12.1686 5.8946 -0.7868
12.3977 6.5652 -0.8264
12.6451 7.2891 -0.8703
12.9137 8.0750 -0.9192
13.2071 8.9337 -0.9739
13.5298 9.8781 -1.0354
13.8875 10.9247 -1.1050
14.2871 12.0943 -1.1842
14.7379 13.4135 -1.2752
15.2516 14.9169 -1.3806
15.7741 16.5774 -1.4974
11.4686 13.9318 -1.2065
5.5720 48.7954 -3.7718
3.7942 48.7051 -3.7758
2.0665 49.4221 -3.8464
-1.0427 34.5994 -2.7221
-2.0876 31.5417 -2.4987
-2.9666 28.9694 -2.3132
-3.7182 26.7698 -2.1566
-4.3367 24.6747 -2.0077
-5.3662 25.1836 -2.0716
-6.4579 25.7297 -2.1420
-7.6215 26.3184 -2.2198
-8.8686 26.9563 -2.3060
-6.0376 16.3461 -1.4198
-11.6719 28.4124 -2.5087
-13.2655 29.2518 -2.6287
-15.0195 30.1838 -2.7641
-16.9659 31.2265 -2.9178
-19.1457 32.4033 -3.0936
-4.1785 4.1779 -0.4851
-4.2848 3.9865 -0.4798
-14.2770 -8.5868 -0.6906
-14.5908 -9.5052 -0.7092
-3.8712 -2.7248 -0.1894
-25.2050 -22.1530 -1.2693
-23.9166 -22.5933 -1.2207
-22.6761 -23.0172 -1.1755
-22.2511 -24.2701 -1.1744
-24.0790 -28.2351 -1.2971
-23.6696 -29.8634 -1.3051
-14.0435 -19.0878 -0.7951
-13.6890 -20.0780 -0.7985
-12.3124 -19.5301 -0.7429
-14.8263 -25.5033 -0.9294
-6.4262 -48.5219 -1.2217
-3.9620 -41.2424 -1.0135
-2.1603 -36.0382 -0.8659
-0.7663 -31.9589 -0.7521
0.3425 -28.7141 -0.6630
1.2475 -26.0655 -0.5916
2.0021 -23.8572 -0.5333
2.6424 -21.9836 -0.4850
3.1938 -20.3699 -0.4444
3.6748 -18.9622 -0.4100
4.0991 -17.7205 -0.3806
4.4771 -16.6143 -0.3552
4.8168 -15.6201 -0.3333
5.1245 -14.7197 -0.3142
5.4052 -13.8981 -0.2975
5.6630 -13.1438 -0.2829
5.9011 -12.4470 -0.2702
6.1223 -11.7997 -0.2590
6.3288 -11.1955 -0.2492
6.5225 -10.6286 -0.2407
6.7050 -10.0944 -0.2332
6.8777 -9.5890 -0.2268
7.0418 -9.1088 -0.2213
7.1983 -8.6508 -0.2166
7.3481 -8.2124 -0.2126
7.4919 -7.7914 -0.2094
7.6306 -7.3857 -0.2068
7.7646 -6.9935 -0.2049
7.8946 -6.6131 -0.2035
8.0210 -6.2431 -0.2027
8.1444 -5.8822 -0.2024
8.2650 -5.5291 -0.2026
8.3834 -5.1827 -0.2033
8.4998 -4.8419 -0.2045
8.6147 -4.5057 -0.2062
8.7283 -4.1733 -0.2083
8.8410 -3.8436 -0.2110
8.8938 -3.4927 -0.2127
9.0646 -3.1892 -0.2176
9.1761 -2.8627 -0.2217
9.2879 -2.5356 -0.2263
9.4002 -2.2070 -0.2313
9.5133 -1.8761 -0.2369
9.6275 -1.5419 -0.2431
9.7431 -1.2036 -0.2498
9.8605 -0.8601 -0.2571
9.9799 -0.5105 -0.2651
10.1019 -0.1536 -0.2738
10.3548 0.5867 -0.2933
10.4868 0.9728 -0.3043
10.6230 1.3716 -0.3162
10.7642 1.7847 -0.3290
10.9109 2.2141 -0.3430
11.0640 2.6620 -0.3581
11.2242 3.1308 -0.3745
11.3924 3.6232 -0.3924
11.4823 4.1112 -0.4087
11.7579 4.6926 -0.4331
11.9578 5.2776 -0.4564
12.1714 5.9027 -0.4819
12.4007 6.5739 -0.5101
12.6484 7.2986 -0.5412
12.9172 8.0854 -0.5758
13.2110 8.9451 -0.6144
13.5341 9.8907 -0.6577
13.8922 10.9387 -0.7066
14.2925 12.1100 -0.7622
14.7439 13.4312 -0.8259
15.2585 14.9372 -0.8997
15.8522 16.6745 -0.9859
16.5466 18.7066 -1.0880
11.4614 13.9357 -0.7988
18.3724 24.0496 -1.3612
5.5883 49.0744 -2.6762
3.7894 48.8333 -2.6778
2.0524 49.4269 -2.7278
0.2035 36.6264 -2.0361
-1.0511 34.5750 -1.9377
-2.0942 31.5225 -1.7825
-2.9719 28.9540 -1.6535
-3.7225 26.7573 -1.5445
-4.4684 25.3934 -1.4828
-5.4904 25.7426 -1.5221
-6.5575 26.1073 -1.5644
-7.6756 26.4893 -1.6102
-8.8515 26.8912 -1.6598
-5.9939 16.2216 -1.0177
-11.4097 27.7654 -1.7723
-13.7688 30.3539 -1.9735
-15.3815 30.9049 -2.0489
-17.1158 31.4976 -2.1319
-4.2976 3.9991 -0.3484
-4.6482 4.0235 -0.3640
-8.6358 -5.1886 -0.1906
-8.9506 -5.8250 -0.1943
-3.8681 -2.7199 -0.0826
-9.3229 -7.0692 -0.1959
-9.5606 -7.8055 -0.1977
-9.8684 -8.6655 -0.2008
-10.1777 -9.6058 -0.2039
-10.5035 -10.6519 -0.2072
-11.2055 -12.2113 -0.2177
-11.8737 -13.9107 -0.2273
-12.4823 -15.7343 -0.2354
-13.0683 -17.7461 -0.2429
-25.9890 -38.0836 -0.4764
-16.7062 -31.2382 -0.2946
-5.9861 -13.4305 -0.1033
-5.4866 -13.6035 -0.0939
-4.9890 -13.7760 -0.0848
-4.4918 -13.9483 -0.0760
-6.4518 -48.5971 -0.1194
-3.9750 -41.2451 -0.0803
-2.1732 -36.0760 -0.0528
-0.7760 -31.9871 -0.0321
0.3350 -28.7359 -0.0163
1.2417 -26.0826 -0.0039
1.9975 -23.8709 0.0059
2.6386 -21.9945 0.0137
3.1907 -20.3788 0.0200
3.6723 -18.9695 0.0250
4.0970 -17.7265 0.0291
4.4754 -16.6192 0.0323
4.8154 -15.6242 0.0349
5.1234 -14.7229 0.0369
5.4043 -13.9008 0.0384
5.6623 -13.1459 0.0394
5.9005 -12.4486 0.0401
6.1218 -11.8010 0.0404
6.3284 -11.1964 0.0404
6.5223 -10.6292 0.0402
6.7049 -10.0948 0.0397
6.8777 -9.5891 0.0390
7.0418 -9.1087 0.0380
7.1984 -8.6505 0.0369
7.3482 -8.2120 0.0356
7.4922 -7.7908 0.0340
7.6309 -7.3849 0.0323
7.7649 -6.9925 0.0305
7.8950 -6.6120 0.0285
8.0214 -6.2419 0.0263
8.1448 -5.8808 0.0239
8.2655 -5.5276 0.0214
8.3839 -5.1811 0.0187
8.5004 -4.8402 0.0158
8.6153 -4.5039 0.0128
8.7290 -4.1713 0.0096
8.8417 -3.8416 0.0062
8.8940 -3.4903 0.0026
9.0654 -3.1869 -0.0012
9.1770 -2.8603 -0.0052
9.2888 -2.5330 -0.0094
9.4011 -2.2043 -0.0139
9.5143 -1.8732 -0.0185
9.6285 -1.5389 -0.0235
9.7442 -1.2004 -0.0287
9.8616 -0.8568 -0.0342
9.9811 -0.5070 -0.0400
10.1031 -0.1500 -0.0462
10.3562 0.5907 -0.0597
10.4882 0.9770 -0.0670
10.6246 1.3760 -0.0749
10.7658 1.7894 -0.0833
10.9127 2.2191 -0.0922
11.0658 2.6673 -0.1018
11.2261 3.1364 -0.1121
11.3945 3.6293 -0.1231
11.4835 4.1173 -0.1340
11.7602 4.6995 -0.1479
11.9603 5.2850 -0.1620
12.1741 5.9107 -0.1772
12.4037 6.5826 -0.1939
12.6516 7.3081 -0.2123
12.9208 8.0958 -0.2325
13.2149 8.9565 -0.2550
13.5384 9.9033 -0.2801
13.8970 10.9528 -0.3084
14.2978 12.1257 -0.3403
14.7500 13.4490 -0.3768
15.2655 14.9575 -0.4188
15.8602 16.6980 -0.4678
16.5560 18.7340 -0.5257
11.4542 13.9395 -0.3921
18.3859 24.0891 -0.6799
19.6301 27.7302 -0.7858
21.2196 32.3819 -0.9220
23.3279 38.5515 -1.1036
5.6071 49.3764 -1.5714
3.7849 48.9662 -1.5770
2.0384 49.4317 -1.6117
-1.0607 34.5946 -1.1578
-2.1007 31.5033 -1.0690
-2.9809 28.9753 -0.9974
-3.6904 26.4839 -0.9253
-4.4737 25.3935 -0.9009
-5.5148 25.8326 -0.9313
-6.5853 26.1984 -0.9603
-7.6807 26.4911 -0.9879
-8.8563 26.8928 -1.0209
-5.9967 16.2226 -0.6274
-11.4140 27.7668 -1.0949
-14.1471 31.1798 -1.2544
-15.3852 30.9062 -1.2698
-17.5450 32.2824 -1.3556
-4.2486 4.2491 -0.2217
-4.2161 3.9238 -0.2118
-4.6074 3.9889 -0.2233
-8.5889 -5.1551 0.0361
-8.7743 -5.7047 0.0453
-3.8663 -2.7161 0.0239
-9.1972 -6.9673 0.0666
-9.4537 -7.7111 0.0793
-9.7719 -8.5730 0.0939
-10.0751 -9.5004 0.1100
-10.4002 -10.5377 0.1283
-10.7520 -11.7065 0.1491
-11.4195 -13.3665 0.1774
-12.0805 -15.2141 0.2097
-12.8529 -17.4377 0.2490
-25.7787 -37.7404 0.5569
-25.9267 -41.0481 0.6246
-24.1877 -41.5263 0.6506
-18.0912 -33.7945 0.5443
-5.9917 -13.4288 0.2278
-5.4921 -13.6019 0.2364
-4.9943 -13.7745 0.2452
-4.4970 -13.9468 0.2540
-9.3561 -38.2199 0.7273
-6.4776 -48.6724 0.9862
-3.9880 -41.2478 0.8529
-2.1861 -36.1137 0.7620
-0.7857 -32.0155 0.6891
0.3276 -28.7577 0.6315
1.2359 -26.0996 0.5846
1.9928 -23.8844 0.5457
2.6349 -22.0055 0.5129
3.1877 -20.3877 0.4848
3.6698 -18.9768 0.4604
4.0950 -17.7324 0.4390
4.4737 -16.6241 0.4201
4.8141 -15.6282 0.4033
5.1223 -14.7262 0.3881
5.4034 -13.9035 0.3744
5.6615 -13.1480 0.3619
5.9000 -12.4503 0.3504
6.1214 -11.8023 0.3399
6.3281 -11.1973 0.3302
6.5220 -10.6299 0.3211
6.7047 -10.0952 0.3127
6.8776 -9.5892 0.3048
7.0419 -9.1086 0.2974
7.1985 -8.6502 0.2904
7.3484 -8.2115 0.2838
7.4924 -7.7901 0.2775
7.6311 -7.3841 0.2715
7.7653 -6.9915 0.2659
7.8953 -6.6109 0.2604
8.0219 -6.2407 0.2552
8.1453 -5.8795 0.2502
8.2660 -5.5261 0.2453
8.3845 -5.1795 0.2407
8.5010 -4.8385 0.2361
8.6160 -4.5021 0.2317
8.7296 -4.1694 0.2275
8.8424 -3.8395 0.2233
8.8941 -3.4878 0.2177
9.0662 -3.1846 0.2152
9.1778 -2.8578 0.2113
9.2897 -2.5305 0.2074
9.4020 -2.2016 0.2036
9.5152 -1.8704 0.1999
9.6295 -1.5360 0.1961
9.7452 -1.1973 0.1924
9.8627 -0.8535 0.1887
9.9823 -0.5036 0.1850
10.1044 -0.1464 0.1814
10.3576 0.5947 0.1739
10.4897 0.9813 0.1702
10.6261 1.3805 0.1664
10.7674 1.7942 0.1625
10.9144 2.2242 0.1586
11.0676 2.6727 0.1546
11.2280 3.1421 0.1505
11.3966 3.6353 0.1462
11.4887 4.1248 0.1408
11.7626 4.7065 0.1373
11.9629 5.2925 0.1325
12.1769 5.9188 0.1276
12.4067 6.5914 0.1223
12.6549 7.3176 0.1168
12.9243 8.1062 0.1108
13.2188 8.9679 0.1045
13.5427 9.9159 0.0976
13.9018 10.9668 0.0901
14.3032 12.1415 0.0819
14.7561 13.4668 0.0728
15.2724 14.9778 0.0625
15.8682 16.7214 0.0508
16.5653 18.7615 0.0374
11.4470 13.9432 0.0142
18.3994 24.1288 0.0026
19.6469 27.7794 -0.0207
21.2412 32.4450 -0.0502
23.3568 38.6360 -0.0890
17.2195 30.9414 -0.0934
5.5873 49.3391 -0.4515
3.7706 48.9709 -0.4706
2.0244 49.4364 -0.4972
-1.0690 34.5704 -0.3777
-2.1073 31.4841 -0.3574
-2.9862 28.9600 -0.3409
-3.6966 26.4860 -0.3228
-4.4790 25.3930 -0.3200
-5.5203 25.8345 -0.3361
-6.5906 26.2003 -0.3516
-7.6858 26.4928 -0.3664
-8.8612 26.8945 -0.3829
-10.1369 27.4121 -0.4016
-11.4183 27.7683 -0.4184
-15.9785 35.2071 -0.5452
-15.3890 30.9075 -0.4918
-4.1609 4.1619 -0.0845
-4.2937 3.9967 -0.0835
-4.4500 3.8534 -0.0830
-8.5292 -5.1141 0.2598
-8.8394 -5.7413 0.2830
-3.8646 -2.7122 0.1302
-9.1823 -6.9494 0.3259
-9.4901 -7.7336 0.3553
-9.7527 -8.5483 0.3858
-10.1425 -9.5553 0.4246
-10.4464 -10.5749 0.4636
-10.9650 -11.9278 0.5170
-11.3290 -13.2487 0.5686
-11.9651 -15.0552 0.6408
-12.8135 -17.3685 0.7343
-19.0166 -27.8149 1.1696
-16.0150 -25.3317 1.0608
-18.7339 -32.1321 1.3416
-18.1742 -33.9158 1.4134
-3.7721 -7.6907 0.3202
-3.4800 -7.7912 0.3245
-3.1898 -7.8911 0.3290
-2.9007 -7.9906 0.3338
-2.6119 -8.0900 0.3389
-11.5173 -40.6090 1.7075
-9.9117 -40.4279 1.7075
-8.3406 -40.2164 1.7075
-6.3921 -37.5620 1.6044
-4.9774 -37.3093 1.6044
-3.5917 -37.0310 1.6044
-2.2339 -36.7244 1.6043
-0.7907 -31.8568 1.4041
0.3201 -28.7795 1.2808
1.2294 -26.1029 1.1738
1.9881 -23.8981 1.0867
2.6311 -22.0165 1.0131
3.1846 -20.3966 0.9504
3.6673 -18.9840 0.8965
4.0930 -17.7384 0.8497
4.4721 -16.6290 0.8085
4.8127 -15.6322 0.7722
5.1211 -14.7295 0.7398
5.4025 -13.9061 0.7109
5.6608 -13.1502 0.6848
5.8994 -12.4520 0.6612
6.1210 -11.8036 0.6398
6.3278 -11.1983 0.6203
6.5218 -10.6305 0.6024
6.7046 -10.0955 0.5860
6.8776 -9.5893 0.5709
7.0419 -9.1085 0.5570
7.1986 -8.6499 0.5442
7.3486 -8.2110 0.5323
7.4926 -7.7895 0.5212
7.6314 -7.3833 0.5110
7.7656 -6.9906 0.5015
7.8957 -6.6098 0.4926
8.0223 -6.2394 0.4844
8.1457 -5.8781 0.4767
8.2665 -5.5246 0.4695
8.3850 -5.1779 0.4629
8.5016 -4.8367 0.4567
8.6166 -4.5002 0.4509
8.7303 -4.1674 0.4456
8.8431 -3.8374 0.4406
8.8942 -3.4854 0.4331
9.0670 -3.1823 0.4319
9.1786 -2.8554 0.4280
9.2905 -2.5279 0.4245
9.4030 -2.1989 0.4213
9.5162 -1.8676 0.4185
9.6305 -1.5330 0.4160
9.7463 -1.1942 0.4138
9.8638 -0.8503 0.4119
9.9835 -0.5001 0.4104
10.1056 -0.1427 0.4092
10.2200 0.2229 0.4079
10.3590 0.5988 0.4078
10.4911 0.9855 0.4077
10.6276 1.3850 0.4079
10.7691 1.7989 0.4086
10.9161 2.2292 0.4097
11.0695 2.6780 0.4112
11.2300 3.1478 0.4133
11.3986 3.6414 0.4159
11.4940 4.1323 0.4160
11.7650 4.7134 0.4228
11.9654 5.3000 0.4274
12.1796 5.9269 0.4327
12.4097 6.6001 0.4390
12.6581 7.3271 0.4463
12.9279 8.1166 0.4547
13.2227 8.9793 0.4646
13.5470 9.9285 0.4760
13.9066 10.9808 0.4893
14.3086 12.1572 0.5049
14.7622 13.4846 0.5231
15.2794 14.9981 0.5448
15.8762 16.7449 0.5706
16.5747 18.7890 0.6017
11.4398 13.9470 0.4204
18.4130 24.1685 0.6868
19.6638 27.8288 0.7466
21.2629 32.5084 0.8245
23.3857 38.7207 0.9295
11.4710 20.6323 0.4693
10.6632 20.9135 0.4513
11.3644 24.4174 0.5004
8.1797 43.8878 0.6453
6.6329 44.3806 0.6251
5.0759 44.9483 0.6073
3.4862 45.4559 0.5899
1.8720 46.0381 0.5746
0.2206 46.6074 0.5604
-1.0759 34.5024 0.4004
-2.1138 31.4650 0.3530
-2.9876 28.9079 0.3142
-3.7352 26.7201 0.2819
-4.4843 25.3926 0.2607
-5.4844 25.6425 0.2569
-6.5465 26.0055 0.2549
-7.6909 26.4946 0.2549
-8.8660 26.8961 0.2548
-10.0654 27.2080 0.2547
-11.4226 27.7698 0.2578
-15.9586 35.1541 0.3250
-15.3928 30.9088 0.2858
-4.2147 4.2162 0.0487
-4.2256 3.9340 0.0478
-4.5217 3.9162 0.0504
-8.5671 -5.1315 0.4861
-8.7981 -5.7087 0.5181
-3.8636 -2.7089 0.2365
-9.1564 -6.9233 0.5837
-9.3924 -7.6468 0.6247
-9.7276 -8.5185 0.6763
-10.0251 -9.4361 0.7301
-10.3705 -10.4887 0.7928
-10.8900 -11.8356 0.8760
-11.3567 -13.2691 0.9637
-11.9963 -15.0808 1.0769
-12.2454 -16.5833 1.1665
-13.4164 -19.6056 1.3608
-14.7130 -23.2503 1.5948
-13.7913 -23.6318 1.6044
-12.7885 -23.8416 1.6044
-3.7744 -7.6875 0.5135
-3.4823 -7.7880 0.5170
-3.1921 -7.8880 0.5210
-2.9030 -7.9875 0.5256
-2.6142 -8.0869 0.5307
-7.4011 -26.0595 1.7075
-6.4019 -26.0727 1.7075
-5.4137 -26.0590 1.7075
-4.4367 -26.0191 1.7075
-3.4709 -25.9537 1.7075
-2.4474 -25.1530 1.6606
-1.4787 -24.1919 1.6043
-0.6040 -24.0621 1.6043
0.2595 -23.9104 1.6043
1.1119 -23.7374 1.6043
1.9529 -23.5436 1.6043
3.1632 -20.2875 1.4092
3.2679 -16.9344 1.1894
4.0909 -17.7444 1.2614
4.0857 -15.2026 1.0949
4.8113 -15.6362 1.1420
5.1200 -14.7328 1.0924
5.4016 -13.9088 1.0482
5.6601 -13.1523 1.0085
5.8988 -12.4537 0.9727
6.1205 -11.8049 0.9404
6.3275 -11.1992 0.9110
6.5216 -10.6311 0.8843
6.7045 -10.0959 0.8599
6.8775 -9.5895 0.8376
7.0419 -9.1084 0.8172
7.1987 -8.6496 0.7985
7.3487 -8.2105 0.7813
7.4928 -7.7888 0.7655
7.6317 -7.3825 0.7510
7.7659 -6.9896 0.7376
7.8961 -6.6087 0.7253
8.0227 -6.2382 0.7140
8.1462 -5.8768 0.7037
8.2670 -5.5231 0.6942
8.3856 -5.1763 0.6855
8.5022 -4.8350 0.6777
8.6172 -4.4984 0.6705
8.7310 -4.1655 0.6641
8.8438 -3.8353 0.6584
8.8943 -3.4830 0.6489
9.0677 -3.1799 0.6489
9.1795 -2.8530 0.6452
9.2914 -2.5253 0.6420
9.4039 -2.1962 0.6395
9.5172 -1.8647 0.6375
9.6315 -1.5300 0.6362
9.7474 -1.1911 0.6356
9.8649 -0.8470 0.6355
9.9846 -0.4967 0.6361
10.1068 -0.1391 0.6374
10.2169 0.2266 0.6385
10.3603 0.6028 0.6422
10.4926 0.9898 0.6457
10.6292 1.3895 0.6500
10.7707 1.8037 0.6552
10.9178 2.2342 0.6613
11.0713 2.6834 0.6684
11.2319 3.1535 0.6767
11.4007 3.6475 0.6861
11.4993 4.1399 0.6920
11.7674 4.7204 0.7091
11.9680 5.3075 0.7229
12.1824 5.9349 0.7386
12.4127 6.6089 0.7564
12.6614 7.3366 0.7766
12.9314 8.1270 0.7995
13.2266 8.9907 0.8255
13.5514 9.9412 0.8553
13.9114 10.9949 0.8895
14.3140 12.1730 0.9290
14.7683 13.5024 0.9748
15.2863 15.0185 1.0284
15.8843 16.7684 1.0919
16.5842 18.8165 1.1678
11.4330 13.9513 0.8270
18.3193 24.0674 1.3656
20.0514 30.6849 1.6043
19.2351 31.8786 1.6043
11.4584 20.6297 1.0010
10.6510 20.9108 0.9801
11.3476 24.4069 1.1067
16.3977 38.8595 1.7075
15.2258 40.0363 1.7075
13.9917 41.1829 1.7075
12.6959 42.2954 1.7075
10.6349 40.6778 1.6015
8.8978 39.8227 1.5315
8.1437 43.7761 1.6470
6.5777 44.1091 1.6262
5.0219 44.5945 1.6137
3.4460 45.1086 1.6047
1.8486 45.7860 1.6040
0.2068 46.3742 1.6025
-1.0841 34.4782 1.1773
-2.1203 31.4459 1.0629
-2.9928 28.8926 0.9685
-3.7395 26.7077 0.8894
-4.4896 25.3921 0.8417
-5.5106 25.7413 0.8510
-6.5768 26.1069 0.8625
-7.6945 26.4913 0.8764
-8.8702 26.8957 0.8929
-10.1115 27.3217 0.9121
-11.4268 27.7712 0.9344
-15.9883 35.2105 1.1968
-15.3965 30.9100 1.0638
-22.7880 41.9098 1.4641
-20.3834 34.4789 1.2256
-29.3021 36.4229 1.4256
-4.0982 4.1003 0.1779
-4.2654 3.9717 0.1796
-4.4003 3.8119 0.1802
-24.9987 16.0340 0.9437
-8.4637 -5.0643 0.7029
-8.7776 -5.6897 0.7531
-3.8629 -2.7058 0.3430
-9.1800 -6.9345 0.8451
-9.5031 -7.7297 0.9087
-9.7890 -8.5644 0.9744
-10.0999 -9.4979 1.0487
-10.5069 -10.6170 1.1406
-10.4515 -11.3487 1.1892
-10.9542 -12.7873 1.3099
-11.5355 -14.4883 1.4539
-12.0397 -16.2898 1.6044
-11.3472 -16.5665 1.6044
-10.6532 -16.8189 1.6044
-9.9584 -17.0475 1.6044
-3.6119 -6.7271 0.6256
-3.3403 -6.7965 0.6254
-3.0693 -6.8570 0.6253
-2.7991 -6.9090 0.6252
-2.5298 -6.9524 0.6250
-2.2617 -6.9876 0.6249
-1.9949 -7.0145 0.6248
-4.7278 -19.2253 1.7075
-4.0078 -19.2587 1.7075
-3.2925 -19.2708 1.7075
-2.5822 -19.2619 1.7075
-1.8773 -19.2325 1.7075
-1.1782 -19.1829 1.7075
-0.4852 -19.1133 1.7075
0.1892 -17.8739 1.6043
0.8279 -17.7723 1.6043
1.4600 -17.6530 1.6043
2.0852 -17.5163 1.6043
2.7033 -17.3624 1.6043
3.3140 -17.1918 1.6043
3.9170 -17.0045 1.6043
4.0414 -15.0477 1.4369
4.3408 -14.1148 1.3656
5.1319 -14.7735 1.4499
4.8157 -12.4048 1.2364
5.0464 -11.7298 1.1888
5.3278 -11.2508 1.1609
6.1201 -11.8061 1.2419
6.3272 -11.2002 1.2027
6.1176 -9.9735 1.0949
6.7044 -10.0963 1.1347
6.8775 -9.5896 1.1052
7.0420 -9.1083 1.0783
7.1988 -8.6493 1.0536
7.3489 -8.2100 1.0311
7.4931 -7.7882 1.0105
7.6320 -7.3816 0.9917
7.7663 -6.9887 0.9744
7.8965 -6.6076 0.9587
8.0231 -6.2370 0.9444
8.1467 -5.8754 0.9313
8.2675 -5.5217 0.9195
8.3861 -5.1747 0.9089
8.5028 -4.8333 0.8993
8.6178 -4.4966 0.8908
8.7316 -4.1635 0.8834
8.8445 -3.8333 0.8769
8.8944 -3.4806 0.8652
9.0685 -3.1776 0.8667
9.1803 -2.8505 0.8630
9.2923 -2.5228 0.8602
9.4048 -2.1935 0.8583
9.5181 -1.8619 0.8573
9.6326 -1.5270 0.8572
9.7484 -1.1879 0.8580
9.8661 -0.8437 0.8598
9.9858 -0.4932 0.8626
10.1081 -0.1354 0.8664
10.2137 0.2304 0.8696
10.3617 0.6068 0.8772
10.4940 0.9941 0.8844
10.6307 1.3940 0.8928
10.7723 1.8085 0.9025
10.9196 2.2393 0.9137
11.0731 2.6887 0.9264
11.2339 3.1592 0.9409
11.4028 3.6535 0.9572
11.5046 4.1475 0.9691
11.7697 4.7274 0.9962
11.9705 5.3150 1.0194
12.1852 5.9431 1.0455
12.4157 6.6177 1.0749
12.6646 7.3462 1.1080
12.9350 8.1375 1.1454
13.2305 9.0023 1.1878
13.5557 9.9539 1.2360
13.9163 11.0091 1.2912
14.2597 12.1380 1.3490
14.7126 13.4638 1.4222
9.6848 10.2331 0.9844
10.0857 11.4536 1.0553
10.6423 12.9982 1.1497
11.2046 14.7337 1.2538
13.7938 19.5573 1.6044
13.2187 20.2477 1.6044
13.4231 22.2677 1.7075
12.7453 22.9693 1.7075
12.0348 23.6514 1.7075
11.2919 24.3126 1.7075
10.5170 24.9507 1.7075
9.7107 25.5638 1.7075
8.8734 26.1502 1.7075
8.0062 26.7076 1.7075
7.1098 27.2342 1.7075
5.8113 26.0512 1.6043
4.6253 24.9094 1.5090
3.9994 26.8789 1.6043
3.0588 27.2391 1.6043
2.1182 27.8373 1.6203
1.1273 28.1223 1.6203
0.1187 28.3654 1.6203
-0.9057 28.5651 1.6203
-1.9411 28.6814 1.6182
-2.9838 28.7401 1.6154
-3.7437 26.6953 1.4973
-4.4938 25.3858 1.4232
-5.5148 25.7369 1.4448
-6.5809 26.1035 1.4698
-7.6980 26.4876 1.4987
-8.8732 26.8917 1.5317
-10.0966 27.2707 1.5666
-11.2054 27.2241 1.5803
-12.3378 27.1641 1.5965
-13.4086 26.9135 1.6047
-14.3967 26.4731 1.6047
-15.3631 25.9840 1.6047
-16.3312 25.4880 1.6073
-17.2863 24.9601 1.6109
-18.0999 24.2298 1.6043
-18.9525 23.5590 1.6043
-19.7706 22.8471 1.6043
-20.5520 22.0961 1.6043
-4.1992 4.2018 0.3164
-4.2633 3.9704 0.3109
-4.5070 3.9050 0.3191
-24.7710 19.9531 1.7075
-25.3791 18.9833 1.7075
-25.9384 17.9878 1.7075
-26.4479 16.9694 1.7075
-8.6322 -5.1598 0.9447
-8.5953 -5.5660 0.9694
-3.8622 -2.7026 0.4497
-9.2183 -6.9568 1.1102
-9.3456 -7.5946 1.1665
-9.3890 -8.2068 1.2170
-9.6982 -9.1119 1.3084
-10.0525 -10.1487 1.4149
-10.4636 -11.3516 1.5403
-10.3924 -12.1205 1.6044
-9.8803 -12.3982 1.6044
-9.3633 -12.6569 1.6044
-8.8419 -12.8968 1.6044
-8.3169 -13.1180 1.6044
-7.7889 -13.3207 1.6044
-3.4196 -6.3625 0.7559
-3.1717 -6.4467 0.7566
-2.9261 -6.5301 0.7582
-2.6822 -6.6130 0.7606
-2.4392 -6.6956 0.7640
-2.1967 -6.7780 0.7682
-1.9538 -6.8605 0.7733
-3.7470 -15.2136 1.7075
-3.1812 -15.2603 1.7075
-2.6175 -15.2893 1.7075
-2.0562 -15.3008 1.7075
-1.4978 -15.2952 1.7075
-0.9426 -15.2725 1.7075
-0.3910 -15.2331 1.7075
0.1565 -15.1772 1.7075
0.6998 -15.1050 1.7075
1.1954 -14.4971 1.6484
1.6647 -14.0110 1.6043
2.1609 -13.8986 1.6043
2.6519 -13.7717 1.6043
3.1372 -13.6307 1.6043
3.6167 -13.4756 1.6043
4.0904 -13.3080 1.6044
4.5574 -13.1255 1.6044
5.0176 -12.9295 1.6044
5.4710 -12.7203 1.6044
5.4692 -11.5520 1.4830
6.0374 -9.8436 1.3435
5.9792 -9.0047 1.2582
6.1676 -8.5999 1.2321
7.0265 -9.0881 1.3375
7.1989 -8.6490 1.3099
7.3491 -8.2095 1.2820
7.4933 -7.7875 1.2566
7.6323 -7.3808 1.2334
7.7666 -6.9877 1.2123
7.8968 -6.6065 1.1931
8.0235 -6.2357 1.1757
8.1471 -5.8740 1.1599
8.2681 -5.5202 1.1458
8.3867 -5.1730 1.1331
8.5034 -4.8315 1.1219
8.6185 -4.4947 1.1120
8.7323 -4.1615 1.1035
8.8452 -3.8312 1.0962
8.8945 -3.4781 1.0825
9.0693 -3.1753 1.0853
9.1811 -2.8481 1.0817
9.2932 -2.5202 1.0792
9.4057 -2.1908 1.0779
9.5191 -1.8590 1.0779
9.6336 -1.5240 1.0790
9.7495 -1.1848 1.0814
9.8672 -0.8404 1.0851
9.9870 -0.4897 1.0900
10.1093 -0.1318 1.0963
10.2105 0.2341 1.1015
10.3631 0.6109 1.1133
10.4955 0.9983 1.1241
10.6323 1.3985 1.1366
10.7740 1.8133 1.1509
10.9213 2.2444 1.1672
11.0750 2.6941 1.1855
11.2358 3.1649 1.2062
11.4049 3.6597 1.2295
11.5099 4.1551 1.2475
11.7721 4.7344 1.2846
11.9731 5.3226 1.3172
12.1385 5.9271 1.3483
12.3439 6.5866 1.3864
12.6514 7.3463 1.4391
8.2612 6.0720 0.9860
8.4586 6.6979 1.0298
8.7298 7.4378 1.0862
9.0252 8.2667 1.1502
9.2967 9.1504 1.2165
10.0151 10.5916 1.3488
11.5426 13.1200 1.6044
10.9962 13.4426 1.5822
11.1509 14.6764 1.6662
10.9654 15.5615 1.7075
10.4806 16.0687 1.7075
9.9737 16.5612 1.7075
9.4449 17.0380 1.7075
8.8946 17.4979 1.7075
8.3232 17.9396 1.7075
7.7313 18.3620 1.7075
7.1194 18.7640 1.7075
6.4881 19.1443 1.7075
5.8383 19.5019 1.7075
5.1707 19.8356 1.7075
4.4141 19.8204 1.6801
3.5569 19.1916 1.6043
2.8848 19.4314 1.6043
2.1998 19.6447 1.6043
1.5030 19.8306 1.6043
0.7955 19.9881 1.6043
0.0817 20.8918 1.6661
-0.6605 20.6608 1.6396
-1.4029 20.6526 1.6335
-2.1440 20.6037 1.6267
-2.8982 20.6330 1.6286
-3.6602 20.6518 1.6323
-4.4259 20.6360 1.6359
-5.1859 20.5548 1.6369
-5.8215 20.0188 1.6043
-6.5562 19.8600 1.6043
-7.2848 19.6683 1.6043
-8.0055 19.4437 1.6043
-8.7167 19.1865 1.6043
-9.4166 18.8970 1.6043
-10.1036 18.5759 1.6043
-10.7760 18.2236 1.6043
-11.4404 17.8538 1.6054
-12.6390 18.2492 1.6798
-13.5065 18.0808 1.7075
-14.1435 17.5818 1.7075
-14.7571 17.0545 1.7075
-4.0401 4.3441 0.4495
-4.1046 4.1077 0.4406
-4.2113 3.9226 0.4373
-4.5492 3.9424 0.4583
-17.4269 14.0407 1.7075
-17.8735 13.3728 1.7075
-18.2891 12.6871 1.7075
-17.5454 11.2615 1.6044
-8.5815 -5.1241 1.1665
-8.4390 -5.4593 1.1804
-3.8617 -2.6997 0.5568
-8.8697 -6.6873 1.3209
-9.1127 -7.3983 1.4044
-9.3853 -8.1960 1.5000
-9.6588 -9.0665 1.6044
-9.2710 -9.3512 1.6044
-8.8763 -9.6209 1.6044
-8.4751 -9.8754 1.6044
-8.0680 -10.1148 1.6044
-7.6556 -10.3390 1.6044
-7.2384 -10.5481 1.6044
-6.8170 -10.7420 1.6044
-6.3919 -10.9209 1.6044
-3.4225 -6.3616 0.9208
-3.1746 -6.4458 0.9206
-2.9289 -6.5293 0.9216
-2.6849 -6.6122 0.9236
-2.4419 -6.6948 0.9267
-2.1992 -6.7772 0.9309
-1.9563 -6.8597 0.9362
-3.1021 -12.5760 1.7075
-2.6365 -12.6256 1.7075
-2.1718 -12.6603 1.7075
-1.7082 -12.6800 1.7075
-1.2462 -12.6851 1.7075
-0.7861 -12.6756 1.7075
-0.3284 -12.6517 1.7075
0.1267 -12.6135 1.7075
0.5787 -12.5614 1.7075
1.0273 -12.4953 1.7075
1.4722 -12.4155 1.7075
1.9131 -12.3223 1.7075
2.2114 -11.4969 1.6071
2.6136 -11.3655 1.6044
3.0148 -11.2407 1.6044
3.4110 -11.1038 1.6044
3.8021 -10.9551 1.6044
4.1876 -10.7947 1.6044
4.5674 -10.6227 1.6044
4.9413 -10.4394 1.6044
5.3088 -10.2449 1.6044
5.6699 -10.0394 1.6044
6.0242 -9.8231 1.6044
6.3715 -9.5961 1.6044
6.4077 -8.9349 1.5318
7.0442 -9.1108 1.6044
7.8651 -6.5785 1.4228
7.9768 -6.1978 1.3999
8.0988 -5.8375 1.3814
8.2204 -5.4866 1.3652
8.3477 -5.1470 1.3522
8.4791 -4.8157 1.3417
8.6074 -4.4867 1.3325
8.7330 -4.1596 1.3247
8.8459 -3.8291 1.3166
8.8947 -3.4757 1.3008
9.0701 -3.1729 1.3050
9.1820 -2.8456 1.3015
9.2941 -2.5176 1.2994
9.4067 -2.1881 1.2988
9.5201 -1.8562 1.2996
9.6346 -1.5210 1.3020
9.7506 -1.1816 1.3059
9.8683 -0.8370 1.3114
9.9882 -0.4862 1.3186
10.1106 -0.1281 1.3274
10.2073 0.2379 1.3343
10.3271 0.6128 1.3457
10.4381 0.9970 1.3574
10.5710 1.3948 1.3735
10.7114 1.8072 1.3922
10.8621 2.2370 1.4140
11.5153 4.1628 1.5276
11.9979 4.8314 1.6044
7.2971 3.2478 0.9851
7.4072 3.6210 1.0109
7.5476 4.0317 1.0429
7.7190 4.4869 1.0817
7.9036 4.9823 1.1251
8.0705 5.5022 1.1691
8.2419 6.0637 1.2171
8.4953 6.7333 1.2815
9.0841 7.7469 1.4026
9.3981 8.6162 1.4885
9.8514 9.7052 1.6044
9.6199 10.1830 1.6151
9.8393 11.1940 1.7075
9.4905 11.6125 1.7075
9.1246 12.0205 1.7075
8.7416 12.4172 1.7075
8.3420 12.8018 1.7075
7.9259 13.1736 1.7075
7.4937 13.5317 1.7075
7.0459 13.8752 1.7075
6.5828 14.2033 1.7075
6.1049 14.5154 1.7075
5.6128 14.8105 1.7075
5.1070 15.0878 1.7075
4.5882 15.3467 1.7075
4.0570 15.5862 1.7075
3.5143 15.8058 1.7075
2.9607 16.0047 1.7075
2.3970 16.1822 1.7075
1.7859 15.9937 1.6716
1.1804 15.6372 1.6211
0.6154 15.5775 1.6043
0.0569 15.6582 1.6043
-0.5065 15.7161 1.6043
-1.0738 15.7509 1.6043
-1.6439 15.7622 1.6043
-2.2158 15.7497 1.6043
-2.7883 15.7132 1.6043
-3.3602 15.6526 1.6043
-3.9305 15.5677 1.6043
-4.5100 15.4997 1.6085
-5.1891 15.7111 1.6447
-5.9097 15.9494 1.6870
-6.5691 15.9498 1.7075
-7.1487 15.7310 1.7075
-7.7190 15.4871 1.7075
-8.2788 15.2187 1.7075
-8.8270 14.9261 1.7075
-9.3624 14.6099 1.7075
-9.8839 14.2706 1.7075
-10.3902 13.9091 1.7075
-10.8805 13.5260 1.7075
-11.3536 13.1222 1.7075
-4.3239 4.6497 0.6252
-4.1548 4.1585 0.5794
-4.2640 3.9723 0.5751
-4.4346 3.8439 0.5800
-13.4305 10.8234 1.7075
-12.9505 9.6921 1.6044
-13.2599 9.2012 1.6044
-13.5476 8.6985 1.6044
-8.2703 -4.9332 1.3443
-8.4508 -5.4614 1.4120
-3.8616 -2.6969 0.6645
-8.8668 -6.6786 1.5742
-8.7405 -7.0895 1.6043
-8.4366 -7.3607 1.6043
-8.1251 -7.6198 1.6043
-7.8064 -7.8667 1.6043
-7.4811 -8.1013 1.6043
-7.1497 -8.3234 1.6044
-6.8125 -8.5330 1.6044
-6.4701 -8.7300 1.6044
-6.1230 -8.9143 1.6044
-5.7716 -9.0860 1.6044
-5.6479 -9.6403 1.6730
-3.4255 -6.3607 1.0867
-3.1774 -6.4449 1.0856
-2.9317 -6.5284 1.0859
-2.6876 -6.6114 1.0875
-2.4445 -6.6939 1.0904
-2.2018 -6.7764 1.0946
-1.9588 -6.8590 1.1001
-1.8956 -7.6728 1.2235
-2.2502 -10.7571 1.7075
-1.8552 -10.7930 1.7075
-1.4606 -10.8161 1.7075
-1.0670 -10.8263 1.7075
-0.6745 -10.8238 1.7075
-0.2836 -10.8088 1.7075
0.1053 -10.7813 1.7075
0.4920 -10.7415 1.7075
0.8762 -10.6895 1.7075
1.2575 -10.6254 1.7075
1.6355 -10.5494 1.7075
2.0101 -10.4617 1.7075
2.3809 -10.3623 1.7075
2.6939 -10.0509 1.6741
2.9222 -9.5178 1.6044
3.2583 -9.3925 1.6044
3.5897 -9.2569 1.6044
3.9163 -9.1110 1.6044
4.2377 -8.9552 1.6044
4.5538 -8.7894 1.6044
4.8642 -8.6140 1.6044
5.1688 -8.4290 1.6044
5.4672 -8.2345 1.6044
5.7593 -8.0309 1.6044
6.0448 -7.8182 1.6044
6.3236 -7.5966 1.6044
6.5952 -7.3663 1.6044
6.8597 -7.1274 1.6044
7.1166 -6.8802 1.6044
7.3659 -6.6248 1.6044
7.6072 -6.3614 1.6044
7.8403 -6.0902 1.6044
8.0651 -5.8115 1.6044
8.2813 -5.5253 1.6044
8.4887 -5.2320 1.6044
8.6871 -4.9317 1.6044
8.8948 -3.4732 1.5204
6.1127 -0.7387 0.9602
10.2059 0.2417 1.5687
6.3310 0.3781 0.9707
6.4019 0.6141 0.9803
6.4739 0.8569 0.9912
6.5483 1.1076 1.0037
6.6380 1.3699 1.0198
6.7315 1.6436 1.0379
6.8335 1.9312 1.0587
6.9513 2.2373 1.0836
7.0765 2.5617 1.1115
7.1920 2.8999 1.1397
7.3022 3.2540 1.1692
7.4131 3.6281 1.2011
7.5494 4.0372 1.2397
7.7434 4.5058 1.2907
9.4667 5.9738 1.6044
9.2940 6.3426 1.6044
9.1075 6.7070 1.6044
8.9073 7.0665 1.6044
8.6934 7.4206 1.6044
8.9303 8.1948 1.6924
8.7533 8.6313 1.7075
8.4825 8.9871 1.7075
8.1975 9.3348 1.7075
7.8987 9.6736 1.7075
7.5861 10.0030 1.7075
7.2600 10.3223 1.7075
6.9208 10.6309 1.7075
6.5686 10.9282 1.7075
6.2038 11.2135 1.7075
5.8268 11.4863 1.7075
5.4380 11.7459 1.7075
5.0379 11.9918 1.7075
4.6269 12.2233 1.7075
4.2054 12.4399 1.7075
3.7742 12.6409 1.7075
3.3336 12.8259 1.7075
2.8844 12.9944 1.7075
2.4272 13.1458 1.7075
1.9626 13.2796 1.7075
1.4915 13.3954 1.7075
1.0144 13.4929 1.7075
0.5322 13.5715 1.7075
0.0458 13.6310 1.7075
-0.4442 13.6710 1.7075
-0.9369 13.6913 1.7075
-1.4312 13.6917 1.7075
-1.9266 13.6719 1.7075
-2.4218 13.6318 1.7075
-2.9162 13.5714 1.7075
-3.4086 13.4905 1.7075
-3.8983 13.3892 1.7075
-4.3842 13.2676 1.7075
-4.8654 13.1257 1.7075
-5.3410 12.9637 1.7075
-5.8100 12.7819 1.7075
-6.2715 12.5805 1.7075
-6.7246 12.3597 1.7075
-7.1684 12.1201 1.7075
-7.6021 11.8620 1.7075
-8.0247 11.5858 1.7075
-8.4354 11.2922 1.7075
-8.8334 10.9816 1.7075
-4.1002 4.7391 0.7595
-3.9684 4.2678 0.7067
-4.1711 4.1753 0.7162
-4.1828 3.8973 0.6945
-4.4980 3.8996 0.7240
-4.9938 4.0253 0.7812
-4.9743 3.7237 0.7580
-10.7850 7.4862 1.6044
-11.0239 7.0807 1.6043
-8.2681 -4.9267 1.5652
-8.2501 -5.3263 1.6043
-3.8615 -2.6942 0.7727
-7.7759 -5.8513 1.6043
-7.5269 -6.0993 1.6043
-7.2703 -6.3372 1.6043
-7.0068 -6.5650 1.6043
-6.7367 -6.7825 1.6044
-6.4605 -6.9896 1.6044
-6.1784 -7.1861 1.6044
-5.8910 -7.3720 1.6044
-5.5987 -7.5471 1.6044
-5.3017 -7.7114 1.6044
-5.0990 -8.0195 1.6360
-4.9975 -8.5217 1.7075
-3.4284 -6.3597 1.2537
-3.1803 -6.4440 1.2518
-2.9345 -6.5276 1.2514
-2.6903 -6.6105 1.2526
-2.4472 -6.6931 1.2552
-2.2044 -6.7756 1.2594
-1.9614 -6.8582 1.2651
-1.8939 -7.6544 1.4031
-1.9618 -9.3616 1.7075
-1.6185 -9.3971 1.7075
-1.2754 -9.4212 1.7075
-0.9327 -9.4340 1.7075
-0.5909 -9.4355 1.7075
-0.2501 -9.4259 1.7075
0.0893 -9.4053 1.7075
0.4269 -9.3737 1.7075
0.7625 -9.3312 1.7075
1.0958 -9.2781 1.7075
1.4265 -9.2143 1.7075
1.7542 -9.1400 1.7075
2.0788 -9.0553 1.7075
2.3999 -8.9604 1.7075
2.7173 -8.8553 1.7075
3.0306 -8.7403 1.7075
3.2575 -8.4032 1.6655
3.4243 -7.9688 1.6044
3.7060 -7.8334 1.6044
3.9830 -7.6891 1.6044
4.2550 -7.5362 1.6044
4.5218 -7.3747 1.6044
4.7833 -7.2048 1.6044
5.0391 -7.0267 1.6044
5.2890 -6.8405 1.6044
5.5329 -6.6464 1.6044
5.7705 -6.4445 1.6044
6.0016 -6.2351 1.6044
6.2260 -6.0182 1.6044
6.4435 -5.7941 1.6044
6.6538 -5.5630 1.6044
6.8569 -5.3249 1.6044
7.0524 -5.0803 1.6044
7.2402 -4.8291 1.6044
7.4202 -4.5716 1.6044
7.5920 -4.3081 1.6044
7.7555 -4.0387 1.6044
7.9105 -3.7636 1.6044
8.0568 -3.4831 1.6044
8.1943 -3.1974 1.6044
8.3228 -2.9067 1.6044
8.4420 -2.6112 1.6044
8.5519 -2.3113 1.6044
8.6521 -2.0071 1.6044
5.7911 -1.1254 1.0628
5.8625 -0.9216 1.0660
5.9355 -0.7152 1.0707
6.0105 -0.5056 1.0770
6.0876 -0.2920 1.0847
6.1672 -0.0736 1.0941
6.2496 0.1504 1.1052
6.3311 0.3806 1.1174
6.4121 0.6176 1.1308
6.4958 0.8625 1.1461
6.5751 1.1150 1.1620
6.6551 1.3764 1.1795
6.7376 1.6481 1.1992
6.8306 1.9336 1.2224
6.9336 2.2349 1.2493
7.0744 2.5645 1.2851
8.7485 3.5320 1.6044
8.6528 3.8606 1.6044
7.6342 3.7406 1.4333
8.4262 4.5110 1.6044
8.0695 4.7006 1.5608
8.1525 5.1497 1.6044
8.0116 5.4729 1.6071
8.1922 6.0388 1.6782
8.1460 6.4687 1.7075
7.9445 6.7878 1.7075
7.7309 7.1008 1.7075
7.5051 7.4074 1.7075
7.2675 7.7069 1.7075
7.0181 7.9990 1.7075
6.7571 8.2831 1.7075
6.4847 8.5586 1.7075
6.2013 8.8252 1.7075
5.9069 9.0822 1.7075
5.6020 9.3292 1.7075
5.2869 9.5657 1.7075
4.9618 9.7912 1.7075
4.6272 10.0052 1.7075
4.2834 10.2073 1.7075
3.9309 10.3969 1.7075
3.5700 10.5737 1.7075
3.2014 10.7372 1.7075
2.8254 10.8870 1.7075
2.4427 11.0227 1.7075
2.0536 11.1439 1.7075
1.6589 11.2502 1.7075
1.2591 11.3415 1.7075
0.8549 11.4172 1.7075
0.4467 11.4771 1.7075
0.0355 11.5211 1.7075
-0.3783 11.5488 1.7075
-0.7940 11.5602 1.7075
-1.2107 11.5549 1.7075
-1.6278 11.5330 1.7075
-2.0445 11.4943 1.7075
-2.4602 11.4387 1.7075
-2.8741 11.3664 1.7075
-3.2854 11.2772 1.7075
-3.6933 11.1713 1.7075
-4.0972 11.0488 1.7075
-4.4962 10.9098 1.7075
-4.8897 10.7545 1.7075
-5.2769 10.5831 1.7075
-5.6571 10.3959 1.7075
-6.0295 10.1933 1.7075
-6.3935 9.9754 1.7075
-6.7484 9.7428 1.7075
-7.0935 9.4958 1.7075
-7.4282 9.2349 1.7075
-3.5942 4.1546 0.7917
-3.6035 3.8758 0.7630
-3.7128 3.7171 0.7580
-3.8403 3.5788 0.7580
-3.9915 3.4612 0.7636
-4.1788 3.3692 0.7768
-8.8625 6.6362 1.6044
-9.0804 6.3049 1.6043
-9.2844 5.9655 1.6043
-7.4186 -4.4158 1.6043
-7.2263 -4.6605 1.6043
-3.8614 -2.6914 0.8817
-6.8185 -5.1259 1.6043
-6.6037 -5.3461 1.6043
-6.3822 -5.5578 1.6043
-6.1542 -5.7607 1.6044
-5.9201 -5.9548 1.6044
-5.6803 -6.1399 1.6044
-5.4352 -6.3158 1.6044
-5.1851 -6.4825 1.6044
-4.9303 -6.6398 1.6044
-4.6971 -6.8255 1.6134
-4.6913 -7.3710 1.7075
-4.4074 -7.5081 1.7075
-3.7046 -6.8650 1.5353
-3.4820 -7.0478 1.5525
-3.5364 -7.8578 1.7075
-3.2407 -7.9537 1.7075
-2.9430 -8.0393 1.7075
-2.6435 -8.1147 1.7075
-2.1240 -7.4164 1.5482
-2.0406 -8.2344 1.7075
-1.7379 -8.2789 1.7075
-1.4347 -8.3131 1.7075
-1.1315 -8.3372 1.7075
-0.8284 -8.3512 1.7075
-0.5258 -8.3551 1.7075
-0.2239 -8.3490 1.7075
0.0768 -8.3330 1.7075
0.3761 -8.3072 1.7075
0.6739 -8.2716 1.7075
0.9696 -8.2264 1.7075
1.2632 -8.1716 1.7075
1.5543 -8.1073 1.7075
1.8427 -8.0337 1.7075
2.1280 -7.9508 1.7075
2.4101 -7.8588 1.7075
2.6887 -7.7577 1.7075
2.9635 -7.6478 1.7075
3.2344 -7.5291 1.7075
3.5010 -7.4018 1.7075
3.6936 -7.1318 1.6760
3.8200 -6.7667 1.6223
4.0150 -6.5488 1.6044
4.2474 -6.3981 1.6044
4.4748 -6.2399 1.6044
4.6968 -6.0745 1.6044
4.9134 -5.9019 1.6044
5.1243 -5.7224 1.6044
5.3294 -5.5361 1.6044
5.5284 -5.3431 1.6044
5.7211 -5.1436 1.6044
5.9074 -4.9378 1.6044
6.0871 -4.7259 1.6044
6.2600 -4.5081 1.6044
6.4259 -4.2844 1.6044
6.5846 -4.0552 1.6044
6.7359 -3.8206 1.6044
6.8797 -3.5808 1.6044
7.0159 -3.3361 1.6044
7.1442 -3.0865 1.6044
7.2645 -2.8324 1.6044
7.3766 -2.5740 1.6044
7.4803 -2.3115 1.6044
7.5756 -2.0451 1.6044
7.6622 -1.7750 1.6044
5.7900 -1.1232 1.2002
5.8580 -0.9189 1.2036
5.9265 -0.7121 1.2084
5.9982 -0.5024 1.2152
6.0711 -0.2890 1.2235
6.1456 -0.0710 1.2336
6.2218 0.1521 1.2454
6.3027 0.3814 1.2596
6.4040 0.6194 1.2794
8.0243 1.0688 1.6044
8.0075 1.3613 1.6044
7.9807 1.6541 1.6044
6.9369 1.7001 1.4011
7.8968 2.2392 1.6044
7.8396 2.5308 1.6044
7.7721 2.8214 1.6044
7.6944 3.1105 1.6044
7.6064 3.3979 1.6044
7.5081 3.6831 1.6044
7.5077 4.0238 1.6279
7.6578 4.4655 1.6875
7.6111 4.8128 1.7075
7.4629 5.1032 1.7075
7.3039 5.3893 1.7075
7.1342 5.6707 1.7075
6.9538 5.9469 1.7075
6.7630 6.2176 1.7075
6.5618 6.4823 1.7075
6.3504 6.7406 1.7075
6.1289 6.9920 1.7075
5.8976 7.2362 1.7075
5.6566 7.4726 1.7075
5.4062 7.7010 1.7075
5.1466 7.9208 1.7075
4.8781 8.1316 1.7075
4.6010 8.3331 1.7075
4.3156 8.5248 1.7075
4.0222 8.7064 1.7075
3.7211 8.8774 1.7075
3.4129 9.0376 1.7075
3.0977 9.1865 1.7075
0.9093 3.0537 0.5592
0.7993 3.0847 0.5574
0.6884 3.1117 0.5557
0.5766 3.1348 0.5540
0.4640 3.1538 0.5523
0.3508 3.1689 0.5507
0.2371 3.1799 0.5492
0.1231 3.1869 0.5478
0.0089 3.1897 0.5464
-0.1053 3.1886 0.5451
-0.2194 3.1833 0.5439
-0.3333 3.1740 0.5427
-0.4468 3.1606 0.5416
-0.5598 3.1432 0.5406
-0.6721 3.1218 0.5397
-0.7835 3.0964 0.5389
-2.8369 9.7319 1.7075
-3.1881 9.6383 1.7075
-3.5357 9.5307 1.7075
-3.8791 9.4091 1.7075
-4.2176 9.2738 1.7075
-4.5508 9.1248 1.7075
-4.8778 8.9625 1.7075
-5.1983 8.7871 1.7075
-5.5116 8.5989 1.7075
-5.8172 8.3981 1.7075
-6.1144 8.1852 1.7075
-6.4029 7.9605 1.7075
-3.7143 4.2937 0.9491
-3.7065 3.9870 0.9105
-3.7903 3.7952 0.8976
-3.8971 3.6323 0.8921
-4.0840 3.5421 0.9061
-4.3313 3.4930 0.9336
-7.6444 5.7257 1.6043
-7.8339 5.4412 1.6043
-8.0117 5.1496 1.6043
-6.5910 -3.9190 1.6043
-6.4230 -4.1381 1.6043
-3.8615 -2.6888 0.9916
-6.0658 -4.5556 1.6043
-5.8773 -4.7534 1.6044
-5.6826 -4.9438 1.6044
-5.4819 -5.1266 1.6044
-5.2757 -5.3016 1.6044
-5.0641 -5.4687 1.6044
-4.8476 -5.6278 1.6044
-4.6265 -5.7787 1.6044
-4.4009 -5.9213 1.6044
-4.4393 -6.4446 1.7075
-4.1909 -6.5785 1.7075
-3.9389 -6.7033 1.7075
-3.6836 -6.8191 1.7075
-3.4253 -6.9257 1.7075
-3.1642 -7.0231 1.7075
-2.9008 -7.1113 1.7075
-2.6354 -7.1902 1.7075
-2.3681 -7.2599 1.7075
-2.0995 -7.3203 1.7075
-1.8297 -7.3715 1.7075
-1.5590 -7.4135 1.7075
-1.2878 -7.4462 1.7075
-1.0163 -7.4698 1.7075
-0.7448 -7.4842 1.7075
-0.4736 -7.4896 1.7075
-0.2030 -7.4858 1.7075
0.0668 -7.4732 1.7075
0.3354 -7.4515 1.7075
0.6027 -7.4211 1.7075
0.8683 -7.3819 1.7075
1.1320 -7.3339 1.7075
1.3936 -7.2774 1.7075
1.6528 -7.2124 1.7075
1.9094 -7.1389 1.7075
2.1630 -7.0572 1.7075
2.4136 -6.9672 1.7075
2.6608 -6.8691 1.7075
2.9044 -6.7631 1.7075
3.1442 -6.6492 1.7075
3.3800 -6.5276 1.7075
3.6116 -6.3984 1.7075
3.8387 -6.2617 1.7075
4.0481 -6.0981 1.7021
4.1532 -5.7916 1.6575
4.2559 -5.5042 1.6181
4.4145 -5.3024 1.6044
4.6040 -5.1409 1.6044
4.7881 -4.9732 1.6044
4.9667 -4.7995 1.6044
5.1396 -4.6200 1.6044
5.3067 -4.4347 1.6044
5.4676 -4.2439 1.6044
5.6224 -4.0477 1.6044
5.7708 -3.8463 1.6044
5.9126 -3.6400 1.6044
6.0477 -3.4288 1.6044
6.1760 -3.2129 1.6044
6.2972 -2.9926 1.6044
6.4113 -2.7681 1.6044
6.5181 -2.5395 1.6044
6.6174 -2.3071 1.6044
6.7091 -2.0711 1.6044
6.7930 -1.8317 1.6044
6.8692 -1.5891 1.6044
6.9373 -1.3435 1.6044
6.9973 -1.0953 1.6044
6.1060 -0.7315 1.3898
7.0926 -0.5916 1.6044
7.1276 -0.3366 1.6044
7.1541 -0.0800 1.6044
7.1720 0.1781 1.6044
6.4910 0.3954 1.4502
7.1815 0.6976 1.6044
7.1730 0.9584 1.6044
7.1555 1.2196 1.6044
7.1290 1.4808 1.6044
6.9381 1.7036 1.5693
7.0489 2.0021 1.6044
6.9952 2.2617 1.6044
7.0069 2.5472 1.6217
7.1197 2.8820 1.6651
7.2148 3.2269 1.7075
7.1186 3.4962 1.7075
7.0128 3.7628 1.7075
6.8973 4.0264 1.7075
6.7721 4.2867 1.7075
6.6374 4.5433 1.7075
6.4931 4.7958 1.7075
6.3395 5.0439 1.7075
6.1765 5.2872 1.7075
6.0043 5.5253 1.7075
5.8231 5.7579 1.7075
5.6329 5.9846 1.7075
5.4340 6.2050 1.7075
5.2265 6.4188 1.7075
5.0107 6.6256 1.7075
4.7866 6.8250 1.7075
4.5547 7.0167 1.7075
4.3151 7.2003 1.7075
4.0681 7.3755 1.7075
3.8140 7.5419 1.7075
3.5530 7.6993 1.7075
3.2855 7.8472 1.7075
3.0119 7.9855 1.7075
0.9053 2.6881 0.5657
0.8085 2.7191 0.5640
0.7107 2.7466 0.5624
0.6119 2.7707 0.5608
0.5124 2.7912 0.5593
0.4122 2.8082 0.5579
0.3114 2.8215 0.5564
0.2102 2.8313 0.5551
0.1088 2.8375 0.5538
0.0071 2.8400 0.5526
-0.0945 2.8389 0.5514
-0.1961 2.8342 0.5503
-0.2975 2.8259 0.5493
-0.3985 2.8140 0.5484
-0.4990 2.7984 0.5475
-0.5989 2.7793 0.5467
-0.6981 2.7567 0.5459
-0.7964 2.7305 0.5452
-0.8938 2.7008 0.5446
-3.1070 8.3716 1.7075
-3.4080 8.2637 1.7075
-3.7047 8.1439 1.7075
-3.9968 8.0123 1.7075
-4.2835 7.8692 1.7075
-4.5645 7.7148 1.7075
-4.8392 7.5492 1.7075
-5.1072 7.3728 1.7075
-5.0439 6.7521 1.6044
-5.2817 6.5669 1.6044
-5.5120 6.3723 1.6044
-3.7660 4.0514 1.0537
-3.8299 3.8354 1.0330
-3.9361 3.6693 1.0262
-4.1320 3.5844 1.0440
-4.4350 3.5775 1.0885
-6.7143 5.0305 1.6043
-6.8818 4.7814 1.6043
-7.0392 4.5262 1.6043
-5.9242 -3.5187 1.6043
-5.7753 -3.7169 1.6043
-3.8619 -2.6864 1.1025
-5.4580 -4.0950 1.6044
-5.2902 -4.2744 1.6044
-5.1168 -4.4473 1.6044
-4.9378 -4.6134 1.6044
-4.7537 -4.7726 1.6044
-4.5647 -4.9247 1.6044
-4.3710 -5.0696 1.6044
-4.1730 -5.2073 1.6044
-4.2260 -5.6805 1.7075
-4.0068 -5.8112 1.7075
-3.7839 -5.9338 1.7075
-3.5576 -6.0483 1.7075
-3.3281 -6.1545 1.7075
-3.0957 -6.2526 1.7075
-2.8607 -6.3424 1.7075
-2.6235 -6.4238 1.7075
-2.3842 -6.4969 1.7075
-2.1432 -6.5615 1.7075
-1.9007 -6.6178 1.7075
-1.6571 -6.6658 1.7075
-1.4126 -6.7053 1.7075
-1.1674 -6.7364 1.7075
-0.9219 -6.7592 1.7075
-0.6763 -6.7737 1.7075
-0.4308 -6.7799 1.7075
-0.1858 -6.7779 1.7075
0.0585 -6.7676 1.7075
0.3020 -6.7492 1.7075
0.5442 -6.7227 1.7075
0.7851 -6.6882 1.7075
1.0243 -6.6457 1.7075
1.2616 -6.5953 1.7075
1.4968 -6.5372 1.7075
1.7296 -6.4713 1.7075
1.9598 -6.3978 1.7075
2.1873 -6.3168 1.7075
2.4117 -6.2284 1.7075
2.6329 -6.1327 1.7075
2.8506 -6.0297 1.7075
3.0647 -5.9197 1.7075
3.2749 -5.8027 1.7075
3.4810 -5.6789 1.7075
3.6829 -5.5483 1.7075
3.8803 -5.4112 1.7075
4.0731 -5.2676 1.7075
4.2610 -5.1177 1.7075
4.4395 -4.9568 1.7059
4.5271 -4.7015 1.6726
4.6115 -4.4555 1.6426
4.6969 -4.2212 1.6168
4.8122 -4.0206 1.6044
4.9579 -3.8472 1.6044
5.1043 -3.6736 1.6064
5.2320 -3.4860 1.6044
5.3600 -3.2985 1.6044
5.4819 -3.1066 1.6044
5.5975 -2.9105 1.6044
5.7067 -2.7104 1.6044
5.8093 -2.5065 1.6044
5.9051 -2.2990 1.6044
5.9942 -2.0880 1.6044
6.0762 -1.8739 1.6044
6.1512 -1.6566 1.6044
6.2189 -1.4366 1.6044
6.2794 -1.2140 1.6044
6.3324 -0.9890 1.6044
6.1067 -0.7295 1.5362
6.4158 -0.5328 1.6044
6.4460 -0.3021 1.6044
6.4684 -0.0699 1.6044
6.4829 0.1635 1.6044
6.4920 0.3980 1.6050
6.4881 0.6329 1.6044
6.4787 0.8684 1.6044
6.5191 1.1140 1.6188
6.6047 1.3748 1.6466
6.6979 1.6477 1.6788
6.7678 1.9256 1.7075
6.7142 2.1742 1.7075
6.6518 2.4215 1.7075
6.5806 2.6673 1.7075
6.5006 2.9111 1.7075
6.4118 3.1528 1.7075
6.3144 3.3919 1.7075
6.2082 3.6281 1.7075
6.0935 3.8612 1.7075
5.9702 4.0908 1.7075
5.8384 4.3165 1.7075
5.6982 4.5381 1.7075
5.5497 4.7552 1.7075
5.3930 4.9675 1.7075
5.2283 5.1747 1.7075
5.0557 5.3765 1.7075
4.8754 5.5725 1.7075
4.6875 5.7623 1.7075
4.4923 5.9458 1.7075
4.2898 6.1225 1.7075
4.0805 6.2922 1.7075
3.8644 6.4546 1.7075
3.6418 6.6093 1.7075
3.4130 6.7561 1.7075
3.1782 6.8947 1.7075
2.9379 7.0249 1.7075
0.9002 2.3895 0.5709
0.8141 2.4205 0.5694
0.7270 2.4484 0.5679
0.6389 2.4732 0.5664
0.5501 2.4948 0.5650
0.4605 2.5133 0.5636
0.3703 2.5286 0.5623
0.2796 2.5406 0.5611
0.1885 2.5494 0.5599
0.0972 2.5549 0.5587
0.0057 2.5572 0.5576
-0.0858 2.5562 0.5566
-0.1772 2.5519 0.5556
-0.2684 2.5444 0.5547
-0.3594 2.5336 0.5538
-0.4498 2.5196 0.5530
-0.5398 2.5024 0.5523
