ply
format ascii 1.0
element vertex 2156
property float32 x
property float32 y
property float32 z
end_header
4.6880 -7.6811 -0.3535
4.6668 -7.0643 -0.3330
4.6766 -6.5557 -0.3171
4.7082 -6.1234 -0.3046
4.7376 -5.7248 -0.2934
4.7588 -5.3482 -0.2830
4.7690 -4.9877 -0.2731
4.7825 -4.6558 -0.2645
4.8107 -4.3587 -0.2576
4.8375 -4.0771 -0.2513
4.8632 -3.8093 -0.2457
4.8879 -3.5536 -0.2406
4.9077 -3.3059 -0.2359
4.9267 -3.0680 -0.2317
4.9452 -2.8388 -0.2279
4.9615 -2.6164 -0.2244
4.9739 -2.3993 -0.2212
4.9861 -2.1886 -0.2183
4.9982 -1.9835 -0.2158
5.0100 -1.7832 -0.2137
5.0246 -1.5879 -0.2119
5.0580 -1.4013 -0.2113
5.0914 -1.2159 -0.2109
5.1248 -1.0313 -0.2109
5.1583 -0.8470 -0.2110
5.1920 -0.6625 -0.2115
5.1965 -0.4746 -0.2110
5.2009 -0.2876 -0.2108
5.2056 -0.1011 -0.2109
5.2103 0.0856 -0.2112
5.2184 0.2730 -0.2120
5.2893 0.4672 -0.2155
5.3630 0.6681 -0.2195
5.4397 0.8766 -0.2239
5.5198 1.0937 -0.2288
5.6037 1.3206 -0.2342
5.6394 1.5443 -0.2380
5.6651 1.7718 -0.2417
5.7641 2.0322 -0.2490
5.9184 2.3283 -0.2592
6.0865 2.6500 -0.2706
6.2461 2.9901 -0.2824
6.3641 3.3319 -0.2930
6.4581 3.6818 -0.3033
6.5606 4.0584 -0.3148
6.6717 4.4653 -0.3276
6.7978 4.9113 -0.3422
6.9833 5.4365 -0.3612
7.1093 5.9557 -0.3785
7.2638 6.5421 -0.3989
7.5892 7.3444 -0.4309
7.6602 7.9641 -0.4508
7.9619 8.8947 -0.4869
8.1748 9.8190 -0.5210
8.1931 10.5908 -0.5458
8.2140 11.4426 -0.5740
8.3014 12.4856 -0.6108
8.4025 13.6764 -0.6536
8.5560 15.1150 -0.7069
8.5416 16.4369 -0.7535
8.4624 17.8170 -0.8020
8.3962 19.4467 -0.8607
8.2585 21.1828 -0.9233
7.9954 22.9005 -0.9844
7.7030 24.8956 -1.0569
7.5161 27.7801 -1.1663
8.4000 36.1369 -1.5024
8.4897 43.5432 -1.7951
-20.7068 35.8178 -1.6388
-20.6718 32.9716 -1.5396
-20.6426 30.4440 -1.4534
-22.0240 30.1003 -1.4719
-23.8069 30.2036 -1.5158
-25.7101 30.3174 -1.5648
-25.8130 28.3164 -1.5065
-27.9020 28.4873 -1.5658
-30.5045 28.9898 -1.6504
-34.9473 30.9061 -1.8274
-37.8120 31.0980 -1.9153
-37.8478 28.9180 -1.8611
-37.8156 26.8034 -1.8089
-33.2550 -33.7583 -0.7359
-31.3527 -34.1956 -0.7208
-29.2085 -34.2431 -0.6997
-27.1862 -34.2880 -0.6808
-25.1434 -34.1572 -0.6604
-25.0268 -36.6826 -0.6921
-24.9159 -39.4883 -0.7285
4.4897 -28.9580 -0.4756
4.4464 -23.1632 -0.3838
4.5629 -19.8916 -0.3330
4.7118 -17.6185 -0.2984
4.8131 -15.7176 -0.2697
4.7782 -13.8149 -0.2405
4.7937 -12.4023 -0.2194
4.7561 -11.1047 -0.1999
4.7270 -10.0279 -0.1840
4.6783 -9.0672 -0.1698
4.6171 -8.2125 -0.1573
4.5675 -7.4833 -0.1468
4.5583 -6.8996 -0.1389
4.5844 -6.4259 -0.1329
4.6190 -6.0071 -0.1280
4.6512 -5.6200 -0.1236
4.6748 -5.2534 -0.1195
4.6877 -4.9024 -0.1156
4.7082 -4.5832 -0.1123
4.7379 -4.2925 -0.1096
4.7662 -4.0167 -0.1071
4.7932 -3.7542 -0.1049
4.8190 -3.5033 -0.1030
4.8402 -3.2602 -0.1011
4.8603 -3.0264 -0.0995
4.8797 -2.8010 -0.0980
4.8960 -2.5817 -0.0967
4.9093 -2.3680 -0.0954
4.9222 -2.1604 -0.0944
4.9349 -1.9582 -0.0934
4.9473 -1.7607 -0.0926
4.9595 -1.5673 -0.0920
4.9908 -1.3825 -0.0918
5.0239 -1.1997 -0.0917
5.0569 -1.0176 -0.0918
5.0900 -0.8357 -0.0920
5.1222 -0.6535 -0.0923
5.1267 -0.4682 -0.0922
5.1312 -0.2837 -0.0922
5.1358 -0.0996 -0.0923
5.1404 0.0845 -0.0925
5.1451 0.2692 -0.0929
5.1910 0.4586 -0.0941
5.2616 0.6555 -0.0959
5.3348 0.8598 -0.0978
5.4111 1.0723 -0.1000
5.4909 1.2941 -0.1024
5.5320 1.5149 -0.1042
5.5557 1.7377 -0.1058
5.5828 1.9684 -0.1077
5.7250 2.2522 -0.1120
5.8791 2.5597 -0.1169
6.0474 2.8950 -0.1223
6.2233 3.2583 -0.1282
6.3205 3.6034 -0.1328
6.4157 3.9688 -0.1378
6.5184 4.3627 -0.1433
6.6299 4.7900 -0.1494
6.7851 5.2822 -0.1571
6.9163 5.7941 -0.1648
7.0420 6.3423 -0.1731
7.2678 7.0333 -0.1847
7.4369 7.7319 -0.1958
7.4993 8.3779 -0.2051
7.8615 9.4426 -0.2240
7.8819 10.1884 -0.2347
7.8865 10.9862 -0.2463
7.9176 11.9082 -0.2602
7.9893 13.0035 -0.2774
8.0528 14.2256 -0.2968
8.1894 15.7586 -0.3221
8.0921 17.0368 -0.3417
8.0247 18.5855 -0.3663
7.9679 20.4365 -0.3963
7.7665 22.2436 -0.4251
7.4435 24.0555 -0.4536
7.2510 26.7984 -0.4993
7.5590 32.5159 -0.5994
8.0021 41.0378 -0.7494
-19.7690 37.2149 -0.7215
-19.8100 34.2690 -0.6758
-19.8866 31.7214 -0.6374
-19.9528 29.4288 -0.6035
-21.1791 28.9474 -0.6071
-22.8442 28.9841 -0.6228
-11.4288 13.4778 -0.2974
-11.0648 12.1386 -0.2756
-11.2015 11.4372 -0.2678
-11.3646 10.8009 -0.2615
-11.2342 9.9357 -0.2494
-34.7673 28.5957 -0.7465
-11.0768 8.4638 -0.2305
-11.2922 8.0044 -0.2282
-33.2547 -33.7583 0.3313
-31.3481 -34.1910 0.3240
-22.2840 -26.1253 0.2395
-21.9632 -27.7009 0.2462
-22.0121 -29.9040 0.2581
-22.1253 -32.4305 0.2724
-22.1883 -35.1662 0.2878
-18.3285 -31.4955 0.2515
-22.2994 -41.6867 0.3254
-17.8287 -36.4084 0.2782
-19.2075 -43.0656 0.3225
5.7808 -48.7592 0.3110
4.1036 -26.4635 0.1685
4.1973 -21.8626 0.1391
4.3759 -19.0742 0.1214
4.5420 -16.9816 0.1083
4.5813 -14.9593 0.0956
4.5930 -13.2782 0.0852
4.6211 -11.9547 0.0771
4.5883 -10.7121 0.0696
4.5859 -9.7276 0.0637
4.5397 -8.7979 0.0582
4.4932 -7.9915 0.0534
4.4532 -7.2955 0.0494
4.4549 -6.7426 0.0463
4.4957 -6.3013 0.0440
4.5332 -5.8951 0.0419
4.5679 -5.5191 0.0400
4.5937 -5.1620 0.0382
4.6093 -4.8200 0.0366
4.6362 -4.5128 0.0352
4.6674 -4.2283 0.0339
4.6970 -3.9581 0.0328
4.7252 -3.7007 0.0317
4.7521 -3.4544 0.0308
4.7746 -3.2158 0.0299
4.7957 -2.9860 0.0291
4.8159 -2.7642 0.0283
4.8323 -2.5480 0.0276
4.8463 -2.3374 0.0270
4.8600 -2.1329 0.0264
4.8732 -1.9336 0.0258
4.8861 -1.7388 0.0253
4.8988 -1.5479 0.0249
4.9254 -1.3643 0.0245
4.9582 -1.1839 0.0243
4.9909 -1.0042 0.0241
5.0235 -0.8247 0.0239
5.0542 -0.6447 0.0237
5.0588 -0.4618 0.0235
5.0634 -0.2798 0.0233
5.0679 -0.0982 0.0231
5.0724 0.0835 0.0230
5.0769 0.2658 0.0229
5.0963 0.4503 0.0229
5.1640 0.6435 0.0231
5.2340 0.8436 0.0234
5.3068 1.0517 0.0238
5.3826 1.2687 0.0242
5.4288 1.4867 0.0245
5.4504 1.7048 0.0248
5.4727 1.9296 0.0251
5.5439 2.1810 0.0257
5.6856 2.4755 0.0266
5.8395 2.7955 0.0277
6.0078 3.1454 0.0290
6.1494 3.5059 0.0302
6.2771 3.8831 0.0315
6.3721 4.2649 0.0326
6.4749 4.6780 0.0340
6.5922 5.1321 0.0355
6.7337 5.6411 0.0374
6.8469 6.1666 0.0392
6.9727 6.7477 0.0414
7.2266 7.5131 0.0445
7.2550 8.1049 0.0465
7.3926 8.8793 0.0495
7.5798 9.7977 0.0533
7.5844 10.5651 0.0561
7.5738 11.3908 0.0592
7.6140 12.3924 0.0632
7.6646 13.5395 0.0679
7.6903 14.7977 0.0731
7.7634 16.3441 0.0797
7.6327 17.6767 0.0853
7.5634 19.3980 0.0927
7.4744 21.4058 0.1016
7.2170 23.3221 0.1100
6.9317 25.6165 0.1204
6.9019 29.6869 0.1392
7.3493 37.6858 0.1766
-19.8076 37.2904 0.2280
-20.1458 34.8524 0.2194
-20.0493 31.9830 0.2075
-19.9924 29.4891 0.1976
-21.5948 29.5175 0.2047
-10.9313 13.8702 0.0997
-10.9515 12.9157 0.0964
-10.9701 12.0355 0.0935
-10.9620 11.1933 0.0908
-11.0789 10.5301 0.0893
-11.0140 9.7415 0.0866
-11.0730 9.1080 0.0851
-11.0062 8.4104 0.0829
-11.0500 7.8331 0.0817
-33.2545 -33.7583 1.3989
-31.1882 -34.0169 1.3620
-29.0553 -34.0643 1.3210
-20.7713 -26.1980 0.9860
-22.0732 -29.9876 1.0977
-22.1249 -32.4305 1.1568
-22.1883 -35.1671 1.2246
-15.3158 -26.3193 0.8962
-14.0930 -26.3464 0.8788
-13.0283 -26.6064 0.8707
-12.0949 -27.1194 0.8721
-11.5595 -28.6353 0.9061
-11.6481 -32.1255 1.0019
-11.7314 -36.3723 1.1195
-11.8557 -41.8326 1.2723
-7.9635 -32.4955 0.9781
3.8164 -32.1830 0.9354
3.9048 -25.1768 0.7343
3.9877 -20.7673 0.6085
4.1813 -18.2235 0.5372
4.3403 -16.2255 0.4818
4.3825 -14.3086 0.4286
4.4212 -12.7804 0.3867
4.4604 -11.5381 0.3531
4.4445 -10.3753 0.3217
4.4528 -9.4447 0.2971
4.4116 -8.5490 0.2732
4.3758 -7.7820 0.2531
4.3462 -7.1196 0.2361
4.3668 -6.6087 0.2238
4.4104 -6.1813 0.2142
4.4506 -5.7872 0.2056
4.4876 -5.4218 0.1978
4.5154 -5.0736 0.1906
4.5334 -4.7404 0.1837
4.5663 -4.4445 0.1782
4.5989 -4.1660 0.1732
4.6297 -3.9012 0.1687
4.6590 -3.6487 0.1646
4.6870 -3.4069 0.1609
4.7108 -3.1727 0.1574
4.7327 -2.9466 0.1543
4.7538 -2.7284 0.1514
4.7702 -2.5150 0.1488
4.7850 -2.3077 0.1463
4.7992 -2.1061 0.1441
4.8131 -1.9096 0.1422
4.8265 -1.7174 0.1404
4.8395 -1.5291 0.1389
4.8616 -1.3465 0.1379
4.8942 -1.1685 0.1373
4.9266 -0.9911 0.1370
4.9588 -0.8139 0.1368
4.9878 -0.6362 0.1367
4.9926 -0.4557 0.1361
4.9972 -0.2761 0.1357
5.0017 -0.0968 0.1355
5.0062 0.0825 0.1355
5.0105 0.2624 0.1356
5.0148 0.4432 0.1359
5.0699 0.6318 0.1378
5.1369 0.8280 0.1402
5.2063 1.0318 0.1429
5.2786 1.2442 0.1459
5.3293 1.4596 0.1485
5.3491 1.6732 0.1506
5.3694 1.8932 0.1529
5.3902 2.1206 0.1554
5.5044 2.3967 0.1610
5.6454 2.7027 0.1678
5.7990 3.0361 0.1754
5.9611 3.3985 0.1839
6.0263 3.7279 0.1898
6.2322 4.1713 0.2009
6.3269 4.5711 0.2090
6.4296 5.0055 0.2182
6.5604 5.4959 0.2292
6.6624 6.0003 0.2402
6.7743 6.5557 0.2526
6.9667 7.2429 0.2693
7.0469 7.8723 0.2832
7.0675 8.4887 0.2962
7.2795 9.4093 0.3191
7.2928 10.1587 0.3356
7.2804 10.9493 0.3531
7.2724 11.8360 0.3733
7.2993 12.8938 0.3984
7.2997 14.0458 0.4260
7.3121 15.3936 0.4590
7.3091 16.9266 0.4970
7.2059 18.4803 0.5352
7.1392 20.4449 0.5848
6.9581 22.4842 0.6363
6.6803 24.6856 0.6921
6.4118 27.5761 0.7671
6.5056 33.3559 0.9218
6.6023 41.7653 1.1484
-3.4850 36.9425 1.0176
-3.7148 28.4379 0.7877
-3.7987 22.7111 0.6335
-4.4352 21.7054 0.6104
-4.6797 19.3409 0.5492
-5.3367 19.0430 0.5467
-19.8076 37.2930 1.1793
-19.8763 34.3887 1.1112
-19.9375 31.8069 1.0521
-19.9923 29.4910 1.0003
-21.3797 29.2254 1.0184
-10.8393 13.7543 0.4934
-11.0487 13.0312 0.4822
-11.0139 12.0843 0.4623
-10.9439 11.1756 0.4430
-10.8104 10.2755 0.4231
-11.0030 9.7324 0.4175
-10.8857 8.9545 0.4013
-11.0450 8.4405 0.3964
-11.0447 7.8299 0.3867
-21.8742 -22.2058 1.6233
-20.5940 -22.4621 1.5868
-19.7791 -23.1893 1.5868
-18.9392 -23.8877 1.5868
-18.0753 -24.5566 1.5867
-17.1884 -25.1951 1.5867
-16.2794 -25.8024 1.5867
-15.5750 -26.7655 1.6100
-14.5942 -27.2841 1.6081
-13.0279 -26.6065 1.5390
-12.0947 -27.1199 1.5419
-11.4430 -28.3480 1.5867
-10.4254 -28.7548 1.5867
-9.3936 -29.1260 1.5868
-8.3489 -29.4610 1.5868
-7.6709 -31.3041 1.6692
-6.6296 -31.9696 1.6899
-5.4833 -32.2070 1.6899
-4.3287 -32.4043 1.6899
-3.1671 -32.5609 1.6899
-1.9998 -32.6766 1.6899
-0.8284 -32.7513 1.6899
0.3401 -32.2359 1.6616
1.4287 -30.7771 1.5868
2.5325 -30.7307 1.5868
3.3585 -28.3150 1.4662
3.6445 -23.4945 1.2215
3.8056 -19.8163 1.0359
3.9985 -17.4245 0.9169
4.1501 -15.5127 0.8229
4.2015 -13.7160 0.7344
4.2591 -12.3108 0.6663
4.3022 -11.1277 0.6097
4.3092 -10.0587 0.5587
4.3253 -9.1736 0.5173
4.2906 -8.3139 0.4768
4.2641 -7.5830 0.4429
4.2465 -6.9559 0.4145
4.2820 -6.4799 0.3947
4.3282 -6.0657 0.3783
4.3707 -5.6830 0.3636
4.4100 -5.3276 0.3504
4.4396 -4.9882 0.3380
4.4625 -4.6660 0.3265
4.4984 -4.3782 0.3171
4.5323 -4.1054 0.3086
4.5643 -3.8459 0.3009
4.5946 -3.5980 0.2940
4.6235 -3.3606 0.2876
4.6486 -3.1306 0.2818
4.6714 -2.9082 0.2764
4.6932 -2.6934 0.2716
4.7096 -2.4829 0.2669
4.7251 -2.2786 0.2628
4.7400 -2.0799 0.2591
4.7543 -1.8861 0.2558
4.7682 -1.6966 0.2529
4.7816 -1.5106 0.2504
4.7995 -1.3292 0.2484
4.8318 -1.1535 0.2476
4.8638 -0.9784 0.2471
4.8956 -0.8035 0.2469
4.9232 -0.6278 0.2468
4.9281 -0.4497 0.2460
4.9327 -0.2724 0.2454
4.9373 -0.0955 0.2451
4.9415 0.0815 0.2452
4.9457 0.2591 0.2455
4.9497 0.4375 0.2462
4.9791 0.6206 0.2485
5.0432 0.8130 0.2529
5.1095 1.0127 0.2577
5.1783 1.2207 0.2631
5.2332 1.4333 0.2682
5.2513 1.6427 0.2719
5.2697 1.8582 0.2761
5.2884 2.0806 0.2807
5.3341 2.3226 0.2873
5.4636 2.6157 0.2990
5.6039 2.9341 0.3122
5.7568 3.2821 0.3270
5.8164 3.5981 0.3375
5.9018 3.9501 0.3504
6.1077 4.4127 0.3717
6.2796 4.8887 0.3926
6.3877 5.3512 0.4111
6.4872 5.8426 0.4308
6.5874 6.3747 0.4523
6.6976 6.9631 0.4768
6.8502 7.6525 0.5069
6.8616 8.2411 0.5294
6.8733 8.8842 0.5547
7.0141 9.7704 0.5941
6.9991 10.5259 0.6246
6.9686 11.3413 0.6579
6.9655 12.3038 0.6991
6.9711 13.4130 0.7477
6.9206 14.5687 0.7982
6.8972 15.9721 0.8613
6.8357 17.5302 0.9320
6.7509 19.3318 1.0148
6.6933 21.6269 1.1226
6.2551 23.1126 1.1880
5.8184 25.0220 1.2754
5.5151 28.2743 1.4311
4.9841 31.5247 1.5867
3.8488 31.6610 1.5867
2.7101 31.7557 1.5867
1.6717 33.8787 1.6899
0.4565 33.8908 1.6899
-0.7574 33.8588 1.6899
-1.9683 33.7826 1.6899
-3.1748 33.6626 1.6899
-3.7136 28.4344 1.4344
-3.7285 22.2950 1.1317
-3.9238 19.2053 0.9822
-3.9917 16.4995 0.8514
-4.0564 14.4762 0.7547
-4.6263 14.4904 0.7643
-5.2106 14.5050 0.7751
-11.7536 29.3669 1.5923
-12.5678 28.4063 1.5651
-13.3504 27.4705 1.5404
-14.1179 26.5826 1.5195
-14.9373 25.8455 1.5085
-15.9803 25.4957 1.5220
-17.7616 26.2022 1.6027
-18.6708 25.5241 1.6027
-10.8174 13.7275 0.8866
-10.8385 12.7840 0.8511
-10.8365 11.8904 0.8177
-10.9855 11.2187 0.7989
-10.8605 10.3237 0.7631
-10.8713 9.6165 0.7399
-10.9075 8.9730 0.7207
-11.0120 8.4159 0.7078
-10.9002 7.7279 0.6830
-15.8777 -16.1185 1.6899
-15.2915 -16.6788 1.6899
-14.6859 -17.2182 1.6899
-14.0616 -17.7360 1.6899
-13.4194 -18.2316 1.6899
-12.7600 -18.7043 1.6899
-12.0843 -19.1537 1.6899
-11.3930 -19.5791 1.6899
-10.6869 -19.9800 1.6899
-9.9669 -20.3559 1.6899
-9.2340 -20.7062 1.6899
-8.4889 -21.0306 1.6899
-7.7326 -21.3287 1.6899
-6.9659 -21.6000 1.6899
-6.1900 -21.8442 1.6899
-5.4055 -22.0609 1.6899
-4.6135 -22.2499 1.6899
-3.8150 -22.4108 1.6899
-3.0110 -22.5435 1.6899
-2.2023 -22.6478 1.6899
-1.3901 -22.7234 1.6899
-0.5754 -22.7702 1.6899
0.2410 -22.7882 1.6899
0.9934 -21.3878 1.5868
1.4211 -17.2383 1.2812
2.5253 -21.2856 1.5868
3.1134 -20.0668 1.5025
3.5808 -18.6429 1.4037
3.8349 -16.7094 1.2669
3.9663 -14.8239 1.1333
4.0344 -13.1693 1.0166
4.1083 -11.8736 0.9267
4.1502 -10.7337 0.8483
4.1816 -9.7601 0.7822
4.1975 -8.9017 0.7245
4.1758 -8.0909 0.6698
4.1578 -7.3934 0.6236
4.1512 -6.7993 0.5853
4.2002 -6.3557 0.5593
4.2489 -5.9541 0.5367
4.2936 -5.5824 0.5164
4.3348 -5.2365 0.4981
4.3661 -4.9054 0.4809
4.3952 -4.5953 0.4653
4.4324 -4.3137 0.4523
4.4675 -4.0464 0.4405
4.5006 -3.7919 0.4298
4.5319 -3.5487 0.4201
4.5617 -3.3154 0.4113
4.5879 -3.0895 0.4031
4.6114 -2.8707 0.3957
4.6334 -2.6590 0.3889
4.6504 -2.4515 0.3824
4.6665 -2.2502 0.3766
4.6820 -2.0543 0.3715
4.6969 -1.8632 0.3669
4.7112 -1.6761 0.3629
4.7250 -1.4926 0.3594
4.7387 -1.3122 0.3564
4.7708 -1.1388 0.3554
4.8025 -0.9659 0.3547
4.8339 -0.7932 0.3545
4.8601 -0.6196 0.3544
4.8651 -0.4438 0.3532
4.8698 -0.2688 0.3525
4.8743 -0.0942 0.3522
4.8785 0.0806 0.3523
4.8824 0.2558 0.3529
4.8861 0.4320 0.3539
4.8913 0.6097 0.3555
4.9527 0.7985 0.3617
5.0160 0.9943 0.3686
5.0815 1.1979 0.3762
5.1404 1.4080 0.3840
5.1569 1.6132 0.3892
5.1735 1.8243 0.3950
5.1902 2.0420 0.4015
5.2071 2.2673 0.4088
5.2928 2.5339 0.4223
5.4212 2.8384 0.4403
5.5605 3.1702 0.4605
5.6589 3.5007 0.4787
5.6717 3.7961 0.4910
5.7750 4.1724 0.5125
5.9727 4.6497 0.5445
6.1953 5.1900 0.5814
6.3208 5.6926 0.6120
6.4101 6.2031 0.6418
6.5079 6.7658 0.6755
6.6638 7.4441 0.7190
6.6668 8.0072 0.7499
6.6693 8.6203 0.7846
6.7300 9.3744 0.8309
6.7282 10.1184 0.8750
6.6971 10.8992 0.9214
6.6603 11.7644 0.9740
6.6455 12.7861 1.0385
6.6081 13.9105 1.1102
6.5246 15.1087 1.1868
6.4078 16.4320 1.2723
6.2318 17.8443 1.3640
5.9586 19.2518 1.4549
5.6890 21.0191 1.5727
4.9741 21.3891 1.5867
4.2028 21.5440 1.5867
3.4266 21.6707 1.5867
2.6468 21.7691 1.5867
1.8643 21.8391 1.5867
1.1505 23.3046 1.6899
0.3147 23.3185 1.6899
-0.5207 23.3022 1.6899
-1.3544 23.2555 1.6899
-2.1854 23.1789 1.6899
-3.0126 23.0723 1.6899
-3.7635 22.5081 1.6584
-3.7059 18.1411 1.3464
-3.7032 15.3086 1.1460
-4.0552 14.4735 1.0943
-4.6250 14.4877 1.1079
-5.2091 14.5022 1.1233
-8.0825 20.1961 1.5868
-8.7950 19.8805 1.5868
-9.4954 19.5397 1.5868
-10.1826 19.1742 1.5868
-10.7279 18.5634 1.5682
-11.1804 17.8389 1.5409
-12.1055 17.8594 1.5802
-13.0791 17.8810 1.6236
-10.8167 13.7275 1.2817
-10.8378 12.7840 1.2300
-10.8365 11.8911 1.1815
-10.9697 11.2032 1.1522
-11.0471 10.5017 1.1208
-10.8712 9.6171 1.0681
-10.9069 8.9730 1.0400
-11.0365 8.4352 1.0235
-10.9002 7.7284 0.9852
-11.4343 -11.6078 1.5867
-11.0119 -12.0110 1.5867
-10.5755 -12.3991 1.5867
-10.1255 -12.7716 1.5867
-10.2915 -13.9822 1.6899
-9.7853 -14.3441 1.6899
-9.2666 -14.6880 1.6899
-8.7360 -15.0134 1.6899
-8.1940 -15.3199 1.6899
-7.6415 -15.6071 1.6899
-7.0790 -15.8746 1.6899
-6.5073 -16.1221 1.6899
-5.9270 -16.3493 1.6899
-5.3389 -16.5558 1.6899
-4.7436 -16.7415 1.6899
-4.1420 -16.9060 1.6899
-3.5348 -17.0491 1.6899
-2.9226 -17.1707 1.6899
-2.3063 -17.2705 1.6899
-1.6866 -17.3484 1.6899
-1.0643 -17.4043 1.6899
-0.4402 -17.4381 1.6899
0.1850 -17.4498 1.6899
0.7610 -16.3753 1.5868
1.3478 -16.3445 1.5868
1.9334 -16.2928 1.5868
2.5171 -16.2203 1.5868
3.0980 -16.1271 1.5868
3.5458 -15.4476 1.5308
3.7976 -14.1917 1.4182
3.8829 -12.6736 1.2790
3.9673 -11.4650 1.1701
4.0208 -10.3981 1.0747
4.0611 -9.4779 0.9935
4.0778 -8.6473 0.9207
4.0667 -7.8788 0.8534
4.0564 -7.2126 0.7961
4.0654 -6.6584 0.7501
4.1212 -6.2358 0.7183
4.1721 -5.8461 0.6899
4.2189 -5.4848 0.6643
4.2619 -5.1481 0.6413
4.2949 -4.8250 0.6195
4.3296 -4.5265 0.6004
4.3681 -4.2508 0.5839
4.4043 -3.9889 0.5690
4.4383 -3.7393 0.5555
4.4706 -3.5005 0.5432
4.5012 -3.2712 0.5320
4.5285 -3.0493 0.5217
4.5529 -2.8341 0.5123
4.5748 -2.6251 0.5036
4.5924 -2.4208 0.4954
4.6092 -2.2224 0.4881
4.6253 -2.0293 0.4815
4.6406 -1.8407 0.4757
4.6553 -1.6561 0.4707
4.6694 -1.4749 0.4662
4.6831 -1.2967 0.4625
4.7111 -1.1244 0.4608
4.7425 -0.9537 0.4600
4.7735 -0.7832 0.4598
4.7983 -0.6117 0.4596
4.8034 -0.4381 0.4582
4.8082 -0.2653 0.4572
4.8126 -0.0929 0.4569
4.8167 0.0797 0.4571
4.8205 0.2527 0.4579
4.8239 0.4266 0.4593
4.8271 0.6018 0.4612
4.8651 0.7844 0.4671
4.9256 0.9764 0.4758
4.9881 1.1760 0.4855
5.0505 1.3834 0.4960
5.0655 1.5846 0.5026
5.0804 1.7915 0.5101
5.0953 2.0048 0.5184
5.1102 2.2252 0.5276
5.1318 2.4569 0.5385
5.2495 2.7486 0.5608
5.3765 3.0654 0.5857
5.5092 3.4081 0.6130
5.5179 3.6932 0.6283
5.5263 3.9927 0.6451
5.6449 4.3946 0.6769
5.8337 4.8870 0.7201
6.0350 5.4353 0.7685
6.1488 5.9502 0.8097
6.3281 6.5788 0.8638
6.4230 7.1751 0.9114
6.4822 7.7854 0.9589
6.4764 8.3709 1.0019
6.4689 9.0106 1.0502
6.4768 9.7401 1.1076
6.4342 10.4710 1.1640
6.3855 11.2787 1.2277
6.2750 12.0728 1.2891
6.1627 12.9724 1.3610
6.0140 13.9257 1.4379
5.7880 14.8417 1.5105
5.5429 15.8708 1.5944
4.9452 15.9765 1.5867
4.3683 16.1384 1.5867
3.7861 16.2793 1.5867
3.1994 16.3989 1.5867
2.6089 16.4972 1.5867
2.0155 16.5740 1.5867
1.4527 17.0133 1.6233
0.8766 17.7472 1.6899
0.2401 17.7601 1.6899
-0.3962 17.7499 1.6899
-1.0314 17.7167 1.6899
-1.6647 17.6607 1.6899
-2.2953 17.5819 1.6899
-2.9224 17.4804 1.6899
-3.5451 17.3564 1.6899
-3.7030 15.3098 1.5033
-4.0540 14.4708 1.4350
-4.6236 14.4849 1.4526
-5.2076 14.4994 1.4725
-6.5655 16.4070 1.6899
-6.7096 15.1677 1.5868
-7.2450 14.9100 1.5868
-7.7706 14.6334 1.5868
-8.2856 14.3383 1.5868
-8.7895 14.0250 1.5868
-9.2815 13.6940 1.5868
-9.7611 13.3458 1.5868
-10.2277 12.9808 1.5868
-10.6807 12.5995 1.5868
-10.8364 11.8918 1.5465
-10.9976 11.2324 1.5118
-11.0012 10.4588 1.4605
-10.8713 9.6177 1.3973
-10.9062 8.9730 1.3603
-11.0117 8.4168 1.3356
-10.9367 7.7549 1.2926
-9.2659 -9.4066 1.5867
-8.9235 -9.7332 1.5867
-8.5696 -10.0475 1.5867
-8.2049 -10.3491 1.5867
-7.8296 -10.6376 1.5867
-7.9287 -11.6228 1.6899
-7.5082 -11.9011 1.6899
-7.0779 -12.1643 1.6899
-6.6386 -12.4122 1.6899
-6.1907 -12.6444 1.6899
-5.7347 -12.8605 1.6899
-5.2713 -13.0604 1.6899
-4.8010 -13.2438 1.6899
-4.3243 -13.4104 1.6899
-3.8419 -13.5600 1.6899
-3.3544 -13.6925 1.6899
-2.8624 -13.8075 1.6899
-2.3665 -13.9051 1.6899
-1.8672 -13.9850 1.6899
-1.3653 -14.0472 1.6899
-0.8614 -14.0914 1.6899
-0.3560 -14.1177 1.6899
0.1501 -14.1261 1.6899
0.6564 -14.1164 1.6899
1.0912 -13.2293 1.5868
1.5651 -13.1863 1.5868
2.0374 -13.1265 1.5868
2.5073 -13.0500 1.5868
2.9744 -12.9566 1.5868
3.3824 -12.6385 1.5611
3.6074 -11.7729 1.4687
3.8019 -10.9860 1.3861
3.8987 -10.0815 1.2882
3.9468 -9.2103 1.1937
3.9656 -8.4086 1.1071
3.9626 -7.6767 1.0284
3.9594 -7.0396 0.9610
3.9869 -6.5293 0.9099
4.0449 -6.1199 0.8721
4.0978 -5.7416 0.8383
4.1464 -5.3903 0.8078
4.1912 -5.0624 0.7804
4.2256 -4.7469 0.7543
4.2657 -4.4594 0.7321
4.3053 -4.1895 0.7124
4.3425 -3.9328 0.6945
4.3776 -3.6879 0.6782
4.4107 -3.4534 0.6635
4.4421 -3.2281 0.6501
4.4705 -3.0100 0.6378
4.4955 -2.7982 0.6264
4.5174 -2.5920 0.6159
4.5357 -2.3907 0.6061
4.5531 -2.1952 0.5973
4.5696 -2.0047 0.5894
4.5854 -1.8187 0.5824
4.6005 -1.6365 0.5763
4.6150 -1.4576 0.5710
4.6288 -1.2815 0.5665
4.6527 -1.1103 0.5640
4.6838 -0.9418 0.5631
4.7144 -0.7734 0.5629
4.7379 -0.6039 0.5626
4.7431 -0.4325 0.5609
4.7479 -0.2619 0.5598
4.7523 -0.0916 0.5594
4.7563 0.0788 0.5597
4.7599 0.2496 0.5607
4.7631 0.4213 0.5624
4.7660 0.5943 0.5647
4.7802 0.7708 0.5692
4.8380 0.9591 0.5797
4.8976 1.1547 0.5913
4.9591 1.3584 0.6041
4.9769 1.5570 0.6126
4.9902 1.7598 0.6215
5.0034 1.9687 0.6315
5.0164 2.1844 0.6425
5.0293 2.4079 0.6547
5.0876 2.6639 0.6743
5.2036 2.9668 0.7032
5.3290 3.2967 0.7357
5.3717 3.5954 0.7588
5.3760 3.8841 0.7786
5.3795 4.1880 0.8003
5.5106 4.6164 0.8439
5.6898 5.1243 0.8989
5.7808 5.5941 0.9444
5.7773 6.0061 0.9784
6.0757 6.7870 1.0695
6.3069 7.5747 1.1574
6.2579 8.0884 1.2010
6.1955 8.6295 1.2477
6.1247 9.2103 1.2993
6.0278 9.8095 1.3526
5.8998 10.4205 1.4071
5.7579 11.0776 1.4672
5.6016 11.7908 1.5344
5.3509 12.3897 1.5867
4.9026 12.5708 1.5867
4.4481 12.7354 1.5867
3.9881 12.8835 1.5867
3.5231 13.0149 1.5867
3.0538 13.1293 1.5867
2.5808 13.2266 1.5867
2.1047 13.3067 1.5867
1.6262 13.3696 1.5867
1.2204 14.2882 1.6899
0.7075 14.3182 1.6899
0.1941 14.3296 1.6899
-0.3193 14.3226 1.6899
-0.8319 14.2970 1.6899
-1.3431 14.2530 1.6899
-1.8521 14.1906 1.6899
-2.3585 14.1099 1.6899
-2.8614 14.0111 1.6899
-3.3602 13.8943 1.6899
-3.8543 13.7596 1.6899
-4.3431 13.6073 1.6899
-4.8259 13.4376 1.6899
-5.3020 13.2507 1.6899
-5.7710 13.0470 1.6899
-6.2321 12.8266 1.6899
-6.6849 12.5899 1.6899
-6.7276 11.6430 1.5948
-7.1016 11.3325 1.5868
-7.4999 11.0662 1.5868
-7.8883 10.7858 1.5868
-8.2661 10.4919 1.5868
-8.6331 10.1847 1.5868
-8.9887 9.8647 1.5868
-9.3325 9.5323 1.5868
-9.6640 9.1880 1.5868
-9.9828 8.8322 1.5868
-10.2886 8.4654 1.5868
-10.5810 8.0881 1.5868
-10.9360 7.7548 1.5980
-7.7821 -7.9004 1.5867
-7.4944 -8.1746 1.5867
-7.2044 -8.4470 1.5883
-7.2622 -9.1603 1.6722
-7.0033 -9.5152 1.6899
-6.6585 -9.7610 1.6899
-6.3052 -9.9945 1.6899
-5.9437 -10.2153 1.6899
-5.5746 -10.4232 1.6899
-5.1983 -10.6179 1.6899
-4.8153 -10.7991 1.6899
-4.4260 -10.9666 1.6899
-4.0309 -11.1202 1.6899
-3.6305 -11.2597 1.6899
-3.2254 -11.3848 1.6899
-2.8160 -11.4956 1.6899
-2.4028 -11.5917 1.6899
-1.9864 -11.6731 1.6899
-1.5672 -11.7396 1.6899
-1.1458 -11.7912 1.6899
-0.7228 -11.8278 1.6899
-0.2986 -11.8493 1.6899
0.1263 -11.8557 1.6899
0.5512 -11.8469 1.6899
0.9161 -11.1018 1.5868
1.3137 -11.0652 1.5868
1.7099 -11.0144 1.5868
2.1041 -10.9494 1.5868
2.4958 -10.8705 1.5868
2.8846 -10.7776 1.5868
3.2700 -10.6708 1.5868
3.4723 -10.0326 1.5090
3.6047 -9.3204 1.4199
3.7218 -8.6847 1.3421
3.7255 -7.8989 1.2400
3.7069 -7.1806 1.1470
3.7234 -6.6195 1.0776
3.8479 -6.3012 1.0472
3.9709 -6.0075 1.0211
4.0257 -5.6402 0.9822
4.0760 -5.2984 0.9472
4.1224 -4.9789 0.9156
4.1599 -4.6728 0.8858
4.2034 -4.3940 0.8607
4.2441 -4.1296 0.8378
4.2823 -3.8779 0.8171
4.3182 -3.6376 0.7983
4.3521 -3.4073 0.7812
4.3843 -3.1858 0.7657
4.4136 -2.9715 0.7515
4.4393 -2.7630 0.7383
4.4611 -2.5595 0.7260
4.4801 -2.3613 0.7146
4.4980 -2.1685 0.7044
4.5150 -1.9806 0.6953
4.5313 -1.7971 0.6872
4.5468 -1.6172 0.6801
4.5615 -1.4406 0.6739
4.5756 -1.2667 0.6687
4.5954 -1.0965 0.6652
4.6261 -0.9301 0.6642
4.6564 -0.7638 0.6641
4.6787 -0.5962 0.6636
4.6840 -0.4270 0.6616
4.6888 -0.2585 0.6604
4.6932 -0.0904 0.6600
4.6971 0.0779 0.6603
4.7005 0.2465 0.6615
4.7035 0.4161 0.6635
4.7061 0.5869 0.6662
4.7081 0.7593 0.6698
4.7531 0.9423 0.6805
4.8099 1.1341 0.6939
4.8683 1.3336 0.7087
4.8909 1.5301 0.7194
4.9028 1.7290 0.7297
4.9143 1.9336 0.7412
4.9256 2.1449 0.7539
4.9365 2.3635 0.7680
4.9471 2.5903 0.7835
5.0407 2.8739 0.8141
5.1547 3.1889 0.8504
5.2322 3.5020 0.8833
5.2329 3.7808 0.9057
5.2325 4.0735 0.9303
5.2309 4.3820 0.9573
5.3712 4.8374 1.0141
5.5399 5.3609 1.0815
5.5286 5.7475 1.1189
5.4872 6.1295 1.1543
5.6697 6.8093 1.2433
5.8573 7.5705 1.3432
5.7586 8.0208 1.3858
5.6763 8.5358 1.4388
5.5840 9.0869 1.4972
5.4725 9.6655 1.5594
5.2115 10.0260 1.5867
4.8482 10.2047 1.5867
4.4788 10.3701 1.5867
4.1037 10.5220 1.5867
3.7235 10.6602 1.5867
3.3386 10.7846 1.5867
2.9495 10.8949 1.5867
2.5567 10.9912 1.5867
2.1608 11.0731 1.5867
1.7624 11.1407 1.5867
1.3618 11.1939 1.5867
1.0221 11.9636 1.6899
0.5927 11.9893 1.6899
0.1628 11.9995 1.6899
-0.2671 11.9943 1.6899
-0.6964 11.9735 1.6899
-1.1245 11.9373 1.6899
-1.5510 11.8858 1.6899
-1.9752 11.8189 1.6899
-2.3966 11.7368 1.6899
-2.8146 11.6397 1.6899
-3.2287 11.5276 1.6899
-3.6384 11.4007 1.6899
-4.0432 11.2593 1.6899
-4.4424 11.1034 1.6899
-4.8357 10.9334 1.6899
-5.2225 10.7494 1.6899
-5.6023 10.5517 1.6899
-5.9746 10.3406 1.6899
-6.3390 10.1163 1.6899
-6.6950 9.8792 1.6899
-6.7734 9.2621 1.6254
-6.9298 8.7963 1.5868
-7.2380 8.5394 1.5868
-7.5366 8.2716 1.5868
-7.8254 7.9935 1.5868
-8.1039 7.7053 1.5868
-8.3719 7.4074 1.5868
-8.6289 7.1002 1.5868
-8.8747 6.7842 1.5868
-9.1090 6.4596 1.5868
-7.1378 -7.2463 1.6899
-6.8741 -7.4981 1.6899
-6.6014 -7.7401 1.6899
-6.3202 -7.9722 1.6899
-6.0309 -8.1942 1.6899
-5.7339 -8.4058 1.6899
-5.4296 -8.6068 1.6899
-5.1182 -8.7968 1.6899
-4.8003 -8.9756 1.6899
-4.4761 -9.1431 1.6899
-4.1462 -9.2989 1.6899
-3.8109 -9.4429 1.6899
-3.4706 -9.5749 1.6899
-3.1258 -9.6948 1.6899
-2.7769 -9.8023 1.6899
-2.4243 -9.8974 1.6899
-2.0685 -9.9798 1.6899
-1.7099 -10.0496 1.6899
-1.3489 -10.1065 1.6899
-0.9861 -10.1506 1.6899
-0.6219 -10.1817 1.6899
-0.2567 -10.1999 1.6899
0.1090 -10.2050 1.6899
0.4747 -10.1970 1.6899
0.8352 -10.1186 1.6804
1.1309 -9.5234 1.5868
1.4718 -9.4792 1.5868
1.8110 -9.4230 1.5868
2.1481 -9.3546 1.5868
2.4826 -9.2742 1.5868
2.8141 -9.1819 1.5868
3.1422 -9.0778 1.5868
3.3245 -8.5952 1.5219
3.4152 -7.9686 1.4313
3.4223 -7.2554 1.3240
3.4421 -6.6673 1.2380
3.5508 -6.3122 1.1946
3.6829 -6.0306 1.1651
3.8073 -5.7597 1.1381
3.9249 -5.4986 1.1133
4.0075 -5.2091 1.0827
4.0554 -4.8977 1.0472
4.0979 -4.6028 1.0146
4.1425 -4.3300 0.9863
4.1841 -4.0710 0.9605
4.2232 -3.8243 0.9372
4.2600 -3.5884 0.9159
4.2947 -3.3621 0.8966
4.3275 -3.1444 0.8791
4.3577 -2.9337 0.8631
4.3841 -2.7284 0.8481
4.4059 -2.5277 0.8340
4.4254 -2.3323 0.8211
4.4439 -2.1423 0.8096
4.4614 -1.9570 0.7993
4.4781 -1.7758 0.7901
4.4939 -1.5983 0.7821
4.5089 -1.4238 0.7751
4.5232 -1.2521 0.7692
4.5391 -1.0830 0.7646
4.5696 -0.9186 0.7635
4.5995 -0.7543 0.7633
4.6205 -0.5887 0.7627
4.6259 -0.4216 0.7604
4.6308 -0.2552 0.7591
4.6351 -0.0892 0.7586
4.6389 0.0770 0.7591
4.6422 0.2436 0.7604
4.6450 0.4110 0.7626
4.6472 0.5796 0.7658
4.6490 0.7498 0.7699
4.6706 0.9260 0.7784
4.7247 1.1141 0.7934
4.7803 1.3096 0.8100
4.8073 1.5040 0.8231
4.8178 1.6991 0.8347
4.8278 1.8997 0.8476
4.8374 2.1065 0.8620
4.8465 2.3204 0.8778
4.8551 2.5422 0.8952
4.8867 2.7862 0.9188
4.9904 3.0873 0.9585
5.0991 3.4129 1.0022
5.0964 3.6822 1.0269
5.0924 3.9644 1.0540
5.0869 4.2613 1.0838
5.0848 4.5794 1.1177
5.2259 5.0570 1.1878
5.3235 5.5343 1.2543
5.2775 5.8952 1.2925
5.2266 6.2770 1.3344
5.2762 6.8192 1.4086
5.4316 7.5653 1.5217
5.3190 7.9984 1.5696
5.0833 8.2721 1.5867
4.7832 8.4479 1.5867
4.4770 8.6127 1.5867
4.1650 8.7664 1.5867
3.8478 8.9086 1.5867
3.5257 9.0394 1.5867
3.1991 9.1583 1.5867
2.8685 9.2655 1.5867
2.5343 9.3605 1.5867
2.1969 9.4435 1.5867
1.8568 9.5142 1.5867
1.5145 9.5726 1.5867
1.2465 10.2446 1.6899
0.8785 10.2804 1.6899
0.5096 10.3029 1.6899
0.1402 10.3120 1.6899
-0.2293 10.3079 1.6899
-0.5982 10.2905 1.6899
-0.9662 10.2598 1.6899
-1.3328 10.2159 1.6899
-1.6975 10.1589 1.6899
-2.0598 10.0888 1.6899
-2.4192 10.0057 1.6899
-2.7753 9.9098 1.6899
-3.1276 9.8012 1.6899
-3.4758 9.6801 1.6899
-3.8192 9.5465 1.6899
-4.1575 9.4008 1.6899
-4.4903 9.2430 1.6899
-4.8171 9.0735 1.6899
-5.1375 8.8924 1.6899
-5.4511 8.6999 1.6899
-5.7575 8.4964 1.6899
-6.0564 8.2822 1.6899
-6.3473 8.0574 1.6899
-6.6298 7.8224 1.6899
-6.8105 7.4752 1.6671
-6.8279 6.9750 1.6096
-6.9712 6.6287 1.5868
-7.2021 6.3728 1.5868
-7.4236 6.1088 1.5868
-7.6354 5.8372 1.5868
-7.8373 5.5582 1.5868
-6.2623 -6.3576 1.6899
-6.0307 -6.5782 1.6899
-5.7914 -6.7904 1.6899
-5.5447 -6.9940 1.6899
-5.2908 -7.1887 1.6899
-5.0302 -7.3743 1.6899
-4.7631 -7.5505 1.6899
-4.4899 -7.7171 1.6899
-4.2109 -7.8739 1.6899
-3.9265 -8.0207 1.6899
-3.6370 -8.1572 1.6899
-3.3428 -8.2834 1.6899
-3.0442 -8.3991 1.6899
-2.7417 -8.5040 1.6899
-2.4356 -8.5982 1.6899
-2.1263 -8.6814 1.6899
-1.8141 -8.7535 1.6899
-1.4995 -8.8145 1.6899
-1.1829 -8.8642 1.6899
-0.8647 -8.9026 1.6899
-0.5452 -8.9297 1.6899
-0.2249 -8.9453 1.6899
0.0958 -8.9495 1.6899
0.4165 -8.9423 1.6899
0.7368 -8.9236 1.6899
0.9919 -8.3510 1.5868
1.2908 -8.3121 1.5868
1.5882 -8.2625 1.5868
1.8837 -8.2022 1.5868
2.1769 -8.1315 1.5868
2.4675 -8.0503 1.5868
2.7551 -7.9587 1.5868
3.0393 -7.8569 1.5868
3.1373 -7.3195 1.4996
3.1646 -6.7086 1.3965
3.2833 -6.3592 1.3470
3.4003 -6.0441 1.3049
3.5304 -5.7804 1.2741
3.6531 -5.5260 1.2458
3.7692 -5.2802 1.2197
3.8792 -5.0419 1.1957
3.9835 -4.8105 1.1736
4.0373 -4.5344 1.1405
4.0828 -4.2674 1.1092
4.1254 -4.0137 1.0807
4.1654 -3.7717 1.0548
4.2029 -3.5401 1.0312
4.2384 -3.3178 1.0098
4.2718 -3.1037 0.9904
4.3029 -2.8966 0.9726
4.3298 -2.6945 0.9560
4.3516 -2.4964 0.9402
4.3717 -2.3038 0.9259
4.3907 -2.1165 0.9130
4.4087 -1.9337 0.9016
4.4257 -1.7549 0.8914
4.4418 -1.5796 0.8825
4.4571 -1.4074 0.8747
4.4717 -1.2377 0.8681
4.4855 -1.0701 0.8626
4.5140 -0.9073 0.8611
4.5435 -0.7450 0.8609
4.5634 -0.5813 0.8600
4.5689 -0.4163 0.8575
4.5738 -0.2520 0.8560
4.5781 -0.0880 0.8556
4.5818 0.0761 0.8561
4.5849 0.2406 0.8576
4.5875 0.4060 0.8601
4.5895 0.5725 0.8636
4.5909 0.7405 0.8682
4.5917 0.9105 0.8739
4.6419 1.0946 0.8902
4.6948 1.2862 0.9086
4.7259 1.4786 0.9241
4.7351 1.6700 0.9369
4.7437 1.8666 0.9512
4.7517 2.0692 0.9670
4.7591 2.2786 0.9844
4.7658 2.4955 1.0036
4.7719 2.7208 1.0247
4.8351 2.9912 1.0606
4.9363 3.3039 1.1080
4.9659 3.5879 1.1428
4.9587 3.8603 1.1722
4.9496 4.1463 1.2044
4.9386 4.4477 1.2398
4.9437 4.7839 1.2833
5.0738 5.2746 1.3653
5.0818 5.6766 1.4214
5.0268 6.0370 1.4657
4.9661 6.4184 1.5142
4.8991 6.8235 1.5674
4.7082 7.0798 1.5867
4.4512 7.2432 1.5867
4.1885 7.3973 1.5867
3.9204 7.5417 1.5867
3.6473 7.6764 1.5867
3.3696 7.8011 1.5867
3.0875 7.9157 1.5867
2.8016 8.0201 1.5867
2.5122 8.1140 1.5867
0.8311 3.0694 0.5941
0.7206 3.0973 0.5942
0.6092 3.1212 0.5943
0.4970 3.1411 0.5945
0.3842 3.1570 0.5946
0.2709 3.1689 0.5948
0.1572 3.1768 0.5949
0.0433 3.1807 0.5951
-0.0707 3.1805 0.5953
-0.1846 3.1762 0.5955
-0.2983 3.1679 0.5957
-0.4116 3.1556 0.5959
-0.5245 3.1392 0.5961
-0.6367 3.1188 0.5963
-0.7481 3.0945 0.5966
-0.8586 3.0662 0.5968
-2.7400 8.5875 1.6899
-3.0451 8.4816 1.6899
-3.3461 8.3649 1.6899
-3.6427 8.2375 1.6899
-3.9344 8.0996 1.6899
-4.2210 7.9513 1.6899
-4.5019 7.7929 1.6899
-4.7770 7.6245 1.6899
-5.0457 7.4465 1.6899
-5.3078 7.2589 1.6899
-5.5629 7.0622 1.6899
-5.8108 6.8565 1.6899
-6.0511 6.6421 1.6899
-6.2835 6.4193 1.6899
-6.5077 6.1884 1.6899
-6.7235 5.9497 1.6899
-6.8513 5.6383 1.6706
-6.8623 5.2465 1.6268
-6.8793 4.8791 1.5888
-5.5728 -5.6576 1.6899
-5.3666 -5.8539 1.6899
-5.1536 -6.0427 1.6899
-4.9340 -6.2239 1.6899
-4.7081 -6.3971 1.6899
-4.4761 -6.5622 1.6899
-4.2384 -6.7189 1.6899
-3.9952 -6.8671 1.6899
-3.7470 -7.0065 1.6899
-3.4938 -7.1370 1.6899
-3.2361 -7.2585 1.6899
-2.9743 -7.3707 1.6899
-2.7086 -7.4734 1.6899
-2.4393 -7.5667 1.6899
-2.1669 -7.6504 1.6899
-1.8917 -7.7242 1.6899
-1.6139 -7.7883 1.6899
-1.3340 -7.8424 1.6899
-1.0522 -7.8865 1.6899
-0.7691 -7.9205 1.6899
-0.4849 -7.9444 1.6899
-0.1999 -7.9581 1.6899
0.0854 -7.9617 1.6899
0.3707 -7.9551 1.6899
0.6557 -7.9383 1.6899
0.8929 -7.5152 1.6053
1.1484 -7.3939 1.5868
1.4129 -7.3496 1.5868
1.6758 -7.2958 1.5868
1.9365 -7.2327 1.5868
2.1950 -7.1603 1.5868
2.4507 -7.0787 1.5868
2.7033 -6.9879 1.5868
2.8993 -6.7637 1.5582
3.0191 -6.3995 1.4979
3.1373 -6.0760 1.4472
3.2609 -5.7959 1.4071
3.3888 -5.5483 1.3753
3.5098 -5.3088 1.3459
3.6242 -5.0767 1.3188
3.7327 -4.8513 1.2939
3.8273 -4.6216 1.2681
3.9340 -4.4181 1.2499
4.0244 -4.2061 1.2296
4.0679 -3.9574 1.1985
4.1087 -3.7200 1.1702
4.1470 -3.4927 1.1444
4.1830 -3.2743 1.1210
4.2171 -3.0638 1.0997
4.2490 -2.8602 1.0803
4.2762 -2.6610 1.0621
4.2982 -2.4656 1.0447
4.3188 -2.2758 1.0290
4.3383 -2.0911 1.0149
4.3567 -1.9108 1.0023
4.3741 -1.7343 0.9912
4.3906 -1.5613 0.9814
4.4061 -1.3911 0.9729
4.4209 -1.2235 0.9657
4.4349 -1.0579 0.9596
4.4592 -0.8962 0.9572
4.4884 -0.7359 0.9570
4.5071 -0.5740 0.9558
4.5128 -0.4111 0.9531
4.5177 -0.2488 0.9515
4.5219 -0.0868 0.9509
4.5256 0.0753 0.9515
4.5285 0.2378 0.9532
4.5309 0.4011 0.9560
4.5327 0.5655 0.9599
4.5337 0.7314 0.9649
4.5342 0.8992 0.9711
4.5613 1.0757 0.9845
4.6117 1.2635 1.0044
4.6466 1.4539 1.0226
4.6546 1.6416 1.0365
4.6618 1.8344 1.0520
4.6683 2.0330 1.0692
4.6741 2.2379 1.0881
4.6791 2.4501 1.1090
4.6832 2.6702 1.1319
4.6881 2.9003 1.1574
4.7796 3.1991 1.2075
4.8410 3.4976 1.2538
4.8307 3.7607 1.2853
4.8185 4.0365 1.3197
4.8040 4.3265 1.3573
4.7871 4.6323 1.3986
4.7959 4.9857 1.4525
4.8987 5.4720 1.5421
4.8352 5.8068 1.5867
4.6238 5.9759 1.5867
4.4065 6.1373 1.5867
4.1835 6.2907 1.5867
3.9552 6.4360 1.5867
3.7218 6.5729 1.5867
3.4837 6.7013 1.5867
3.2410 6.8211 1.5867
2.9943 6.9320 1.5867
2.7438 7.0340 1.5867
2.4897 7.1268 1.5867
0.8371 2.7038 0.5950
0.7398 2.7320 0.5951
0.6414 2.7568 0.5952
0.5423 2.7781 0.5953
0.4424 2.7958 0.5954
0.3420 2.8100 0.5955
0.2412 2.8205 0.5956
0.1400 2.8275 0.5958
0.0386 2.8309 0.5959
-0.0628 2.8307 0.5961
-0.1642 2.8269 0.5963
-0.2654 2.8195 0.5964
-0.3663 2.8084 0.5966
-0.4667 2.7938 0.5968
-0.5665 2.7757 0.5970
-0.6657 2.7539 0.5972
-0.7640 2.7287 0.5975
-0.8614 2.7000 0.5977
-2.7069 7.5402 1.6899
-2.9746 7.4367 1.6899
-3.2383 7.3236 1.6899
-3.4978 7.2012 1.6899
-3.7526 7.0695 1.6899
-4.0025 6.9289 1.6899
-4.2472 6.7794 1.6899
-4.4862 6.6213 1.6899
-4.7194 6.4547 1.6899
-4.9464 6.2800 1.6899
-5.1670 6.0972 1.6899
-5.3809 5.9068 1.6899
-5.5877 5.7088 1.6899
-5.7872 5.5036 1.6899
-5.9793 5.2915 1.6899
-6.1636 5.0726 1.6899
-6.3399 4.8474 1.6899
-6.5079 4.6160 1.6899
-5.0152 -5.0916 1.6899
-4.8296 -5.2682 1.6899
-4.6379 -5.4381 1.6899
-4.4403 -5.6011 1.6899
-4.2369 -5.7570 1.6899
-4.0281 -5.9055 1.6899
-3.8142 -6.0465 1.6899
-3.5953 -6.1798 1.6899
-3.3718 -6.3053 1.6899
-3.1440 -6.4227 1.6899
-2.9121 -6.5319 1.6899
-2.6764 -6.6328 1.6899
-2.4373 -6.7252 1.6899
-2.1950 -6.8090 1.6899
-1.9498 -6.8842 1.6899
-1.7020 -6.9506 1.6899
-1.4521 -7.0081 1.6899
-1.2002 -7.0567 1.6899
-0.9467 -7.0962 1.6899
-0.6918 -7.1267 1.6899
-0.4361 -7.1481 1.6899
-0.1797 -7.1603 1.6899
0.0770 -7.1634 1.6899
0.3337 -7.1573 1.6899
0.5901 -7.1421 1.6899
0.8458 -7.1177 1.6899
1.0334 -6.6520 1.5868
1.2714 -6.6120 1.5868
1.5078 -6.5635 1.5868
1.7423 -6.5066 1.5868
1.9747 -6.4413 1.5868
2.2048 -6.3677 1.5868
2.4320 -6.2860 1.5868
2.6562 -6.1961 1.5868
2.8772 -6.0983 1.5868
3.0026 -5.8146 1.5397
3.1313 -5.5651 1.5021
3.2570 -5.3321 1.4694
3.3760 -5.1062 1.4393
3.4888 -4.8866 1.4114
3.5935 -4.6700 1.3849
3.6688 -4.4299 1.3515
3.7768 -4.2413 1.3341
3.8924 -4.0679 1.3223
4.0042 -3.8952 1.3117
4.0529 -3.6693 1.2835
4.0919 -3.4461 1.2556
4.1286 -3.2315 1.2303
4.1633 -3.0245 1.2073
4.1960 -2.8243 1.1864
4.2231 -2.6277 1.1664
4.2455 -2.4352 1.1476
4.2667 -2.2482 1.1306
4.2867 -2.0660 1.1153
4.3055 -1.8881 1.1016
4.3233 -1.7140 1.0895
4.3400 -1.5432 1.0789
4.3558 -1.3751 1.0697
4.3708 -1.2095 1.0619
4.3849 -1.0459 1.0553
4.4053 -0.8853 1.0518
4.4342 -0.7269 1.0516
4.4518 -0.5669 1.0501
4.4575 -0.4060 1.0472
4.4624 -0.2457 1.0454
4.4667 -0.0857 1.0449
4.4702 0.0744 1.0455
4.4730 0.2349 1.0474
4.4752 0.3962 1.0504
4.4767 0.5586 1.0546
4.4775 0.7224 1.0601
4.4775 0.8880 1.0669
4.4828 1.0572 1.0764
4.5306 1.2414 1.0977
4.5692 1.4297 1.1187
4.5760 1.6139 1.1337
4.5819 1.8030 1.1504
4.5870 1.9976 1.1688
4.5913 2.1983 1.1891
4.5946 2.4059 1.2115
4.5970 2.6211 1.2361
4.5984 2.8448 1.2630
4.6312 3.0998 1.3017
4.7194 3.4098 1.3599
4.7081 3.6652 1.3936
4.6929 3.9313 1.4299
4.6754 4.2106 1.4696
4.6552 4.5046 1.5131
4.6320 4.8152 1.5607
4.5305 5.0606 1.5867
4.3462 5.2194 1.5867
4.1562 5.3715 1.5867
3.9609 5.5165 1.5867
3.7605 5.6545 1.5867
3.5553 5.7851 1.5867
3.3456 5.9083 1.5867
3.1315 6.0237 1.5867
2.9135 6.1314 1.5867
2.6917 6.2312 1.5867
2.4665 6.3229 1.5867
0.8403 2.4052 0.5957
0.7536 2.4337 0.5957
0.6659 2.4591 0.5958
0.5774 2.4814 0.5959
0.4882 2.5006 0.5960
0.3983 2.5165 0.5961
0.3079 2.5292 0.5962
0.2172 2.5388 0.5964
0.1261 2.5450 0.5965
0.0348 2.5481 0.5966
-0.0565 2.5479 0.5968
-0.1477 2.5444 0.5969
-0.2388 2.5377 0.5971
-0.3296 2.5277 0.5972
-0.4199 2.5146 0.5974
-0.5098 2.4982 0.5976
-0.5990 2.4786 0.5978
-0.6875 2.4558 0.5980
-0.7752 2.4299 0.5982
-0.8618 2.4009 0.5984
-2.6747 6.6875 1.6899
-2.9119 6.5860 1.6899
-3.1453 6.4760 1.6899
-3.3746 6.3578 1.6899
-3.5994 6.2315 1.6899
-3.8195 6.0972 1.6899
-4.0346 5.9551 1.6899
-4.2444 5.8054 1.6899
-4.4487 5.6484 1.6899
-4.6472 5.4842 1.6899
-4.8396 5.3130 1.6899
-5.0258 5.1350 1.6899
-5.2054 4.9506 1.6899
-5.3782 4.7599 1.6899
-5.5441 4.5631 1.6899
-5.7029 4.3606 1.6899
-5.8542 4.1526 1.6899
-4.5546 -4.6240 1.6899
-4.3861 -4.7844 1.6899
-4.2120 -4.9387 1.6899
-4.0324 -5.0867 1.6899
-3.8477 -5.2283 1.6899
-3.6581 -5.3631 1.6899
-3.4638 -5.4912 1.6899
-3.2650 -5.6122 1.6899
-3.0620 -5.7260 1.6899
-2.8550 -5.8326 1.6899
-2.6444 -5.9317 1.6899
-2.4304 -6.0233 1.6899
-2.2132 -6.1072 1.6899
-1.9931 -6.1832 1.6899
-1.7704 -6.2514 1.6899
-1.5454 -6.3117 1.6899
-1.3184 -6.3638 1.6899
-1.0897 -6.4078 1.6899
-0.8594 -6.4437 1.6899
-0.6281 -6.4713 1.6899
-0.3958 -6.4906 1.6899
-0.1630 -6.5016 1.6899
0.0701 -6.5043 1.6899
0.3032 -6.4987 1.6899
0.5360 -6.4847 1.6899
0.7682 -6.4625 1.6899
0.9385 -6.0396 1.5868
1.1545 -6.0031 1.5868
1.3691 -5.9590 1.5868
1.5820 -5.9072 1.5868
1.7930 -5.8478 1.5868
2.0018 -5.7809 1.5868
2.2081 -5.7066 1.5868
2.4116 -5.6249 1.5868
2.6121 -5.5360 1.5868
2.8093 -5.4399 1.5868
3.0031 -5.3368 1.5868
3.1339 -5.1301 1.5575
3.2509 -4.9165 1.5267
3.3618 -4.7085 1.4983
3.4457 -4.4776 1.4629
3.5213 -4.2516 1.4291
3.6302 -4.0764 1.4127
3.7426 -3.9110 1.4007
3.8512 -3.7462 1.3900
3.9563 -3.5817 1.3804
4.0377 -3.4003 1.3651
4.0750 -3.1893 1.3379
4.1102 -2.9857 1.3132
4.1434 -2.7887 1.2908
4.1706 -2.5949 1.2693
4.1937 -2.4053 1.2490
4.2154 -2.2210 1.2307
4.2358 -2.0413 1.2143
4.2550 -1.8658 1.1997
4.2730 -1.6940 1.1867
4.2901 -1.5253 1.1753
4.3061 -1.3593 1.1654
4.3212 -1.1957 1.1569
4.3355 -1.0340 1.1499
4.3522 -0.8745 1.1451
4.3806 -0.7180 1.1449
4.3972 -0.5598 1.1431
4.4030 -0.4009 1.1400
4.4079 -0.2426 1.1381
4.4121 -0.0845 1.1375
4.4156 0.0736 1.1382
4.4183 0.2322 1.1402
4.4203 0.3914 1.1435
4.4216 0.5517 1.1481
4.4220 0.7135 1.1540
4.4217 0.8770 1.1612
4.4207 1.0426 1.1699
4.4516 1.2198 1.1888
4.4936 1.4061 1.2126
4.4992 1.5869 1.2286
4.5039 1.7724 1.2464
4.5077 1.9631 1.2660
4.5105 2.1597 1.2876
4.5123 2.3628 1.3114
4.5130 2.5732 1.3376
4.5126 2.7918 1.3662
4.5110 3.0193 1.3975
4.5697 3.3016 1.4514
4.5904 3.5736 1.4977
4.5726 3.8305 1.5357
4.5523 4.0997 1.5772
4.4288 4.2855 1.5867
4.2723 4.4413 1.5867
4.1104 4.5913 1.5867
3.9431 4.7354 1.5867
3.7708 4.8733 1.5867
3.5937 5.0050 1.5867
3.4119 5.1301 1.5867
3.2257 5.2487 1.5867
3.0354 5.3604 1.5867
2.8413 5.4653 1.5867
2.6435 5.5630 1.5867
2.4423 5.6536 1.5867
0.8411 2.1559 0.5963
0.7633 2.1846 0.5963
0.6845 2.2106 0.5964
0.6049 2.2337 0.5965
0.5245 2.2539 0.5965
0.4435 2.2713 0.5966
0.3618 2.2858 0.5967
0.2797 2.2973 0.5968
0.1973 2.3059 0.5969
0.1146 2.3116 0.5971
0.0317 2.3144 0.5972
-0.0512 2.3142 0.5973
-0.1341 2.3110 0.5975
-0.2168 2.3049 0.5976
-0.2993 2.2958 0.5978
-0.3814 2.2838 0.5979
-0.4630 2.2689 0.5981
-0.5440 2.2511 0.5983
-0.6244 2.2304 0.5984
-0.7039 2.2069 0.5986
-0.7827 2.1805 0.5988
-0.8604 2.1514 0.5990
-2.6427 5.9775 1.6899
-2.8546 5.8779 1.6899
-3.0627 5.7707 1.6899
-3.2668 5.6561 1.6899
-3.4666 5.5343 1.6899
-3.6620 5.4055 1.6899
-3.8525 5.2697 1.6899
-4.0380 5.1273 1.6899
-4.2182 4.9783 1.6899
-4.3930 4.8230 1.6899
-4.5621 4.6616 1.6899
-4.7252 4.4942 1.6899
-4.8822 4.3212 1.6899
-5.0329 4.1426 1.6899
-5.1771 3.9589 1.6899
-5.3146 3.7701 1.6899
-4.1674 -4.2309 1.6899
-4.0132 -4.3777 1.6899
-3.8538 -4.5188 1.6899
-3.6895 -4.6543 1.6899
-3.5205 -4.7837 1.6899
-3.3470 -4.9071 1.6899
-3.1691 -5.0242 1.6899
-2.9872 -5.1349 1.6899
-2.8015 -5.2391 1.6899
-2.6121 -5.3366 1.6899
-2.4194 -5.4272 1.6899
-2.2235 -5.5109 1.6899
-2.0248 -5.5876 1.6899
-1.8234 -5.6572 1.6899
-1.6197 -5.7195 1.6899
-1.4138 -5.7746 1.6899
-1.2061 -5.8222 1.6899
-0.9968 -5.8624 1.6899
-0.7861 -5.8952 1.6899
-0.5745 -5.9204 1.6899
-0.3620 -5.9380 1.6899
-0.1490 -5.9480 1.6899
0.0643 -5.9504 1.6899
0.2775 -5.9451 1.6899
0.4905 -5.9323 1.6899
0.7029 -5.9119 1.6899
0.9144 -5.8838 1.6899
1.0562 -5.4915 1.5868
1.2525 -5.4510 1.5868
1.4473 -5.4036 1.5868
1.6403 -5.3492 1.5868
1.8312 -5.2879 1.5868
2.0199 -5.2198 1.5868
2.2061 -5.1450 1.5868
2.3894 -5.0636 1.5868
2.5698 -4.9757 1.5868
2.7469 -4.8813 1.5868
2.9206 -4.7806 1.5868
3.0906 -4.6738 1.5868
3.2268 -4.5191 1.5723
3.3081 -4.2985 1.5355
3.3838 -4.0853 1.5014
3.4930 -3.9221 1.4863
3.6023 -3.7642 1.4741
3.7079 -3.6065 1.4632
3.8101 -3.4490 1.4535
3.9089 -3.2915 1.4450
4.0044 -3.1338 1.4376
4.0579 -2.9476 1.4177
4.0916 -2.7536 1.3939
4.1189 -2.5626 1.3708
4.1425 -2.3758 1.3492
4.1647 -2.1941 1.3297
4.1854 -2.0169 1.3122
4.2050 -1.8438 1.2965
4.2234 -1.6742 1.2827
4.2407 -1.5076 1.2705
4.2570 -1.3437 1.2599
4.2723 -1.1820 1.2509
4.2866 -1.0222 1.2434
4.3002 -0.8639 1.2374
4.3278 -0.7092 1.2371
4.3434 -0.5529 1.2349
4.3492 -0.3959 1.2315
4.3542 -0.2395 1.2296
4.3584 -0.0834 1.2290
4.3617 0.0728 1.2297
4.3643 0.2294 1.2319
4.3661 0.3867 1.2354
4.3671 0.5450 1.2403
4.3673 0.7047 1.2466
4.3666 0.8661 1.2543
4.3652 1.0296 1.2636
4.3743 1.1987 1.2778
4.4182 1.3826 1.3041
4.4241 1.5605 1.3214
4.4277 1.7424 1.3402
4.4302 1.9294 1.3610
4.4317 2.1220 1.3838
4.4320 2.3208 1.4090
4.4311 2.5266 1.4365
4.4290 2.7401 1.4667
4.4255 2.9622 1.4997
4.4275 3.1989 1.5382
4.4459 3.4611 1.5867
4.3191 3.6181 1.5867
4.1867 3.7704 1.5867
4.0489 3.9179 1.5867
3.9058 4.0603 1.5867
3.7578 4.1974 1.5867
3.6049 4.3292 1.5867
3.4474 4.4553 1.5867
3.2855 4.5757 1.5867
3.1193 4.6901 1.5867
2.9492 4.7985 1.5867
2.7752 4.9007 1.5867
2.5977 4.9966 1.5867
0.9090 1.9129 0.5968
0.8399 1.9441 0.5968
0.7697 1.9729 0.5968
0.6985 1.9992 0.5969
0.6265 2.0229 0.5969
0.5536 2.0441 0.5970
0.4800 2.0626 0.5971
0.4059 2.0785 0.5972
0.3312 2.0917 0.5972
0.2561 2.1023 0.5973
0.1806 2.1102 0.5974
0.1049 2.1154 0.5975
0.0290 2.1179 0.5977
-0.0468 2.1177 0.5978
-0.1227 2.1148 0.5979
-0.1984 2.1091 0.5980
-0.2738 2.1008 0.5982
-0.3489 2.0898 0.5983
-0.4236 2.0762 0.5985
-0.4977 2.0599 0.5986
-0.5713 2.0409 0.5988
-0.6441 2.0194 0.5990
-0.7161 1.9952 0.5991
-0.7872 1.9685 0.5993
-0.8573 1.9393 0.5995
-2.6104 5.3755 1.6899
-2.8008 5.2776 1.6899
-2.9875 5.1729 1.6899
-3.1703 5.0616 1.6899
-3.3490 4.9439 1.6899
-3.5233 4.8198 1.6899
-3.6930 4.6896 1.6899
-3.8579 4.5534 1.6899
-4.0178 4.4114 1.6899
-4.1726 4.2638 1.6899
-4.3219 4.1108 1.6899
-4.4655 3.9526 1.6899
-4.6034 3.7894 1.6899
-4.7354 3.6213 1.6899
-4.8612 3.4487 1.6899
-3.8369 -3.8955 1.6899
-3.6949 -4.0306 1.6899
-3.5482 -4.1606 1.6899
-3.3969 -4.2852 1.6899
-3.2413 -4.4044 1.6899
-3.0815 -4.5180 1.6899
-2.9178 -4.6258 1.6899
-2.7503 -4.7277 1.6899
-2.5792 -4.8236 1.6899
-2.4049 -4.9133 1.6899
-2.2274 -4.9968 1.6899
-2.0470 -5.0738 1.6899
-1.8641 -5.1444 1.6899
-1.6786 -5.2084 1.6899
-1.4910 -5.2657 1.6899
-1.3015 -5.3164 1.6899
-1.1103 -5.3602 1.6899
-0.9175 -5.3972 1.6899
-0.7236 -5.4272 1.6899
-0.5287 -5.4504 1.6899
-0.3331 -5.4665 1.6899
-0.1370 -5.4757 1.6899
0.0593 -5.4778 1.6899
0.2556 -5.4730 1.6899
0.4517 -5.4611 1.6899
0.6472 -5.4422 1.6899
0.8419 -5.4163 1.6899
0.9724 -5.0551 1.5868
1.1558 -5.0295 1.5905
1.3325 -4.9741 1.5868
1.5101 -4.9239 1.5868
1.6858 -4.8674 1.5868
1.8595 -4.8047 1.5868
2.0308 -4.7358 1.5868
2.1995 -4.6608 1.5868
2.3655 -4.5798 1.5868
2.5285 -4.4929 1.5868
2.6884 -4.4001 1.5868
2.8448 -4.3017 1.5868
2.9976 -4.1978 1.5868
3.1466 -4.0884 1.5868
3.2550 -3.9295 1.5692
3.3643 -3.7773 1.5553
3.4706 -3.6263 1.5431
3.5733 -3.4753 1.5321
3.6726 -3.3243 1.5223
3.7686 -3.1731 1.5137
3.8614 -3.0217 1.5063
3.9512 -2.8698 1.5000
4.0381 -2.7174 1.4947
4.0678 -2.5306 1.4710
4.0919 -2.3466 1.4481
4.1145 -2.1675 1.4275
4.1357 -1.9928 1.4089
4.1556 -1.8220 1.3923
4.1743 -1.6545 1.3776
4.1918 -1.4901 1.3647
4.2083 -1.3282 1.3535
4.2238 -1.1685 1.3440
4.2383 -1.0105 1.3360
4.2518 -0.8541 1.3296
4.2756 -0.7006 1.3281
4.2901 -0.5460 1.3256
4.2960 -0.3910 1.3221
4.3010 -0.2365 1.3200
4.3052 -0.0823 1.3194
4.3084 0.0720 1.3202
4.3109 0.2267 1.3224
4.3125 0.3820 1.3261
4.3133 0.5384 1.3313
4.3132 0.6961 1.3380
4.3123 0.8554 1.3463
4.3104 1.0167 1.3561
4.3077 1.1804 1.3676
4.3404 1.3583 1.3924
4.3506 1.5346 1.4123
4.3530 1.7131 1.4321
4.3544 1.8964 1.4539
4.3546 2.0851 1.4779
4.3535 2.2797 1.5042
4.3512 2.4810 1.5331
4.3474 2.6896 1.5647
4.3079 2.8835 1.5867
4.2019 3.0359 1.5867
4.0905 3.1845 1.5867
3.9738 3.3289 1.5867
3.8520 3.4690 1.5867
3.7253 3.6047 1.5867
3.5937 3.7357 1.5867
3.4575 3.8619 1.5867
3.3168 3.9831 1.5867
3.1720 4.0992 1.5867
3.0230 4.2100 1.5867
2.8701 4.3153 1.5867
2.7135 4.4150 1.5867
2.5535 4.5091 1.5867
0.8996 1.7304 0.5972
0.8371 1.7614 0.5972
0.7734 1.7902 0.5973
0.7088 1.8167 0.5973
0.6433 1.8409 0.5973
0.5769 1.8628 0.5974
0.5098 1.8822 0.5975
0.4421 1.8993 0.5975
0.3738 1.9139 0.5976
0.3050 1.9261 0.5977
0.2358 1.9358 0.5978
0.1663 1.9431 0.5979
0.0967 1.9479 0.5980
0.0268 1.9502 0.5981
-0.0431 1.9500 0.5982
-0.1129 1.9473 0.5983
-0.1826 1.9421 0.5984
-0.2521 1.9344 0.5985
-0.3212 1.9243 0.5987
-0.3899 1.9117 0.5988
-0.4582 1.8967 0.5990
-0.5259 1.8792 0.5991
-0.5929 1.8593 0.5993
-0.6592 1.8371 0.5994
-0.7247 1.8125 0.5996
-0.7892 1.7855 0.5998
-0.8528 1.7563 0.5999
-2.5775 4.8573 1.6899
-2.7494 4.7610 1.6899
-2.9177 4.6586 1.6899
-3.0821 4.5503 1.6899
-3.2426 4.4362 1.6899
-3.3989 4.3164 1.6899
-3.5507 4.1911 1.6899
-3.6980 4.0605 1.6899
-3.8404 3.9247 1.6899
-3.9779 3.7839 1.6899
-4.1102 3.6383 1.6899
-4.2372 3.4881 1.6899
-4.3587 3.3335 1.6899
-4.4746 3.1746 1.6899
-3.5514 -3.6056 1.6899
-3.4199 -3.7307 1.6899
-3.2841 -3.8510 1.6899
-3.1441 -3.9664 1.6899
-3.0000 -4.0767 1.6899
-2.8521 -4.1818 1.6899
-2.7005 -4.2816 1.6899
-2.5455 -4.3759 1.6899
-2.3872 -4.4646 1.6899
-2.2258 -4.5476 1.6899
-2.0615 -4.6248 1.6899
-1.8945 -4.6961 1.6899
-1.7252 -4.7614 1.6899
-1.5536 -4.8206 1.6899
-1.3799 -4.8736 1.6899
-1.2045 -4.9205 1.6899
-1.0274 -4.9610 1.6899
-0.8491 -4.9952 1.6899
-0.6696 -5.0230 1.6899
-0.4892 -5.0443 1.6899
-0.3082 -5.0592 1.6899
-0.1267 -5.0677 1.6899
0.0551 -5.0696 1.6899
0.2367 -5.0650 1.6899
0.4181 -5.0540 1.6899
0.5991 -5.0365 1.6899
0.7793 -5.0125 1.6899
0.9468 -4.9209 1.6692
1.0673 -4.6436 1.5868
1.2332 -4.6030 1.5868
1.3976 -4.5566 1.5868
1.5602 -4.5043 1.5868
1.7209 -4.4462 1.5868
1.8794 -4.3823 1.5868
2.0355 -4.3129 1.5868
2.1891 -4.2379 1.5868
2.3399 -4.1574 1.5868
2.4878 -4.0715 1.5868
2.6325 -3.9804 1.5868
2.7739 -3.8842 1.5868
2.9117 -3.7830 1.5868
3.0459 -3.6768 1.5868
3.1762 -3.5659 1.5868
3.3025 -3.4504 1.5868
3.4245 -3.3304 1.5868
3.5422 -3.2061 1.5868
3.6362 -3.0615 1.5785
3.7264 -2.9159 1.5710
3.8136 -2.7697 1.5647
3.8891 -2.6170 1.5559
3.9512 -2.4579 1.5443
4.0218 -2.3062 1.5383
4.0649 -2.1412 1.5243
4.0865 -1.9689 1.5047
4.1067 -1.8004 1.4872
4.1257 -1.6351 1.4717
4.1435 -1.4727 1.4581
4.1601 -1.3128 1.4463
4.1758 -1.1550 1.4362
4.1904 -0.9990 1.4278
4.2040 -0.8444 1.4210
4.2239 -0.6920 1.4183
4.2375 -0.5392 1.4153
4.2434 -0.3861 1.4116
4.2484 -0.2335 1.4094
4.2526 -0.0812 1.4088
4.2558 0.0712 1.4096
4.2581 0.2240 1.4120
4.2596 0.3774 1.4159
4.2601 0.5318 1.4214
4.2598 0.6875 1.4285
4.2585 0.8448 1.4372
4.2563 1.0040 1.4476
4.2531 1.1656 1.4597
4.2643 1.3345 1.4789
4.2784 1.5092 1.5015
4.2799 1.6844 1.5221
4.2801 1.8641 1.5449
4.2791 2.0490 1.5700
4.2478 2.2244 1.5867
4.1655 2.3752 1.5867
4.0779 2.5229 1.5867
3.9850 2.6673 1.5867
3.8869 2.8083 1.5867
3.7839 2.9457 1.5867
3.6759 3.0793 1.5867
3.5633 3.2090 1.5867
3.4085 3.2982 1.5694
3.2888 3.4187 1.5697
3.1642 3.5342 1.5697
3.0355 3.6452 1.5697
2.9029 3.7514 1.5697
2.7665 3.8528 1.5697
2.6550 3.9918 1.5867
2.5102 4.0841 1.5867
0.8897 1.5710 0.5976
0.8328 1.6018 0.5976
0.7749 1.6305 0.5976
0.7160 1.6572 0.5977
0.6562 1.6817 0.5977
0.5955 1.7041 0.5978
0.5341 1.7244 0.5978
0.4720 1.7424 0.5979
0.4093 1.7582 0.5979
0.3460 1.7717 0.5980
0.2824 1.7830 0.5981
0.2183 1.7920 0.5981
0.1540 1.7987 0.5982
0.0895 1.8031 0.5983
