ply
format ascii 1.0
element vertex 2184
property float32 x
property float32 y
property float32 z
end_header
-3.0794 5.6893 1.6932
-3.2820 5.5754 1.6932
-3.4804 5.4543 1.6932
-3.6744 5.3262 1.6932
-3.8637 5.1913 1.6932
-4.0482 5.0498 1.6932
-4.2275 4.9017 1.6932
-4.4015 4.7473 1.6932
-4.5699 4.5869 1.6932
-4.7325 4.4205 1.6932
-4.8891 4.2484 1.6932
-5.0395 4.0709 1.6932
-5.1835 3.8880 1.6932
-5.3210 3.7001 1.6932
-5.4517 3.5074 1.6932
-5.5755 3.3101 1.6932
-5.6922 3.1085 1.6932
-5.8017 2.9028 1.6932
-5.8377 2.6631 1.6742
-5.8260 2.4089 1.6445
-5.8196 2.1649 1.6192
-5.8138 1.9281 1.5968
-5.8563 1.7113 1.5901
-5.9159 1.5004 1.5901
-5.9679 1.2874 1.5901
-6.0123 1.0726 1.5901
-6.0490 0.8563 1.5901
-6.0779 0.6387 1.5901
-6.0991 0.4202 1.5901
3.0698 4.6632 1.5899
2.8995 4.7690 1.5899
2.7256 4.8687 1.5899
2.5483 4.9621 1.5899
0.8984 1.9158 0.6033
0.8290 1.9468 0.6034
0.7585 1.9752 0.6035
0.6870 2.0011 0.6037
0.6147 2.0245 0.6038
0.5416 2.0453 0.6039
0.4678 2.0634 0.6040
0.3934 2.0789 0.6041
0.3184 2.0917 0.6043
0.2431 2.1018 0.6044
0.1674 2.1093 0.6045
0.0916 2.1140 0.6046
0.0156 2.1160 0.6047
-0.0605 2.1153 0.6048
-0.1364 2.1119 0.6049
-0.2122 2.1058 0.6050
-0.2878 2.0970 0.6051
-0.3630 2.0855 0.6052
-0.4377 2.0713 0.6053
-0.5119 2.0545 0.6054
-0.5854 2.0350 0.6055
-0.6582 2.0129 0.6056
-0.7302 1.9882 0.6057
-0.8012 1.9609 0.6058
-0.8713 1.9311 0.6058
-2.6275 5.3063 1.6932
-2.8166 5.2087 1.6932
-3.0021 5.1045 1.6932
-3.1837 4.9937 1.6932
-3.3613 4.8765 1.6932
-3.5347 4.7530 1.6932
-3.7036 4.6235 1.6932
-3.8677 4.4880 1.6932
-4.0270 4.3467 1.6932
-4.1811 4.1998 1.6932
-4.3299 4.0475 1.6932
-4.4733 3.8900 1.6932
-4.6110 3.7275 1.6932
-4.7428 3.5601 1.6932
-4.8686 3.3881 1.6932
-4.9882 3.2117 1.6932
-5.1015 3.0312 1.6932
-5.2083 2.8466 1.6932
-5.3084 2.6584 1.6932
-5.4018 2.4666 1.6932
-5.4884 2.2716 1.6932
-5.5679 2.0735 1.6932
-5.6404 1.8727 1.6932
-5.7056 1.6694 1.6932
-5.7636 1.4639 1.6932
-5.7724 1.2473 1.6810
-5.7623 1.0301 1.6657
-5.7525 0.8163 1.6528
-5.7427 0.6055 1.6422
-5.7345 0.3971 1.6341
-5.7263 0.1903 1.6283
-5.7177 -0.0154 1.6244
-5.7087 -0.2206 1.6225
-5.6992 -0.4256 1.6225
-5.6893 -0.6309 1.6245
-5.6788 -0.8371 1.6285
-5.6679 -1.0447 1.6345
-5.6569 -1.2542 1.6426
-5.6471 -1.4665 1.6534
-5.6372 -1.6822 1.6665
-5.6270 -1.9017 1.6820
-5.5940 -2.1171 1.6932
-5.5164 -2.3174 1.6932
-5.4316 -2.5149 1.6932
-5.3398 -2.7092 1.6932
-5.2410 -2.9002 1.6932
-5.1353 -3.0875 1.6932
-5.0230 -3.2710 1.6932
-4.9041 -3.4504 1.6932
-4.7788 -3.6255 1.6932
-4.6472 -3.7960 1.6932
-4.5095 -3.9617 1.6932
-4.3659 -4.1224 1.6932
-4.2166 -4.2778 1.6932
-4.0617 -4.4279 1.6932
-3.9014 -4.5722 1.6932
-3.7360 -4.7108 1.6932
-3.5657 -4.8433 1.6932
-3.3906 -4.9696 1.6932
-3.2110 -5.0896 1.6932
-3.0272 -5.2030 1.6932
-2.8394 -5.3098 1.6932
-2.6477 -5.4097 1.6932
-2.4526 -5.5027 1.6932
-2.2541 -5.5885 1.6932
-2.0527 -5.6672 1.6932
-1.8485 -5.7385 1.6932
-1.6418 -5.8024 1.6932
-1.4328 -5.8588 1.6932
-1.2220 -5.9077 1.6932
-1.0094 -5.9488 1.6932
-0.7955 -5.9823 1.6932
-0.5805 -6.0080 1.6932
-0.3646 -6.0259 1.6932
-0.1482 -6.0359 1.6932
0.0684 -6.0382 1.6932
0.2850 -6.0325 1.6932
0.5013 -6.0191 1.6932
0.7169 -5.9978 1.6932
0.9317 -5.9687 1.6932
1.1453 -5.9318 1.6932
1.3574 -5.8872 1.6932
1.5678 -5.8350 1.6932
1.7761 -5.7752 1.6932
1.9822 -5.7078 1.6932
2.1857 -5.6331 1.6932
2.3863 -5.5510 1.6932
2.5838 -5.4617 1.6932
2.6086 -5.0381 1.5899
2.7875 -4.9410 1.5899
2.9628 -4.8375 1.5899
3.1341 -4.7278 1.5899
3.3014 -4.6119 1.5899
3.4644 -4.4901 1.5899
3.6228 -4.3624 1.5899
3.7765 -4.2291 1.5899
3.9252 -4.0903 1.5899
4.0688 -3.9463 1.5899
4.2071 -3.7971 1.5899
4.3398 -3.6431 1.5899
4.4669 -3.4844 1.5899
4.5882 -3.3213 1.5899
4.7034 -3.1539 1.5899
4.8124 -2.9825 1.5899
4.9152 -2.8073 1.5899
5.0116 -2.6285 1.5899
5.1014 -2.4464 1.5899
5.1845 -2.2612 1.5899
5.2609 -2.0731 1.5899
5.3304 -1.8825 1.5899
5.3930 -1.6895 1.5899
5.4486 -1.4945 1.5899
5.4970 -1.2976 1.5899
5.5384 -1.0992 1.5899
5.5725 -0.8995 1.5899
5.5994 -0.6987 1.5899
5.6190 -0.4972 1.5899
5.6314 -0.2951 1.5899
5.6364 -0.0928 1.5899
5.6342 0.1095 1.5899
5.6247 0.3116 1.5899
5.6079 0.5131 1.5899
5.5839 0.7138 1.5899
5.5527 0.9134 1.5899
5.5144 1.1117 1.5899
5.4689 1.3085 1.5899
5.4165 1.5034 1.5899
5.3571 1.6962 1.5899
5.2908 1.8868 1.5899
5.2178 2.0747 1.5899
5.1381 2.2599 1.5899
5.0518 2.4420 1.5899
4.9591 2.6208 1.5899
4.8600 2.7962 1.5899
4.7548 2.9678 1.5899
4.6435 3.1355 1.5899
4.5264 3.2990 1.5899
4.4035 3.4583 1.5899
4.2750 3.6129 1.5899
4.1411 3.7628 1.5899
4.0019 3.9078 1.5899
3.8578 4.0476 1.5899
3.7087 4.1822 1.5899
3.5550 4.3113 1.5899
3.3968 4.4348 1.5899
3.2344 4.5525 1.5899
3.0679 4.6644 1.5899
2.8976 4.7702 1.5899
2.7236 4.8698 1.5899
2.5463 4.9631 1.5899
0.8976 1.9162 0.6033
0.8282 1.9471 0.6034
0.7577 1.9755 0.6035
0.6862 2.0014 0.6037
0.6139 2.0247 0.6038
0.5408 2.0455 0.6039
0.4669 2.0636 0.6040
0.3925 2.0790 0.6042
0.3176 2.0918 0.6043
0.2422 2.1019 0.6044
0.1666 2.1093 0.6045
0.0907 2.1140 0.6046
0.0147 2.1160 0.6047
-0.0613 2.1153 0.6048
-0.1373 2.1119 0.6049
-0.2131 2.1057 0.6050
-0.2886 2.0969 0.6051
-0.3638 2.0853 0.6052
-0.4385 2.0711 0.6053
-0.5127 2.0542 0.6054
-0.5862 2.0347 0.6055
-0.6590 2.0126 0.6056
-0.7310 1.9879 0.6057
-0.8020 1.9606 0.6058
-0.8721 1.9308 0.6058
-2.6297 5.3053 1.6932
-2.8187 5.2076 1.6932
-3.0041 5.1033 1.6932
-3.1857 4.9924 1.6932
-3.3633 4.8751 1.6932
-3.5366 4.7516 1.6932
-3.7054 4.6220 1.6932
-3.8695 4.4864 1.6932
-4.0287 4.3451 1.6932
-4.1828 4.1981 1.6932
-4.3316 4.0458 1.6932
-4.4749 3.8882 1.6932
-4.6125 3.7256 1.6932
-4.7442 3.5582 1.6932
-4.8700 3.3862 1.6932
-4.9895 3.2098 1.6932
-5.1027 3.0291 1.6932
-5.2094 2.8445 1.6932
-5.3095 2.6562 1.6932
-5.4029 2.4644 1.6932
-5.4893 2.2694 1.6932
-5.5688 2.0713 1.6932
-5.6411 1.8705 1.6932
-5.7063 1.6672 1.6932
-5.7642 1.4616 1.6932
-5.7723 1.2448 1.6808
-5.7622 1.0277 1.6656
-5.7524 0.8140 1.6527
-5.7426 0.6032 1.6421
-5.7344 0.3947 1.6341
2.8268 4.2935 1.5899
2.6700 4.3911 1.5899
2.5099 4.4830 1.5899
0.8902 1.7332 0.6031
0.8273 1.7640 0.6032
0.7634 1.7925 0.6034
0.6985 1.8187 0.6035
0.6327 1.8426 0.6036
0.5661 1.8641 0.6037
0.4988 1.8832 0.6038
0.4308 1.8999 0.6039
0.3622 1.9141 0.6040
0.2933 1.9259 0.6042
0.2239 1.9353 0.6043
0.1542 1.9421 0.6044
0.0844 1.9464 0.6045
0.0144 1.9483 0.6046
-0.0556 1.9477 0.6047
-0.1256 1.9445 0.6048
-0.1954 1.9389 0.6049
-0.2649 1.9308 0.6050
-0.3342 1.9201 0.6050
-0.4029 1.9071 0.6051
-0.4713 1.8915 0.6052
-0.5390 1.8736 0.6053
-0.6060 1.8532 0.6054
-0.6723 1.8304 0.6054
-0.7377 1.8053 0.6055
-0.8022 1.7779 0.6056
-0.8656 1.7481 0.6056
-2.5941 4.7973 1.6932
-2.7650 4.7012 1.6932
-2.9323 4.5991 1.6932
-3.0958 4.4912 1.6932
-3.2555 4.3774 1.6932
-3.4110 4.2581 1.6932
-3.5622 4.1332 1.6932
-3.7088 4.0031 1.6932
-3.8507 3.8678 1.6932
-3.9878 3.7275 1.6932
-4.1198 3.5824 1.6932
-4.2465 3.4326 1.6932
-4.3678 3.2784 1.6932
-4.4836 3.1200 1.6932
-4.5937 2.9575 1.6932
-4.6979 2.7912 1.6932
-4.7962 2.6212 1.6932
-4.8884 2.4477 1.6932
-4.9743 2.2711 1.6932
-5.0539 2.0915 1.6932
-5.1270 1.9091 1.6932
-5.1937 1.7241 1.6932
-5.2536 1.5369 1.6932
-5.3069 1.3476 1.6932
-5.3534 1.1564 1.6932
-5.3930 0.9637 1.6932
-5.4257 0.7697 1.6932
-5.4515 0.5745 1.6932
-5.4703 0.3785 1.6932
-5.4820 0.1818 1.6932
-5.4868 -0.0151 1.6932
-5.4844 -0.2122 1.6932
-5.4751 -0.4091 1.6932
-5.4586 -0.6057 1.6932
-5.4351 -0.8016 1.6932
-5.4047 -0.9965 1.6932
-5.3672 -1.1903 1.6932
-5.3228 -1.3827 1.6932
-5.2715 -1.5734 1.6932
-5.2134 -1.7623 1.6932
-5.1485 -1.9489 1.6932
-5.0770 -2.1332 1.6932
-4.9988 -2.3149 1.6932
-4.9141 -2.4937 1.6932
-4.8231 -2.6693 1.6932
-4.7258 -2.8417 1.6932
-4.6223 -3.0105 1.6932
-4.5127 -3.1755 1.6932
-4.3973 -3.3365 1.6932
-4.2761 -3.4933 1.6932
-4.1493 -3.6457 1.6932
-4.0171 -3.7935 1.6932
-3.8795 -3.9364 1.6932
-3.7369 -4.0743 1.6932
-3.5894 -4.2071 1.6932
-3.4371 -4.3344 1.6932
-3.2803 -4.4563 1.6932
-3.1192 -4.5724 1.6932
-2.9540 -4.6827 1.6932
-2.7848 -4.7869 1.6932
-2.6119 -4.8850 1.6932
-2.4356 -4.9768 1.6932
-2.2560 -5.0623 1.6932
-2.0734 -5.1411 1.6932
-1.8881 -5.2134 1.6932
-1.7002 -5.2789 1.6932
-1.5100 -5.3376 1.6932
-1.3178 -5.3894 1.6932
-1.1238 -5.4343 1.6932
-0.9283 -5.4720 1.6932
-0.7316 -5.5027 1.6932
-0.5338 -5.5263 1.6932
-0.3352 -5.5427 1.6932
-0.1362 -5.5519 1.6932
0.0630 -5.5539 1.6932
0.2622 -5.5487 1.6932
0.4612 -5.5362 1.6932
0.6595 -5.5166 1.6932
0.8570 -5.4898 1.6932
1.0535 -5.4559 1.6932
1.2485 -5.4149 1.6932
1.4420 -5.3668 1.6932
1.6336 -5.3118 1.6932
1.8231 -5.2498 1.6932
2.0103 -5.1811 1.6932
2.1948 -5.1056 1.6932
2.3765 -5.0234 1.6932
2.5550 -4.9348 1.6932
2.5638 -4.5446 1.5899
2.7250 -4.4495 1.5899
2.8826 -4.3485 1.5899
3.0365 -4.2420 1.5899
3.1864 -4.1300 1.5899
3.3322 -4.0126 1.5899
3.4735 -3.8900 1.5899
3.6104 -3.7624 1.5899
3.7425 -3.6300 1.5899
3.8697 -3.4928 1.5899
3.9919 -3.3512 1.5899
4.1088 -3.2053 1.5899
4.2204 -3.0553 1.5899
4.3264 -2.9014 1.5899
4.4268 -2.7437 1.5899
4.5214 -2.5826 1.5899
4.6101 -2.4182 1.5899
4.6928 -2.2507 1.5899
4.7694 -2.0804 1.5899
4.8398 -1.9075 1.5899
4.9038 -1.7321 1.5899
4.9615 -1.5546 1.5899
5.0127 -1.3752 1.5899
5.0574 -1.1942 1.5899
5.0956 -1.0116 1.5899
5.1271 -0.8279 1.5899
5.1520 -0.6432 1.5899
5.1701 -0.4577 1.5899
5.1816 -0.2718 1.5899
5.1864 -0.0857 1.5899
5.1845 0.1005 1.5899
5.1759 0.2864 1.5899
5.1606 0.4718 1.5899
5.1386 0.6565 1.5899
5.1101 0.8403 1.5899
5.0749 1.0228 1.5899
5.0332 1.2039 1.5899
4.9851 1.3833 1.5899
4.9306 1.5608 1.5899
4.8697 1.7362 1.5899
4.8026 1.9093 1.5899
4.7294 2.0797 1.5899
4.6501 2.2474 1.5899
4.5648 2.4121 1.5899
4.4738 2.5736 1.5899
4.3771 2.7317 1.5899
4.2747 2.8861 1.5899
4.1670 3.0367 1.5899
4.0539 3.1834 1.5899
3.9358 3.3258 1.5899
3.8126 3.4639 1.5899
3.6846 3.5974 1.5899
3.5519 3.7263 1.5899
3.4148 3.8503 1.5899
3.2733 3.9692 1.5899
3.1278 4.0831 1.5899
2.9783 4.1916 1.5899
2.8250 4.2946 1.5899
2.6682 4.3922 1.5899
2.5081 4.4840 1.5899
0.8895 1.7336 0.6031
0.8266 1.7643 0.6032
0.7627 1.7928 0.6034
0.6978 1.8190 0.6035
0.6319 1.8428 0.6036
0.5653 1.8643 0.6037
0.4980 1.8834 0.6038
0.4300 1.9000 0.6039
0.3615 1.9143 0.6040
0.2925 1.9260 0.6042
0.2231 1.9354 0.6043
0.1534 1.9422 0.6044
0.0836 1.9465 0.6045
0.0136 1.9483 0.6046
-0.0564 1.9477 0.6047
-0.1264 1.9445 0.6048
-0.1962 1.9388 0.6049
-0.2657 1.9306 0.6050
-0.3349 1.9200 0.6050
-0.4037 1.9069 0.6051
-0.4720 1.8913 0.6052
-0.5397 1.8734 0.6053
-0.6067 1.8529 0.6054
-0.6730 1.8302 0.6054
-0.7384 1.8050 0.6055
-0.8029 1.7775 0.6056
-0.8663 1.7478 0.6056
-2.5961 4.7962 1.6932
-2.7669 4.7001 1.6932
-2.9341 4.5980 1.6932
-3.0977 4.4899 1.6932
-3.2572 4.3761 1.6932
-3.4127 4.2567 1.6932
-3.5638 4.1318 1.6932
-3.7104 4.0016 1.6932
-3.8523 3.8662 1.6932
-3.9893 3.7259 1.6932
-4.1212 3.5807 1.6932
-4.2479 3.4309 1.6932
-4.3692 3.2767 1.6932
-4.4849 3.1182 1.6932
-4.5949 2.9557 1.6932
-4.6991 2.7893 1.6932
-4.7973 2.6192 1.6932
-4.8894 2.4458 1.6932
-4.9752 2.2691 1.6932
-5.0548 2.0895 1.6932
-5.1278 1.9070 1.6932
-5.1944 1.7221 1.6932
-5.2543 1.5348 1.6932
-5.3074 1.3455 1.6932
-5.3539 1.1543 1.6932
-5.3934 0.9616 1.6932
-5.4260 0.7675 1.6932
-5.4518 0.5723 1.6932
-5.4705 0.3763 1.6932
2.6167 3.9741 1.5899
2.4717 4.0644 1.5899
0.8812 1.5737 0.6030
0.8241 1.6043 0.6031
0.7659 1.6328 0.6032
0.7067 1.6592 0.6033
0.6466 1.6834 0.6034
0.5857 1.7055 0.6035
0.5240 1.7254 0.6036
0.4617 1.7431 0.6037
0.3988 1.7586 0.6038
0.3354 1.7717 0.6039
0.2715 1.7827 0.6040
0.2073 1.7913 0.6041
0.1428 1.7976 0.6042
0.0781 1.8017 0.6043
0.0133 1.8034 0.6044
-0.0515 1.8028 0.6045
-0.1162 1.7998 0.6046
-0.1808 1.7946 0.6047
-0.2452 1.7871 0.6048
-0.3093 1.7772 0.6049
-0.3729 1.7651 0.6050
-0.4362 1.7507 0.6050
-0.4988 1.7341 0.6051
-0.5609 1.7152 0.6052
-0.6222 1.6941 0.6052
-0.6827 1.6709 0.6053
-0.7424 1.6454 0.6054
-0.8012 1.6179 0.6054
-0.8589 1.5883 0.6055
-2.5599 4.3525 1.6932
-2.7148 4.2580 1.6932
-2.8663 4.1580 1.6932
-3.0141 4.0527 1.6932
-3.1580 3.9421 1.6932
-3.2980 3.8265 1.6932
-3.4337 3.7060 1.6932
-3.5651 3.5807 1.6932
-3.6919 3.4507 1.6932
-3.8141 3.3164 1.6932
-3.9314 3.1777 1.6932
-4.0437 3.0349 1.6932
-4.1508 2.8882 1.6932
-4.2527 2.7377 1.6932
-4.3491 2.5837 1.6932
-4.4400 2.4263 1.6932
-4.5253 2.2657 1.6932
-4.6048 2.1021 1.6932
-4.6784 1.9358 1.6932
-4.7460 1.7669 1.6932
-4.8076 1.5957 1.6932
-4.8630 1.4223 1.6932
-4.9122 1.2471 1.6932
-4.9551 1.0701 1.6932
-4.9917 0.8917 1.6932
-5.0219 0.7121 1.6932
-5.0457 0.5314 1.6932
-5.0629 0.3500 1.6932
-5.0737 0.1680 1.6932
-5.0780 -0.0143 1.6932
-5.0757 -0.1967 1.6932
-5.0669 -0.3790 1.6932
-5.0516 -0.5608 1.6932
-5.0298 -0.7421 1.6932
-5.0014 -0.9225 1.6932
-4.9666 -1.1018 1.6932
-4.9255 -1.2798 1.6932
-4.8779 -1.4563 1.6932
-4.8240 -1.6310 1.6932
-4.7638 -1.8037 1.6932
-4.6975 -1.9742 1.6932
-4.6251 -2.1422 1.6932
-4.5467 -2.3076 1.6932
-4.4623 -2.4701 1.6932
-4.3722 -2.6295 1.6932
-4.2763 -2.7856 1.6932
-4.1749 -2.9382 1.6932
-4.0680 -3.0871 1.6932
-3.9558 -3.2320 1.6932
-3.8384 -3.3729 1.6932
-3.7160 -3.5096 1.6932
-3.5887 -3.6417 1.6932
-3.4567 -3.7692 1.6932
-3.3201 -3.8919 1.6932
-3.1792 -4.0097 1.6932
-3.0341 -4.1223 1.6932
-2.8850 -4.2296 1.6932
-2.7321 -4.3315 1.6932
-2.5756 -4.4279 1.6932
-2.4157 -4.5185 1.6932
-2.2525 -4.6034 1.6932
-2.0864 -4.6823 1.6932
-1.9175 -4.7552 1.6932
-1.7461 -4.8219 1.6932
-1.5723 -4.8825 1.6932
-1.3964 -4.9367 1.6932
-1.2186 -4.9845 1.6932
-1.0392 -5.0259 1.6932
-0.8584 -5.0608 1.6932
-0.6764 -5.0891 1.6932
-0.4935 -5.1109 1.6932
-0.3099 -5.1260 1.6932
-0.1258 -5.1344 1.6932
0.0584 -5.1362 1.6932
0.2426 -5.1314 1.6932
0.4266 -5.1198 1.6932
0.6100 -5.1017 1.6932
0.7926 -5.0769 1.6932
0.9743 -5.0455 1.6932
1.1547 -5.0075 1.6932
1.3336 -4.9630 1.6932
1.5108 -4.9121 1.6932
1.6860 -4.8549 1.6932
1.8590 -4.7913 1.6932
2.0297 -4.7215 1.6932
2.1977 -4.6455 1.6932
2.3628 -4.5636 1.6932
2.5249 -4.4757 1.6932
2.5406 -4.1486 1.6030
2.6658 -4.0215 1.5899
2.8081 -3.9230 1.5899
2.9467 -3.8194 1.5899
3.0815 -3.7109 1.5899
3.2123 -3.5976 1.5899
3.3388 -3.4796 1.5899
3.4610 -3.3572 1.5899
3.5787 -3.2304 1.5899
3.6917 -3.0995 1.5899
3.7999 -2.9646 1.5899
3.9032 -2.8259 1.5899
4.0013 -2.6835 1.5899
4.0942 -2.5378 1.5899
4.1818 -2.3888 1.5899
4.2639 -2.2368 1.5899
4.3404 -2.0819 1.5899
4.4113 -1.9244 1.5899
4.4765 -1.7645 1.5899
4.5358 -1.6024 1.5899
4.5892 -1.4382 1.5899
4.6367 -1.2724 1.5899
4.6781 -1.1049 1.5899
4.7135 -0.9360 1.5899
4.7427 -0.7661 1.5899
4.7658 -0.5953 1.5899
4.7828 -0.4237 1.5899
4.7935 -0.2517 1.5899
4.7980 -0.0795 1.5899
4.7964 0.0927 1.5899
4.7885 0.2647 1.5899
4.7744 0.4362 1.5899
4.7542 0.6071 1.5899
4.7279 0.7771 1.5899
4.6955 0.9460 1.5899
4.6570 1.1136 1.5899
4.6126 1.2796 1.5899
4.5623 1.4439 1.5899
4.5060 1.6062 1.5899
4.4441 1.7664 1.5899
4.3764 1.9242 1.5899
4.3031 2.0794 1.5899
4.2244 2.2319 1.5899
4.1402 2.3813 1.5899
4.0508 2.5277 1.5899
3.9562 2.6706 1.5899
3.8565 2.8101 1.5899
3.7520 2.9459 1.5899
3.6427 3.0778 1.5899
3.5288 3.2056 1.5899
3.4104 3.3293 1.5899
3.2877 3.4486 1.5899
3.1608 3.5635 1.5899
3.0300 3.6737 1.5899
2.8953 3.7791 1.5899
2.7569 3.8796 1.5899
2.6151 3.9751 1.5899
2.4701 4.0654 1.5899
0.8806 1.5741 0.6030
0.8234 1.6046 0.6031
0.7652 1.6331 0.6032
0.7060 1.6594 0.6033
0.6459 1.6837 0.6034
0.5850 1.7057 0.6035
0.5234 1.7256 0.6036
0.4610 1.7433 0.6037
0.3981 1.7587 0.6038
0.3347 1.7719 0.6039
0.2708 1.7828 0.6041
0.2066 1.7914 0.6042
0.1421 1.7977 0.6042
0.0774 1.8017 0.6043
0.0126 1.8034 0.6044
-0.0522 1.8027 0.6045
-0.1169 1.7998 0.6046
-0.1815 1.7945 0.6047
-0.2459 1.7870 0.6048
-0.3100 1.7771 0.6049
-0.3737 1.7650 0.6050
-0.4369 1.7505 0.6050
-0.4995 1.7339 0.6051
-0.5616 1.7150 0.6052
-0.6229 1.6939 0.6052
-0.6834 1.6706 0.6053
-0.7431 1.6452 0.6054
-0.8018 1.6176 0.6054
-0.8595 1.5879 0.6055
-2.5617 4.3515 1.6932
-2.7166 4.2569 1.6932
-2.8680 4.1568 1.6932
-3.0157 4.0515 1.6932
-3.1596 3.9409 1.6932
-3.2995 3.8252 1.6932
-3.4352 3.7046 1.6932
-3.5665 3.5792 1.6932
-3.6933 3.4493 1.6932
-3.8154 3.3148 1.6932
-3.9327 3.1761 1.6932
-4.0449 3.0333 1.6932
-4.1520 2.8865 1.6932
-4.2538 2.7360 1.6932
-4.3502 2.5819 1.6932
-4.4410 2.4245 1.6932
-4.5262 2.2639 1.6932
-4.6056 2.1003 1.6932
-4.6791 1.9339 1.6932
-4.7467 1.7650 1.6932
-4.8082 1.5938 1.6932
-4.8636 1.4204 1.6932
-4.9127 1.2451 1.6932
-4.9556 1.0682 1.6932
-4.9921 0.8897 1.6932
-5.0222 0.7101 1.6932
-5.0459 0.5294 1.6932
-5.0631 0.3479 1.6932
2.4332 3.6949 1.5899
0.8715 1.4329 0.6029
0.8194 1.4632 0.6030
0.7663 1.4916 0.6031
0.7122 1.5181 0.6032
0.6571 1.5426 0.6033
0.6013 1.5652 0.6034
0.5447 1.5858 0.6035
0.4873 1.6043 0.6036
0.4294 1.6207 0.6037
0.3709 1.6351 0.6038
0.3119 1.6473 0.6039
0.2525 1.6575 0.6040
0.1928 1.6655 0.6041
0.1328 1.6714 0.6041
0.0727 1.6751 0.6042
0.0124 1.6767 0.6043
-0.0478 1.6762 0.6044
-0.1080 1.6734 0.6045
-0.1681 1.6686 0.6046
-0.2279 1.6616 0.6047
-0.2875 1.6524 0.6047
-0.3467 1.6411 0.6048
-0.4055 1.6277 0.6049
-0.4638 1.6122 0.6049
-0.5214 1.5947 0.6050
-0.5785 1.5751 0.6051
-0.6348 1.5534 0.6051
-0.6902 1.5298 0.6052
-0.7449 1.5042 0.6052
-0.7985 1.4766 0.6053
-0.8512 1.4471 0.6053
-2.5248 3.9598 1.6932
-2.6656 3.8668 1.6932
-2.8031 3.7688 1.6932
-2.9369 3.6660 1.6932
-3.0670 3.5584 1.6932
-3.1933 3.4463 1.6932
-3.3154 3.3297 1.6932
-3.4334 3.2089 1.6932
-3.5469 3.0839 1.6932
-3.6560 2.9549 1.6932
-3.7604 2.8221 1.6932
-3.8600 2.6856 1.6932
-3.9546 2.5456 1.6932
-4.0443 2.4023 1.6932
-4.1288 2.2559 1.6932
-4.2080 2.1066 1.6932
-4.2818 1.9545 1.6932
-4.3502 1.7998 1.6932
-4.4130 1.6427 1.6932
-4.4702 1.4835 1.6932
-4.5217 1.3223 1.6932
-4.5674 1.1593 1.6932
-4.6072 0.9947 1.6932
-4.6412 0.8288 1.6932
-4.6691 0.6618 1.6932
-4.6912 0.4938 1.6932
-4.7071 0.3251 1.6932
-4.7171 0.1559 1.6932
-4.7209 -0.0136 1.6932
-4.7187 -0.1832 1.6932
-4.7105 -0.3526 1.6932
-4.6961 -0.5217 1.6932
-4.6757 -0.6902 1.6932
-4.6493 -0.8579 1.6932
-4.6169 -1.0245 1.6932
-4.5785 -1.1900 1.6932
-4.5342 -1.3540 1.6932
-4.4840 -1.5164 1.6932
-4.4280 -1.6769 1.6932
-4.3663 -1.8353 1.6932
-4.2989 -1.9914 1.6932
-4.2259 -2.1451 1.6932
-4.1474 -2.2961 1.6932
-4.0635 -2.4442 1.6932
-3.9743 -2.5892 1.6932
-3.8800 -2.7310 1.6932
-3.7806 -2.8693 1.6932
-3.6762 -3.0040 1.6932
-3.5671 -3.1349 1.6932
-3.4532 -3.2618 1.6932
-3.3349 -3.3846 1.6932
-3.2122 -3.5030 1.6932
-3.0852 -3.6170 1.6932
-2.9542 -3.7263 1.6932
-2.8193 -3.8309 1.6932
-2.6807 -3.9306 1.6932
-2.5386 -4.0252 1.6932
-2.3931 -4.1147 1.6932
-2.2445 -4.1988 1.6932
-2.0929 -4.2776 1.6932
-1.9385 -4.3509 1.6932
-1.7815 -4.4185 1.6932
-1.6222 -4.4805 1.6932
-1.4607 -4.5367 1.6932
-1.2973 -4.5870 1.6932
-1.1321 -4.6314 1.6932
-0.9654 -4.6698 1.6932
-0.7974 -4.7022 1.6932
-0.6283 -4.7284 1.6932
-0.4584 -4.7486 1.6932
-0.2878 -4.7626 1.6932
-0.1168 -4.7704 1.6932
0.0544 -4.7720 1.6932
0.2255 -4.7675 1.6932
0.3964 -4.7567 1.6932
0.5668 -4.7398 1.6932
0.7365 -4.7168 1.6932
0.9052 -4.6876 1.6932
1.0728 -4.6523 1.6932
1.2390 -4.6110 1.6932
1.4036 -4.5637 1.6932
1.5664 -4.5105 1.6932
1.7272 -4.4514 1.6932
1.8857 -4.3865 1.6932
2.0417 -4.3160 1.6932
2.1952 -4.2399 1.6932
2.3457 -4.1583 1.6932
2.4932 -4.0712 1.6932
2.5208 -3.8029 1.6183
2.6088 -3.6448 1.5899
2.7377 -3.5486 1.5899
2.8629 -3.4478 1.5899
2.9844 -3.3426 1.5899
3.1020 -3.2330 1.5899
3.2156 -3.1193 1.5899
3.3250 -3.0015 1.5899
3.4300 -2.8799 1.5899
3.5305 -2.7546 1.5899
3.6265 -2.6258 1.5899
3.7177 -2.4936 1.5899
3.8041 -2.3582 1.5899
3.8855 -2.2198 1.5899
3.9618 -2.0785 1.5899
4.0330 -1.9347 1.5899
4.0989 -1.7884 1.5899
4.1595 -1.6398 1.5899
4.2147 -1.4892 1.5899
4.2644 -1.3367 1.5899
4.3086 -1.1826 1.5899
4.3472 -1.0270 1.5899
4.3801 -0.8701 1.5899
4.4074 -0.7122 1.5899
4.4289 -0.5535 1.5899
4.4447 -0.3941 1.5899
4.4548 -0.2342 1.5899
4.4591 -0.0742 1.5899
4.4576 0.0858 1.5899
4.4504 0.2457 1.5899
4.4374 0.4051 1.5899
4.4187 0.5640 1.5899
4.3944 0.7220 1.5899
4.3643 0.8790 1.5899
4.3287 1.0347 1.5899
4.2874 1.1891 1.5899
4.2407 1.3418 1.5899
4.1886 1.4928 1.5899
4.1310 1.6417 1.5899
4.0682 1.7884 1.5899
4.0002 1.9327 1.5899
3.9270 2.0744 1.5899
3.8489 2.2134 1.5899
3.7658 2.3495 1.5899
3.6779 2.4825 1.5899
3.5854 2.6122 1.5899
3.4883 2.7385 1.5899
3.3867 2.8611 1.5899
3.2809 2.9801 1.5899
3.1709 3.0951 1.5899
3.0568 3.2061 1.5899
2.9389 3.3129 1.5899
2.8173 3.4155 1.5899
2.6921 3.5135 1.5899
2.5636 3.6071 1.5899
2.4317 3.6959 1.5899
0.8709 1.4333 0.6029
0.8188 1.4635 0.6030
0.7657 1.4919 0.6031
0.7116 1.5184 0.6032
0.6565 1.5429 0.6033
0.6007 1.5655 0.6034
0.5440 1.5860 0.6035
0.4867 1.6045 0.6036
0.4287 1.6209 0.6037
0.3702 1.6352 0.6038
0.3112 1.6475 0.6039
0.2518 1.6576 0.6040
0.1921 1.6656 0.6041
0.1321 1.6715 0.6041
0.0720 1.6752 0.6042
0.0118 1.6767 0.6043
-0.0485 1.6761 0.6044
-0.1087 1.6734 0.6045
-0.1688 1.6685 0.6046
-0.2286 1.6615 0.6047
-0.2882 1.6523 0.6047
-0.3474 1.6410 0.6048
-0.4062 1.6276 0.6049
-0.4644 1.6121 0.6049
-0.5221 1.5945 0.6050
-0.5791 1.5748 0.6051
-0.6354 1.5532 0.6051
-0.6909 1.5295 0.6052
-0.7455 1.5039 0.6052
-0.7991 1.4763 0.6053
-0.8517 1.4468 0.6053
-2.5264 3.9588 1.6932
-2.6672 3.8657 1.6932
-2.8046 3.7677 1.6932
-2.9384 3.6648 1.6932
-3.0685 3.5572 1.6932
-3.1947 3.4450 1.6932
-3.3168 3.3284 1.6932
-3.4346 3.2075 1.6932
-3.5482 3.0824 1.6932
-3.6572 2.9534 1.6932
-3.7615 2.8205 1.6932
-3.8610 2.6840 1.6932
-3.9557 2.5440 1.6932
-4.0452 2.4007 1.6932
-4.1297 2.2543 1.6932
-4.2088 2.1049 1.6932
-4.2826 1.9527 1.6932
-4.3509 1.7980 1.6932
-4.4137 1.6409 1.6932
-4.4708 1.4817 1.6932
-4.5222 1.3205 1.6932
-4.5679 1.1575 1.6932
-4.6076 0.9929 1.6932
-4.6415 0.8270 1.6932
-4.6694 0.6599 1.6932
-4.6914 0.4919 1.6932
-4.7073 0.3232 1.6932
0.8611 1.3075 0.6028
0.8135 1.3375 0.6029
0.7649 1.3657 0.6030
0.7153 1.3923 0.6031
0.6648 1.4170 0.6031
0.6135 1.4399 0.6032
0.5613 1.4610 0.6033
0.5084 1.4801 0.6034
0.4549 1.4974 0.6035
0.4008 1.5128 0.6036
0.3462 1.5262 0.6037
0.2912 1.5376 0.6038
0.2357 1.5471 0.6039
0.1800 1.5546 0.6040
0.1240 1.5601 0.6041
0.0679 1.5635 0.6041
0.0117 1.5650 0.6042
-0.0446 1.5645 0.6043
-0.1008 1.5619 0.6044
-0.1568 1.5574 0.6045
-0.2127 1.5508 0.6045
-0.2683 1.5423 0.6046
-0.3236 1.5317 0.6047
-0.3785 1.5192 0.6047
-0.4328 1.5048 0.6048
-0.4867 1.4884 0.6049
-0.5399 1.4700 0.6049
-0.5924 1.4499 0.6050
-0.6442 1.4278 0.6050
-0.6952 1.4039 0.6051
-0.7453 1.3781 0.6051
-0.7944 1.3506 0.6052
-0.8425 1.3213 0.6052
-0.8896 1.2904 0.6053
-2.6169 3.5183 1.6932
-2.7418 3.4223 1.6932
-2.8633 3.3219 1.6932
-2.9811 3.2172 1.6932
-3.0951 3.1083 1.6932
-3.2052 2.9955 1.6932
-3.3112 2.8787 1.6932
-3.4130 2.7583 1.6932
-3.5104 2.6343 1.6932
-3.6034 2.5068 1.6932
-3.6917 2.3761 1.6932
-3.7753 2.2424 1.6932
-3.8542 2.1057 1.6932
-3.9281 1.9662 1.6932
-3.9970 1.8242 1.6932
-4.0608 1.6798 1.6932
-4.1193 1.5331 1.6932
-4.1727 1.3845 1.6932
-4.2207 1.2340 1.6932
-4.2632 1.0818 1.6932
-4.3004 0.9282 1.6932
-4.3320 0.7734 1.6932
-4.3580 0.6174 1.6932
-4.3785 0.4606 1.6932
-4.3933 0.3031 1.6932
-4.4025 0.1452 1.6932
-4.4061 -0.0130 1.6932
-4.4040 -0.1713 1.6932
-4.3962 -0.3294 1.6932
-4.3827 -0.4872 1.6932
-4.3636 -0.6444 1.6932
-4.3389 -0.8009 1.6932
-4.3085 -0.9564 1.6932
-4.2726 -1.1108 1.6932
-4.2312 -1.2638 1.6932
-4.1843 -1.4153 1.6932
-4.1320 -1.5651 1.6932
-4.0743 -1.7129 1.6932
-4.0113 -1.8586 1.6932
-3.9431 -2.0019 1.6932
-3.8698 -2.1428 1.6932
-3.7915 -2.2809 1.6932
-3.7082 -2.4162 1.6932
-3.6201 -2.5485 1.6932
-3.5273 -2.6775 1.6932
-3.4299 -2.8031 1.6932
-3.3280 -2.9252 1.6932
-3.2217 -3.0435 1.6932
-3.1112 -3.1580 1.6932
-2.9967 -3.2684 1.6932
-2.8782 -3.3747 1.6932
-2.7560 -3.4767 1.6932
-2.6301 -3.5742 1.6932
-2.5008 -3.6671 1.6932
-2.3681 -3.7553 1.6932
-2.2324 -3.8387 1.6932
-2.0937 -3.9172 1.6932
-1.9522 -3.9906 1.6932
-1.8082 -4.0589 1.6932
-1.6617 -4.1220 1.6932
-1.5131 -4.1798 1.6932
-1.3624 -4.2321 1.6932
-1.2100 -4.2790 1.6932
-1.0559 -4.3204 1.6932
-0.9004 -4.3561 1.6932
-0.7437 -4.3863 1.6932
-0.5860 -4.4108 1.6932
-0.4274 -4.4295 1.6932
-0.2683 -4.4425 1.6932
-0.1088 -4.4498 1.6932
0.0508 -4.4513 1.6932
0.2105 -4.4470 1.6932
0.3698 -4.4370 1.6932
0.5288 -4.4212 1.6932
0.6870 -4.3997 1.6932
0.8444 -4.3724 1.6932
1.0007 -4.3395 1.6932
1.1557 -4.3010 1.6932
1.3093 -4.2569 1.6932
1.4611 -4.2072 1.6932
1.6110 -4.1521 1.6932
1.7589 -4.0916 1.6932
1.9045 -4.0258 1.6932
2.0475 -3.9549 1.6932
2.1880 -3.8787 1.6932
2.3256 -3.7976 1.6932
2.4601 -3.7115 1.6932
2.5023 -3.4961 1.6350
2.5536 -3.3101 1.5899
2.6704 -3.2161 1.5899
2.7838 -3.1180 1.5899
2.8935 -3.0158 1.5899
2.9994 -2.9097 1.5899
3.1015 -2.7999 1.5899
3.1995 -2.6865 1.5899
3.2933 -2.5697 1.5899
3.3828 -2.4495 1.5899
3.4679 -2.3262 1.5899
3.5485 -2.2000 1.5899
3.6245 -2.0709 1.5899
3.6958 -1.9392 1.5899
3.7622 -1.8050 1.5899
3.8238 -1.6686 1.5899
3.8804 -1.5300 1.5899
3.9319 -1.3895 1.5899
3.9783 -1.2473 1.5899
4.0196 -1.1035 1.5899
4.0556 -0.9583 1.5899
4.0864 -0.8120 1.5899
4.1119 -0.6647 1.5899
4.1321 -0.5166 1.5899
4.1469 -0.3679 1.5899
4.1563 -0.2188 1.5899
4.1604 -0.0695 1.5899
4.1591 0.0798 1.5899
4.1524 0.2290 1.5899
4.1404 0.3777 1.5899
4.1231 0.5259 1.5899
4.1004 0.6734 1.5899
4.0724 0.8199 1.5899
4.0392 0.9653 1.5899
4.0008 1.1093 1.5899
3.9573 1.2519 1.5899
3.9087 1.3927 1.5899
3.8551 1.5317 1.5899
3.7965 1.6686 1.5899
3.7331 1.8033 1.5899
3.6649 1.9356 1.5899
3.5921 2.0654 1.5899
3.5146 2.1924 1.5899
3.4326 2.3166 1.5899
3.3463 2.4377 1.5899
3.2557 2.5555 1.5899
3.1610 2.6701 1.5899
3.0623 2.7812 1.5899
2.9596 2.8886 1.5899
2.8533 2.9922 1.5899
2.7433 3.0920 1.5899
2.6298 3.1877 1.5899
2.5130 3.2793 1.5899
2.3971 3.3725 1.5927
0.8606 1.3078 0.6028
0.8130 1.3378 0.6029
0.7644 1.3661 0.6030
0.7148 1.3925 0.6031
0.6642 1.4173 0.6031
0.6129 1.4401 0.6032
0.5607 1.4612 0.6033
0.5079 1.4803 0.6034
0.4543 1.4976 0.6035
0.4002 1.5129 0.6036
0.3456 1.5263 0.6037
0.2905 1.5377 0.6038
0.2351 1.5472 0.6039
0.1794 1.5547 0.6040
0.1234 1.5601 0.6041
0.0673 1.5636 0.6041
0.0110 1.5650 0.6042
-0.0452 1.5645 0.6043
-0.1014 1.5619 0.6044
-0.1575 1.5573 0.6045
-0.2133 1.5507 0.6045
-0.2690 1.5422 0.6046
-0.3242 1.5316 0.6047
-0.3791 1.5191 0.6047
-0.4334 1.5046 0.6048
-0.4873 1.4882 0.6049
-0.5405 1.4698 0.6049
-0.5930 1.4496 0.6050
-0.6448 1.4275 0.6050
-0.6957 1.4036 0.6051
-0.7458 1.3778 0.6051
-0.7949 1.3503 0.6052
-0.8431 1.3210 0.6052
-0.8901 1.2900 0.6053
-2.6183 3.5173 1.6932
-2.7432 3.4212 1.6932
-2.8646 3.3207 1.6932
-2.9824 3.2160 1.6932
-3.0964 3.1071 1.6932
-3.2064 2.9942 1.6932
-3.3124 2.8774 1.6932
-3.4141 2.7569 1.6932
-3.5115 2.6329 1.6932
-3.6044 2.5054 1.6932
-3.6927 2.3747 1.6932
-3.7763 2.2409 1.6932
-3.8550 2.1041 1.6932
-3.9289 1.9646 1.6932
-3.9977 1.8226 1.6932
-4.0614 1.6782 1.6932
-4.1200 1.5315 1.6932
-4.1732 1.3828 1.6932
-4.2212 1.2323 1.6932
-4.2637 1.0801 1.6932
-4.3007 0.9265 1.6932
-4.3323 0.7716 1.6932
-4.3583 0.6157 1.6932
-4.3787 0.4588 1.6932
-4.3935 0.3014 1.6932
0.8065 1.2244 0.6028
0.7620 1.2525 0.6029
0.7164 1.2790 0.6029
0.6700 1.3039 0.6030
0.6227 1.3270 0.6031
0.5746 1.3485 0.6032
0.5258 1.3682 0.6033
0.4762 1.3862 0.6034
0.4261 1.4023 0.6035
0.3754 1.4167 0.6036
0.3243 1.4293 0.6036
0.2727 1.4400 0.6037
0.2208 1.4489 0.6038
0.1686 1.4559 0.6039
0.1162 1.4610 0.6040
0.0636 1.4643 0.6041
0.0109 1.4657 0.6041
-0.0417 1.4652 0.6042
-0.0944 1.4628 0.6043
-0.1469 1.4585 0.6043
-0.1992 1.4524 0.6044
-0.2513 1.4443 0.6045
-0.3030 1.4345 0.6045
-0.3544 1.4227 0.6046
-0.4053 1.4092 0.6047
-0.4558 1.3938 0.6047
-0.5056 1.3767 0.6048
-0.5548 1.3577 0.6048
-0.6033 1.3370 0.6049
-0.6510 1.3146 0.6049
-0.6979 1.2905 0.6050
-0.7439 1.2647 0.6050
-0.7890 1.2373 0.6051
-0.8330 1.2083 0.6051
-0.8760 1.1778 0.6051
-2.5682 3.2055 1.6932
-2.6820 3.1114 1.6932
-2.7924 3.0133 1.6932
-2.8991 2.9113 1.6932
-3.0022 2.8056 1.6932
-3.1015 2.6962 1.6932
-3.1968 2.5834 1.6932
-3.2880 2.4672 1.6932
-3.3751 2.3478 1.6932
-3.4578 2.2254 1.6932
-3.5361 2.1001 1.6932
-3.6099 1.9720 1.6932
-3.6791 1.8414 1.6932
-3.7436 1.7083 1.6932
-3.8033 1.5730 1.6932
-3.8581 1.4357 1.6932
-3.9080 1.2964 1.6932
-3.9529 1.1555 1.6932
-3.9927 1.0129 1.6932
-4.0274 0.8691 1.6932
-4.0570 0.7240 1.6932
-4.0813 0.5780 1.6932
-4.1004 0.4311 1.6932
-4.1143 0.2836 1.6932
-4.1228 0.1357 1.6932
-4.1261 -0.0124 1.6932
-4.1241 -0.1607 1.6932
-4.1167 -0.3087 1.6932
-4.1040 -0.4565 1.6932
-4.0861 -0.6037 1.6932
-4.0629 -0.7502 1.6932
-4.0344 -0.8959 1.6932
-4.0007 -1.0404 1.6932
-3.9618 -1.1837 1.6932
-3.9179 -1.3255 1.6932
-3.8688 -1.4657 1.6932
-3.8147 -1.6041 1.6932
-3.7557 -1.7404 1.6932
-3.6918 -1.8746 1.6932
-3.6231 -2.0065 1.6932
-3.5497 -2.1358 1.6932
-3.4717 -2.2624 1.6932
-3.3892 -2.3862 1.6932
-3.3022 -2.5070 1.6932
-3.2110 -2.6245 1.6932
-3.1155 -2.7388 1.6932
-3.0160 -2.8495 1.6932
-2.9125 -2.9567 1.6932
-2.8053 -3.0600 1.6932
-2.6943 -3.1594 1.6932
-2.5798 -3.2549 1.6932
-2.4620 -3.3461 1.6932
-2.3409 -3.4330 1.6932
-2.2167 -3.5156 1.6932
-2.0896 -3.5936 1.6932
-1.9597 -3.6670 1.6932
-1.8273 -3.7357 1.6932
-1.6924 -3.7996 1.6932
-1.5553 -3.8586 1.6932
-1.4162 -3.9126 1.6932
-1.2752 -3.9616 1.6932
-1.1324 -4.0054 1.6932
-0.9882 -4.0441 1.6932
-0.8427 -4.0775 1.6932
-0.6960 -4.1057 1.6932
-0.5483 -4.1286 1.6932
-0.4000 -4.1461 1.6932
-0.2510 -4.1583 1.6932
-0.1018 -4.1651 1.6932
0.0477 -4.1664 1.6932
0.1971 -4.1624 1.6932
0.3462 -4.1530 1.6932
0.4950 -4.1382 1.6932
0.6431 -4.1180 1.6932
0.7904 -4.0925 1.6932
0.9367 -4.0617 1.6932
1.0818 -4.0256 1.6932
1.2255 -3.9843 1.6932
1.3676 -3.9379 1.6932
1.5079 -3.8863 1.6932
1.6463 -3.8297 1.6932
1.7825 -3.7681 1.6932
1.9164 -3.7017 1.6932
2.0479 -3.6305 1.6932
2.1766 -3.5545 1.6932
2.3026 -3.4740 1.6932
2.4255 -3.3889 1.6932
2.4886 -3.2260 1.6555
2.4994 -3.0104 1.5899
2.6055 -2.9185 1.5899
2.7083 -2.8229 1.5899
2.8074 -2.7236 1.5899
2.9030 -2.6209 1.5899
2.9947 -2.5148 1.5899
3.0825 -2.4054 1.5899
3.1664 -2.2930 1.5899
3.2461 -2.1776 1.5899
3.3215 -2.0594 1.5899
3.3927 -1.9386 1.5899
3.4594 -1.8154 1.5899
3.5217 -1.6898 1.5899
3.5793 -1.5621 1.5899
3.6323 -1.4324 1.5899
3.6806 -1.3009 1.5899
3.7241 -1.1678 1.5899
3.7628 -1.0332 1.5899
3.7966 -0.8973 1.5899
3.8255 -0.7604 1.5899
3.8494 -0.6225 1.5899
3.8683 -0.4839 1.5899
3.8822 -0.3447 1.5899
3.8911 -0.2051 1.5899
3.8950 -0.0653 1.5899
3.8938 0.0745 1.5899
3.8877 0.2141 1.5899
3.8765 0.3534 1.5899
3.8603 0.4922 1.5899
3.8391 0.6302 1.5899
3.8130 0.7674 1.5899
3.7820 0.9035 1.5899
3.7461 1.0384 1.5899
3.7054 1.1719 1.5899
3.6599 1.3038 1.5899
3.6098 1.4339 1.5899
3.5550 1.5622 1.5899
3.4957 1.6883 1.5899
3.4319 1.8123 1.5899
3.3637 1.9338 1.5899
3.2912 2.0528 1.5899
3.2145 2.1691 1.5899
3.1337 2.2825 1.5899
3.0490 2.3929 1.5899
2.9603 2.5002 1.5899
2.8679 2.6043 1.5899
2.7718 2.7049 1.5899
2.6722 2.8020 1.5899
2.5692 2.8955 1.5899
2.4630 2.9852 1.5899
0.8920 1.1639 0.6026
0.8496 1.1951 0.6027
0.8060 1.2248 0.6028
0.7615 1.2528 0.6029
0.7159 1.2793 0.6029
0.6695 1.3041 0.6030
0.6222 1.3273 0.6031
0.5740 1.3487 0.6032
0.5252 1.3684 0.6033
0.4757 1.3864 0.6034
0.4256 1.4025 0.6035
0.3749 1.4169 0.6036
0.3237 1.4294 0.6036
0.2722 1.4401 0.6037
0.2202 1.4490 0.6038
0.1680 1.4560 0.6039
0.1156 1.4611 0.6040
0.0630 1.4643 0.6041
0.0104 1.4657 0.6041
-0.0423 1.4652 0.6042
-0.0949 1.4627 0.6043
-0.1475 1.4584 0.6043
-0.1998 1.4523 0.6044
-0.2519 1.4442 0.6045
-0.3036 1.4343 0.6046
-0.3550 1.4226 0.6046
-0.4059 1.4090 0.6047
-0.4563 1.3936 0.6047
-0.5062 1.3765 0.6048
-0.5553 1.3575 0.6048
-0.6038 1.3368 0.6049
-0.6515 1.3144 0.6049
-0.6984 1.2902 0.6050
-0.7444 1.2644 0.6050
-0.7895 1.2370 0.6051
-0.8335 1.2080 0.6051
-0.8765 1.1774 0.6051
-2.5695 3.2044 1.6932
-2.6833 3.1103 1.6932
-2.7936 3.0122 1.6932
-2.9003 2.9101 1.6932
-3.0034 2.8044 1.6932
-3.1026 2.6950 1.6932
-3.1978 2.5821 1.6932
-3.2890 2.4659 1.6932
-3.3760 2.3465 1.6932
-3.4587 2.2240 1.6932
-3.5369 2.0986 1.6932
-3.6107 1.9706 1.6932
-3.6798 1.8399 1.6932
-3.7443 1.7068 1.6932
-3.8039 1.5715 1.6932
-3.8587 1.4341 1.6932
-3.9085 1.2949 1.6932
-3.9534 1.1539 1.6932
-3.9931 1.0113 1.6932
-4.0278 0.8675 1.6932
-4.0573 0.7224 1.6932
-4.0816 0.5763 1.6932
-4.1006 0.4295 1.6932
-4.1144 0.2820 1.6932
0.7576 1.1501 0.6028
0.7158 1.1764 0.6029
0.6730 1.2013 0.6029
0.6294 1.2247 0.6030
0.5849 1.2464 0.6031
0.5398 1.2666 0.6032
0.4939 1.2851 0.6033
0.4474 1.3020 0.6034
0.4003 1.3172 0.6034
0.3527 1.3307 0.6035
0.3047 1.3425 0.6036
0.2562 1.3525 0.6037
0.2075 1.3609 0.6038
0.1584 1.3675 0.6038
0.1092 1.3723 0.6039
0.0598 1.3754 0.6040
0.0103 1.3766 0.6040
-0.0392 1.3762 0.6041
-0.0886 1.3739 0.6042
-0.1379 1.3699 0.6043
-0.1871 1.3641 0.6043
-0.2360 1.3566 0.6044
-0.2846 1.3473 0.6044
-0.3329 1.3363 0.6045
-0.3807 1.3235 0.6046
-0.4281 1.3091 0.6046
-0.4749 1.2930 0.6047
-0.5211 1.2752 0.6047
-0.5666 1.2558 0.6048
-0.6114 1.2347 0.6048
-0.6555 1.2120 0.6048
-0.6987 1.1878 0.6049
-0.7410 1.1621 0.6049
-0.7824 1.1348 0.6050
-0.8228 1.1061 0.6050
-0.8621 1.0759 0.6050
-0.9003 1.0444 0.6050
-2.6232 2.8306 1.6932
-2.7235 2.7347 1.6932
-2.8203 2.6354 1.6932
-2.9135 2.5327 1.6932
-3.0030 2.4266 1.6932
-3.0887 2.3175 1.6932
-3.1705 2.2053 1.6932
-3.2481 2.0903 1.6932
-3.3217 1.9725 1.6932
-3.3910 1.8522 1.6932
-3.4559 1.7295 1.6932
-3.5165 1.6045 1.6932
-3.5725 1.4774 1.6932
-3.6240 1.3483 1.6932
-3.6708 1.2175 1.6932
-3.7129 1.0851 1.6932
-3.7503 0.9512 1.6932
-3.7829 0.8161 1.6932
-3.8106 0.6798 1.6932
-3.8334 0.5426 1.6932
-3.8513 0.4047 1.6932
-3.8643 0.2661 1.6932
-3.8723 0.1272 1.6932
-3.8753 -0.0119 1.6932
-3.8733 -0.1511 1.6932
-3.8663 -0.2902 1.6932
-3.8544 -0.4290 1.6932
-3.8375 -0.5672 1.6932
-3.8156 -0.7048 1.6932
-3.7888 -0.8416 1.6932
-3.7571 -0.9773 1.6932
-3.7206 -1.1119 1.6932
-3.6792 -1.2451 1.6932
-3.6331 -1.3767 1.6932
-3.5823 -1.5066 1.6932
-3.5268 -1.6347 1.6932
-3.4667 -1.7607 1.6932
-3.4022 -1.8844 1.6932
-3.3332 -2.0058 1.6932
-3.2599 -2.1247 1.6932
-3.1824 -2.2409 1.6932
-3.1007 -2.3543 1.6932
-3.0149 -2.4646 1.6932
-2.9253 -2.5719 1.6932
-2.8318 -2.6758 1.6932
-2.7346 -2.7764 1.6932
-2.6338 -2.8734 1.6932
-2.5296 -2.9667 1.6932
-2.4221 -3.0563 1.6932
-2.3114 -3.1419 1.6932
-2.1977 -3.2235 1.6932
-2.0811 -3.3009 1.6932
-1.9617 -3.3742 1.6932
-1.8398 -3.4430 1.6932
-1.7154 -3.5075 1.6932
-1.5888 -3.5674 1.6932
-1.4601 -3.6228 1.6932
-1.3295 -3.6735 1.6932
-1.1970 -3.7194 1.6932
-1.0630 -3.7605 1.6932
-0.9276 -3.7968 1.6932
-0.7910 -3.8282 1.6932
-0.6533 -3.8546 1.6932
-0.5147 -3.8761 1.6932
-0.3754 -3.8925 1.6932
-0.2356 -3.9039 1.6932
-0.0954 -3.9102 1.6932
0.0448 -3.9115 1.6932
0.1851 -3.9077 1.6932
0.3251 -3.8988 1.6932
0.4648 -3.8849 1.6932
0.6038 -3.8660 1.6932
0.7421 -3.8420 1.6932
0.8794 -3.8131 1.6932
1.0156 -3.7792 1.6932
1.1505 -3.7405 1.6932
1.2839 -3.6968 1.6932
1.4156 -3.6484 1.6932
1.5455 -3.5953 1.6932
1.6734 -3.5375 1.6932
1.7991 -3.4751 1.6932
1.9225 -3.4083 1.6932
2.0434 -3.3370 1.6932
2.1616 -3.2614 1.6932
2.2770 -3.1816 1.6932
2.3895 -3.0977 1.6932
2.4774 -2.9840 1.6787
2.4756 -2.7731 1.6091
2.5425 -2.6503 1.5899
2.6356 -2.5571 1.5899
2.7253 -2.4607 1.5899
2.8114 -2.3610 1.5899
2.8939 -2.2584 1.5899
2.9726 -2.1529 1.5899
3.0475 -2.0446 1.5899
3.1184 -1.9336 1.5899
3.1852 -1.8202 1.5899
3.2479 -1.7046 1.5899
3.3063 -1.5867 1.5899
3.3605 -1.4668 1.5899
3.4103 -1.3450 1.5899
3.4557 -1.2216 1.5899
3.4966 -1.0966 1.5899
3.5329 -0.9703 1.5899
3.5647 -0.8427 1.5899
3.5918 -0.7142 1.5899
3.6143 -0.5847 1.5899
3.6321 -0.4546 1.5899
3.6453 -0.3239 1.5899
3.6537 -0.1928 1.5899
3.6574 -0.0616 1.5899
3.6563 0.0697 1.5899
3.6506 0.2008 1.5899
3.6401 0.3316 1.5899
3.6249 0.4619 1.5899
3.6051 0.5916 1.5899
3.5806 0.7204 1.5899
3.5515 0.8482 1.5899
3.5179 0.9749 1.5899
3.4797 1.1002 1.5899
3.4371 1.2241 1.5899
3.3901 1.3464 1.5899
3.3387 1.4668 1.5899
3.2830 1.5853 1.5899
3.2231 1.7017 1.5899
3.1591 1.8159 1.5899
3.0911 1.9277 1.5899
3.0191 2.0369 1.5899
2.9433 2.1435 1.5899
2.8637 2.2472 1.5899
2.7805 2.3480 1.5899
2.6937 2.4458 1.5899
2.6035 2.5403 1.5899
2.5100 2.6316 1.5899
2.4253 2.7329 1.5978
0.8767 1.0625 0.6025
0.8379 1.0932 0.6026
0.7981 1.1225 0.6027
0.7572 1.1504 0.6028
0.7153 1.1767 0.6029
0.6725 1.2016 0.6029
0.6289 1.2249 0.6030
0.5844 1.2467 0.6031
0.5393 1.2668 0.6032
0.4934 1.2853 0.6033
0.4469 1.3022 0.6034
0.3998 1.3173 0.6034
0.3522 1.3308 0.6035
0.3041 1.3426 0.6036
0.2557 1.3527 0.6037
0.2069 1.3610 0.6038
0.1579 1.3675 0.6038
0.1086 1.3723 0.6039
0.0592 1.3754 0.6040
0.0098 1.3766 0.6040
-0.0397 1.3761 0.6041
-0.0891 1.3739 0.6042
-0.1385 1.3698 0.6043
-0.1876 1.3640 0.6043
-0.2365 1.3565 0.6044
-0.2851 1.3472 0.6044
-0.3334 1.3361 0.6045
-0.3812 1.3234 0.6046
-0.4286 1.3089 0.6046
-0.4754 1.2928 0.6047
-0.5216 1.2750 0.6047
-0.5671 1.2555 0.6048
-0.6119 1.2344 0.6048
-0.6560 1.2118 0.6048
-0.6992 1.1875 0.6049
-0.7415 1.1618 0.6049
-0.7828 1.1345 0.6050
-0.8232 1.1058 0.6050
-0.8625 1.0756 0.6050
-0.9007 1.0441 0.6050
-2.6243 2.8295 1.6932
-2.7246 2.7337 1.6932
-2.8214 2.6343 1.6932
-2.9145 2.5315 1.6932
-3.0040 2.4254 1.6932
-3.0897 2.3162 1.6932
-3.1713 2.2040 1.6932
-3.2490 2.0890 1.6932
-3.3225 1.9712 1.6932
-3.3917 1.8508 1.6932
-3.4566 1.7281 1.6932
-3.5171 1.6031 1.6932
-3.5731 1.4759 1.6932
-3.6245 1.3469 1.6932
-3.6713 1.2160 1.6932
-3.7134 1.0836 1.6932
-3.7507 0.9497 1.6932
-3.7832 0.8145 1.6932
-3.8109 0.6783 1.6932
-3.8336 0.5411 1.6932
-3.8515 0.4031 1.6932
-3.8644 0.2646 1.6932
0.7135 1.0829 0.6028
0.6741 1.1078 0.6028
0.6338 1.1312 0.6029
0.5927 1.1532 0.6030
0.5509 1.1737 0.6031
0.5083 1.1927 0.6032
0.4651 1.2101 0.6032
0.4213 1.2260 0.6033
0.3770 1.2403 0.6034
0.3322 1.2531 0.6035
0.2869 1.2642 0.6035
0.2413 1.2737 0.6036
0.1954 1.2815 0.6037
0.1492 1.2877 0.6038
0.1028 1.2922 0.6038
0.0563 1.2951 0.6039
0.0098 1.2963 0.6040
-0.0368 1.2959 0.6040
-0.0834 1.2937 0.6041
-0.1298 1.2900 0.6042
-0.1761 1.2845 0.6042
-0.2222 1.2774 0.6043
-0.2680 1.2687 0.6043
-0.3134 1.2583 0.6044
-0.3585 1.2463 0.6045
-0.4031 1.2327 0.6045
-0.4471 1.2175 0.6046
-0.4907 1.2007 0.6046
-0.5335 1.1824 0.6046
-0.5757 1.1626 0.6047
-0.6172 1.1413 0.6047
-0.6579 1.1184 0.6048
-0.6978 1.0942 0.6048
-0.7367 1.0685 0.6048
-0.7747 1.0415 0.6049
-0.8118 1.0131 0.6049
-0.8477 0.9834 0.6049
-0.8826 0.9524 0.6049
-2.5649 2.5754 1.6932
-2.6561 2.4818 1.6932
-2.7439 2.3850 1.6932
-2.8282 2.2852 1.6932
-2.9089 2.1823 1.6932
-2.9858 2.0767 1.6932
-3.0590 1.9683 1.6932
-3.1282 1.8574 1.6932
-3.1934 1.7441 1.6932
-3.2546 1.6285 1.6932
-3.3116 1.5108 1.6932
-3.3643 1.3911 1.6932
-3.4128 1.2695 1.6932
-3.4568 1.1463 1.6932
-3.4965 1.0216 1.6932
-3.5316 0.8955 1.6932
-3.5622 0.7682 1.6932
-3.5883 0.6399 1.6932
-3.6098 0.5107 1.6932
-3.6266 0.3808 1.6932
-3.6387 0.2504 1.6932
-3.6462 0.1195 1.6932
-3.6490 -0.0115 1.6932
-3.6471 -0.1426 1.6932
-3.6405 -0.2735 1.6932
-3.6292 -0.4042 1.6932
-3.6132 -0.5344 1.6932
-3.5926 -0.6639 1.6932
-3.5673 -0.7927 1.6932
-3.5374 -0.9205 1.6932
-3.5030 -1.0471 1.6932
-3.4640 -1.1725 1.6932
-3.4205 -1.2964 1.6932
-3.3726 -1.4188 1.6932
-3.3204 -1.5393 1.6932
-3.2638 -1.6579 1.6932
-3.2030 -1.7744 1.6932
-3.1380 -1.8887 1.6932
-3.0690 -2.0006 1.6932
-2.9959 -2.1099 1.6932
-2.9190 -2.2166 1.6932
-2.8382 -2.3205 1.6932
-2.7538 -2.4214 1.6932
-2.6657 -2.5193 1.6932
-2.5742 -2.6139 1.6932
-2.4793 -2.7052 1.6932
-2.3812 -2.7930 1.6932
-2.2800 -2.8772 1.6932
-2.1757 -2.9578 1.6932
-2.0687 -3.0346 1.6932
-1.9589 -3.1075 1.6932
-1.8465 -3.1764 1.6932
-1.7317 -3.2412 1.6932
-1.6146 -3.3018 1.6932
-1.4954 -3.3582 1.6932
-1.3743 -3.4103 1.6932
-1.2513 -3.4580 1.6932
-1.1266 -3.5012 1.6932
-1.0005 -3.5399 1.6932
-0.8730 -3.5740 1.6932
-0.7444 -3.6035 1.6932
-0.6148 -3.6283 1.6932
-0.4843 -3.6485 1.6932
-0.3532 -3.6639 1.6932
-0.2216 -3.6746 1.6932
-0.0897 -3.6806 1.6932
0.0423 -3.6817 1.6932
0.1743 -3.6782 1.6932
0.3061 -3.6698 1.6932
0.4375 -3.6567 1.6932
0.5684 -3.6389 1.6932
0.6985 -3.6163 1.6932
0.8278 -3.5891 1.6932
0.9559 -3.5572 1.6932
1.0829 -3.5207 1.6932
1.2085 -3.4797 1.6932
1.3324 -3.4341 1.6932
1.4547 -3.3841 1.6932
1.5751 -3.3297 1.6932
1.6934 -3.2710 1.6932
1.8095 -3.2081 1.6932
1.9233 -3.1410 1.6932
2.0346 -3.0699 1.6932
2.1432 -2.9948 1.6932
2.2491 -2.9158 1.6932
2.3520 -2.8330 1.6932
2.4518 -2.7466 1.6932
2.4595 -2.5639 1.6341
2.4808 -2.4070 1.5899
2.5652 -2.3163 1.5899
2.6550 -2.2299 1.5952
2.7239 -2.1259 1.5899
2.7981 -2.0266 1.5899
2.8685 -1.9247 1.5899
2.9353 -1.8203 1.5899
2.9982 -1.7136 1.5899
3.0572 -1.6047 1.5899
3.1123 -1.4938 1.5899
3.1633 -1.3809 1.5899
3.2102 -1.2663 1.5899
3.2529 -1.1501 1.5899
3.2914 -1.0325 1.5899
3.3257 -0.9136 1.5899
3.3556 -0.7935 1.5899
3.3812 -0.6725 1.5899
3.4025 -0.5507 1.5899
3.4193 -0.4281 1.5899
3.4317 -0.3051 1.5899
3.4396 -0.1817 1.5899
3.4431 -0.0582 1.5899
3.4422 0.0654 1.5899
3.4368 0.1888 1.5899
3.4270 0.3119 1.5899
3.4128 0.4346 1.5899
3.3941 0.5567 1.5899
3.3711 0.6780 1.5899
3.3438 0.7983 1.5899
3.3122 0.9176 1.5899
3.2763 1.0357 1.5899
3.2362 1.1523 1.5899
3.1919 1.2674 1.5899
3.1436 1.3809 1.5899
3.0912 1.4925 1.5899
3.0349 1.6021 1.5899
2.9747 1.7096 1.5899
2.9106 1.8148 1.5899
2.8429 1.9177 1.5899
2.7715 2.0181 1.5899
2.6966 2.1158 1.5899
2.6183 2.2107 1.5899
2.5366 2.3028 1.5899
2.4517 2.3919 1.5899
0.8955 0.9388 0.6024
0.8611 0.9702 0.6025
0.8257 1.0005 0.6025
0.7891 1.0294 0.6026
0.7516 1.0570 0.6027
0.7131 1.0832 0.6028
0.6736 1.1081 0.6028
0.6334 1.1315 0.6029
0.5923 1.1535 0.6030
0.5504 1.1739 0.6031
0.5079 1.1929 0.6032
0.4647 1.2103 0.6032
0.4209 1.2262 0.6033
0.3765 1.2405 0.6034
0.3317 1.2532 0.6035
0.2864 1.2643 0.6035
0.2408 1.2737 0.6036
0.1949 1.2816 0.6037
0.1487 1.2878 0.6038
0.1023 1.2923 0.6038
0.0558 1.2951 0.6039
0.0092 1.2963 0.6040
-0.0374 1.2958 0.6040
-0.0839 1.2937 0.6041
-0.1304 1.2899 0.6042
-0.1766 1.2844 0.6042
-0.2227 1.2773 0.6043
-0.2685 1.2686 0.6043
-0.3139 1.2582 0.6044
-0.3590 1.2461 0.6045
-0.4036 1.2325 0.6045
-0.4476 1.2173 0.6046
-0.4911 1.2005 0.6046
-0.5340 1.1822 0.6046
-0.5762 1.1624 0.6047
-0.6177 1.1410 0.6047
-0.6584 1.1182 0.6048
-0.6982 1.0939 0.6048
-0.7371 1.0682 0.6048
-0.7751 1.0411 0.6049
-0.8122 1.0128 0.6049
-0.8481 0.9830 0.6049
-0.8830 0.9520 0.6049
-2.5660 2.5744 1.6932
-2.6571 2.4808 1.6932
-2.7449 2.3839 1.6932
-2.8291 2.2840 1.6932
-2.9098 2.1812 1.6932
-2.9867 2.0755 1.6932
-3.0598 1.9671 1.6932
-3.1290 1.8562 1.6932
-3.1941 1.7428 1.6932
-3.2552 1.6272 1.6932
-3.3122 1.5095 1.6932
-3.3649 1.3897 1.6932
-3.4133 1.2682 1.6932
-3.4573 1.1450 1.6932
-3.4969 1.0202 1.6932
-3.5320 0.8941 1.6932
-3.5626 0.7668 1.6932
-3.5886 0.6385 1.6932
-3.6100 0.5093 1.6932
-3.6267 0.3794 1.6932
-3.6389 0.2489 1.6932
0.6735 1.0220 0.6028
0.6363 1.0455 0.6028
0.5983 1.0676 0.6029
0.5595 1.0884 0.6030
0.5200 1.1077 0.6031
0.4798 1.1256 0.6031
0.4390 1.1421 0.6032
0.3977 1.1571 0.6033
0.3559 1.1706 0.6034
0.3136 1.1826 0.6034
0.2709 1.1931 0.6035
0.2278 1.2020 0.6036
0.1845 1.2094 0.6036
0.1409 1.2153 0.6037
0.0971 1.2196 0.6038
0.0532 1.2223 0.6038
0.0092 1.2234 0.6039
-0.0347 1.2230 0.6040
-0.0787 1.2210 0.6040
-0.1225 1.2174 0.6041
-0.1662 1.2123 0.6041
-0.2097 1.2056 0.6042
-0.2529 1.1973 0.6043
-0.2958 1.1875 0.6043
-0.3383 1.1762 0.6044
-0.3804 1.1633 0.6044
-0.4220 1.1490 0.6045
-0.4630 1.1332 0.6045
-0.5035 1.1159 0.6045
-0.5434 1.0971 0.6046
-0.5825 1.0770 0.6046
-0.6209 1.0555 0.6047
-0.6585 1.0326 0.6047
-0.6952 1.0084 0.6047
-0.7311 0.9828 0.6047
-0.7661 0.9560 0.6048
-0.8000 0.9280 0.6048
-0.8330 0.8987 0.6048
-0.8648 0.8683 0.6048
-0.8956 0.8368 0.6048
-2.5900 2.2511 1.6932
-2.6695 2.1568 1.6932
-2.7456 2.0597 1.6932
-2.8183 1.9600 1.6932
-2.8873 1.8577 1.6932
-2.9526 1.7530 1.6932
-3.0141 1.6460 1.6932
-3.0718 1.5369 1.6932
-3.1256 1.4257 1.6932
-3.1754 1.3127 1.6932
-3.2211 1.1980 1.6932
-3.2626 1.0817 1.6932
-3.3000 0.9640 1.6932
-3.3332 0.8450 1.6932
-3.3620 0.7248 1.6932
-3.3866 0.6037 1.6932
-3.4068 0.4818 1.6932
-3.4227 0.3592 1.6932
-3.4341 0.2361 1.6932
-3.4411 0.1126 1.6932
-3.4437 -0.0111 1.6932
-3.4419 -0.1348 1.6932
-3.4356 -0.2584 1.6932
-3.4249 -0.3817 1.6932
-3.4098 -0.5045 1.6932
-3.3903 -0.6268 1.6932
-3.3664 -0.7483 1.6932
-3.3381 -0.8689 1.6932
-3.3056 -0.9884 1.6932
-3.2688 -1.1067 1.6932
-3.2277 -1.2236 1.6932
-3.1825 -1.3390 1.6932
-3.1331 -1.4527 1.6932
-3.0797 -1.5646 1.6932
-3.0223 -1.6746 1.6932
-2.9609 -1.7824 1.6932
-2.8957 -1.8880 1.6932
-2.8268 -1.9911 1.6932
-2.7541 -2.0918 1.6932
-2.6779 -2.1898 1.6932
-2.5982 -2.2850 1.6932
-2.5151 -2.3772 1.6932
-2.4287 -2.4665 1.6932
-2.3392 -2.5526 1.6932
-2.2466 -2.6355 1.6932
-2.1510 -2.7149 1.6932
-2.0527 -2.7909 1.6932
-1.9516 -2.8633 1.6932
-1.8480 -2.9321 1.6932
-1.7420 -2.9970 1.6932
-1.6337 -3.0581 1.6932
-1.5232 -3.1153 1.6932
-1.4108 -3.1685 1.6932
-1.2964 -3.2176 1.6932
-1.1804 -3.2625 1.6932
-1.0628 -3.3033 1.6932
-0.9438 -3.3398 1.6932
-0.8235 -3.3719 1.6932
-0.7022 -3.3997 1.6932
-0.5799 -3.4232 1.6932
-0.4568 -3.4422 1.6932
-0.3331 -3.4567 1.6932
-0.2090 -3.4668 1.6932
-0.0846 -3.4724 1.6932
0.0400 -3.4735 1.6932
0.1645 -3.4701 1.6932
0.2889 -3.4622 1.6932
0.4128 -3.4498 1.6932
0.5363 -3.4330 1.6932
0.6590 -3.4117 1.6932
0.7810 -3.3860 1.6932
0.9019 -3.3559 1.6932
1.0216 -3.3215 1.6932
1.1401 -3.2828 1.6932
1.2570 -3.2398 1.6932
1.3724 -3.1926 1.6932
1.4859 -3.1413 1.6932
1.5976 -3.0859 1.6932
1.7071 -3.0266 1.6932
1.8145 -2.9633 1.6932
1.9194 -2.8962 1.6932
2.0219 -2.8254 1.6932
2.1218 -2.7509 1.6932
2.2189 -2.6728 1.6932
2.3131 -2.5913 1.6932
2.4043 -2.5065 1.6932
2.4494 -2.3767 1.6640
2.4496 -2.2121 1.6094
2.4966 -2.0969 1.5899
2.5698 -2.0058 1.5899
2.6415 -1.9134 1.5910
2.7063 -1.8160 1.5899
2.7692 -1.7175 1.5899
2.8286 -1.6168 1.5899
2.8843 -1.5141 1.5899
2.9363 -1.4095 1.5899
2.9845 -1.3030 1.5899
3.0287 -1.1949 1.5899
3.0691 -1.0853 1.5899
3.1055 -0.9744 1.5899
3.1378 -0.8622 1.5899
3.1661 -0.7489 1.5899
3.1903 -0.6347 1.5899
3.2103 -0.5198 1.5899
3.2262 -0.4042 1.5899
3.2379 -0.2881 1.5899
3.2455 -0.1717 1.5899
3.2488 -0.0551 1.5899
3.2480 0.0615 1.5899
3.2429 0.1779 1.5899
3.2337 0.2941 1.5899
3.2203 0.4099 1.5899
3.2028 0.5251 1.5899
3.1811 0.6395 1.5899
3.1554 0.7531 1.5899
3.1255 0.8657 1.5899
3.0917 0.9771 1.5899
3.0539 1.0872 1.5899
3.0122 1.1958 1.5899
2.9666 1.3029 1.5899
2.9172 1.4082 1.5899
2.8641 1.5117 1.5899
2.8073 1.6131 1.5899
2.7469 1.7125 1.5899
2.6830 1.8096 1.5899
2.6157 1.9043 1.5899
2.5450 1.9966 1.5899
2.4711 2.0862 1.5899
2.3940 2.1731 1.5899
0.8766 0.8551 0.6023
0.8452 0.8859 0.6024
0.8128 0.9157 0.6025
0.7793 0.9442 0.6025
0.7448 0.9715 0.6026
0.7094 0.9975 0.6027
0.6731 1.0223 0.6028
0.6358 1.0458 0.6028
0.5978 1.0679 0.6029
0.5590 1.0886 0.6030
0.5195 1.1079 0.6031
0.4794 1.1258 0.6031
0.4386 1.1423 0.6032
0.3973 1.1572 0.6033
0.3554 1.1707 0.6034
0.3131 1.1827 0.6034
0.2704 1.1932 0.6035
0.2273 1.2021 0.6036
0.1840 1.2095 0.6036
0.1404 1.2153 0.6037
0.0966 1.2196 0.6038
0.0527 1.2223 0.6038
0.0087 1.2234 0.6039
-0.0352 1.2230 0.6040
-0.0792 1.2209 0.6040
-0.1230 1.2174 0.6041
-0.1667 1.2122 0.6041
-0.2102 1.2055 0.6042
-0.2534 1.1972 0.6043
-0.2963 1.1874 0.6043
-0.3388 1.1760 0.6044
-0.3809 1.1632 0.6044
-0.4224 1.1488 0.6045
-0.4635 1.1330 0.6045
-0.5040 1.1157 0.6045
-0.5438 1.0969 0.6046
-0.5829 1.0768 0.6046
-0.6213 1.0552 0.6047
-0.6589 1.0323 0.6047
-0.6957 1.0081 0.6047
-0.7315 0.9825 0.6047
-0.7665 0.9557 0.6048
-0.8004 0.9276 0.6048
-0.8333 0.8984 0.6048
-0.8652 0.8680 0.6048
-0.8959 0.8364 0.6048
-2.5909 2.2500 1.6932
-2.6704 2.1557 1.6932
-2.7465 2.0586 1.6932
-2.8190 1.9588 1.6932
-2.8880 1.8565 1.6932
-2.9533 1.7518 1.6932
-3.0148 1.6448 1.6932
-3.0725 1.5357 1.6932
-3.1262 1.4245 1.6932
-3.1759 1.3115 1.6932
-3.2215 1.1967 1.6932
-3.2631 1.0804 1.6932
-3.3004 0.9627 1.6932
-3.3335 0.8436 1.6932
-3.3623 0.7235 1.6932
-3.3868 0.6024 1.6932
-3.4070 0.4804 1.6932
-3.4228 0.3578 1.6932
-3.4342 0.2347 1.6932
0.6369 0.9664 0.6028
0.6018 0.9887 0.6028
0.5658 1.0096 0.6029
0.5291 1.0292 0.6030
0.4918 1.0475 0.6031
0.4538 1.0644 0.6031
0.4152 1.0800 0.6032
0.3762 1.0942 0.6033
0.3366 1.1070 0.6033
0.2966 1.1183 0.6034
0.2562 1.1282 0.6035
0.2155 1.1367 0.6035
0.1745 1.1437 0.6036
0.1332 1.1492 0.6037
0.0919 1.1533 0.6037
0.0503 1.1558 0.6038
0.0088 1.1569 0.6038
-0.0328 1.1565 0.6039
-0.0744 1.1546 0.6040
-0.1158 1.1512 0.6040
-0.1572 1.1463 0.6041
-0.1983 1.1400 0.6041
-0.2391 1.1322 0.6042
-0.2797 1.1229 0.6042
-0.3199 1.1122 0.6043
-0.3597 1.1001 0.6043
-0.3990 1.0865 0.6044
-0.4379 1.0715 0.6044
-0.4761 1.0552 0.6044
-0.5138 1.0375 0.6045
-0.5508 1.0184 0.6045
-0.5871 0.9980 0.6046
-0.6227 0.9764 0.6046
-0.6574 0.9535 0.6046
-0.6913 0.9293 0.6046
-0.7244 0.9039 0.6047
-0.7565 0.8774 0.6047
-0.7876 0.8498 0.6047
-0.8178 0.8210 0.6047
-0.8469 0.7912 0.6047
-0.8749 0.7603 0.6047
-0.9017 0.7285 0.6048
-2.5966 1.9478 1.6932
-2.6653 1.8534 1.6932
-2.7306 1.7567 1.6932
-2.7923 1.6577 1.6932
-2.8505 1.5565 1.6932
-2.9051 1.4533 1.6932
-2.9559 1.3482 1.6932
