ply
format ascii 1.0
element vertex 2108
property float32 x
property float32 y
property float32 z
end_header
-4.2460 -35.6022 -1.3603
-2.9031 -34.9469 -1.2637
-1.6755 -35.5756 -1.2147
-0.3984 -35.4095 -1.1387
0.8573 -34.8987 -1.0538
2.0510 -33.9349 -0.9588
3.1733 -32.8946 -0.8659
4.2006 -31.6443 -0.7722
7.5427 10.2488 0.6355
7.2758 10.6674 0.6280
7.0006 11.0990 0.6204
6.7159 11.5455 0.6126
6.1131 12.4908 0.5965
5.7919 12.9946 0.5880
5.4552 13.5227 0.5793
5.1009 14.0784 0.5701
4.7264 14.6657 0.5606
4.3291 15.2887 0.5506
3.9057 15.9528 0.5401
3.4523 16.6639 0.5290
2.9643 17.4293 0.5171
2.4361 18.2577 0.5044
1.8611 19.1595 0.4907
1.2310 20.1477 0.4759
0.5356 21.2383 0.4596
-0.2378 22.4513 0.4417
-1.1055 23.8122 0.4218
-2.0887 25.3541 0.3994
-3.2150 27.1205 0.3740
-4.5218 29.1701 0.3447
-6.0606 31.5834 0.3104
-7.9044 34.4751 0.2696
-10.1602 38.0129 0.2200
-12.9614 42.3548 0.1576
-33.1077 34.6677 -1.0395
-24.9848 24.3530 -0.8182
-26.5634 24.0981 -0.9030
-24.2432 20.4592 -0.8522
-23.5315 18.4569 -0.8527
-24.5035 17.8394 -0.9128
-25.5018 17.2029 -0.9743
-26.5317 16.5462 -1.0375
-15.1573 8.7143 -0.6057
-17.6721 9.3340 -0.7205
-16.8941 8.1625 -0.7018
-16.3881 7.2053 -0.6929
-12.8587 5.1117 -0.5527
-12.4241 4.4300 -0.5425
-14.6519 4.6393 -0.6494
-14.2414 3.9533 -0.6402
-11.3203 2.7092 -0.5158
-14.3374 2.8918 -0.6619
-14.9203 2.4561 -0.6974
-12.7151 1.6271 -0.6015
-16.5011 1.5122 -0.7898
-17.3601 0.9645 -0.8403
-18.4704 0.3623 -0.9039
-19.3673 -0.3153 -0.9579
-22.7167 -1.1862 -1.1354
-22.2220 -1.9621 -1.1220
-21.7454 -2.7095 -1.1090
-21.2848 -3.4318 -1.0963
-20.8383 -4.1321 -1.0838
-20.4041 -4.8131 -1.0715
-19.9807 -5.4772 -1.0594
-20.0176 -6.2679 -1.0715
-22.8228 -8.0565 -1.2334
-22.8772 -9.0115 -1.2481
-22.3738 -9.7547 -1.2324
-2.4859 -2.2432 -0.1503
-19.8787 -41.9784 -1.4422
-18.4509 -42.8701 -1.3757
-15.8477 -40.7864 -1.2188
-14.3280 -41.1881 -1.1422
-12.9060 -41.8771 -1.0730
-10.3980 -38.5999 -0.9092
-8.8804 -38.3909 -0.8261
-7.2627 -37.4596 -0.7308
-5.6671 -36.1039 -0.6325
-4.2822 -35.5473 -0.5526
-2.9265 -34.7231 -0.4716
-1.7428 -36.0687 -0.4191
-0.4379 -35.0815 -0.3389
0.8094 -34.7062 -0.2671
2.0628 -34.8544 -0.1993
3.1555 -33.1468 -0.1236
4.3229 -32.8846 -0.0564
7.5368 10.2581 0.9233
7.2695 10.6773 0.9200
6.9938 11.1097 0.9171
6.7086 11.5569 0.9146
6.4018 12.0005 0.9110
6.1047 12.5041 0.9108
5.7828 13.0089 0.9096
5.4454 13.5381 0.9088
5.0902 14.0952 0.9086
4.7149 14.6838 0.9088
4.3166 15.3085 0.9097
3.8920 15.9743 0.9113
3.4373 16.6874 0.9135
2.9478 17.4551 0.9166
2.4179 18.2862 0.9206
1.8409 19.1911 0.9256
1.2086 20.1829 0.9319
0.5105 21.2777 0.9396
-0.2661 22.4957 0.9490
-1.1378 23.8627 0.9604
-2.1256 25.4121 0.9742
-3.2578 27.1877 0.9911
-4.5721 29.2489 1.0117
-6.1205 31.6773 1.0372
-7.9770 34.5889 1.0690
-10.2501 38.1539 1.1094
-13.0302 42.3861 1.1551
-33.3499 34.8432 0.0391
-25.0161 24.3302 -0.0332
-26.4851 23.9754 -0.0956
-24.1834 20.3654 -0.1379
-23.5604 18.4407 -0.1797
-24.5308 17.8220 -0.2307
-25.5290 17.1855 -0.2820
-26.5589 16.5288 -0.3337
-15.1723 8.7048 -0.2121
-17.6533 9.3045 -0.2700
-16.9230 8.1591 -0.2796
-16.2727 7.1391 -0.2875
-15.6884 6.2227 -0.2940
-12.4540 4.4305 -0.2459
-14.6767 4.6360 -0.3035
-14.2337 3.9413 -0.3069
-11.3149 2.7007 -0.2533
-14.3474 2.8854 -0.3324
-15.0102 2.4628 -0.3587
-12.7233 1.6219 -0.3127
-16.5112 1.5058 -0.4164
-17.3701 0.9581 -0.4485
-18.2219 0.3510 -0.4807
-19.3769 -0.3214 -0.5213
-22.7129 -1.1920 -0.6222
-22.3225 -1.9759 -0.6217
-21.7432 -2.7130 -0.6147
-21.2832 -3.4344 -0.6100
-20.8373 -4.1337 -0.6046
-20.4987 -4.8362 -0.6014
-19.9808 -5.4770 -0.5921
-20.0138 -6.2655 -0.5982
-22.7181 -8.0170 -0.6842
-22.2451 -8.7588 -0.6743
-21.9137 -9.5491 -0.6678
-32.9918 -15.8068 -1.0095
-2.4862 -2.2408 -0.0748
-9.5972 -20.2157 -0.1911
-19.1586 -44.3917 -0.3369
-16.5288 -42.4098 -0.2435
-14.5430 -41.6640 -0.1628
-13.0682 -42.2410 -0.0879
-10.4610 -38.6634 -0.0099
-8.9083 -38.3145 0.0602
-7.5695 -38.8032 0.1321
-5.9729 -37.7641 0.1982
-4.3950 -36.1224 0.2568
-2.7484 -32.1487 0.2890
-1.5709 -31.7120 0.3455
-0.4407 -32.1435 0.4124
0.6981 -31.6141 0.4678
1.8014 -31.0959 0.5226
2.8633 -30.4845 0.5749
3.8849 -29.8453 0.6256
7.5309 10.2673 1.2122
7.2631 10.6873 1.2131
6.9870 11.1204 1.2150
6.7013 11.5684 1.2178
6.3871 12.0000 1.2182
6.0962 12.5175 1.2265
5.7737 13.0233 1.2325
5.4355 13.5537 1.2398
5.0795 14.1120 1.2485
4.7032 14.7020 1.2586
4.3039 15.3283 1.2704
3.8782 15.9959 1.2841
3.4222 16.7111 1.2999
2.9312 17.4811 1.3180
2.3997 18.3148 1.3389
1.8186 19.2002 1.3612
1.1808 20.1298 1.3844
0.4829 21.2135 1.4154
-0.2938 22.4795 1.4553
-2.1680 25.5314 1.5565
-3.3420 27.5938 1.6324
-4.4822 28.4364 1.6324
-5.7014 29.3075 1.6324
-7.0076 30.2094 1.6324
-8.4098 31.1449 1.6324
-9.9182 32.1168 1.6324
-11.5634 33.1832 1.6351
-14.1434 36.3463 1.7357
-16.1682 37.5195 1.7357
-18.3684 38.7489 1.7357
-20.7661 40.0403 1.7357
-23.3877 41.4010 1.7357
-19.0244 28.6755 1.1219
-11.9879 16.7374 0.6318
-28.9797 37.5481 1.3659
-29.9826 36.1007 1.2640
-27.2886 30.5634 1.0286
-28.5247 29.7352 0.9604
-16.1244 15.6479 0.4841
-16.8272 15.1998 0.4494
-17.5710 14.7656 0.4162
-18.3052 14.2974 0.3831
-19.0583 13.8173 0.3506
-16.7921 11.2806 0.2698
-18.6284 11.5692 0.2595
-15.1873 8.6952 0.1816
-17.6346 9.2751 0.1788
-16.9071 8.1341 0.1430
-16.2590 7.1176 0.1123
-15.6766 6.2042 0.0858
-12.4456 4.4174 0.0516
-12.0183 3.7873 0.0352
-14.2260 3.9293 0.0256
-11.3094 2.6921 0.0086
-14.3575 2.8790 -0.0028
-15.0203 2.4564 -0.0161
-12.7314 1.6167 -0.0239
-16.5212 1.4994 -0.0430
-17.3801 0.9518 -0.0567
-18.3292 0.3466 -0.0706
-19.3865 -0.3276 -0.0849
-22.7092 -1.1979 -0.1099
-22.3195 -1.9805 -0.1169
-21.7409 -2.7166 -0.1211
-21.2816 -3.4369 -0.1243
-20.8363 -4.1353 -0.1260
-20.4983 -4.8369 -0.1270
-19.9809 -5.4768 -0.1253
-20.0101 -6.2631 -0.1258
-22.8046 -8.0449 -0.1421
-31.6745 -12.4661 -0.1933
-2.4865 -2.2384 0.0006
-22.2881 -39.3122 0.4952
-19.5944 -37.6385 0.5276
-17.4824 -36.7329 0.5679
-15.7735 -36.4476 0.6168
-13.8446 -35.4146 0.6521
-11.9064 -33.9950 0.6775
-10.3146 -33.2130 0.7133
-8.7920 -32.3530 0.7460
-7.4264 -31.7785 0.7841
-6.0990 -31.0754 0.8183
-4.8425 -30.3873 0.8518
-3.6531 -29.7310 0.8853
-2.5557 -29.4760 0.9307
-1.5129 -29.8060 0.9962
-0.4424 -29.6084 1.0461
0.6161 -29.5648 1.1029
1.6690 -29.4497 1.1587
2.6891 -29.0230 1.2033
3.6774 -28.5338 1.2456
6.3724 11.9996 1.5264
4.7565 14.9242 1.6326
4.2897 15.3429 1.6326
3.8027 15.7619 1.6326
3.2943 16.1809 1.6326
2.7635 16.5998 1.6326
2.2091 17.0170 1.6324
1.6302 17.4354 1.6324
1.0255 17.8533 1.6324
0.3934 18.2703 1.6324
-0.2675 18.6863 1.6324
-0.9587 19.1009 1.6324
-1.6818 19.5136 1.6324
-2.4387 19.9240 1.6324
-3.2312 20.3316 1.6324
-4.2477 21.6870 1.7073
-5.2432 22.4724 1.7357
-6.2129 22.8922 1.7357
-7.2299 23.3057 1.7357
-8.2969 23.7118 1.7357
-9.4169 24.1092 1.7357
-10.5930 24.4963 1.7357
-11.8284 24.8715 1.7357
-13.1266 25.2329 1.7357
-14.4913 25.5784 1.7357
-15.9263 25.9055 1.7357
-8.8808 13.3507 0.8841
-7.7533 10.7978 0.7074
-19.4652 25.1589 1.6326
-20.9107 25.1182 1.6165
-19.1357 21.3829 1.3667
-20.0055 20.8078 1.3228
-16.1458 15.6343 0.9903
-16.8485 15.1863 0.9603
-17.5923 14.7520 0.9333
-18.3264 14.2839 0.9063
-19.0794 13.8038 0.8809
-16.7019 11.1967 0.7209
-15.8106 9.7989 0.6389
-15.0427 8.5945 0.5698
-14.3726 7.5435 0.5111
-13.7813 6.6161 0.4607
-13.2544 5.7897 0.4172
-12.7807 5.0469 0.3793
-12.3991 4.3907 0.3476
-14.0503 4.4170 0.3727
-14.2184 3.9173 0.3576
-11.3040 2.6836 0.2702
-13.3479 2.6687 0.3039
-15.0304 2.4500 0.3268
-15.7485 1.9921 0.3279
-16.5313 1.4930 0.3307
-17.3901 0.9454 0.3355
-18.3391 0.3403 0.3424
-19.3962 -0.3337 0.3520
-21.2629 -1.1272 0.3766
-20.8018 -1.8504 0.3614
-20.3602 -2.5476 0.3487
-19.8998 -3.2163 0.3378
-19.4877 -3.8693 0.3296
-19.1178 -4.5118 0.3240
-18.7216 -5.1314 0.3198
-18.3350 -5.7377 0.3174
-17.9232 -6.3208 0.3164
-17.5830 -6.9172 0.3182
-17.2153 -7.4939 0.3213
-16.8211 -8.0494 0.3254
-16.4913 -8.6293 0.3325
-16.1332 -9.1910 0.3406
-24.0000 -14.8336 0.5332
-35.4637 -25.5925 0.8840
-26.4591 -20.5718 0.7029
-2.4867 -2.2361 0.0759
-15.4878 -16.0712 0.5506
-13.1947 -14.7095 0.5088
-12.1927 -14.6111 0.5118
-11.8196 -15.2399 0.5419
-22.9400 -37.2134 1.4010
-20.3828 -35.8753 1.3811
-18.4860 -35.4277 1.3965
-16.6580 -34.9130 1.4109
-14.7489 -33.9865 1.4096
-12.7915 -32.6215 1.3898
-11.1997 -31.8692 1.3960
-9.7125 -31.1549 1.4042
-8.3628 -30.6395 1.4219
-7.0919 -30.1931 1.4437
-5.8450 -29.6009 1.4592
-4.6549 -28.9919 1.4742
-3.5314 -28.4611 1.4937
-2.4757 -28.1592 1.5261
-1.4641 -28.1674 1.5771
-0.4564 -28.2183 1.6331
0.5521 -28.1792 1.6865
1.5454 -27.8877 1.7268
2.5167 -27.5405 1.7653
3.4507 -27.0458 1.7954
6.8406 9.3579 1.6326
6.5612 9.6897 1.6326
6.2705 10.0192 1.6326
5.9681 10.3462 1.6326
5.6538 10.6707 1.6326
5.3271 10.9926 1.6326
4.9877 11.3117 1.6326
4.6352 11.6277 1.6326
4.2693 11.9406 1.6326
3.8896 12.2501 1.6326
3.4955 12.5559 1.6326
3.0866 12.8578 1.6326
2.6625 13.1555 1.6326
2.2227 13.4486 1.6326
1.7666 13.7369 1.6326
1.2938 14.0199 1.6326
0.8036 14.2968 1.6326
0.2961 14.5899 1.6350
-0.2397 15.4010 1.6952
-0.8254 16.0420 1.7357
-1.4263 16.3068 1.7357
-2.0487 16.5623 1.7357
-2.6933 16.8079 1.7357
-3.3608 17.0426 1.7357
-4.0518 17.2656 1.7357
-4.7670 17.4758 1.7357
-5.5071 17.6722 1.7357
-6.2727 17.8535 1.7357
-7.0644 18.0183 1.7357
-7.8828 18.1655 1.7357
-8.7284 18.2934 1.7357
-9.6016 18.4005 1.7357
-10.5030 18.4850 1.7357
-11.4327 18.5451 1.7357
-7.4806 11.2162 1.0478
-5.5540 7.7153 0.7206
-5.6088 7.2317 0.6763
-5.8918 7.0605 0.6624
-15.5292 17.3130 1.6326
-16.6234 17.2512 1.6385
-16.1672 15.6206 1.4978
-16.8698 15.1727 1.4725
-17.6136 14.7385 1.4517
-18.3477 14.2704 1.4310
-19.1007 13.7902 1.4126
-16.6760 11.1560 1.1718
-15.7891 9.7652 1.0563
-15.0247 8.5663 0.9588
-14.3574 7.5196 0.8757
-13.7683 6.5958 0.8043
-13.2432 5.7723 0.7424
-12.7711 5.0319 0.6884
-12.3434 4.3610 0.6410
-12.3130 3.8616 0.6174
-11.6825 3.2105 0.5669
-11.2985 2.6750 0.5317
-13.3572 2.6627 0.6110
-15.0405 2.4435 0.6704
-15.7587 1.9856 0.6861
-16.5414 1.4866 0.7053
-17.4001 0.9390 0.7284
-18.3489 0.3340 0.7562
-19.4058 -0.3399 0.7896
-21.2595 -1.1326 0.8564
-20.7990 -1.8548 0.8320
-20.3581 -2.5510 0.8111
-19.8983 -3.2187 0.7920
-19.4867 -3.8708 0.7774
-19.1173 -4.5125 0.7667
-18.7217 -5.1313 0.7573
-18.3356 -5.7368 0.7505
-17.9242 -6.3192 0.7447
-17.5845 -6.9148 0.7441
-17.2173 -7.4908 0.7445
-16.8235 -8.0456 0.7458
-16.4942 -8.6248 0.7520
-16.1364 -9.1859 0.7591
-24.0056 -14.8248 1.1691
-32.2735 -21.5595 1.6324
-30.9741 -22.3310 1.6324
-25.4293 -19.7508 1.4010
-14.9211 -12.4683 0.8621
-2.4870 -2.2337 0.1512
-12.2529 -11.8220 0.7864
-10.0444 -10.4089 0.6829
-13.2345 -14.7331 0.9564
-12.2028 -14.6012 0.9407
-11.8303 -15.2292 0.9765
-18.6916 -25.9218 1.6587
-17.0422 -25.5071 1.6326
-15.7151 -25.4428 1.6326
-14.4198 -25.3259 1.6326
-13.1591 -25.1609 1.6326
-11.9353 -24.9520 1.6326
-10.7498 -24.7032 1.6326
-9.6040 -24.4184 1.6326
-8.4985 -24.1012 1.6326
-9.2107 -29.4329 2.0228
-7.9039 -28.8324 2.0130
-6.6705 -28.2552 2.0066
-5.4593 -27.4812 1.9874
-4.3622 -26.9668 1.9882
-3.3385 -26.6468 2.0051
-2.3576 -26.4506 2.0334
-1.4118 -26.5343 2.0860
-0.4587 -26.3449 2.1200
0.4756 -25.9261 2.1376
1.3986 -25.8272 2.1839
2.2767 -25.2672 2.1930
3.1570 -24.9970 2.2290
5.8727 8.0476 1.6326
5.6249 8.3222 1.6326
5.3675 8.5933 1.6326
5.1005 8.8609 1.6326
4.8235 9.1247 1.6326
4.5365 9.3847 1.6326
4.2391 9.6404 1.6326
3.9313 9.8919 1.6326
3.6129 10.1387 1.6326
3.2882 10.3955 1.6349
2.9431 10.6175 1.6326
2.6155 10.9504 1.6479
2.2979 11.4221 1.6838
1.9578 11.9336 1.7251
1.5584 12.2335 1.7357
1.1339 12.4525 1.7357
0.6962 12.6637 1.7357
0.2451 12.8666 1.7357
-0.2197 13.0607 1.7357
-0.6983 13.2453 1.7357
-1.1910 13.4199 1.7357
-1.6979 13.5838 1.7357
-2.2192 13.7364 1.7357
-2.7551 13.8769 1.7357
-3.3056 14.0046 1.7357
-3.8708 14.1186 1.7357
-4.4509 14.2180 1.7357
-5.0457 14.3021 1.7357
-5.6552 14.3697 1.7357
-6.2793 14.4200 1.7357
-6.9179 14.4518 1.7357
-7.5707 14.4641 1.7357
-8.2374 14.4558 1.7357
-8.9176 14.4255 1.7357
-9.0400 13.5186 1.6326
-5.3190 7.3702 0.8949
-5.5747 7.1702 0.8770
-5.8213 6.9596 0.8591
-6.2957 7.0027 0.8742
-12.4590 12.9005 1.6326
-13.3077 12.8294 1.6499
-14.0175 12.5800 1.6485
-14.7428 12.3099 1.6485
-15.4447 11.9871 1.6458
-15.7421 11.3416 1.6021
-16.0133 10.6903 1.5598
-15.7677 9.7315 1.4731
-15.0067 8.5381 1.3475
-14.3421 7.4958 1.2402
-13.7553 6.5754 1.1477
-13.2321 5.7548 1.0675
-12.7616 5.0169 0.9974
-12.3351 4.3480 0.9359
-11.9503 3.7388 0.8820
-11.6758 3.2005 0.8399
-11.2931 2.6665 0.7934
-14.3878 2.8597 0.9894
-12.9150 2.0912 0.8711
-15.7688 1.9791 1.0454
-16.5515 1.4801 1.0809
-17.4101 0.9326 1.1225
-18.3588 0.3277 1.1712
-19.4155 -0.3460 1.2285
-21.2560 -1.1381 1.3369
-20.7963 -1.8591 1.3034
-20.3560 -2.5543 1.2743
-19.8968 -3.2211 1.2471
-19.4858 -3.8723 1.2259
-19.1169 -4.5131 1.2102
-18.7218 -5.1311 1.1956
-18.3362 -5.7359 1.1843
-17.9253 -6.3175 1.1739
-17.5860 -6.9124 1.1708
-17.2192 -7.4877 1.1685
-16.8258 -8.0419 1.1669
-16.4970 -8.6204 1.1723
-16.1397 -9.1808 1.1784
-21.5231 -13.2807 1.6191
-21.0050 -14.0193 1.6324
-20.2746 -14.6031 1.6324
-19.5138 -15.1406 1.6324
-17.6488 -14.7312 1.5384
-2.4873 -2.2314 0.2266
-10.0703 -9.7041 0.9618
-8.6605 -8.9628 0.8699
-6.7229 -7.4735 0.7125
-6.5399 -7.8136 0.7339
-6.1031 -7.8440 0.7278
-13.6422 -18.8868 1.7357
-12.7340 -19.0241 1.7357
-11.8326 -19.1192 1.7357
-10.9404 -19.1741 1.7357
-10.0599 -19.1907 1.7357
-9.1931 -19.1710 1.7357
-8.3419 -19.1172 1.7357
-7.3622 -18.6618 1.7020
-6.3892 -18.0581 1.6571
-5.5463 -17.6558 1.6326
-4.8170 -17.4955 1.6326
-4.1078 -17.3124 1.6326
-3.4192 -17.1082 1.6326
-2.7517 -16.8846 1.6326
-2.1053 -16.6432 1.6326
-1.4805 -16.3854 1.6326
-0.8771 -16.1128 1.6326
-0.2952 -15.8266 1.6326
0.2654 -15.5283 1.6326
0.8049 -15.2188 1.6326
1.3234 -14.8995 1.6326
1.8213 -14.5713 1.6326
5.1386 7.0538 1.6326
4.9412 7.3241 1.6408
4.7457 7.6129 1.6534
4.5442 7.9114 1.6682
4.3368 8.2231 1.6857
4.1210 8.5468 1.7057
3.8984 8.8901 1.7293
3.6227 9.1432 1.7357
3.3234 9.3582 1.7357
3.0147 9.5673 1.7357
2.6964 9.7704 1.7357
2.3686 9.9672 1.7357
2.0311 10.1573 1.7357
1.6838 10.3404 1.7357
1.3267 10.5160 1.7357
0.9597 10.6839 1.7357
0.5827 10.8435 1.7357
0.1957 10.9946 1.7357
-0.2014 11.1365 1.7357
-0.6085 11.2688 1.7357
-1.0257 11.3911 1.7357
-1.4528 11.5027 1.7357
-1.8900 11.6032 1.7357
-2.3371 11.6919 1.7357
-2.7939 11.7683 1.7357
-3.2604 11.8318 1.7357
-3.7364 11.8816 1.7357
-4.2216 11.9171 1.7357
-4.7158 11.9377 1.7357
-5.2187 11.9426 1.7357
-5.7299 11.9310 1.7357
-6.2490 11.9023 1.7357
-6.7755 11.8557 1.7357
-7.3088 11.7903 1.7357
-7.3822 11.0103 1.6326
-5.6082 7.7510 1.1597
-5.6817 7.2898 1.1027
-3.9092 4.6624 0.7145
-3.8249 4.2446 0.6604
-3.9904 4.1224 0.6527
-10.5072 10.1072 1.6326
-11.1644 9.9976 1.6521
-11.6685 9.7221 1.6485
-12.1939 9.4440 1.6485
-12.7146 9.1411 1.6485
-13.2290 8.8130 1.6485
-13.6626 8.4146 1.6398
-14.0726 7.9897 1.6300
-14.3269 7.4719 1.6047
-13.7423 6.5551 1.4914
-13.2210 5.7374 1.3930
-12.7520 5.0018 1.3069
-12.3268 4.3349 1.2312
-11.9432 3.7275 1.1648
-11.6695 3.1906 1.1134
-11.2876 2.6579 1.0557
-13.1867 2.6131 1.2112
-9.3484 1.5087 0.8450
-15.7790 1.9727 1.4062
-16.5616 1.4736 1.4581
-17.0233 0.9051 1.4836
-17.1238 0.2996 1.4803
-17.1899 -0.3117 1.4770
-17.3086 -0.9313 1.4812
-17.4037 -1.5597 1.4864
-17.4585 -2.1938 1.4913
-17.4744 -2.8312 1.4961
-17.4698 -3.4731 1.5024
-17.3922 -4.1066 1.5056
-17.2620 -4.7309 1.5076
-17.1863 -5.3751 1.5177
-17.3492 -6.1125 1.5526
-17.4909 -6.8721 1.5899
-17.2212 -7.4846 1.5937
-16.8282 -8.0381 1.5892
-16.4998 -8.6159 1.5938
-16.1430 -9.1757 1.5989
-16.2826 -10.0387 1.6578
-15.5595 -10.3754 1.6324
-15.0604 -10.8369 1.6324
-14.5389 -11.2689 1.6324
-13.9974 -11.6706 1.6324
-2.4888 -2.2301 0.3023
-9.1261 -8.7832 1.1581
-8.9989 -9.3006 1.1965
-6.4433 -7.1526 0.9005
-6.0484 -7.2154 0.8916
-5.8573 -7.5159 0.9138
-10.4709 -14.4714 1.7357
-9.8148 -14.6358 1.7357
-9.1586 -14.7694 1.7357
-8.5043 -14.8729 1.7357
-7.8536 -14.9473 1.7357
-7.2081 -14.9938 1.7357
-6.5693 -15.0133 1.7357
-5.9384 -15.0070 1.7357
-5.3167 -14.9760 1.7357
-4.7053 -14.9216 1.7357
-4.1051 -14.8449 1.7357
-3.5169 -14.7471 1.7357
-2.9415 -14.6293 1.7357
-2.3794 -14.4928 1.7357
-1.8313 -14.3387 1.7357
-1.2975 -14.1680 1.7357
-0.7784 -13.9819 1.7357
-0.2742 -13.7814 1.7357
0.2148 -13.5675 1.7357
0.6886 -13.3412 1.7357
1.1470 -13.1033 1.7357
1.5900 -12.8549 1.7357
4.8503 6.6697 1.7357
4.6364 6.8852 1.7357
4.4149 7.0964 1.7357
4.1857 7.3031 1.7357
3.9488 7.5050 1.7357
3.7042 7.7021 1.7357
3.4519 7.8940 1.7357
3.1918 8.0805 1.7357
2.9238 8.2615 1.7357
2.6481 8.4365 1.7357
2.3644 8.6054 1.7357
2.0729 8.7678 1.7357
1.7734 8.9235 1.7357
1.4662 9.0721 1.7357
1.1510 9.2134 1.7357
0.8280 9.3469 1.7357
0.4972 9.4724 1.7357
0.1586 9.5894 1.7357
-0.1877 9.6976 1.7357
-0.5416 9.7966 1.7357
-0.9030 9.8859 1.7357
-1.2718 9.9652 1.7357
-1.6478 10.0339 1.7357
-2.0309 10.0917 1.7357
-2.4209 10.1380 1.7357
-2.8175 10.1725 1.7357
-3.2205 10.1945 1.7357
-3.6295 10.2035 1.7357
-4.0444 10.1992 1.7357
-4.4646 10.1809 1.7357
-4.8897 10.1482 1.7357
-5.3194 10.1005 1.7357
-5.7531 10.0373 1.7357
-6.1902 9.9581 1.7357
-6.2364 9.2766 1.6326
-6.2883 8.6689 1.5433
-3.4418 4.4051 0.7948
-3.6293 4.3182 0.7914
-3.6060 3.9924 0.7447
-3.6656 3.7783 0.7191
-3.9090 3.7518 0.7305
-9.1488 8.1747 1.6326
-9.5569 7.9455 1.6326
-10.0666 7.7798 1.6501
-10.4581 7.5029 1.6485
-10.8519 7.2142 1.6485
-11.2372 6.9062 1.6485
-11.6127 6.5791 1.6485
-11.9606 6.2244 1.6462
-12.2717 5.8409 1.6408
-12.5672 5.4416 1.6355
-12.7424 4.9867 1.6170
-12.3184 4.3219 1.5272
-11.9360 3.7162 1.4483
-11.6631 3.1807 1.3876
-11.2822 2.6494 1.3187
-12.8450 2.5378 1.4775
-9.2079 1.4810 1.0443
-13.6647 1.7016 1.5308
-13.7603 1.2182 1.5255
-13.8320 0.7299 1.5204
-13.8793 0.2379 1.5154
-13.9018 -0.2564 1.5105
-13.8986 -0.7516 1.5058
-13.8570 -1.2449 1.4997
-13.7902 -1.7353 1.4939
-13.7300 -2.2264 1.4917
-13.6607 -2.7170 1.4914
-13.7126 -3.2383 1.5073
-13.8812 -3.8042 1.5394
-14.0305 -4.3873 1.5731
-14.1590 -4.9869 1.6082
-14.2206 -5.5847 1.6398
-14.0521 -6.1040 1.6485
-13.7822 -6.5791 1.6485
-13.4877 -7.0381 1.6485
-13.1698 -7.4800 1.6485
-12.7060 -7.8271 1.6326
-12.3488 -8.2270 1.6326
-11.9726 -8.6067 1.6326
-11.5788 -8.9653 1.6326
-11.1692 -9.3021 1.6326
-2.4903 -2.2288 0.3784
-9.7157 -9.3389 1.5387
-8.7578 -9.0393 1.4500
-6.3595 -7.0495 1.1042
-5.9744 -7.1163 1.0914
-5.7825 -7.4080 1.1152
-5.7451 -7.9263 1.1742
-7.9816 -11.8802 1.7357
-7.4682 -12.0194 1.7357
-6.9539 -12.1353 1.7357
-6.4399 -12.2282 1.7357
-5.9275 -12.2988 1.7357
-5.4178 -12.3476 1.7357
-4.9120 -12.3753 1.7357
-4.4110 -12.3827 1.7357
-3.9158 -12.3705 1.7357
-3.4271 -12.3394 1.7357
-2.9459 -12.2902 1.7357
-2.4726 -12.2237 1.7357
-2.0081 -12.1407 1.7357
-1.5527 -12.0420 1.7357
-1.1071 -11.9284 1.7357
-0.6716 -11.8007 1.7357
-0.2466 -11.6596 1.7357
0.1676 -11.5058 1.7357
0.5710 -11.3432 1.7361
0.9631 -11.1674 1.7363
1.3437 -10.9800 1.7363
4.3559 6.0004 1.7357
4.1607 6.1904 1.7357
3.9588 6.3762 1.7357
3.7501 6.5574 1.7357
3.5347 6.7339 1.7357
3.3126 6.9055 1.7357
3.0837 7.0719 1.7357
2.8481 7.2330 1.7357
2.6058 7.3885 1.7357
2.3568 7.5382 1.7357
0.8339 3.0488 0.6889
0.7239 3.0780 0.6833
0.6129 3.1034 0.6776
0.5011 3.1248 0.6718
0.3886 3.1422 0.6659
0.2756 3.1555 0.6599
0.1621 3.1649 0.6538
0.0484 3.1702 0.6477
-0.0655 3.1714 0.6416
-0.1793 3.1686 0.6353
-0.2929 3.1618 0.6291
-0.4063 3.1509 0.6228
-0.5192 3.1360 0.6164
-0.6315 3.1170 0.6101
-0.7431 3.0941 0.6037
-0.8539 3.0672 0.5973
-2.8301 8.9178 1.7357
-3.1832 8.9116 1.7357
-3.5400 8.8935 1.7357
-3.9003 8.8629 1.7357
-4.2636 8.8195 1.7357
-4.6294 8.7631 1.7357
-4.9973 8.6931 1.7357
-5.3667 8.6092 1.7357
-5.3964 8.0056 1.6326
-5.1410 7.0690 1.4609
-3.2307 4.1246 0.8655
-3.3482 3.9742 0.8486
-3.4772 3.8407 0.8363
-3.6097 3.7122 0.8263
-3.8458 3.6829 0.8402
-7.8098 6.9630 1.6326
-8.1425 6.7549 1.6326
-8.4697 6.5316 1.6326
-8.8940 6.3672 1.6518
-9.1943 6.0992 1.6488
-9.5013 5.8270 1.6485
-9.8006 5.5406 1.6485
-10.0897 5.2395 1.6485
-10.3676 4.9239 1.6485
-10.6334 4.5941 1.6485
-10.8687 4.2438 1.6459
-11.0872 3.8808 1.6430
-11.2901 3.5065 1.6401
-11.4768 3.1218 1.6373
-11.2767 2.6407 1.5826
-11.7658 2.3176 1.6274
-9.1099 1.4602 1.2440
-11.8426 1.4688 1.5994
-11.8568 1.0444 1.5864
-11.8549 0.6208 1.5743
-11.8297 0.1985 1.5619
-11.7880 -0.2211 1.5502
-11.7308 -0.6375 1.5393
-11.6581 -1.0500 1.5291
-11.5705 -1.4581 1.5198
-11.5948 -1.8817 1.5280
-11.6944 -2.3270 1.5490
-11.7787 -2.7821 1.5711
-11.8468 -3.2465 1.5943
-11.8978 -3.7196 1.6186
-11.9308 -4.2008 1.6440
-11.7885 -4.6276 1.6485
-11.5926 -5.0330 1.6485
-11.3765 -5.4273 1.6485
-11.1411 -5.8096 1.6485
-10.8937 -6.1825 1.6495
-10.5134 -6.4709 1.6326
-10.2281 -6.8080 1.6326
-9.9276 -7.1296 1.6326
-9.6127 -7.4351 1.6326
-9.2846 -7.7240 1.6326
-2.4918 -2.2275 0.4548
-8.5935 -8.2498 1.6326
-7.9971 -8.2431 1.5859
-7.3396 -8.1243 1.5238
-6.3771 -7.5844 1.3906
-5.9046 -7.5521 1.3570
-7.1395 -9.8330 1.7357
-6.7223 -9.9873 1.7357
-6.3020 -10.1222 1.7357
-5.8794 -10.2382 1.7357
-5.4558 -10.3355 1.7357
-5.0320 -10.4144 1.7357
-4.6090 -10.4752 1.7357
-4.1878 -10.5184 1.7357
-3.7690 -10.5445 1.7357
-3.3536 -10.5539 1.7357
-2.9422 -10.5472 1.7357
-2.5356 -10.5249 1.7357
-2.1343 -10.4875 1.7357
-1.7389 -10.4356 1.7357
-1.3499 -10.3698 1.7357
-0.9679 -10.2907 1.7357
-0.5932 -10.1990 1.7357
-0.2263 -10.0974 1.7361
0.1327 -9.9841 1.7366
0.4836 -9.8588 1.7368
0.8258 -9.7221 1.7369
1.1594 -9.5771 1.7373
3.9482 5.4485 1.7357
3.7689 5.6183 1.7357
3.5836 5.7837 1.7357
3.3922 5.9448 1.7357
3.1949 6.1012 1.7357
2.9916 6.2527 1.7357
2.7824 6.3993 1.7357
2.5673 6.5406 1.7357
2.3464 6.6765 1.7357
0.8355 2.6831 0.6842
0.7386 2.7126 0.6793
0.6407 2.7387 0.6743
0.5419 2.7612 0.6692
0.4424 2.7802 0.6641
0.3423 2.7957 0.6588
0.2416 2.8076 0.6535
0.1407 2.8159 0.6481
0.0394 2.8206 0.6427
-0.0619 2.8217 0.6372
-0.1632 2.8191 0.6316
-0.2644 2.8130 0.6261
-0.3652 2.8033 0.6205
-0.4657 2.7900 0.6148
-0.5657 2.7731 0.6092
-0.6650 2.7526 0.6035
-0.7635 2.7286 0.5978
-0.8611 2.7011 0.5922
-2.8343 7.9019 1.7357
-3.1470 7.8758 1.7357
-3.4618 7.8387 1.7357
-3.7785 7.7901 1.7357
-4.0964 7.7300 1.7357
-4.4153 7.6579 1.7357
-4.7346 7.5737 1.7357
-4.7536 7.0331 1.6326
-3.3078 4.5365 1.0687
-3.2008 4.0762 0.9764
-3.3194 3.9304 0.9593
-3.4410 3.7917 0.9452
-2.6835 2.7533 0.7026
-2.9674 2.8353 0.7426
-3.0366 2.7014 0.7282
-3.0461 2.5215 0.7016
-3.0144 2.3196 0.6685
-3.1843 2.2747 0.6813
-7.8912 5.2236 1.6326
-8.2344 5.0392 1.6506
-8.4713 4.7789 1.6485
-8.7095 4.5130 1.6485
-8.9377 4.2354 1.6485
-9.1551 3.9465 1.6485
-9.3610 3.6467 1.6485
-9.5546 3.3364 1.6485
-9.7332 3.0155 1.6482
-9.8858 2.6820 1.6458
-10.0240 2.3409 1.6435
-10.1473 1.9927 1.6412
-9.1568 1.4627 1.4635
-10.3521 1.2788 1.6378
-10.4339 0.9143 1.6368
-10.4995 0.5456 1.6359
-10.4895 0.1723 1.6260
-10.4628 -0.1995 1.6164
-10.4229 -0.5692 1.6075
-10.3827 -0.9374 1.6014
-10.4051 -1.3131 1.6077
-10.4161 -1.6918 1.6151
-10.4154 -2.0734 1.6236
-10.4027 -2.4575 1.6331
-10.3778 -2.8439 1.6438
-10.2957 -3.2181 1.6484
-10.1671 -3.5786 1.6485
-10.0207 -3.9319 1.6485
-9.8574 -4.2774 1.6485
-9.6776 -4.6140 1.6485
-9.4821 -4.9410 1.6485
-9.2844 -5.2650 1.6508
-8.9588 -5.5095 1.6326
-8.7221 -5.8003 1.6326
-8.4726 -6.0787 1.6326
-8.2110 -6.3443 1.6326
-7.9383 -6.5965 1.6326
-2.4934 -2.2262 0.5317
-7.3627 -7.0592 1.6326
-7.0615 -7.2689 1.6326
-6.7222 -7.4302 1.6252
-5.9574 -7.0744 1.5109
-5.7407 -7.3305 1.5325
-5.7892 -7.9594 1.6326
-5.8032 -8.6056 1.7357
-5.4481 -8.7332 1.7357
-5.0903 -8.8449 1.7357
-4.7307 -8.9409 1.7357
-4.3701 -9.0214 1.7357
-4.0092 -9.0866 1.7357
-3.6489 -9.1368 1.7357
-3.2898 -9.1723 1.7357
-2.9325 -9.1934 1.7357
-2.5778 -9.2005 1.7357
-2.2262 -9.1940 1.7357
-1.8783 -9.1742 1.7357
-1.5346 -9.1417 1.7357
-1.1956 -9.0974 1.7358
-0.8618 -9.0424 1.7362
-0.5334 -8.9759 1.7365
-0.2107 -8.8983 1.7369
0.1058 -8.8097 1.7372
0.4160 -8.7116 1.7376
0.7195 -8.6035 1.7380
1.0160 -8.4859 1.7383
3.6061 4.9854 1.7357
3.4404 5.1384 1.7357
3.2692 5.2874 1.7357
3.0927 5.4320 1.7357
2.9108 5.5722 1.7357
2.7236 5.7077 1.7357
2.5311 5.8383 1.7357
2.3334 5.9638 1.7357
0.8350 2.3845 0.6802
0.7488 2.4142 0.6759
0.6615 2.4407 0.6715
0.5734 2.4642 0.6671
0.4845 2.4845 0.6625
0.3949 2.5016 0.6578
0.3048 2.5155 0.6531
0.2142 2.5262 0.6483
0.1233 2.5336 0.6435
0.0322 2.5378 0.6386
-0.0590 2.5388 0.6337
-0.1502 2.5365 0.6287
-0.2412 2.5310 0.6236
-0.3320 2.5222 0.6186
-0.4225 2.5101 0.6135
-0.5124 2.4949 0.6084
-0.6018 2.4765 0.6033
-0.6905 2.4548 0.5982
-0.7783 2.4300 0.5931
-0.8652 2.4021 0.5880
-2.8318 7.0597 1.7357
-3.1110 7.0192 1.7357
-3.3912 6.9684 1.7357
-3.6720 6.9073 1.7357
-3.9529 6.8356 1.7357
-4.2335 6.7531 1.7357
-4.2454 6.2641 1.6326
-3.2134 4.3956 1.1639
-3.1672 4.0233 1.0844
-3.2908 3.8871 1.0688
-2.4361 2.6780 0.7528
-2.5619 2.6225 0.7556
-2.6977 2.5717 0.7613
-2.9288 2.5996 0.7929
-2.9035 2.3981 0.7559
-2.9331 2.2521 0.7360
-3.0794 2.1950 0.7464
-6.9581 4.5960 1.6326
-7.1738 4.3806 1.6326
-7.4700 4.2049 1.6521
-7.6617 3.9613 1.6499
-7.8479 3.7108 1.6485
-8.0310 3.4541 1.6485
-8.2038 3.1885 1.6485
-8.3658 2.9143 1.6485
-8.5165 2.6319 1.6485
-8.6552 2.3420 1.6485
-8.7815 2.0449 1.6485
-8.8944 1.7413 1.6484
-8.9892 1.4310 1.6475
-9.0703 1.1159 1.6466
-9.1373 0.7965 1.6457
-9.1899 0.4738 1.6448
-9.2278 0.1482 1.6440
-9.2512 -0.1793 1.6433
-9.2650 -0.5085 1.6437
-9.2638 -0.8385 1.6440
-9.2476 -1.1687 1.6445
-9.2163 -1.4982 1.6451
-9.1728 -1.8268 1.6462
-9.1138 -2.1534 1.6474
-9.0389 -2.4768 1.6485
-8.9428 -2.7947 1.6485
-8.8318 -3.1076 1.6485
-8.7063 -3.4146 1.6485
-8.5665 -3.7152 1.6485
-8.4129 -4.0085 1.6485
-8.2460 -4.2939 1.6485
-8.0824 -4.5799 1.6518
-7.7982 -4.7916 1.6326
-7.5964 -5.0470 1.6326
-7.3836 -5.2921 1.6326
-7.1604 -5.5266 1.6326
-6.9275 -5.7501 1.6326
-2.4949 -2.2249 0.6092
-6.4354 -6.1622 1.6326
-6.1775 -6.3503 1.6326
-5.9128 -6.5261 1.6326
-5.6419 -6.6894 1.6326
-5.3654 -6.8400 1.6326
-5.0843 -6.9780 1.6326
-4.7991 -7.1032 1.6326
-4.5105 -7.2156 1.6326
-4.4856 -7.7772 1.7357
-4.1737 -7.8697 1.7357
-3.8604 -7.9488 1.7357
-3.5463 -8.0148 1.7357
-3.2319 -8.0677 1.7357
-2.9180 -8.1078 1.7357
-2.6051 -8.1354 1.7357
-2.2937 -8.1506 1.7357
-1.9845 -8.1538 1.7357
-1.6780 -8.1464 1.7359
-1.3745 -8.1279 1.7362
-1.0745 -8.0982 1.7366
-0.7780 -8.0569 1.7367
-0.4859 -8.0050 1.7367
-0.1983 -7.9441 1.7370
0.0844 -7.8738 1.7374
0.3620 -7.7942 1.7378
0.6341 -7.7056 1.7382
0.9006 -7.6073 1.7383
3.3148 4.5911 1.7359
3.1606 4.7298 1.7357
3.0018 4.8650 1.7357
2.8381 4.9962 1.7357
2.6696 5.1229 1.7357
2.4962 5.2452 1.7357
2.3181 5.3628 1.7357
0.8327 2.1353 0.6769
0.7554 2.1650 0.6731
0.6771 2.1920 0.6691
0.5978 2.2161 0.6652
0.5178 2.2374 0.6611
0.4370 2.2558 0.6569
0.3557 2.2714 0.6527
0.2738 2.2840 0.6484
0.1915 2.2937 0.6441
0.1090 2.3004 0.6397
0.0262 2.3042 0.6352
-0.0566 2.3051 0.6307
-0.1394 2.3030 0.6262
-0.2221 2.2979 0.6216
-0.3046 2.2899 0.6171
-0.3867 2.2790 0.6124
-0.4684 2.2651 0.6078
-0.5496 2.2483 0.6032
-0.6301 2.2287 0.5986
-0.7099 2.2061 0.5939
-0.7888 2.1808 0.5893
-0.8668 2.1526 0.5847
-2.8236 6.3479 1.7357
-3.0746 6.2966 1.7357
-3.3256 6.2360 1.7357
-3.5763 6.1658 1.7357
-3.8263 6.0861 1.7357
-3.8332 5.6404 1.6326
-3.7992 5.1832 1.5255
-3.1342 3.9712 1.1909
-2.2891 2.6973 0.8259
-2.3366 2.5625 0.8029
-2.3766 2.4271 0.7801
-2.4754 2.3544 0.7782
-2.5478 2.2564 0.7692
-2.6126 2.1530 0.7592
-2.8394 2.1753 0.7960
-2.9371 2.0890 0.7961
-3.1055 2.0468 0.8155
-6.4046 3.9024 1.6326
-6.5848 3.6984 1.6326
-6.7573 3.4860 1.6326
-7.0066 3.3055 1.6526
-7.1579 3.0716 1.6511
-7.3022 2.8314 1.6501
-7.4391 2.5852 1.6497
-7.5661 2.3323 1.6493
-7.6828 2.0733 1.6490
-7.7889 1.8086 1.6488
-7.8839 1.5386 1.6486
-7.9677 1.2639 1.6485
-8.0399 0.9850 1.6485
-8.0997 0.7024 1.6485
-8.1470 0.4166 1.6485
-8.1814 0.1284 1.6485
-8.2029 -0.1616 1.6485
-8.2111 -0.4529 1.6485
-8.2061 -0.7446 1.6485
-8.1877 -1.0362 1.6485
-8.1559 -1.3269 1.6485
-8.1109 -1.6161 1.6485
-8.0525 -1.9029 1.6485
-7.9811 -2.1869 1.6485
-7.8966 -2.4673 1.6485
-7.7994 -2.7434 1.6485
-7.6896 -3.0146 1.6485
-7.5677 -3.2802 1.6485
-7.4339 -3.5398 1.6485
-7.2928 -3.7948 1.6495
-7.1603 -4.0542 1.6550
-6.8978 -4.2347 1.6326
-6.7222 -4.4620 1.6326
-6.5371 -4.6807 1.6326
-6.3428 -4.8904 1.6326
-6.1400 -5.0906 1.6326
-2.4965 -2.2236 0.6874
-5.7110 -5.4615 1.6326
-5.4860 -5.6317 1.6326
-5.2547 -5.7913 1.6326
-5.0178 -5.9402 1.6326
-4.7758 -6.0782 1.6326
-4.5293 -6.2053 1.6326
-4.2790 -6.3214 1.6326
-4.0254 -6.4264 1.6326
-3.7690 -6.5204 1.6326
-3.5104 -6.6033 1.6326
-3.4555 -7.0968 1.7357
-3.1778 -7.1617 1.7357
-2.8994 -7.2151 1.7357
-2.6210 -7.2573 1.7357
-2.3431 -7.2888 1.7358
-2.0663 -7.3100 1.7361
-1.7907 -7.3199 1.7362
-1.5168 -7.3190 1.7363
-1.2451 -7.3078 1.7363
-0.9760 -7.2865 1.7364
-0.7100 -7.2560 1.7366
-0.4473 -7.2167 1.7369
-0.1882 -7.1683 1.7372
0.0669 -7.1109 1.7376
0.3178 -7.0441 1.7377
0.5642 -6.9688 1.7378
0.8058 -6.8855 1.7379
3.0634 4.2506 1.7361
2.9196 4.3778 1.7359
2.7713 4.5010 1.7357
2.6188 4.6207 1.7357
2.4619 4.7363 1.7357
2.3007 4.8475 1.7357
0.8290 1.9235 0.6739
0.7592 1.9532 0.6705
0.6885 1.9804 0.6670
0.6168 2.0051 0.6634
0.5443 2.0272 0.6598
0.4710 2.0467 0.6560
0.3971 2.0635 0.6522
0.3227 2.0777 0.6484
0.2477 2.0893 0.6445
0.1725 2.0982 0.6405
0.0969 2.1043 0.6365
0.0212 2.1078 0.6324
-0.0546 2.1086 0.6283
-0.1304 2.1066 0.6241
-0.2061 2.1020 0.6200
-0.2815 2.0947 0.6158
-0.3567 2.0846 0.6115
-0.4314 2.0719 0.6073
-0.5057 2.0565 0.6031
-0.5794 2.0385 0.5988
-0.6524 2.0179 0.5946
-0.7246 1.9946 0.5904
-0.7959 1.9688 0.5862
-0.8663 1.9405 0.5820
-2.8107 5.7367 1.7357
-3.0374 5.6773 1.7357
-3.2634 5.6094 1.7357
-3.4426 5.4599 1.7128
-3.4917 5.1238 1.6326
-3.7005 5.0352 1.6326
-3.6936 4.6680 1.5433
-2.2562 2.6519 0.8958
-2.3040 2.5206 0.8720
-2.3444 2.3885 0.8482
-2.3393 2.2198 0.8113
-2.4333 2.1500 0.8110
-2.5283 2.0789 0.8117
-2.6391 2.0174 0.8180
-2.7940 1.9829 0.8380
-3.0296 1.9924 0.8809
-5.7796 3.5138 1.6326
-5.9380 3.3278 1.6326
-6.0895 3.1345 1.6326
-6.2337 2.9342 1.6326
-6.3700 2.7272 1.6326
-6.5894 2.5490 1.6555
-6.7059 2.3247 1.6543
-6.8152 2.0955 1.6536
-6.9169 1.8616 1.6533
-7.0090 1.6228 1.6531
-7.0913 1.3796 1.6530
-7.1629 1.1322 1.6528
-7.2217 0.8811 1.6521
-7.2698 0.6270 1.6514
-7.3068 0.3706 1.6507
-7.3326 0.1124 1.6501
-7.3472 -0.1472 1.6495
-7.3504 -0.4074 1.6490
-7.3423 -0.6680 1.6485
-7.3247 -0.9284 1.6485
-7.2955 -1.1879 1.6485
-7.2545 -1.4461 1.6485
-7.2021 -1.7023 1.6485
-7.1382 -1.9559 1.6485
-7.0629 -2.2063 1.6485
-6.9765 -2.4531 1.6485
-6.8792 -2.6957 1.6485
-6.7712 -2.9334 1.6485
-6.6528 -3.1659 1.6485
-6.5337 -3.3974 1.6509
-6.4145 -3.6290 1.6558
-6.1783 -3.7897 1.6326
-6.0232 -3.9943 1.6326
-5.8596 -4.1914 1.6326
-5.6879 -4.3807 1.6326
-5.5086 -4.5619 1.6326
-2.4980 -2.2222 0.7663
-5.1291 -4.8986 1.6326
-4.9298 -5.0536 1.6326
-4.7248 -5.1995 1.6326
-4.5146 -5.3361 1.6326
-4.2998 -5.4632 1.6326
-4.0807 -5.5807 1.6326
-3.8580 -5.6886 1.6326
-3.6321 -5.7867 1.6326
-3.4035 -5.8751 1.6326
-3.1727 -5.9537 1.6326
-2.9401 -6.0226 1.6326
-2.8773 -6.4660 1.7357
-2.6279 -6.5191 1.7358
-2.3782 -6.5621 1.7359
-2.1284 -6.5951 1.7359
-1.8791 -6.6182 1.7360
-1.6307 -6.6317 1.7361
-1.3836 -6.6357 1.7361
-1.1381 -6.6304 1.7362
-0.8948 -6.6169 1.7365
-0.6537 -6.5946 1.7368
-0.4153 -6.5633 1.7371
-0.1799 -6.5232 1.7372
0.0524 -6.4748 1.7373
0.2810 -6.4184 1.7374
0.5058 -6.3543 1.7374
0.7266 -6.2828 1.7375
2.8438 3.9535 1.7363
2.7093 4.0707 1.7361
2.5706 4.1841 1.7359
2.4277 4.2937 1.7357
2.2812 4.3997 1.7357
0.8240 1.7409 0.6712
0.7607 1.7705 0.6682
0.6965 1.7979 0.6651
0.6313 1.8229 0.6618
0.5653 1.8456 0.6585
0.4986 1.8660 0.6552
0.4311 1.8839 0.6518
0.3630 1.8994 0.6483
0.2945 1.9125 0.6447
0.2255 1.9231 0.6411
0.1562 1.9313 0.6374
0.0866 1.9370 0.6337
0.0169 1.9402 0.6300
-0.0529 1.9409 0.6262
-0.1227 1.9391 0.6224
-0.1924 1.9348 0.6185
-0.2618 1.9280 0.6147
-0.3310 1.9188 0.6108
-0.3999 1.9070 0.6069
-0.4682 1.8929 0.6030
-0.5361 1.8763 0.5991
-0.6033 1.8572 0.5952
-0.6697 1.8358 0.5913
-0.7354 1.8121 0.5874
-0.8002 1.7859 0.5835
-0.8641 1.7575 0.5797
-0.9269 1.7268 0.5759
-2.9991 5.1392 1.7357
-3.0260 4.7852 1.6395
-3.2040 4.6885 1.6326
-3.3931 4.6045 1.6326
-3.2037 4.0384 1.4609
-2.2240 2.6074 0.9644
-2.2720 2.4795 0.9398
-2.3155 2.3534 0.9163
-2.3142 2.1908 0.8784
-2.4069 2.1218 0.8785
-2.5004 2.0513 0.8797
-2.6116 1.9919 0.8877
-2.7341 1.9360 0.8997
-2.9746 1.9518 0.9496
-5.2611 3.1915 1.6326
-5.4022 3.0207 1.6326
-5.5369 2.8436 1.6326
-5.6649 2.6604 1.6326
-5.7858 2.4713 1.6326
-5.8993 2.2766 1.6326
-6.0050 2.0766 1.6326
-6.2040 1.9027 1.6597
-6.2889 1.6880 1.6582
-6.3642 1.4692 1.6565
-6.4339 1.2477 1.6557
-6.4946 1.0229 1.6549
-6.5459 0.7952 1.6543
-6.5878 0.5652 1.6537
-6.6202 0.3330 1.6533
-6.6428 0.0993 1.6529
-6.6556 -0.1355 1.6525
-6.6585 -0.3710 1.6523
-6.6514 -0.6067 1.6522
-6.6343 -0.8421 1.6521
-6.6049 -1.0764 1.6515
-6.5647 -1.3092 1.6508
-6.5145 -1.5400 1.6502
-6.4545 -1.7685 1.6496
-6.3849 -1.9941 1.6492
-6.3057 -2.2165 1.6487
-6.2174 -2.4352 1.6485
-6.1206 -2.6501 1.6485
-6.0146 -2.8603 1.6485
-5.9122 -3.0720 1.6520
-5.8041 -3.2810 1.6565
-5.5896 -3.4256 1.6326
-5.4509 -3.6113 1.6326
-5.3045 -3.7905 1.6326
-5.1510 -3.9629 1.6326
-4.9906 -4.1281 1.6326
-2.4996 -2.2209 0.8460
-4.6508 -4.4359 1.6326
-4.4722 -4.5782 1.6326
-4.2884 -4.7123 1.6326
-4.0999 -4.8382 1.6326
-3.9070 -4.9558 1.6326
-3.7102 -5.0648 1.6326
-3.5099 -5.1652 1.6326
-3.3065 -5.2571 1.6326
-3.1006 -5.3402 1.6326
-2.8924 -5.4146 1.6326
-2.6825 -5.4803 1.6326
-2.4712 -5.5374 1.6326
-2.2589 -5.5858 1.6326
-2.1753 -5.9812 1.7358
-1.9489 -6.0148 1.7358
-1.7226 -6.0396 1.7359
-1.4968 -6.0555 1.7359
-1.2720 -6.0634 1.7362
-1.0485 -6.0630 1.7364
-0.8265 -6.0538 1.7366
-0.6063 -6.0364 1.7367
-0.3883 -6.0111 1.7368
-0.1727 -5.9779 1.7369
0.0401 -5.9371 1.7370
0.2499 -5.8889 1.7371
0.4564 -5.8337 1.7372
0.6595 -5.7716 1.7373
2.6504 3.6915 1.7364
2.5240 3.8001 1.7362
2.3939 3.9051 1.7360
0.8742 1.5498 0.6715
0.8178 1.5813 0.6688
0.7603 1.6108 0.6661
0.7017 1.6383 0.6633
0.6423 1.6636 0.6604
0.5820 1.6868 0.6574
0.5209 1.7078 0.6543
0.4590 1.7266 0.6512
0.3966 1.7432 0.6480
0.3336 1.7576 0.6448
0.2701 1.7697 0.6415
0.2063 1.7795 0.6382
0.1421 1.7871 0.6348
0.0777 1.7923 0.6313
0.0132 1.7953 0.6279
-0.0514 1.7959 0.6244
-0.1160 1.7943 0.6208
-0.1805 1.7903 0.6173
-0.2448 1.7840 0.6137
-0.3089 1.7754 0.6101
-0.3726 1.7646 0.6065
-0.4359 1.7514 0.6029
-0.4986 1.7361 0.5993
-0.5608 1.7184 0.5957
-0.6224 1.6986 0.5921
-0.6832 1.6766 0.5885
-0.7431 1.6524 0.5849
-0.8022 1.6261 0.5813
-0.8603 1.5976 0.5778
-0.9174 1.5672 0.5743
-2.7837 4.3891 1.6326
-2.9581 4.3163 1.6326
-3.1307 4.2367 1.6326
-2.1344 2.6834 1.0556
-2.1923 2.5637 1.0317
-2.2405 2.4392 1.0064
-2.2870 2.3189 0.9833
-2.2894 2.1622 0.9447
-2.3808 2.0939 0.9453
-2.4749 2.0257 0.9477
-2.5843 1.9666 0.9566
-2.7257 1.9256 0.9773
-2.9278 1.9168 1.0189
-4.8237 2.9195 1.6326
-4.9507 2.7619 1.6326
-5.0717 2.5987 1.6326
-5.1865 2.4301 1.6326
-5.2948 2.2562 1.6326
-5.3963 2.0774 1.6326
-5.4908 1.8940 1.6326
-5.5779 1.7062 1.6326
-5.6574 1.5143 1.6326
-5.8366 1.3434 1.6632
-5.8946 1.1394 1.6613
-5.9446 0.9329 1.6596
-5.9901 0.7246 1.6590
-6.0271 0.5142 1.6585
-6.0555 0.3021 1.6581
-6.0750 0.0886 1.6577
-6.0857 -0.1259 1.6574
-6.0875 -0.3409 1.6572
-6.0803 -0.5560 1.6571
-6.0615 -0.7705 1.6563
-6.0336 -0.9841 1.6556
-5.9968 -1.1965 1.6550
-5.9510 -1.4071 1.6544
-5.8964 -1.6155 1.6539
-5.8331 -1.8214 1.6534
-5.7612 -2.0244 1.6531
-5.6809 -2.2241 1.6528
-5.5924 -2.4200 1.6525
-5.4969 -2.6124 1.6527
-5.4054 -2.8066 1.6566
-5.3059 -2.9970 1.6606
-5.0985 -3.1219 1.6326
-4.9732 -3.2917 1.6326
-4.8411 -3.4558 1.6326
-4.7024 -3.6138 1.6326
-4.5575 -3.7654 1.6326
-2.5012 -2.2195 0.9266
-2.4855 -2.3676 0.9547
-4.0889 -4.1798 1.6326
-3.9226 -4.3038 1.6326
-3.7519 -4.4204 1.6326
-3.5771 -4.5296 1.6326
-3.3986 -4.6311 1.6326
-3.2169 -4.7249 1.6326
-3.0323 -4.8110 1.6326
-2.8451 -4.8892 1.6326
-2.6558 -4.9596 1.6326
-2.4648 -5.0222 1.6326
-2.2722 -5.0769 1.6326
-2.0787 -5.1238 1.6326
-1.8844 -5.1630 1.6326
-1.7965 -5.5226 1.7357
-1.5897 -5.5484 1.7359
-1.3831 -5.5661 1.7360
-1.1771 -5.5760 1.7361
-0.9720 -5.5781 1.7363
-0.7681 -5.5725 1.7364
-0.5657 -5.5593 1.7365
-0.3651 -5.5388 1.7366
-0.1667 -5.5111 1.7367
0.0295 -5.4764 1.7368
0.2231 -5.4349 1.7369
0.4140 -5.3867 1.7370
0.6018 -5.3321 1.7370
2.4784 3.4587 1.7365
2.3595 3.5598 1.7364
0.8619 1.4092 0.6690
0.8105 1.4404 0.6666
0.7581 1.4698 0.6641
0.7046 1.4972 0.6616
0.6502 1.5227 0.6589
0.5949 1.5463 0.6563
0.5388 1.5678 0.6535
0.4820 1.5874 0.6506
0.4245 1.6049 0.6478
0.3665 1.6203 0.6448
0.3079 1.6337 0.6418
0.2489 1.6449 0.6387
0.1895 1.6541 0.6356
0.1298 1.6611 0.6325
0.0700 1.6660 0.6293
0.0099 1.6687 0.6260
-0.0501 1.6693 0.6228
-0.1102 1.6677 0.6195
-0.1702 1.6640 0.6162
-0.2300 1.6582 0.6129
-0.2895 1.6502 0.6095
-0.3487 1.6401 0.6062
-0.4076 1.6279 0.6028
-0.4660 1.6136 0.5995
-0.5238 1.5972 0.5961
-0.5810 1.5787 0.5927
-0.6375 1.5582 0.5894
-0.6933 1.5357 0.5861
-0.7482 1.5112 0.5828
-0.8022 1.4848 0.5795
-0.8553 1.4564 0.5762
-0.9073 1.4262 0.5730
-2.7452 3.9942 1.6326
-2.9037 3.9187 1.6326
-2.7383 3.4335 1.4609
-2.1612 2.5208 1.0977
-2.2113 2.4012 1.0726
-2.2589 2.2848 1.0494
-2.2649 2.1339 1.0104
-2.3549 2.0662 1.0113
-2.4496 2.0003 1.0151
-2.5574 1.9416 1.0248
-2.6959 1.9003 1.0470
-2.8819 1.8824 1.0868
-3.3216 2.0058 1.2188
-4.5646 2.5407 1.6326
-4.6742 2.3895 1.6326
-4.7781 2.2334 1.6326
-4.8760 2.0728 1.6326
-4.9677 1.9077 1.6326
-5.0528 1.7385 1.6326
-5.1313 1.5654 1.6326
-5.2027 1.3887 1.6326
-5.2671 1.2087 1.6326
-5.3240 1.0257 1.6326
-5.4837 0.8574 1.6661
-5.5212 0.6649 1.6646
-5.5510 0.4709 1.6632
-5.5741 0.2756 1.6622
-5.5913 0.0794 1.6618
-5.6003 -0.1177 1.6616
-5.6005 -0.3152 1.6612
-5.5912 -0.5126 1.6604
-5.5736 -0.7096 1.6597
-5.5478 -0.9057 1.6591
-5.5139 -1.1006 1.6585
-5.4719 -1.2940 1.6580
-5.4219 -1.4854 1.6575
-5.3640 -1.6746 1.6571
-5.2982 -1.8611 1.6568
-5.2248 -2.0446 1.6565
-5.1440 -2.2247 1.6562
-5.0602 -2.4033 1.6575
-4.9758 -2.5816 1.6611
-4.7897 -2.7032 1.6326
-4.6822 -2.8644 1.6326
-4.5682 -3.0207 1.6326
-4.4480 -3.1718 1.6326
-4.3217 -3.3175 1.6326
-2.5864 -2.1343 1.0078
-2.4324 -2.1557 0.9799
-2.4114 -2.2938 1.0069
-3.7628 -3.8409 1.6326
-3.6111 -3.9560 1.6326
-3.4554 -4.0645 1.6326
-3.2958 -4.1662 1.6326
-3.1329 -4.2610 1.6326
-2.9668 -4.3489 1.6326
-2.7979 -4.4297 1.6326
-2.6267 -4.5035 1.6326
-2.4533 -4.5701 1.6326
-2.2782 -4.6296 1.6326
-2.1017 -4.6820 1.6326
-1.9240 -4.7273 1.6326
-1.7456 -4.7654 1.6326
-1.5666 -4.7965 1.6326
-1.4751 -5.1252 1.7358
-1.2849 -5.1439 1.7359
-1.0950 -5.1552 1.7360
-0.9059 -5.1594 1.7361
-0.7176 -5.1565 1.7362
-0.5306 -5.1467 1.7363
-0.3451 -5.1300 1.7364
-0.1614 -5.1067 1.7365
0.0204 -5.0769 1.7366
0.1999 -5.0407 1.7367
0.3771 -4.9982 1.7368
0.5515 -4.9497 1.7368
2.3244 3.2502 1.7366
0.8493 1.2840 0.6667
0.8024 1.3148 0.6645
0.7544 1.3440 0.6623
0.7054 1.3714 0.6600
0.6555 1.3970 0.6576
0.6047 1.4208 0.6551
0.5531 1.4428 0.6526
0.5008 1.4629 0.6500
0.4477 1.4812 0.6474
0.3941 1.4975 0.6447
0.3399 1.5119 0.6419
0.2852 1.5244 0.6391
0.2301 1.5349 0.6363
0.1747 1.5434 0.6334
0.1190 1.5500 0.6304
0.0631 1.5545 0.6274
0.0071 1.5571 0.6244
-0.0490 1.5576 0.6214
-0.1051 1.5561 0.6183
-0.1610 1.5527 0.6152
-0.2168 1.5472 0.6121
-0.2724 1.5398 0.6090
-0.3277 1.5303 0.6059
-0.3826 1.5189 0.6027
-0.4371 1.5055 0.5996
-0.4911 1.4902 0.5965
-0.5445 1.4730 0.5933
-0.5972 1.4538 0.5902
-0.6493 1.4328 0.5871
-0.7005 1.4100 0.5840
-0.7510 1.3853 0.5810
-0.8005 1.3588 0.5779
-0.8490 1.3306 0.5749
-0.8965 1.3006 0.5720
-2.7053 3.6408 1.6326
-2.5499 3.1886 1.4609
-2.8280 3.2898 1.5433
-2.1838 2.3653 1.1386
-2.2312 2.2511 1.1147
-2.2320 2.0978 1.0713
-2.3302 2.0396 1.0771
-2.4246 1.9752 1.0819
-2.5306 1.9167 1.0925
-2.6643 1.8736 1.1151
-2.8281 1.8430 1.1499
-3.1456 1.8951 1.2449
-4.2303 2.3491 1.6326
-4.3304 2.2085 1.6326
-4.4251 2.0635 1.6326
-4.5143 1.9143 1.6326
-4.5976 1.7612 1.6326
-4.6750 1.6043 1.6326
-4.7462 1.4440 1.6326
-4.8110 1.2804 1.6326
-4.8691 1.1140 1.6326
-4.9206 0.9448 1.6326
-4.9652 0.7734 1.6326
-5.0027 0.5998 1.6326
-5.1712 0.4362 1.6774
-5.2010 0.2549 1.6794
-5.2272 0.0722 1.6826
-5.2167 -0.1114 1.6765
-5.1787 -0.2930 1.6640
-5.1697 -0.4752 1.6633
-5.1533 -0.6570 1.6627
-5.1293 -0.8381 1.6621
-5.0979 -1.0181 1.6615
-5.0592 -1.1966 1.6610
-5.0131 -1.3734 1.6606
-4.9597 -1.5481 1.6602
-4.8993 -1.7203 1.6599
-4.8318 -1.8899 1.6597
-4.7575 -2.0564 1.6594
-4.6832 -2.2228 1.6617
-4.5154 -2.3410 1.6326
-4.4231 -2.4942 1.6326
-4.3246 -2.6432 1.6326
-4.2201 -2.7878 1.6326
-4.1099 -2.9277 1.6326
-3.9942 -3.0626 1.6326
-2.5854 -2.1309 1.0898
-2.4318 -2.1524 1.0594
-2.4070 -2.2865 1.0865
-3.4817 -3.5488 1.6326
-3.3425 -3.6561 1.6326
-3.1995 -3.7573 1.6326
-3.0530 -3.8524 1.6326
-2.9032 -3.9412 1.6326
-2.7505 -4.0238 1.6326
-2.5952 -4.0999 1.6326
-2.4375 -4.1695 1.6326
-2.2778 -4.2326 1.6326
-2.1164 -4.2892 1.6326
-1.9536 -4.3393 1.6326
-1.7897 -4.3828 1.6326
-1.6249 -4.4198 1.6326
-1.4595 -4.4503 1.6326
-1.3755 -4.7569 1.7357
-1.1994 -4.7759 1.7358
-1.0235 -4.7883 1.7359
-0.8482 -4.7941 1.7360
-0.6736 -4.7933 1.7361
-0.5000 -4.7860 1.7362
-0.3276 -4.7724 1.7363
-0.1568 -4.7526 1.7364
0.0124 -4.7267 1.7364
0.1796 -4.6948 1.7365
0.3447 -4.6571 1.7366
0.5074 -4.6138 1.7367
0.8362 1.1716 0.6645
0.7933 1.2020 0.6625
0.7494 1.2309 0.6605
0.7045 1.2582 0.6584
0.6586 1.2838 0.6563
0.6119 1.3078 0.6541
0.5643 1.3301 0.6518
0.5160 1.3507 0.6494
0.4669 1.3696 0.6470
0.4172 1.3867 0.6445
0.3670 1.4020 0.6420
0.3162 1.4155 0.6394
0.2650 1.4272 0.6368
0.2134 1.4370 0.6341
0.1615 1.4450 0.6314
0.1094 1.4511 0.6286
0.0570 1.4554 0.6258
0.0045 1.4577 0.6230
-0.0480 1.4583 0.6202
-0.1005 1.4569 0.6173
-0.1529 1.4536 0.6144
-0.2052 1.4485 0.6115
-0.2572 1.4415 0.6086
-0.3090 1.4327 0.6056
-0.3605 1.4220 0.6027
-0.4115 1.4094 0.5998
-0.4620 1.3951 0.5968
-0.5120 1.3789 0.5939
-0.5614 1.3610 0.5910
-0.6102 1.3413 0.5881
-0.6582 1.3199 0.5852
-0.7054 1.2968 0.5823
-0.7517 1.2720 0.5795
-0.7972 1.2455 0.5766
-0.8417 1.2174 0.5739
-0.8851 1.1878 0.5711
-0.9275 1.1566 0.5684
-2.5015 2.9023 1.4609
-2.4247 2.6195 1.3535
-2.2038 2.2178 1.1792
-2.2165 2.0780 1.1399
-2.2001 1.9211 1.0901
-2.3997 1.9502 1.1483
-2.5040 1.8921 1.1597
-2.6330 1.8472 1.1826
-2.7662 1.7984 1.2075
-3.0316 1.8221 1.2885
-3.9379 2.1816 1.6326
-4.0298 2.0502 1.6326
-4.1166 1.9150 1.6326
-4.1983 1.7759 1.6326
-4.2746 1.6333 1.6326
-4.3454 1.4873 1.6326
-4.4104 1.3381 1.6326
-4.4695 1.1861 1.6326
-4.5225 1.0315 1.6326
-4.5693 0.8744 1.6326
-4.6098 0.7153 1.6326
-4.6438 0.5543 1.6326
-4.6712 0.3917 1.6326
-4.6919 0.2279 1.6326
-4.7058 0.0632 1.6326
-4.9816 -0.1081 1.7257
-4.9406 -0.2809 1.7113
-4.8956 -0.4512 1.6981
-4.8469 -0.6189 1.6861
-4.7944 -0.7841 1.6751
-4.7384 -0.9467 1.6652
-4.6995 -1.1117 1.6637
-4.6568 -1.2757 1.6633
-4.6075 -1.4378 1.6630
-4.5516 -1.5977 1.6627
-4.4892 -1.7550 1.6624
-4.3418 -1.8756 1.6326
-4.2687 -2.0246 1.6326
-4.1895 -2.1703 1.6326
-4.1044 -2.3125 1.6326
-4.0137 -2.4509 1.6326
-3.9174 -2.5852 1.6326
-3.8158 -2.7153 1.6326
-3.7092 -2.8408 1.6326
-2.5844 -2.1275 1.1728
-2.4311 -2.1490 1.1400
-2.4026 -2.2792 1.1670
-3.2366 -3.2942 1.6326
-3.1082 -3.3945 1.6326
-2.9762 -3.4893 1.6326
-2.8409 -3.5785 1.6326
-2.7026 -3.6619 1.6326
-2.5614 -3.7396 1.6326
-2.4178 -3.8113 1.6326
-2.2720 -3.8772 1.6326
-2.1242 -3.9370 1.6326
-1.9747 -3.9909 1.6326
-1.8238 -4.0387 1.6326
-1.6718 -4.0805 1.6326
-1.5189 -4.1163 1.6326
-1.3653 -4.1461 1.6326
-1.2114 -4.1699 1.6326
-1.1241 -4.4523 1.7357
-0.9606 -4.4653 1.7358
-0.7973 -4.4722 1.7359
-0.6347 -4.4730 1.7360
-0.4729 -4.4677 1.7361
-0.3122 -4.4566 1.7361
-0.1527 -4.4396 1.7362
0.0053 -4.4170 1.7363
0.1616 -4.3888 1.7364
0.3160 -4.3551 1.7365
0.4683 -4.3160 1.7366
0.7834 1.1000 0.6607
0.7432 1.1286 0.6589
0.7019 1.1557 0.6570
0.6597 1.1813 0.6550
0.6166 1.2054 0.6530
0.5727 1.2279 0.6509
0.5280 1.2489 0.6487
0.4826 1.2682 0.6465
0.4366 1.2860 0.6442
0.3899 1.3020 0.6419
0.3427 1.3164 0.6395
0.2950 1.3291 0.6371
0.2469 1.3400 0.6346
0.1985 1.3493 0.6321
0.1497 1.3568 0.6296
0.1007 1.3625 0.6270
0.0515 1.3665 0.6244
0.0023 1.3688 0.6217
-0.0471 1.3692 0.6190
-0.0964 1.3679 0.6163
-0.1456 1.3649 0.6136
-0.1947 1.3601 0.6109
-0.2436 1.3535 0.6081
-0.2923 1.3452 0.6054
-0.3406 1.3351 0.6026
-0.3885 1.3233 0.5999
-0.4360 1.3099 0.5971
-0.4830 1.2947 0.5944
-0.5294 1.2778 0.5916
-0.5751 1.2593 0.5889
-0.6202 1.2392 0.5862
-0.6645 1.2175 0.5835
-0.7081 1.1942 0.5808
-0.7508 1.1693 0.5782
-0.7925 1.1429 0.5756
-0.8333 1.1151 0.5730
-0.8731 1.0858 0.5704
-0.9118 1.0551 0.5679
-2.4371 2.6259 1.4515
-2.4578 2.4670 1.4037
-2.1927 2.0505 1.2040
-2.0277 1.7661 1.0731
-2.0832 1.6889 1.0651
-2.1990 1.6575 1.0885
-2.3447 1.6409 1.1260
-2.7326 1.7722 1.2757
-3.5905 2.1528 1.6326
-3.6797 2.0336 1.6326
-3.7644 1.9106 1.6326
-3.8445 1.7839 1.6326
-3.9197 1.6539 1.6326
-3.9900 1.5205 1.6326
-4.0550 1.3842 1.6326
-4.1148 1.2449 1.6326
-4.1690 1.1031 1.6326
-4.2176 0.9589 1.6326
-4.2604 0.8125 1.6326
-4.2974 0.6642 1.6326
-4.3284 0.5142 1.6326
-4.3532 0.3629 1.6326
-4.3720 0.2104 1.6326
-4.3845 0.0571 1.6326
-4.3907 -0.0968 1.6326
-4.3906 -0.2510 1.6326
-4.3841 -0.4052 1.6326
-4.3713 -0.5591 1.6326
-4.3522 -0.7124 1.6326
-4.3267 -0.8649 1.6326
-4.2950 -1.0162 1.6326
-4.2570 -1.1661 1.6326
-4.2129 -1.3144 1.6326
-4.1627 -1.4606 1.6326
-4.1065 -1.6046 1.6326
-4.0445 -1.7461 1.6326
-3.9768 -1.8849 1.6326
-3.9034 -2.0206 1.6326
-3.8247 -2.1531 1.6326
-3.7406 -2.2820 1.6326
-3.6515 -2.4073 1.6326
-3.5575 -2.5286 1.6326
-3.4587 -2.6459 1.6326
-2.5834 -2.1240 1.2569
-2.4305 -2.1456 1.2217
-2.3981 -2.2717 1.2483
-3.0209 -3.0700 1.6326
-2.9019 -3.1641 1.6326
-2.7795 -3.2531 1.6326
-2.6540 -3.3370 1.6326
-2.5256 -3.4156 1.6326
-2.3946 -3.4888 1.6326
-2.2612 -3.5566 1.6326
-2.1257 -3.6190 1.6326
-1.9883 -3.6758 1.6326
-1.8493 -3.7271 1.6326
-1.7089 -3.7728 1.6326
-1.5674 -3.8129 1.6326
-1.4249 -3.8474 1.6326
-1.2819 -3.8764 1.6326
-1.1383 -3.8998 1.6326
-0.9946 -3.9177 1.6326
-0.9046 -4.1784 1.7357
-0.7522 -4.1861 1.7358
-0.6001 -4.1881 1.7359
-0.4488 -4.1845 1.7360
-0.2984 -4.1754 1.7361
-0.1491 -4.1608 1.7361
-0.0010 -4.1409 1.7362
0.1455 -4.1157 1.7363
0.2904 -4.0854 1.7364
0.4334 -4.0501 1.7365
0.7358 1.0354 0.6572
0.6979 1.0623 0.6555
0.6591 1.0878 0.6538
0.6193 1.1119 0.6519
0.5788 1.1346 0.6500
0.5374 1.1559 0.6480
0.4953 1.1756 0.6460
0.4526 1.1938 0.6439
0.4092 1.2105 0.6418
0.3653 1.2256 0.6396
0.3208 1.2392 0.6373
0.2759 1.2511 0.6351
0.2306 1.2614 0.6327
0.1850 1.2701 0.6304
0.1391 1.2772 0.6280
0.0929 1.2826 0.6255
0.0466 1.2864 0.6230
0.0002 1.2885 0.6206
-0.0463 1.2889 0.6180
-0.0927 1.2877 0.6155
-0.1391 1.2848 0.6129
-0.1853 1.2803 0.6104
-0.2314 1.2741 0.6078
-0.2772 1.2662 0.6052
-0.3227 1.2568 0.6026
-0.3678 1.2457 0.6000
-0.4125 1.2330 0.5974
-0.4567 1.2187 0.5948
-0.5004 1.2028 0.5922
-0.5435 1.1854 0.5896
-0.5860 1.1664 0.5871
-0.6277 1.1459 0.5846
-0.6687 1.1240 0.5820
-0.7089 1.1006 0.5796
-0.7482 1.0757 0.5771
-0.7866 1.0495 0.5747
-0.8241 1.0219 0.5723
-0.8605 0.9930 0.5699
-0.8959 0.9628 0.5676
-0.9302 0.9313 0.5653
-1.8714 1.7456 1.0938
-1.9263 1.6736 1.0855
-1.9807 1.6017 1.0786
-2.0462 1.5385 1.0791
-2.2132 1.5451 1.1328
-3.2803 2.1223 1.6326
-3.3670 2.0138 1.6326
-3.4497 1.9018 1.6326
-3.5282 1.7862 1.6326
-3.6024 1.6674 1.6326
-3.6720 1.5454 1.6326
-3.7370 1.4204 1.6326
-3.7971 1.2926 1.6326
-3.8522 1.1622 1.6326
-3.9022 1.0294 1.6326
-3.9470 0.8944 1.6326
-3.9864 0.7575 1.6326
-4.0203 0.6189 1.6326
-4.0487 0.4787 1.6326
-4.0715 0.3373 1.6326
-4.0885 0.1949 1.6326
-4.0997 0.0517 1.6326
-4.1052 -0.0920 1.6326
-4.1047 -0.2359 1.6326
-4.0984 -0.3798 1.6326
-4.0863 -0.5234 1.6326
-4.0682 -0.6665 1.6326
-4.0444 -0.8088 1.6326
-4.0147 -0.9501 1.6326
-3.9792 -1.0900 1.6326
-3.9381 -1.2284 1.6326
-3.8913 -1.3649 1.6326
-3.8390 -1.4994 1.6326
-3.7813 -1.6315 1.6326
-3.7183 -1.7611 1.6326
-3.6501 -1.8880 1.6326
-3.5769 -2.0118 1.6326
-3.4987 -2.1324 1.6326
-3.4159 -2.2496 1.6326
-3.3284 -2.3632 1.6326
-3.2366 -2.4730 1.6326
-2.5824 -2.1205 1.3424
-2.4298 -2.1421 1.3046
-2.3936 -2.2642 1.3306
-2.8294 -2.8710 1.6326
-2.7187 -2.9595 1.6326
-2.6047 -3.0433 1.6326
-2.4879 -3.1223 1.6326
-2.3683 -3.1965 1.6326
-2.2462 -3.2657 1.6326
-2.1219 -3.3299 1.6326
-1.9955 -3.3890 1.6326
-1.8673 -3.4430 1.6326
-1.7375 -3.4919 1.6326
-1.6064 -3.5355 1.6326
-1.4742 -3.5740 1.6326
-1.3411 -3.6073 1.6326
-1.2073 -3.6354 1.6326
-1.0730 -3.6583 1.6326
-0.9385 -3.6761 1.6326
-0.8546 -3.9217 1.7357
-0.7117 -3.9300 1.7357
