ply
format ascii 1.0
element vertex 2092
property float32 x
property float32 y
property float32 z
end_header
-26.7095 -6.3666 -1.5929
-26.4434 -7.3142 -1.5922
-25.8847 -8.1692 -1.5759
-25.1904 -8.9551 -1.5530
-20.7267 -8.2166 -1.2959
-18.7638 -8.2286 -1.1917
-17.0933 -8.2387 -1.1045
-15.6446 -8.2442 -1.0302
-15.5010 -8.8927 -1.0421
-15.1844 -9.4503 -1.0440
-15.2665 -10.2785 -1.0755
-15.5156 -11.2750 -1.1221
-14.6188 -11.4462 -1.0876
-13.8635 -11.6802 -1.0633
-13.4674 -12.1983 -1.0673
-13.3697 -13.0122 -1.0975
-13.4569 -14.0710 -1.1471
-15.5534 -17.4767 -1.3806
-15.2020 -18.3676 -1.4093
-14.4481 -18.7894 -1.4034
-13.8403 -19.4006 -1.4136
-15.3802 -23.2816 -1.6581
-15.3266 -25.1141 -1.7517
-14.7641 -26.2660 -1.7974
-13.9910 -27.1237 -1.8242
-16.7431 -35.5310 -2.3525
11.4118 -9.3068 -0.9546
11.3218 -8.5761 -0.9222
11.2395 -7.8958 -0.8931
11.2015 -7.2835 -0.8701
11.1954 -6.7209 -0.8515
11.1909 -6.1834 -0.8348
11.1880 -5.6679 -0.8199
11.1765 -5.1670 -0.8059
11.1616 -4.6819 -0.7931
11.1485 -4.2129 -0.7817
11.1370 -3.7579 -0.7717
11.1466 -3.3209 -0.7643
11.1564 -2.8925 -0.7580
11.1620 -2.4704 -0.7525
11.1685 -2.0547 -0.7480
11.1762 -1.6441 -0.7445
11.1636 -1.2351 -0.7406
11.1660 -0.8313 -0.7386
11.1733 -0.4297 -0.7379
11.1817 -0.0287 -0.7381
11.1913 0.3729 -0.7393
11.2135 0.7770 -0.7423
11.2194 1.1830 -0.7450
11.2243 1.5924 -0.7486
11.2304 2.0065 -0.7533
11.2377 2.4267 -0.7590
11.2664 2.8594 -0.7672
11.3254 3.3110 -0.7785
11.3877 3.7775 -0.7913
11.4536 4.2611 -0.8056
11.5385 4.7705 -0.8226
12.7178 5.8006 -0.9203
12.8110 6.4078 -0.9424
13.1682 7.1881 -0.9863
13.2441 7.8588 -1.0116
13.3283 8.5695 -1.0398
13.4309 9.3329 -1.0722
13.5168 10.1303 -1.1062
13.6082 10.9825 -1.1439
13.2308 18.0004 -0.9419
13.1524 19.3084 -0.9825
13.1857 20.9330 -1.0377
12.6185 21.7229 -1.0509
12.4793 23.3751 -1.1053
-19.0140 40.1677 -1.6947
-19.9662 38.5416 -1.6494
-20.0389 35.5041 -1.5437
-20.8766 34.0733 -1.5078
-21.6827 32.6965 -1.4753
-22.4610 31.3673 -1.4459
-23.2147 30.0799 -1.4193
-25.2680 30.4198 -1.4723
-29.2528 32.7529 -1.6297
-26.8186 15.3212 -1.1178
-26.8262 14.0747 -1.0939
-26.8335 12.8735 -1.0723
-26.8406 11.7124 -1.0529
-26.8475 10.5865 -1.0356
-26.8542 9.4915 -1.0202
-27.1465 8.5130 -1.0173
-25.0467 6.8786 -0.9273
-24.9673 5.9029 -0.9147
-24.8898 4.9497 -0.9035
-27.7295 4.4877 -0.9990
-27.3460 3.4247 -0.9791
-26.3634 2.3453 -0.9395
-26.3692 1.3953 -0.9366
-26.3750 0.4486 -0.9351
-26.3807 -0.4974 -0.9349
-26.3865 -1.4451 -0.9360
-26.3923 -2.3969 -0.9385
-26.3981 -3.3554 -0.9424
-26.4040 -4.3231 -0.9476
-26.4100 -5.3027 -0.9543
-26.4161 -6.2969 -0.9625
-26.4432 -7.3145 -0.9729
-25.8844 -8.1696 -0.9632
-25.1899 -8.9555 -0.9495
-20.7253 -8.2166 -0.7926
-18.7625 -8.2286 -0.7292
-17.0920 -8.2387 -0.6762
-15.6452 -8.2452 -0.6311
-15.5011 -8.8935 -0.6388
-15.5057 -9.6511 -0.6539
-15.5105 -10.4437 -0.6707
-15.5156 -11.2761 -0.6892
-15.5209 -12.1537 -0.7098
-15.4214 -12.9940 -0.7277
-15.4681 -14.0119 -0.7548
-15.5390 -15.1251 -0.7861
-15.5459 -16.2573 -0.8175
-15.5534 -17.4788 -0.8525
-15.2003 -18.3678 -0.8711
-14.4468 -18.7903 -0.8684
-13.8400 -19.4029 -0.8757
-15.3802 -23.2852 -1.0284
-15.3249 -25.1153 -1.0875
-14.8032 -26.3402 -1.1203
-13.9897 -27.1263 -1.1353
-16.7431 -35.5380 -1.4660
13.1732 -22.5844 -1.0733
12.9549 -20.4851 -0.9981
12.7672 -18.6708 -0.9344
12.7651 -17.3018 -0.8909
12.7176 -16.0028 -0.8495
12.5968 -14.7336 -0.8079
12.4431 -13.5391 -0.7686
12.0206 -12.1727 -0.7170
11.3268 -10.6757 -0.6541
11.0554 -9.6953 -0.6195
10.9488 -8.9280 -0.5967
10.8782 -8.2390 -0.5778
10.8158 -7.5972 -0.5609
10.8149 -7.0312 -0.5486
10.8171 -6.4930 -0.5377
10.8204 -5.9779 -0.5279
10.8222 -5.4819 -0.5191
10.8173 -5.0003 -0.5108
10.8096 -4.5337 -0.5033
10.8021 -4.0814 -0.4966
10.7955 -3.6422 -0.4907
10.8165 -3.2221 -0.4868
10.8400 -2.8101 -0.4836
10.8479 -2.4005 -0.4803
10.8563 -1.9969 -0.4777
10.8653 -1.5981 -0.4757
10.8519 -1.2004 -0.4733
10.8370 -0.8066 -0.4714
10.8445 -0.4169 -0.4710
10.8527 -0.0277 -0.4713
10.8616 0.3620 -0.4721
10.8812 0.7540 -0.4739
10.9062 1.1500 -0.4765
10.9094 1.5477 -0.4787
10.9134 1.9498 -0.4816
10.9181 2.3576 -0.4851
10.9361 2.7754 -0.4898
10.9696 3.2068 -0.4959
11.0241 3.6567 -0.5037
11.0813 4.1224 -0.5123
11.1470 4.6083 -0.5222
11.2634 5.1369 -0.5355
11.3620 5.6826 -0.5489
11.4669 6.2589 -0.5638
11.6324 6.9018 -0.5829
12.2036 7.8457 -0.6244
12.3085 8.5522 -0.6440
12.4250 9.3111 -0.6661
12.5211 10.1042 -0.6890
12.5602 10.9022 -0.7109
12.5573 11.7152 -0.7326
12.6258 12.6559 -0.7611
12.6939 13.6713 -0.7925
12.8428 14.8671 -0.8327
13.1117 16.3271 -0.8855
13.2066 17.7107 -0.9319
13.2064 19.1035 -0.9772
13.2665 20.7432 -1.0333
12.7286 21.5691 -1.0482
12.5258 23.0782 -1.0959
11.9362 16.2369 -0.3954
11.9694 17.5690 -0.4148
11.9061 18.8987 -0.4334
11.6056 19.9759 -0.4456
11.3315 21.2212 -0.4612
10.9724 22.4511 -0.4761
10.5548 23.7165 -0.4914
10.1998 25.3268 -0.5134
9.6479 26.6797 -0.5298
9.5499 29.6980 -0.5785
9.3254 33.0186 -0.6318
11.1796 45.8042 -0.8618
-19.1482 40.4601 -0.6982
-21.8102 42.1099 -0.7332
-20.9735 37.1672 -0.6542
-22.5867 34.0657 -0.6159
-25.5807 35.7301 -0.6565
-23.2131 30.0827 -0.5630
-25.2604 30.4154 -0.5809
-30.6359 34.3066 -0.6704
-36.3314 28.3454 -0.6464
-26.8186 15.3231 -0.4218
-26.8262 14.0764 -0.4112
-26.8335 12.8751 -0.4016
-26.8267 11.7078 -0.3928
-26.8296 10.5808 -0.3850
-26.8542 9.4927 -0.3784
-27.1429 8.5130 -0.3762
-25.3803 6.9711 -0.3466
-25.2998 5.9824 -0.3410
-25.2212 5.0163 -0.3361
-24.2361 3.9229 -0.3199
-27.3462 3.4253 -0.3581
-26.6562 2.3718 -0.3468
-26.6621 1.4112 -0.3453
-26.6679 0.4539 -0.3444
-26.6737 -0.5027 -0.3441
-26.6796 -1.4610 -0.3443
-26.6855 -2.4235 -0.3451
-26.6914 -3.3927 -0.3465
-26.6973 -4.3712 -0.3485
-26.7034 -5.3618 -0.3512
-26.7095 -6.3672 -0.3544
-26.4429 -7.3149 -0.3547
-25.8842 -8.1700 -0.3516
-25.1894 -8.9559 -0.3471
-20.7239 -8.2166 -0.2902
-18.7612 -8.2286 -0.2675
-17.0907 -8.2388 -0.2486
-15.6464 -8.2465 -0.2326
-15.5011 -8.8942 -0.2360
-15.5057 -9.6519 -0.2423
-15.5105 -10.4446 -0.2493
-15.5156 -11.2772 -0.2570
-15.5209 -12.1549 -0.2656
-15.4214 -12.9953 -0.2733
-15.4681 -14.0133 -0.2845
-15.5390 -15.1268 -0.2975
-15.5459 -16.2592 -0.3106
-15.5534 -17.4809 -0.3253
-15.1252 -18.2795 -0.3322
-14.3130 -18.6188 -0.3312
-13.8016 -19.3519 -0.3377
-14.5243 -21.9925 -0.3773
-14.3916 -23.5895 -0.3987
-14.7601 -26.2681 -0.4382
-13.9884 -27.1288 -0.4475
-16.7442 -35.5476 -0.5808
10.6856 -26.3954 -0.5116
10.8499 -24.2616 -0.4812
11.0570 -22.5212 -0.4577
11.1939 -20.8729 -0.4352
11.2134 -19.2208 -0.4119
11.2310 -17.7560 -0.3916
11.3387 -16.5790 -0.3770
11.4207 -15.4772 -0.3634
11.4009 -14.3437 -0.3485
11.3534 -13.2771 -0.3343
11.2573 -12.2470 -0.3203
11.0369 -11.1750 -0.3042
10.7789 -10.1580 -0.2886
10.6071 -9.3009 -0.2764
10.5228 -8.5795 -0.2674
10.4688 -7.9279 -0.2600
10.4474 -7.3375 -0.2540
10.4551 -6.7964 -0.2492
10.4643 -6.2804 -0.2450
10.4743 -5.7860 -0.2413
10.4789 -5.3074 -0.2378
10.4801 -4.8438 -0.2346
10.4797 -4.3947 -0.2318
10.4772 -3.9582 -0.2292
10.4768 -3.5342 -0.2269
10.5060 -3.1292 -0.2256
10.5352 -2.7307 -0.2246
10.5515 -2.3346 -0.2236
10.5616 -1.9424 -0.2226
10.5718 -1.5547 -0.2220
10.5578 -1.1676 -0.2210
10.5421 -0.7845 -0.2203
10.5351 -0.4049 -0.2199
10.5430 -0.0268 -0.2201
10.5513 0.3517 -0.2206
10.5686 0.7324 -0.2214
10.5926 1.1169 -0.2227
10.6123 1.5055 -0.2241
10.6144 1.8963 -0.2253
10.6168 2.2924 -0.2268
10.6275 2.6970 -0.2288
10.6517 3.1137 -0.2313
10.6837 3.5436 -0.2343
10.7332 3.9926 -0.2381
10.7848 4.4583 -0.2422
10.8912 4.9667 -0.2479
10.9942 5.4982 -0.2540
11.0855 6.0502 -0.2603
11.1781 6.6318 -0.2671
11.2382 7.2244 -0.2738
11.3562 7.8898 -0.2824
11.4834 8.6047 -0.2921
11.5256 9.3000 -0.3004
11.5748 10.0458 -0.3096
11.6311 10.8500 -0.3200
11.6003 11.6267 -0.3290
11.5815 12.4718 -0.3393
11.5888 13.4138 -0.3517
11.6019 14.4453 -0.3658
11.8623 15.9057 -0.3897
11.9797 17.3266 -0.4115
11.9362 18.6604 -0.4303
11.6443 19.7286 -0.4424
11.4049 21.0093 -0.4588
11.0434 22.2076 -0.4731
10.6400 23.4717 -0.4884
10.3013 25.0792 -0.5105
9.7563 26.4094 -0.5265
9.5965 29.1529 -0.5700
9.3687 32.3198 -0.6205
9.6995 38.5849 -0.7283
11.1275 15.1346 0.0545
11.2289 16.4797 0.0600
11.1995 17.7743 0.0656
11.1065 19.1136 0.0715
10.8925 20.3954 0.0775
10.5220 21.5254 0.0832
10.0820 22.6494 0.0891
9.6275 23.9002 0.0958
9.2099 25.4621 0.1042
8.8235 27.4314 0.1146
8.5838 30.3833 0.1297
8.4119 34.4519 0.1505
9.1256 44.1969 0.1976
-18.0164 41.9007 0.3096
-18.8215 39.7785 0.3047
-18.9444 36.5842 0.2909
-19.8082 35.1089 0.2900
-20.6366 33.6940 0.2894
-21.4338 32.3324 0.2892
-22.2034 31.0180 0.2892
-22.9488 29.7449 0.2895
-24.6662 29.7044 0.3022
-28.5554 31.9815 0.3407
-36.5740 28.5384 0.3940
-26.8186 15.3250 0.2739
-26.8262 14.0781 0.2711
-26.8335 12.8767 0.2687
-26.8267 11.7092 0.2664
-26.8296 10.5821 0.2645
-26.8541 9.4939 0.2631
-27.1394 8.5130 0.2645
-25.0468 6.8805 0.2430
-24.9675 5.9046 0.2413
-24.8899 4.9512 0.2399
-24.2366 3.9236 0.2331
-27.3465 3.4259 0.2626
-26.6562 2.3723 0.2559
-26.6621 1.4116 0.2560
-26.6679 0.4542 0.2563
-26.6737 -0.5025 0.2568
-26.6796 -1.4609 0.2575
-26.6855 -2.4234 0.2583
-26.6914 -3.3928 0.2594
-26.6973 -4.3714 0.2607
-26.6775 -5.3568 0.2620
-26.7095 -6.3675 0.2640
-26.4427 -7.3152 0.2632
-25.8839 -8.1704 0.2597
-25.1889 -8.9563 0.2550
-20.7225 -8.2166 0.2118
-18.7598 -8.2286 0.1939
-17.0894 -8.2388 0.1787
-15.6471 -8.2475 0.1657
-15.5011 -8.8950 0.1665
-15.5057 -9.6527 0.1690
-15.5105 -10.4456 0.1719
-15.5156 -11.2782 0.1750
-15.5209 -12.1561 0.1784
-15.4214 -12.9967 0.1809
-15.4681 -14.0148 0.1855
-15.5390 -15.1285 0.1909
-15.5459 -16.2611 0.1960
-15.5534 -17.4831 0.2017
-15.1969 -18.3684 0.2031
-14.3736 -18.7001 0.1986
-13.8824 -19.4680 0.1988
-14.5474 -22.0310 0.2166
-14.3655 -23.5506 0.2233
-14.2007 -25.2768 0.2313
-13.9872 -27.1313 0.2399
-16.7460 -35.5584 0.3042
9.6418 -26.5057 0.1324
9.8271 -24.2686 0.1193
10.1164 -22.6163 0.1094
10.4362 -21.2521 0.1014
10.5726 -19.7104 0.0927
10.6561 -18.2622 0.0849
10.7027 -16.9176 0.0777
10.8403 -15.8475 0.0721
10.9325 -14.8130 0.0668
10.9356 -13.7561 0.0616
10.9169 -12.7648 0.0568
10.8444 -11.7961 0.0523
10.4989 -10.6287 0.0471
10.2821 -9.6884 0.0429
10.1989 -8.9418 0.0398
10.1290 -8.2573 0.0369
10.0894 -7.6396 0.0345
10.1036 -7.0951 0.0325
10.1187 -6.5769 0.0306
10.1340 -6.0814 0.0289
10.1500 -5.6062 0.0274
10.1571 -5.1437 0.0259
10.1635 -4.6970 0.0247
10.1696 -4.2642 0.0235
10.1715 -3.8423 0.0224
10.1823 -3.4344 0.0215
10.2132 -3.0416 0.0207
10.2436 -2.6548 0.0199
10.2712 -2.2723 0.0193
10.2827 -1.8909 0.0187
10.2934 -1.5135 0.0182
10.2794 -1.1366 0.0178
10.2655 -0.7637 0.0174
10.2515 -0.3938 0.0171
10.2509 -0.0260 0.0169
10.2585 0.3420 0.0167
10.2737 0.7120 0.0167
10.2955 1.0856 0.0168
10.3173 1.4636 0.0169
10.3315 1.8457 0.0171
10.3319 2.2308 0.0173
10.3362 2.6229 0.0176
10.3563 3.0271 0.0181
10.3767 3.4415 0.0186
10.4066 3.8709 0.0193
10.4505 4.3198 0.0200
10.5251 4.7995 0.0210
10.6396 5.3205 0.0221
10.7290 5.8552 0.0234
10.8125 6.4143 0.0248
10.8516 6.9753 0.0262
10.9037 7.5747 0.0278
11.0093 8.2486 0.0298
11.0628 8.9256 0.0319
11.0781 9.6137 0.0341
11.1111 10.3638 0.0365
11.1499 11.1740 0.0394
11.1204 11.9739 0.0422
11.1119 12.8603 0.0456
11.1398 13.8681 0.0494
11.1308 14.9228 0.0537
11.2067 16.2062 0.0589
11.2103 17.5228 0.0645
11.1430 18.8762 0.0704
10.9356 20.1414 0.0763
10.6070 21.3258 0.0821
10.1591 22.4063 0.0878
9.7184 23.6546 0.0945
9.2768 25.1051 0.1023
8.8664 26.9274 0.1120
8.6512 29.8353 0.1269
8.3984 33.3973 0.1452
9.0185 42.2093 0.1879
10.6815 14.5260 0.4585
10.6442 15.6192 0.4827
10.6848 16.9548 0.5140
10.5838 18.2111 0.5426
10.4195 19.5063 0.5723
10.1770 20.8155 0.6024
9.7241 21.8408 0.6245
9.1960 22.8238 0.6458
8.7776 24.2607 0.6804
8.3669 26.0047 0.7240
8.0002 28.3085 0.7835
7.5834 31.0474 0.8556
7.2929 35.3058 0.9700
7.8143 46.1210 1.2650
-18.0152 41.9079 1.3373
-18.8192 39.7824 1.2962
-18.9423 36.5878 1.2191
-19.8062 35.1123 1.1982
-20.6347 33.6972 1.1796
-21.4320 32.3354 1.1631
-22.2017 31.0208 1.1486
-22.9472 29.7476 1.1359
-24.6588 29.7001 1.1718
-28.5465 31.9763 1.3063
-35.1214 29.4948 1.4181
-36.5532 28.5260 1.4385
-26.8186 15.3269 0.9698
-26.5236 13.9211 0.9430
-26.8335 12.8783 0.9393
-26.8267 11.7107 0.9260
-26.8296 10.5834 0.9144
-26.8541 9.4951 0.9049
-27.1358 8.5129 0.9052
-24.6795 6.7804 0.8161
-24.6012 5.8188 0.8073
-24.5248 4.8792 0.7997
-24.2371 3.9243 0.7863
-27.3468 3.4266 0.8836
-26.6562 2.3728 0.8588
-26.6621 1.4120 0.8575
-26.6679 0.4545 0.8572
-26.6737 -0.5022 0.8579
-26.6796 -1.4607 0.8595
-26.6855 -2.4234 0.8621
-26.6914 -3.3928 0.8657
-26.6973 -4.3715 0.8703
-26.6775 -5.3570 0.8751
-26.7095 -6.3678 0.8826
-22.9094 -6.3381 0.7636
-22.4238 -7.0787 0.7548
-23.6136 -8.3968 0.8037
-20.7211 -8.2166 0.7141
-18.7585 -8.2286 0.6554
-17.0881 -8.2388 0.6061
-15.6449 -8.2470 0.5642
-15.5011 -8.8957 0.5691
-15.5944 -9.7088 0.5839
-15.5993 -10.5063 0.5966
-15.5156 -11.2793 0.6072
-15.5209 -12.1572 0.6226
-15.4214 -12.9980 0.6353
-15.4681 -14.0163 0.6559
-15.5391 -15.1302 0.6796
-15.6349 -16.3561 0.7069
-15.5534 -17.4852 0.7289
-15.1952 -18.3687 0.7402
-14.4431 -18.7931 0.7336
-13.8389 -19.4097 0.7353
-14.5451 -22.0308 0.8114
-13.4414 -22.0391 0.7905
-13.2100 -23.5174 0.8229
-13.0116 -25.2437 0.8631
-16.7430 -35.5593 1.1897
6.0748 -45.1341 1.2786
6.1317 -35.7948 1.0144
6.1648 -29.5729 0.8395
6.5351 -26.5460 0.7558
8.6770 -26.8008 0.7708
8.8231 -24.2483 0.7024
9.1386 -22.5626 0.6593
9.5430 -21.3293 0.6296
9.9266 -20.2099 0.6036
10.0608 -18.7525 0.5676
10.1452 -17.3833 0.5342
10.2337 -16.1735 0.5054
10.3974 -15.1975 0.4839
10.4842 -14.2033 0.4617
10.5210 -13.2325 0.4401
10.5128 -12.2904 0.4191
10.3432 -11.2493 0.3941
10.0109 -10.1333 0.3658
9.8813 -9.3095 0.3471
9.8210 -8.6093 0.3325
9.7645 -7.9591 0.3194
9.7584 -7.3880 0.3091
9.7816 -6.8681 0.3006
9.8033 -6.3711 0.2930
9.8239 -5.8946 0.2861
9.8424 -5.4356 0.2798
9.8544 -4.9898 0.2740
9.8655 -4.5587 0.2687
9.8758 -4.1405 0.2640
9.8832 -3.7329 0.2597
9.9039 -3.3401 0.2563
9.9362 -2.9587 0.2536
9.9676 -2.5829 0.2513
9.9982 -2.2116 0.2495
10.0182 -1.8419 0.2477
10.0273 -1.4742 0.2461
10.0152 -1.1072 0.2443
10.0029 -0.7440 0.2429
9.9902 -0.3837 0.2418
9.9772 -0.0252 0.2411
9.9815 0.3329 0.2412
9.9949 0.6927 0.2419
10.0146 1.0560 0.2431
10.0341 1.4234 0.2447
10.0533 1.7960 0.2466
10.0618 2.1724 0.2487
10.0604 2.5528 0.2510
10.0767 2.9452 0.2541
10.0930 3.3472 0.2576
10.1094 3.7601 0.2617
10.1363 4.1896 0.2665
10.1829 4.6431 0.2724
10.2842 5.1423 0.2804
10.3906 5.6701 0.2893
10.4663 6.2084 0.2981
10.5212 6.7624 0.3071
10.5295 7.3140 0.3157
10.5727 7.9208 0.3262
10.6652 8.6040 0.3394
10.6450 9.2370 0.3502
10.6382 9.9216 0.3627
10.6548 10.6766 0.3774
10.6894 11.5085 0.3944
10.6487 12.3227 0.4105
10.6794 13.2933 0.4315
10.6869 14.3256 0.4541
10.6520 15.4018 0.4778
10.6990 16.7210 0.5087
10.6009 17.9548 0.5367
10.4621 19.2657 0.5668
10.2267 20.5574 0.5964
9.8137 21.6400 0.6201
9.3020 22.6362 0.6417
8.8689 23.9954 0.6740
8.4348 25.6094 0.7139
8.0567 27.7762 0.7696
7.6839 30.5448 0.8423
7.3362 34.3210 0.9434
7.8602 44.5287 1.2216
10.2562 13.9457 0.8306
10.2162 14.9890 0.8723
10.1530 16.1084 0.9178
10.0992 17.3744 0.9709
9.9628 18.6480 1.0239
9.7299 19.8973 1.0753
9.3847 21.0740 1.1228
8.8554 21.9735 1.1561
8.3055 22.9501 1.1941
7.9235 24.6196 1.2688
7.4468 26.3417 1.3465
6.9094 28.2774 1.4358
6.3647 30.7988 1.5555
5.3480 31.5478 1.5870
3.0939 23.2917 1.1686
3.0561 31.6713 1.5870
2.0376 33.7310 1.6903
0.8246 33.6864 1.6903
-0.3828 33.5984 1.6903
-1.5827 33.4674 1.6903
-2.7738 33.2940 1.6903
-3.9545 33.0789 1.6903
-5.1235 32.8225 1.6903
-5.8964 30.5419 1.5872
-6.9682 30.2258 1.5872
-8.0251 29.8730 1.5872
-9.0659 29.4843 1.5872
-10.1066 29.1094 1.5898
-11.1137 28.6504 1.5898
-12.1015 28.1579 1.5898
-13.0688 27.6326 1.5898
-14.0147 27.0755 1.5898
-14.9383 26.4876 1.5898
-15.8385 25.8696 1.5898
-16.7147 25.2227 1.5898
-17.5658 24.5475 1.5898
-18.3913 23.8453 1.5898
-19.1901 23.1170 1.5898
-19.9618 22.3635 1.5898
-20.7055 21.5859 1.5898
-21.4206 20.7852 1.5898
-22.1066 19.9625 1.5898
-22.7629 19.1187 1.5898
-17.2799 13.4869 1.1746
-23.9841 17.3723 1.5898
-24.5480 16.4717 1.5898
-25.0804 15.5544 1.5898
-25.5806 14.6212 1.5898
-26.0482 13.6732 1.5898
-26.4831 12.7117 1.5898
-26.8267 11.7122 1.5864
-26.8436 10.5903 1.5659
-26.8541 9.4963 1.5476
-27.1323 8.5129 1.5467
-25.0470 6.8823 1.4143
-24.9676 5.9062 1.3983
-24.8900 4.9526 1.3843
-24.3787 3.9478 1.3481
-27.3470 3.4272 1.5055
-26.6562 2.3733 1.4627
-26.6621 1.4124 1.4600
-26.6679 0.4548 1.4590
-26.6737 -0.5020 1.4598
-26.6796 -1.4606 1.4624
-26.6855 -2.4233 1.4667
-26.6914 -3.3928 1.4728
-26.6973 -4.3716 1.4807
-26.6775 -5.3573 1.4890
-26.7095 -6.3681 1.5022
-23.2661 -6.4372 1.3202
-22.5284 -7.1122 1.2914
-23.6143 -8.3976 1.3693
-20.7197 -8.2166 1.2170
-18.7571 -8.2286 1.1175
-17.0869 -8.2388 1.0341
-15.6400 -8.2451 0.9629
-15.5011 -8.8964 0.9724
-15.5944 -9.7097 0.9984
-15.5993 -10.5073 1.0210
-15.5156 -11.2803 1.0400
-15.5209 -12.1584 1.0675
-15.4214 -12.9993 1.0904
-15.4681 -14.0178 1.1269
-15.5391 -15.1319 1.1690
-15.6350 -16.3580 1.2175
-15.5534 -17.4873 1.2570
-15.1935 -18.3690 1.2780
-14.4419 -18.7940 1.2683
-13.8386 -19.4120 1.2732
-14.5430 -22.0308 1.4069
-13.4390 -22.0388 1.3729
-13.2295 -23.5562 1.4338
-13.0289 -25.2819 1.5060
-12.8177 -27.2278 1.5898
-11.8609 -27.7351 1.5898
-10.8848 -28.2104 1.5898
-9.8905 -28.6528 1.5898
-8.8640 -29.0133 1.5872
-7.8379 -29.3874 1.5872
-6.7966 -29.7265 1.5872
-5.8443 -30.5683 1.6156
-4.9769 -32.2654 1.6903
-3.8270 -32.5109 1.6903
-2.6661 -32.7167 1.6903
-1.4953 -32.8818 1.6903
-0.3162 -33.0061 1.6903
0.8700 -33.0888 1.6903
2.0617 -33.1298 1.6903
3.0586 -31.1047 1.5870
4.1391 -30.7316 1.5701
5.3100 -30.9815 1.5870
6.1638 -29.5549 1.5199
6.5408 -26.5588 1.3731
7.2723 -25.5462 1.3296
7.8213 -24.1505 1.2671
8.0691 -22.1700 1.1743
8.4128 -20.7655 1.1121
9.0069 -20.1264 1.0914
9.4260 -19.1866 1.0552
9.5916 -17.8743 0.9986
9.6737 -16.5723 0.9421
9.8095 -15.5002 0.8981
9.9909 -14.6007 0.8640
10.0729 -13.6439 0.8260
10.1372 -12.7478 0.7913
10.1371 -11.8494 0.7557
9.8503 -10.7115 0.7035
9.5659 -9.6814 0.6564
9.5144 -8.9626 0.6289
9.4697 -8.3002 0.6046
9.4192 -7.6767 0.5821
9.4497 -7.1534 0.5666
9.4793 -6.6550 0.5525
9.5067 -6.1776 0.5398
9.5322 -5.7189 0.5283
9.5523 -5.2748 0.5176
9.5689 -4.8447 0.5079
9.5842 -4.4281 0.4991
9.5982 -4.0236 0.4913
9.6104 -3.6294 0.4842
9.6400 -3.2507 0.4789
9.6736 -2.8802 0.4745
9.7059 -2.5147 0.4708
9.7371 -2.1535 0.4678
9.7667 -1.7954 0.4654
9.7745 -1.4368 0.4626
9.7641 -1.0793 0.4597
9.7531 -0.7253 0.4573
9.7416 -0.3740 0.4556
9.7294 -0.0245 0.4546
9.7188 0.3242 0.4542
9.7305 0.6744 0.4555
9.7483 1.0279 0.4577
9.7656 1.3853 0.4606
9.7824 1.7475 0.4641
9.7986 2.1155 0.4683
9.8013 2.4869 0.4725
9.8116 2.8676 0.4779
9.8242 3.2578 0.4842
9.8363 3.6583 0.4913
9.8480 4.0702 0.4992
9.8715 4.5007 0.5087
9.9514 4.9755 0.5222
10.0448 5.4809 0.5377
10.1412 6.0150 0.5547
10.2046 6.5583 0.5714
10.2105 7.0918 0.5864
10.2100 7.6483 0.6027
10.2435 8.2629 0.6227
10.2704 8.9109 0.6445
10.2328 9.5424 0.6643
10.2039 10.2236 0.6871
10.2095 10.9904 0.7150
10.2242 11.8300 0.7467
10.1784 12.6680 0.7777
10.2422 13.7277 0.8214
10.2275 14.7859 0.8642
10.1657 15.8852 0.9086
10.1245 17.1450 0.9615
9.9870 18.3877 1.0129
9.7788 19.6533 1.0652
9.4591 20.8538 1.1140
8.9592 21.7972 1.1494
8.4053 22.7354 1.1853
8.0034 24.2931 1.2541
7.5619 26.0624 1.3342
7.0148 27.8750 1.4170
6.4929 30.3631 1.5349
5.5680 31.5270 1.5870
4.4217 31.6178 1.5870
3.2758 31.6666 1.5870
2.2710 33.7346 1.6903
1.0570 33.6984 1.6903
-0.1515 33.6187 1.6903
-1.3530 33.4959 1.6903
-2.5459 33.3306 1.6903
-3.7288 33.1235 1.6903
-4.9001 32.8750 1.6903
-5.6891 30.5984 1.5872
-6.7636 30.2893 1.5872
-7.8233 29.9435 1.5872
-8.8674 29.5616 1.5872
-9.9112 29.1935 1.5898
9.7617 13.2715 1.1628
9.8068 14.3862 1.2307
9.7411 15.4525 1.2933
9.6519 16.6019 1.3618
9.4276 17.6431 1.4209
9.0989 18.6034 1.4735
8.7424 19.6277 1.5315
8.3023 20.5962 1.5856
7.8611 21.7166 1.6520
7.3373 22.7915 1.7158
6.0153 21.2713 1.5870
5.2390 21.4331 1.5870
4.4587 21.5662 1.5870
3.6755 21.6706 1.5870
2.8906 21.7464 1.5870
2.2419 23.2116 1.6903
1.4055 23.2315 1.6903
0.5705 23.2212 1.6903
-0.2620 23.1810 1.6903
-1.0908 23.1111 1.6903
-1.9150 23.0116 1.6903
-2.7335 22.8829 1.6903
-3.5453 22.7253 1.6903
-4.3493 22.5393 1.6903
-5.1446 22.3252 1.6903
-5.5687 20.7365 1.5872
-6.2965 20.4840 1.5872
-7.0136 20.2064 1.5872
-7.7190 19.9042 1.5872
-8.4120 19.5779 1.5872
-9.0919 19.2281 1.5872
-9.7741 18.8870 1.5898
-10.4265 18.4912 1.5898
-11.0633 18.0735 1.5898
-11.6841 17.6345 1.5898
-8.4205 11.7692 1.0894
-12.8747 16.6955 1.5898
-13.4433 16.1967 1.5898
-13.9934 15.6793 1.5898
-14.5243 15.1441 1.5898
-15.0355 14.5916 1.5898
-15.5266 14.0226 1.5898
-15.9970 13.4379 1.5898
-16.4464 12.8381 1.5898
-16.8742 12.2240 1.5898
-17.2801 11.5964 1.5898
-12.0124 7.4508 1.0812
-16.9485 9.6885 1.4949
-18.3625 9.6400 1.5898
-18.6771 8.9660 1.5898
-18.9682 8.2823 1.5898
-19.2355 7.5897 1.5898
-16.9789 6.0049 1.3858
-19.6976 6.1810 1.5898
-19.8921 5.4666 1.5898
-20.0619 4.7464 1.5898
-20.2070 4.0214 1.5898
-16.6778 2.7012 1.3044
-20.4226 2.5598 1.5898
-20.4929 1.8249 1.5898
-20.5381 1.0884 1.5898
-20.5582 0.3509 1.5898
-20.5532 -0.3866 1.5898
-20.5232 -1.1234 1.5898
-20.4682 -1.8587 1.5898
-20.3881 -2.5916 1.5898
-20.2832 -3.3214 1.5898
-20.1534 -4.0473 1.5898
-17.2906 -4.1226 1.3745
-19.8203 -5.4841 1.5898
-19.6173 -6.1935 1.5898
-19.3901 -6.8958 1.5898
-19.1390 -7.5903 1.5898
-18.7558 -8.2286 1.5807
-17.0856 -8.2388 1.4630
-15.6371 -8.2442 1.3626
-15.5011 -8.8972 1.3767
-15.5057 -9.6553 1.4059
-15.5105 -10.4484 1.4382
-15.5156 -11.2814 1.4739
-15.1528 -11.8713 1.4776
-14.0906 -11.8788 1.4132
-13.8364 -12.5404 1.4304
-13.8421 -13.4809 1.4784
-14.3732 -15.0396 1.5898
-13.8417 -15.5646 1.5898
-13.2917 -16.0718 1.5898
-12.7238 -16.5604 1.5898
-12.1386 -17.0297 1.5898
-11.5367 -17.4792 1.5898
-10.9185 -17.9083 1.5898
-10.2850 -18.3163 1.5898
-9.6204 -18.6715 1.5872
-8.9591 -19.0352 1.5872
-8.2844 -19.3762 1.5872
-7.5970 -19.6940 1.5872
-6.8977 -19.9882 1.5872
-6.1873 -20.2582 1.5872
-5.7853 -21.6987 1.6797
-5.0441 -22.0701 1.6903
-4.2572 -22.2778 1.6903
-3.4621 -22.4580 1.6903
-2.6596 -22.6103 1.6903
-1.8506 -22.7344 1.6903
-1.0361 -22.8301 1.6903
-0.2173 -22.8969 1.6903
0.6051 -22.9346 1.6903
1.4299 -22.9431 1.6903
2.2535 -22.8962 1.6884
2.8943 -21.4745 1.5870
3.6697 -21.3991 1.5870
4.4434 -21.2958 1.5870
5.2144 -21.1645 1.5870
5.9816 -21.0053 1.5870
6.8065 -21.0105 1.6017
7.3875 -20.2917 1.5630
7.7774 -19.1924 1.4960
8.1333 -18.1702 1.4354
8.5041 -17.3065 1.3877
8.7808 -16.3600 1.3337
9.0423 -15.4875 1.2858
9.4266 -14.8925 1.2613
9.6142 -14.0479 1.2160
9.7036 -13.1415 1.1649
9.7797 -12.2963 1.1184
9.6996 -11.3363 1.0603
9.3463 -10.1620 0.9795
9.0797 -9.1880 0.9150
9.0283 -8.5035 0.8771
8.9789 -7.8689 0.8430
8.9607 -7.3020 0.8150
8.9992 -6.8115 0.7946
9.0514 -6.3538 0.7775
9.0999 -5.9125 0.7619
9.1516 -5.4899 0.7483
9.2006 -5.0799 0.7361
9.2290 -4.6720 0.7236
9.2549 -4.2755 0.7124
9.2786 -3.8892 0.7023
9.3005 -3.5119 0.6933
9.3447 -3.1507 0.6871
9.3974 -2.7976 0.6825
9.4481 -2.4476 0.6789
9.4888 -2.0983 0.6755
9.5192 -1.7497 0.6723
9.5335 -1.4011 0.6690
9.5247 -1.0526 0.6649
9.5151 -0.7074 0.6618
9.5046 -0.3648 0.6595
9.4931 -0.0238 0.6580
9.4753 0.3161 0.6570
9.4699 0.6564 0.6578
9.4953 1.0013 0.6616
9.5106 1.3491 0.6656
9.5251 1.7015 0.6705
9.5387 2.0593 0.6764
9.5515 2.4234 0.6832
9.5595 2.7938 0.6907
9.5687 3.1729 0.6994
9.5770 3.5616 0.7092
9.5846 3.9610 0.7202
9.5912 4.3726 0.7325
9.6388 4.8189 0.7493
9.7206 5.3036 0.7706
9.8058 5.8156 0.7940
9.8880 6.3542 0.8193
9.9097 6.8823 0.8418
9.9015 7.4165 0.8640
9.8917 7.9783 0.8885
9.9143 8.6011 0.9187
9.8744 9.2072 0.9462
9.8241 9.8420 0.9758
9.7730 10.5193 1.0088
9.7662 11.2986 1.0507
9.7603 12.1460 1.0978
9.7533 13.0707 1.1507
9.7979 14.1628 1.2170
9.7571 15.2442 1.2810
9.6698 16.3724 1.3480
9.4878 17.4655 1.4114
9.1641 18.4143 1.4630
8.8132 19.4257 1.5199
8.3899 20.4075 1.5749
7.9464 21.4889 1.6382
7.4558 22.6244 1.7064
6.1638 21.2370 1.5870
5.3883 21.4043 1.5870
4.6087 21.5429 1.5870
3.8260 21.6528 1.5870
3.0414 21.7341 1.5870
2.4025 23.2042 1.6903
1.5660 23.2300 1.6903
0.7306 23.2255 1.6903
-0.1024 23.1911 1.6903
-0.9321 23.1268 1.6903
-1.7572 23.0329 1.6903
-2.5769 22.9098 1.6903
-3.3900 22.7578 1.6903
-4.1956 22.5772 1.6903
-4.9927 22.3684 1.6903
-5.5288 21.1688 1.6167
-6.1576 20.5344 1.5872
-6.8768 20.2616 1.5872
8.9317 12.1414 1.4056
8.8506 12.9816 1.4669
8.8173 13.9848 1.5453
8.7644 15.0729 1.6318
8.5301 15.9606 1.6958
8.2380 16.8398 1.7589
7.9543 17.8545 1.8364
6.3082 15.6456 1.5870
5.7353 15.8400 1.5870
5.1566 16.0132 1.5870
4.5727 16.1649 1.5870
3.9845 16.2951 1.5870
3.3928 16.4037 1.5870
2.7984 16.4907 1.5870
2.3454 17.6331 1.6903
1.7092 17.6795 1.6903
1.0726 17.7029 1.6903
0.4365 17.7034 1.6903
-0.1982 17.6809 1.6903
-0.8308 17.6358 1.6903
-1.4604 17.5680 1.6903
-2.0862 17.4779 1.6903
-2.7075 17.3656 1.6903
-3.3234 17.2314 1.6903
-3.9333 17.0755 1.6903
-4.5363 16.8982 1.6903
-5.1317 16.6999 1.6903
-5.5555 16.0102 1.6420
-5.9130 15.2510 1.5872
-6.4468 15.0076 1.5872
-6.9709 14.7457 1.5872
-7.4847 14.4660 1.5872
-7.9876 14.1686 1.5872
-8.4790 13.8542 1.5872
-8.9585 13.5231 1.5872
-9.4253 13.1759 1.5872
-9.8958 12.8346 1.5898
-10.3367 12.4558 1.5898
-10.7636 12.0623 1.5898
-11.1760 11.6546 1.5898
-11.5734 11.2333 1.5898
-8.2278 7.4318 1.0941
-12.3217 10.3519 1.5898
-12.6717 9.8929 1.5898
-13.0053 9.4225 1.5898
-13.3219 8.9413 1.5898
-13.6214 8.4499 1.5898
-5.9108 3.3793 0.6759
-14.1676 7.4387 1.5898
-14.4137 6.9202 1.5898
-14.6416 6.3939 1.5898
-14.8510 5.8605 1.5898
-15.0417 5.3205 1.5898
-15.2135 4.7746 1.5898
-15.3662 4.2234 1.5898
-15.4998 3.6676 1.5898
-12.0450 2.3974 1.2264
-15.7089 2.5447 1.5898
-11.1380 1.3963 1.1219
-15.8401 1.4109 1.5898
-15.8762 0.8416 1.5898
-15.8928 0.2715 1.5898
-15.8897 -0.2988 1.5898
-15.8670 -0.8684 1.5898
-15.8247 -1.4370 1.5898
-15.7629 -2.0037 1.5898
-15.6816 -2.5679 1.5898
-15.5808 -3.1291 1.5898
-15.4609 -3.6865 1.5898
-15.3217 -4.2396 1.5898
-15.1636 -4.7877 1.5898
-14.9866 -5.3301 1.5898
-14.7910 -5.8663 1.5898
-14.5770 -6.3957 1.5898
-14.3447 -6.9176 1.5898
-14.0944 -7.4315 1.5898
-13.8264 -7.9366 1.5898
-13.5410 -8.4326 1.5898
-13.2384 -8.9186 1.5898
-12.9190 -9.3943 1.5898
-12.5830 -9.8589 1.5898
-12.2309 -10.3120 1.5898
-11.8631 -10.7531 1.5898
-11.4798 -11.1814 1.5898
-11.0815 -11.5966 1.5898
-10.6687 -11.9981 1.5898
-10.2417 -12.3854 1.5898
-9.8010 -12.7580 1.5898
-9.3316 -13.0935 1.5872
-8.8658 -13.4347 1.5872
-8.3879 -13.7598 1.5872
-7.8983 -14.0684 1.5872
-7.3976 -14.3601 1.5872
-6.8864 -14.6343 1.5872
-6.3652 -14.8908 1.5872
-5.8347 -15.1292 1.5872
-5.6394 -16.3461 1.6903
-5.0564 -16.5602 1.6903
-4.4654 -16.7539 1.6903
-3.8671 -16.9269 1.6903
-3.2622 -17.0789 1.6903
-2.6514 -17.2095 1.6903
-2.0355 -17.3187 1.6903
-1.4153 -17.4060 1.6903
-0.7914 -17.4714 1.6903
-0.1646 -17.5146 1.6903
0.4642 -17.5354 1.6903
1.0944 -17.5339 1.6903
1.7250 -17.5098 1.6903
2.2896 -16.9762 1.6431
2.8021 -16.3312 1.5870
3.3910 -16.2448 1.5870
3.9773 -16.1371 1.5870
4.5602 -16.0082 1.5870
5.1389 -15.8582 1.5870
5.7127 -15.6871 1.5870
6.2807 -15.4951 1.5870
7.2422 -16.1756 1.6798
7.6093 -15.4821 1.6327
7.9384 -14.7875 1.5862
8.3006 -14.2145 1.5534
8.7065 -13.7524 1.5339
8.9602 -13.0900 1.4929
9.2457 -12.5192 1.4627
9.4457 -11.8744 1.4241
8.8643 -10.3585 1.2780
8.5458 -9.2902 1.1818
8.5795 -8.6806 1.1412
8.5498 -8.0516 1.0968
8.5320 -7.4763 1.0582
8.5482 -6.9650 1.0274
8.5857 -6.4977 1.0022
8.6436 -6.0667 0.9818
8.6972 -5.6501 0.9633
8.7692 -5.2598 0.9489
8.8351 -4.8775 0.9356
8.8679 -4.4886 0.9206
8.8979 -4.1100 0.9071
8.9252 -3.7406 0.8949
8.9511 -3.3795 0.8841
8.9780 -3.0267 0.8749
9.0307 -2.6881 0.8695
9.0810 -2.3522 0.8652
9.1290 -2.0184 0.8618
9.1748 -1.6861 0.8594
9.1959 -1.3513 0.8560
9.1863 -1.0150 0.8508
9.1718 -0.6818 0.8464
9.1555 -0.3512 0.8430
9.1375 -0.0228 0.8405
9.1176 0.3043 0.8390
9.0982 0.6307 0.8387
9.0847 0.9580 0.8400
9.1059 1.2917 0.8458
9.1252 1.6300 0.8525
9.1427 1.9737 0.8603
9.1582 2.3235 0.8692
9.1522 2.6746 0.8774
9.1235 3.0251 0.8847
9.1311 3.3955 0.8970
9.1363 3.7755 0.9106
9.1388 4.1660 0.9256
9.1385 4.5684 0.9420
9.1020 4.9656 0.9565
9.3780 5.5614 1.0065
9.5659 6.1467 1.0503
9.6252 6.6841 1.0833
9.6103 7.1977 1.1108
9.5931 7.7367 1.1411
9.5732 8.3043 1.1744
9.5347 8.8895 1.2091
9.3715 9.3875 1.2315
9.1975 9.8987 1.2557
9.0119 10.4246 1.2819
9.0119 11.2132 1.3397
8.9459 11.9870 1.3945
8.8671 12.8154 1.4546
8.8096 13.7617 1.5270
8.8040 14.9040 1.6196
8.5838 15.7986 1.6844
8.2941 16.6631 1.7460
8.0110 17.6539 1.8209
6.4174 15.6059 1.5870
5.8458 15.8044 1.5870
5.2681 15.9816 1.5870
4.6851 16.1375 1.5870
4.0978 16.2718 1.5870
3.5066 16.3846 1.5870
2.9127 16.4757 1.5870
2.4675 17.6215 1.6903
1.8313 17.6724 1.6903
1.1948 17.7002 1.6903
0.5585 17.7050 1.6903
-0.0765 17.6870 1.6903
-0.7096 17.6462 1.6903
-1.3398 17.5828 1.6903
-1.9664 17.4969 1.6903
-2.5886 17.3889 1.6903
-3.2056 17.2588 1.6903
-3.8167 17.1071 1.6903
-4.4211 16.9339 1.6903
-5.0180 16.7396 1.6903
-5.5533 16.3668 1.6741
7.7631 10.5514 1.5198
7.7571 11.3761 1.5990
7.8297 12.4165 1.7063
7.6938 13.2296 1.7807
6.4232 12.0163 1.5870
5.9821 12.2261 1.5870
5.5341 12.4195 1.5870
5.0798 12.5962 1.5870
4.6199 12.7560 1.5870
4.1549 12.8989 1.5870
3.6856 13.0247 1.5870
3.2126 13.1332 1.5870
2.7365 13.2244 1.5870
2.4048 14.1634 1.6903
1.8932 14.2235 1.6903
1.3804 14.2651 1.6903
0.8670 14.2880 1.6903
0.3537 14.2925 1.6903
-0.1588 14.2785 1.6903
-0.6698 14.2461 1.6903
-1.1787 14.1955 1.6903
-1.6849 14.1267 1.6903
-2.1877 14.0400 1.6903
-2.6864 13.9355 1.6903
-3.1805 13.8133 1.6903
-3.6694 13.6738 1.6903
-4.1523 13.5171 1.6903
-4.6288 13.3436 1.6903
-5.0983 13.1534 1.6903
-5.5602 12.9469 1.6903
-5.6472 11.9484 1.5872
-6.0651 11.7248 1.5872
-6.4744 11.4868 1.5872
-6.8746 11.2347 1.5872
-7.2652 10.9690 1.5872
-7.6457 10.6900 1.5872
-8.0158 10.3980 1.5872
-8.3751 10.0935 1.5872
-8.7230 9.7769 1.5872
-9.0592 9.4485 1.5872
-9.3834 9.1089 1.5872
-9.7115 8.7732 1.5898
-10.0111 8.4118 1.5898
-10.2976 8.0404 1.5898
-10.5706 7.6595 1.5898
-10.8299 7.2697 1.5898
-11.0753 6.8713 1.5898
-5.9232 3.3868 0.8329
-11.5231 6.0510 1.5898
-11.7251 5.6301 1.5898
-11.9122 5.2026 1.5898
-9.1767 3.6218 1.2073
-8.3245 2.9449 1.0812
-8.4205 2.6430 1.0812
-12.5077 3.4382 1.5898
-12.6176 2.9860 1.5898
-12.0450 2.3977 1.5065
-12.7899 2.0722 1.5898
-12.8522 1.6115 1.5898
-12.8984 1.1491 1.5898
-12.9284 0.6855 1.5898
-12.9424 0.2212 1.5898
-12.9403 -0.2432 1.5898
-12.9221 -0.7072 1.5898
-8.9194 -0.8099 1.1003
-8.7302 -1.1098 1.0812
-8.6852 -1.4223 1.0812
-8.6292 -1.7331 1.0812
-12.5908 -3.0023 1.5898
-12.4770 -3.4526 1.5898
-12.3477 -3.8988 1.5898
-12.2028 -4.3403 1.5898
-12.0428 -4.7767 1.5898
-11.8676 -5.2073 1.5898
-11.6775 -5.6318 1.5898
-11.4727 -6.0496 1.5898
-11.2533 -6.4602 1.5898
-11.0198 -6.8631 1.5898
-10.7722 -7.2578 1.5898
-10.5109 -7.6439 1.5898
-10.2362 -8.0209 1.5898
-9.9483 -8.3883 1.5898
-9.6314 -8.7311 1.5872
-9.3187 -9.0775 1.5872
-8.9938 -9.4130 1.5872
-8.6571 -9.7372 1.5872
-8.3091 -10.0496 1.5872
-7.9500 -10.3499 1.5872
-7.5803 -10.6378 1.5872
-7.2004 -10.9127 1.5872
-6.8107 -11.1744 1.5872
-6.4117 -11.4225 1.5872
-6.0038 -11.6567 1.5872
-5.7295 -12.1782 1.6275
-5.4987 -12.8666 1.6903
-5.0391 -13.0694 1.6903
-4.5721 -13.2561 1.6903
-4.0983 -13.4263 1.6903
-3.6181 -13.5798 1.6903
-3.1324 -13.7165 1.6903
-2.6415 -13.8359 1.6903
-2.1461 -13.9380 1.6903
-1.6469 -14.0226 1.6903
-1.1443 -14.0894 1.6903
-0.6391 -14.1384 1.6903
-0.1319 -14.1693 1.6903
0.3767 -14.1822 1.6903
0.8861 -14.1769 1.6903
1.3956 -14.1534 1.6903
1.9045 -14.1115 1.6903
2.3148 -13.4833 1.6219
2.7399 -13.1195 1.5870
3.2124 -13.0288 1.5870
3.6820 -12.9210 1.5870
4.1480 -12.7962 1.5870
4.6096 -12.6546 1.5870
5.0664 -12.4961 1.5870
5.5177 -12.3211 1.5870
5.9629 -12.1296 1.5870
7.1803 -13.3726 1.7801
7.5032 -12.8466 1.7428
7.7439 -12.2296 1.6938
8.0159 -11.7084 1.6585
8.2569 -11.1785 1.6226
8.3817 -10.5352 1.5702
8.0195 -9.3699 1.4369
8.0841 -8.7870 1.3897
8.1298 -8.2244 1.3446
8.1177 -7.6437 1.2952
8.1447 -7.1360 1.2567
8.1706 -6.6564 1.2219
8.2072 -6.2103 1.1922
8.2694 -5.8034 1.1693
8.3378 -5.4160 1.1498
8.4160 -5.0473 1.1340
8.4900 -4.6864 1.1198
8.5327 -4.3184 1.1035
8.5660 -3.9563 1.0880
8.5964 -3.6023 1.0741
8.6256 -3.2563 1.0618
8.6525 -2.9166 1.0510
8.6902 -2.5864 1.0431
8.7400 -2.2636 1.0382
8.7873 -1.9426 1.0344
8.8321 -1.6229 1.0318
8.8464 -1.2997 1.0270
8.8441 -0.9770 1.0217
8.8342 -0.6565 1.0169
8.8197 -0.3382 1.0130
8.8032 -0.0218 1.0101
8.7846 0.2932 1.0084
8.7656 0.6077 1.0080
8.7486 0.9225 1.0092
8.7293 1.2382 1.0115
8.7391 1.5610 1.0185
8.7525 1.8894 1.0274
8.7636 2.2233 1.0375
8.7705 2.5629 1.0488
8.7278 2.8937 1.0556
8.6821 3.2283 1.0637
8.6561 3.5768 1.0759
8.6512 3.9435 1.0926
8.6430 4.3203 1.1109
8.6215 4.7031 1.1296
8.5750 5.0848 1.1472
8.5239 5.4767 1.1665
8.6800 6.0272 1.2174
8.9011 6.6659 1.2819
8.8062 7.1014 1.3049
8.7062 7.5514 1.3303
8.6057 8.0225 1.3591
8.4949 8.5084 1.3899
8.3487 8.9841 1.4190
8.1811 9.4625 1.4485
8.0011 9.9541 1.4801
7.8046 10.4562 1.5135
7.7432 11.1894 1.5799
7.8158 12.2074 1.6846
7.7213 13.0690 1.7659
7.5706 13.9313 1.8464
6.0673 12.1871 1.5870
5.6206 12.3836 1.5870
5.1675 12.5635 1.5870
4.7086 12.7267 1.5870
4.2445 12.8728 1.5870
3.7760 13.0019 1.5870
3.3036 13.1137 1.5870
2.8280 13.2083 1.5870
2.4784 14.0120 1.6738
1.9915 14.2134 1.6903
1.4789 14.2585 1.6903
0.9655 14.2851 1.6903
0.4522 14.2931 1.6903
-0.0605 14.2826 1.6903
-0.5719 14.2537 1.6903
-1.0812 14.2066 1.6903
-1.5880 14.1413 1.6903
-2.0915 14.0580 1.6903
-2.5910 13.9569 1.6903
-3.0861 13.8381 1.6903
-3.5759 13.7019 1.6903
-4.0601 13.5485 1.6903
-4.5379 13.3782 1.6903
6.9739 9.4774 1.6345
6.4321 9.4315 1.5870
6.0850 9.6481 1.5870
5.7305 9.8518 1.5870
5.3690 10.0423 1.5870
5.0012 10.2194 1.5870
4.6275 10.3828 1.5870
4.2485 10.5323 1.5870
3.8646 10.6679 1.5870
3.4764 10.7894 1.5870
3.0844 10.8966 1.5870
2.6892 10.9894 1.5870
2.4403 11.7879 1.6903
2.0141 11.8560 1.6903
1.5862 11.9086 1.6903
1.1570 11.9457 1.6903
0.7272 11.9672 1.6903
0.2974 11.9733 1.6903
-0.1319 11.9639 1.6903
-0.5603 11.9391 1.6903
-0.9870 11.8990 1.6903
-1.4115 11.8437 1.6903
-1.8334 11.7733 1.6903
-2.2521 11.6879 1.6903
-2.6670 11.5877 1.6903
-3.0776 11.4729 1.6903
-3.4835 11.3436 1.6903
-3.8841 11.2001 1.6903
-4.2790 11.0425 1.6903
-4.6676 10.8712 1.6903
-5.0496 10.6864 1.6903
-5.4243 10.4883 1.6903
-5.5936 9.9261 1.6325
-5.7875 9.4600 1.5905
-6.1047 9.2186 1.5872
-6.4256 8.9856 1.5872
-6.7378 8.7416 1.5872
-7.0409 8.4870 1.5872
-7.3346 8.2220 1.5872
-7.6185 7.9471 1.5872
-7.8924 7.6626 1.5872
-8.1559 7.3689 1.5872
-8.4086 7.0663 1.5872
-8.6504 6.7552 1.5872
-8.8809 6.4360 1.5872
-9.1000 6.1092 1.5872
-9.3073 5.7751 1.5872
-5.9324 3.3925 0.9909
-9.7021 5.0954 1.5898
-5.8554 2.8119 0.9429
-5.8744 2.5660 0.9310
-9.1764 3.6221 1.4335
-10.3103 3.6478 1.5898
-10.4300 3.2742 1.5898
-10.5366 2.8968 1.5898
-10.6300 2.5160 1.5898
-10.7099 2.1323 1.5898
-10.7764 1.7462 1.5898
-10.8293 1.3581 1.5898
-10.8687 0.9685 1.5898
-10.8944 0.5778 1.5898
-10.9065 0.1866 1.5898
-10.9049 -0.2048 1.5898
-10.8897 -0.5959 1.5898
-9.2014 -0.8355 1.3469
-10.8185 -1.3752 1.5898
-10.7625 -1.7625 1.5898
-10.6931 -2.1477 1.5898
-10.6102 -2.5302 1.5898
-10.5141 -2.9096 1.5898
-10.4047 -3.2855 1.5898
-10.2823 -3.6575 1.5898
-10.1469 -4.0250 1.5898
-9.9988 -4.3876 1.5898
-9.8380 -4.7450 1.5898
-9.6486 -5.0882 1.5872
-9.4636 -5.4332 1.5872
-9.2664 -5.7716 1.5872
-9.0574 -6.1031 1.5872
-8.8369 -6.4272 1.5872
-8.6051 -6.7435 1.5872
-8.3622 -7.0517 1.5872
-8.1085 -7.3514 1.5872
-7.8443 -7.6422 1.5872
-7.5700 -7.9237 1.5872
-7.2857 -8.1956 1.5872
-6.9918 -8.4575 1.5872
-6.6887 -8.7091 1.5872
-6.3768 -8.9501 1.5872
-6.0563 -9.1801 1.5872
-5.7276 -9.3989 1.5872
-5.7151 -10.1832 1.6825
-5.3752 -10.4381 1.6903
-5.0016 -10.6334 1.6903
-4.6211 -10.8154 1.6903
-4.2340 -10.9840 1.6903
-3.8409 -11.1390 1.6903
-3.4421 -11.2801 1.6903
-3.0382 -11.4071 1.6903
-2.6297 -11.5198 1.6903
-2.2170 -11.6180 1.6903
-1.8007 -11.7016 1.6903
-1.3813 -11.7704 1.6903
-0.9593 -11.8242 1.6903
-0.5352 -11.8631 1.6903
-0.1095 -11.8868 1.6903
0.3171 -11.8953 1.6903
0.7442 -11.8885 1.6903
1.1712 -11.8664 1.6903
1.5976 -11.8291 1.6903
2.0228 -11.7764 1.6903
2.3317 -11.1598 1.6111
2.6923 -10.9150 1.5870
3.0851 -10.8226 1.5870
3.4747 -10.7160 1.5870
3.8606 -10.5953 1.5870
4.2422 -10.4606 1.5870
4.6191 -10.3121 1.5870
4.9908 -10.1500 1.5870
5.3567 -9.9743 1.5870
5.7163 -9.7853 1.5870
6.0692 -9.5832 1.5870
7.0921 -10.3573 1.7546
7.4139 -10.0355 1.7424
7.5114 -9.4398 1.6831
7.5937 -8.8709 1.6278
7.6677 -8.3332 1.5772
7.7229 -7.8117 1.5287
7.7508 -7.2972 1.4802
7.7893 -6.8236 1.4388
7.8232 -6.3725 1.4008
7.8588 -5.9460 1.3671
7.9254 -5.5612 1.3422
8.0093 -5.2020 1.3230
8.0886 -4.8503 1.3057
8.1635 -4.5056 1.2901
8.2204 -4.1598 1.2739
8.2566 -3.8128 1.2568
8.2898 -3.4734 1.2414
8.3216 -3.1411 1.2279
8.3503 -2.8144 1.2159
8.3763 -2.4926 1.2054
8.4222 -2.1810 1.1995
8.4688 -1.8719 1.1953
8.5126 -1.5640 1.1925
8.5209 -1.2517 1.1862
8.5202 -0.9411 1.1804
8.5169 -0.6328 1.1758
8.5062 -0.3261 1.1717
8.4911 -0.0210 1.1686
8.4736 0.2829 1.1667
8.4550 0.5862 1.1662
8.4382 0.8898 1.1675
8.4189 1.1942 1.1700
8.3972 1.4999 1.1738
8.3925 1.8116 1.1816
8.3998 2.1309 1.1927
8.4044 2.4558 1.2053
8.3745 2.7764 1.2148
8.3281 3.0965 1.2236
8.2783 3.4204 1.2339
8.2249 3.7489 1.2456
8.1962 4.0967 1.2631
8.1778 4.4607 1.2846
8.1367 4.8245 1.3050
8.0816 5.1920 1.3258
8.0212 5.5692 1.3484
7.9553 5.9570 1.3731
7.9858 6.4392 1.4181
7.9632 6.9063 1.4580
7.8467 7.3141 1.4846
7.7204 7.7318 1.5132
7.5838 8.1600 1.5438
7.4106 8.5702 1.5712
7.2277 8.9907 1.6010
7.0161 9.3985 1.6289
6.7912 9.8122 1.6587
6.1522 9.6075 1.5870
5.7991 9.8137 1.5870
5.4389 10.0068 1.5870
5.0723 10.1864 1.5870
4.6997 10.3525 1.5870
4.3216 10.5047 1.5870
3.9386 10.6430 1.5870
3.5512 10.7672 1.5870
3.1599 10.8771 1.5870
2.7653 10.9727 1.5870
2.4631 11.4990 1.6509
2.0961 11.8441 1.6903
1.6684 11.8997 1.6903
1.2394 11.9397 1.6903
0.8098 11.9643 1.6903
0.3799 11.9733 1.6903
-0.0496 11.9669 1.6903
-0.4782 11.9451 1.6903
-0.9052 11.9079 1.6903
-1.3302 11.8555 1.6903
-1.7527 11.7880 1.6903
-2.1720 11.7054 1.6903
-2.5876 11.6081 1.6903
-2.9991 11.4960 1.6903
-3.4060 11.3695 1.6903
-3.8077 11.2287 1.6903
5.8089 7.8930 1.5870
5.5185 8.0906 1.5870
5.2213 8.2774 1.5870
4.9177 8.4532 1.5870
4.6082 8.6176 1.5870
4.2931 8.7706 1.5870
3.9729 8.9120 1.5870
3.6480 9.0415 1.5870
3.3188 9.1591 1.5870
2.9860 9.2646 1.5870
2.6620 9.4011 1.5944
2.4541 10.0251 1.6856
2.0972 10.1261 1.6903
1.7313 10.1859 1.6903
1.3639 10.2326 1.6903
0.9952 10.2659 1.6903
0.6260 10.2858 1.6903
0.2566 10.2925 1.6903
-0.1125 10.2859 1.6903
-0.4808 10.2661 1.6903
-0.8478 10.2330 1.6903
-1.2131 10.1869 1.6903
-1.5762 10.1278 1.6903
-1.9366 10.0557 1.6903
-2.2939 9.9709 1.6903
-2.6476 9.8735 1.6903
-2.9974 9.7636 1.6903
-3.3426 9.6414 1.6903
-3.6830 9.5071 1.6903
-4.0182 9.3609 1.6903
-4.3476 9.2029 1.6903
-4.6710 9.0335 1.6903
-4.9878 8.8528 1.6903
-5.2979 8.6612 1.6903
-5.6006 8.4589 1.6903
-5.6118 7.8488 1.6088
-5.8059 7.5338 1.5872
-6.0679 7.3152 1.5872
-6.3217 7.0877 1.5872
-6.5672 6.8515 1.5872
-6.8040 6.6069 1.5872
-7.0319 6.3543 1.5872
-7.2506 6.0939 1.5872
-7.4599 5.8263 1.5872
-7.6594 5.5515 1.5872
-7.8491 5.2701 1.5872
-5.9370 3.6843 1.1737
-5.9482 3.4020 1.1516
-8.3565 4.3892 1.5872
-5.8490 2.8093 1.0916
-5.8594 2.5597 1.0762
-8.7678 3.4612 1.5872
-8.8828 3.1432 1.5872
-8.9865 2.8214 1.5872
-9.0788 2.4963 1.5872
-9.1597 2.1683 1.5872
-9.2290 1.8377 1.5872
-9.2866 1.5050 1.5872
-9.3326 1.1706 1.5872
-9.3668 0.8348 1.5872
-9.3892 0.4981 1.5872
-9.3998 0.1609 1.5872
-9.3986 -0.1765 1.5872
-9.3856 -0.5136 1.5872
-9.2015 -0.8355 1.5602
-9.3242 -1.1853 1.5872
-9.2759 -1.5191 1.5872
-9.2160 -1.8511 1.5872
-9.1444 -2.1808 1.5872
-9.0614 -2.5078 1.5872
-8.9670 -2.8317 1.5872
-8.8612 -3.1522 1.5872
-8.7443 -3.4688 1.5872
-8.6163 -3.7813 1.5872
-8.4774 -4.0891 1.5872
-8.3277 -4.3920 1.5872
-8.1675 -4.6895 1.5872
-7.9969 -4.9813 1.5872
-7.8161 -5.2671 1.5872
-7.6253 -5.5465 1.5872
-7.4247 -5.8191 1.5872
-7.2146 -6.0846 1.5872
-6.9951 -6.3427 1.5872
-6.7666 -6.5930 1.5872
-6.5294 -6.8353 1.5872
-6.2835 -7.0692 1.5872
-6.0295 -7.2945 1.5872
-5.7676 -7.5108 1.5872
-5.7018 -8.0039 1.6460
-5.5602 -8.4294 1.6903
-5.2578 -8.6294 1.6903
-4.9484 -8.8187 1.6903
-4.6323 -8.9971 1.6903
-4.3098 -9.1643 1.6903
-3.9813 -9.3201 1.6903
-3.6473 -9.4642 1.6903
-3.3081 -9.5966 1.6903
-2.9642 -9.7169 1.6903
-2.6159 -9.8250 1.6903
-2.2638 -9.9208 1.6903
-1.9081 -10.0040 1.6903
-1.5494 -10.0747 1.6903
-1.1882 -10.1325 1.6903
-0.8248 -10.1775 1.6903
-0.4596 -10.2095 1.6903
-0.0933 -10.2284 1.6903
0.2738 -10.2343 1.6903
0.6411 -10.2271 1.6903
1.0084 -10.2066 1.6903
1.3749 -10.1730 1.6903
1.7404 -10.1263 1.6903
2.1042 -10.0664 1.6903
2.3431 -9.4955 1.6061
2.6526 -9.3022 1.5870
2.9871 -9.2093 1.5870
3.3182 -9.1043 1.5870
3.6457 -8.9873 1.5870
3.9689 -8.8585 1.5870
4.2876 -8.7180 1.5870
4.6013 -8.5659 1.5870
4.9095 -8.4025 1.5870
5.2118 -8.2278 1.5870
5.5079 -8.0422 1.5870
5.7972 -7.8459 1.5870
6.0795 -7.6390 1.5870
6.3542 -7.4218 1.5870
7.0505 -7.6613 1.6899
7.2831 -7.3658 1.6801
7.4161 -6.9811 1.6508
7.4617 -6.5357 1.6066
7.5022 -6.1103 1.5661
7.5381 -5.7026 1.5289
7.6193 -5.3457 1.5046
7.7040 -5.0030 1.4841
7.7839 -4.6670 1.4655
7.8593 -4.3372 1.4487
7.9284 -4.0116 1.4332
7.9669 -3.6786 1.4147
8.0030 -3.3528 1.3982
8.0365 -3.0331 1.3836
8.0668 -2.7185 1.3706
8.0942 -2.4083 1.3592
8.1249 -2.1037 1.3504
8.1707 -1.8058 1.3459
8.2133 -1.5087 1.3428
8.2167 -1.2068 1.3351
8.2173 -0.9075 1.3287
8.2153 -0.6102 1.3238
8.2106 -0.3146 1.3202
8.1985 -0.0202 1.3171
8.1821 0.2732 1.3151
8.1639 0.5660 1.3145
8.1473 0.8591 1.3159
8.1281 1.1529 1.3186
8.1063 1.4479 1.3227
8.0816 1.7444 1.3281
8.0630 2.0453 1.3364
8.0640 2.3562 1.3499
8.0467 2.6676 1.3624
7.9999 2.9743 1.3719
7.9495 3.2844 1.3829
7.8954 3.5984 1.3954
7.8373 3.9170 1.4095
7.7751 4.2407 1.4252
7.7387 4.5881 1.4483
7.6805 4.9339 1.4701
7.6168 5.2879 1.4939
7.5475 5.6511 1.5198
7.4520 6.0082 1.5437
7.2880 6.3200 1.5564
7.1147 6.6311 1.5700
6.9518 6.9612 1.5890
6.7777 7.2917 1.6089
6.4196 7.4231 1.5870
6.1455 7.6436 1.5870
5.8638 7.8538 1.5870
5.5748 8.0535 1.5870
5.2789 8.2424 1.5870
4.9765 8.4203 1.5870
4.6680 8.5869 1.5870
4.3540 8.7421 1.5870
4.0347 8.8857 1.5870
3.7107 9.0176 1.5870
3.3823 9.1374 1.5870
3.0501 9.2453 1.5870
2.7145 9.3409 1.5870
2.4523 9.7273 1.6381
2.1672 10.1131 1.6903
1.8017 10.1755 1.6903
1.4345 10.2246 1.6903
1.0661 10.2605 1.6903
0.6969 10.2830 1.6903
0.3275 10.2923 1.6903
-0.0417 10.2882 1.6903
-0.4102 10.2709 1.6903
-0.7775 10.2404 1.6903
-1.1432 10.1968 1.6903
-1.5067 10.1401 1.6903
-1.8676 10.0706 1.6903
-2.2256 9.9882 1.6903
-2.5800 9.8932 1.6903
-2.9305 9.7857 1.6903
-3.2767 9.6658 1.6903
5.0814 6.9036 1.5870
4.8279 7.0770 1.5870
4.5683 7.2410 1.5870
4.3031 7.3954 1.5870
4.0327 7.5400 1.5870
3.7573 7.6746 1.5870
3.4774 7.7990 1.5870
3.1934 7.9131 1.5870
2.9057 8.0168 1.5870
2.6146 8.1099 1.5870
0.8667 3.0598 0.5927
0.7565 3.0889 0.5932
0.6452 3.1140 0.5936
0.5332 3.1352 0.5941
0.4205 3.1524 0.5946
0.3072 3.1655 0.5950
0.1935 3.1746 0.5955
0.0796 3.1797 0.5960
-0.0345 3.1807 0.5965
-0.1485 3.1777 0.5971
-0.2624 3.1706 0.5976
-0.3759 3.1594 0.5981
-0.4891 3.1443 0.5986
-0.6016 3.1251 0.5992
-0.7133 3.1019 0.5997
-0.8242 3.0747 0.6003
-2.6277 8.5622 1.6903
-2.9308 8.4559 1.6903
-3.2296 8.3390 1.6903
-3.5240 8.2115 1.6903
-3.8133 8.0738 1.6903
-4.0974 7.9260 1.6903
-4.3759 7.7682 1.6903
-4.6483 7.6008 1.6903
-4.9145 7.4240 1.6903
-5.1740 7.2379 1.6903
-5.4267 7.0428 1.6903
-5.6118 6.7665 1.6723
-5.6214 6.3035 1.6078
-5.7655 6.0159 1.5872
-5.9739 5.8016 1.5872
-6.1745 5.5803 1.5872
-6.3670 5.3521 1.5872
-6.5513 5.1173 1.5872
-6.7270 4.8764 1.5872
-6.8941 4.6295 1.5872
-7.0523 4.3770 1.5872
-6.1273 3.5049 1.3505
-7.3412 3.8565 1.5872
-5.8427 2.8066 1.2411
-5.8451 2.5538 1.2219
-7.7038 3.0416 1.5872
-7.8052 2.7622 1.5872
-7.8967 2.4796 1.5872
-7.9782 2.1940 1.5872
-8.0496 1.9058 1.5872
-8.1107 1.6153 1.5872
-8.1616 1.3229 1.5872
-8.2022 1.0290 1.5872
-8.2325 0.7339 1.5872
-8.2523 0.4379 1.5872
-8.2618 0.1415 1.5872
-8.2608 -0.1550 1.5872
-8.2495 -0.4513 1.5872
-8.2277 -0.7471 1.5872
-8.1955 -1.0418 1.5872
-8.1531 -1.3353 1.5872
-8.1003 -1.6271 1.5872
-8.0374 -1.9168 1.5872
-7.9642 -2.2043 1.5872
-7.8811 -2.4890 1.5872
-7.7880 -2.7706 1.5872
-7.6850 -3.0488 1.5872
-7.5723 -3.3234 1.5872
-7.4500 -3.5938 1.5872
-7.3182 -3.8599 1.5872
-7.1771 -4.1212 1.5872
-7.0268 -4.3775 1.5872
-6.8676 -4.6284 1.5872
-6.6996 -4.8736 1.5872
-6.5230 -5.1129 1.5872
-6.3380 -5.3459 1.5872
-6.1449 -5.5723 1.5872
-5.9438 -5.7919 1.5872
-5.7349 -6.0044 1.5872
-5.6921 -6.4046 1.6371
-5.6391 -6.8229 1.6903
-5.3936 -7.0248 1.6903
-5.1411 -7.2178 1.6903
-4.8817 -7.4020 1.6903
-4.6158 -7.5770 1.6903
-4.3438 -7.7425 1.6903
-4.0659 -7.8985 1.6903
-3.7824 -8.0445 1.6903
-3.4937 -8.1806 1.6903
-3.2003 -8.3063 1.6903
-2.9024 -8.4217 1.6903
-2.6002 -8.5265 1.6903
-2.2944 -8.6205 1.6903
-1.9852 -8.7037 1.6903
-1.6730 -8.7758 1.6903
-1.3583 -8.8369 1.6903
-1.0413 -8.8867 1.6903
-0.7224 -8.9252 1.6903
-0.4022 -8.9523 1.6903
-0.0810 -8.9680 1.6903
0.2408 -8.9722 1.6903
0.5628 -8.9648 1.6903
0.8846 -8.9460 1.6903
1.2058 -8.9156 1.6903
1.5259 -8.8736 1.6903
1.8445 -8.8202 1.6903
2.1613 -8.7553 1.6903
2.3510 -8.2416 1.6051
2.6172 -8.0666 1.5870
2.9070 -7.9738 1.5870
3.1935 -7.8705 1.5870
3.4762 -7.7569 1.5870
3.7549 -7.6330 1.5870
4.0291 -7.4991 1.5870
4.2985 -7.3553 1.5870
4.5627 -7.2017 1.5870
4.8213 -7.0386 1.5870
5.0741 -6.8660 1.5870
5.3205 -6.6843 1.5870
5.5605 -6.4937 1.5870
5.7934 -6.2944 1.5870
6.0192 -6.0866 1.5870
6.2373 -5.8706 1.5870
6.7266 -5.8911 1.6557
6.8395 -5.5697 1.6323
7.0182 -5.3086 1.6276
7.2115 -5.0589 1.6284
7.4093 -4.8109 1.6322
7.4993 -4.4958 1.6147
7.5751 -4.1798 1.5969
7.6464 -3.8684 1.5810
7.6950 -3.5526 1.5630
7.7334 -3.2394 1.5456
7.7684 -2.9315 1.5300
7.8001 -2.6282 1.5162
7.8286 -2.3290 1.5040
7.8540 -2.0333 1.4935
7.8909 -1.7437 1.4872
7.9267 -1.4559 1.4828
7.9314 -1.1647 1.4746
7.9333 -0.8759 1.4679
7.9323 -0.5891 1.4626
7.9285 -0.3037 1.4588
7.9219 -0.0194 1.4563
7.9080 0.2641 1.4545
7.8902 0.5471 1.4538
7.8740 0.8303 1.4553
7.8549 1.1141 1.4583
7.8329 1.3990 1.4626
7.8081 1.6853 1.4684
7.7803 1.9735 1.4757
7.7493 2.2641 1.4844
7.7415 2.5662 1.4998
7.6945 2.8605 1.5099
7.6438 3.1578 1.5215
7.5892 3.4586 1.5347
7.5305 3.7633 1.5495
7.4559 4.0663 1.5636
7.3264 4.3433 1.5686
7.1902 4.6185 1.5744
7.0446 4.8902 1.5805
6.8924 5.1601 1.5875
6.7439 5.4367 1.5978
6.5906 5.7147 1.6097
6.2885 5.8604 1.5870
6.0715 6.0791 1.5870
5.8468 6.2895 1.5870
5.6146 6.4915 1.5870
5.3754 6.6848 1.5870
5.1294 6.8692 1.5870
4.8770 7.0445 1.5870
4.6186 7.2103 1.5870
4.3545 7.3665 1.5870
4.0850 7.5130 1.5870
3.8105 7.6495 1.5870
3.5315 7.7759 1.5870
3.2483 7.8920 1.5870
2.9612 7.9977 1.5870
2.6707 8.0929 1.5870
0.8877 3.0538 0.5927
0.7777 3.0836 0.5931
0.6666 3.1095 0.5935
0.5548 3.1314 0.5940
0.4421 3.1494 0.5945
0.3290 3.1633 0.5949
0.2154 3.1732 0.5954
0.1014 3.1790 0.5959
-0.0126 3.1808 0.5964
-0.1266 3.1786 0.5970
-0.2406 3.1723 0.5975
-0.3542 3.1619 0.5980
-0.4674 3.1475 0.5985
-0.5800 3.1291 0.5991
-0.6919 3.1067 0.5996
-0.8030 3.0803 0.6002
-2.5690 8.5813 1.6903
-2.8729 8.4771 1.6903
4.5118 6.1288 1.5870
4.2870 6.2832 1.5870
4.0568 6.4292 1.5870
3.8216 6.5668 1.5870
3.5817 6.6956 1.5870
3.3375 6.8156 1.5870
3.0891 6.9266 1.5870
2.8371 7.0285 1.5870
2.5817 7.1211 1.5870
0.8688 2.6941 0.5935
0.7716 2.7234 0.5938
0.6735 2.7493 0.5942
0.5746 2.7717 0.5946
0.4748 2.7905 0.5950
0.3745 2.8058 0.5955
0.2737 2.8175 0.5959
0.1725 2.8256 0.5963
0.0711 2.8300 0.5968
-0.0304 2.8309 0.5972
-0.1319 2.8282 0.5977
-0.2333 2.8218 0.5982
-0.3343 2.8119 0.5986
-0.4349 2.7983 0.5991
-0.5351 2.7812 0.5996
-0.6346 2.7605 0.6001
-0.7332 2.7363 0.6006
-0.8310 2.7086 0.6011
-2.6067 7.5230 1.6903
-2.8728 7.4196 1.6903
-3.1349 7.3068 1.6903
-3.3927 7.1848 1.6903
-3.6458 7.0538 1.6903
-3.8939 6.9140 1.6903
-4.1367 6.7655 1.6903
-4.3739 6.6086 1.6903
-4.6053 6.4434 1.6903
-4.8306 6.2702 1.6903
-5.0494 6.0893 1.6903
-5.2615 5.9008 1.6903
-5.4667 5.7050 1.6903
-5.6198 5.4585 1.6769
-5.6251 5.0845 1.6238
-5.6700 4.7668 1.5872
-5.8345 4.5580 1.5872
-5.9914 4.3437 1.5872
-6.1405 4.1240 1.5872
-6.2817 3.8993 1.5872
-6.4149 3.6698 1.5872
-6.5398 3.4359 1.5872
-5.8363 2.8039 1.3917
