ply
format ascii 1.0
element vertex 2178
property float32 x
property float32 y
property float32 z
end_header
9.9484 4.4468 1.7272
9.7855 4.8040 1.7272
9.6111 5.1559 1.7272
9.4253 5.5022 1.7272
9.2283 5.8426 1.7272
9.0202 6.1768 1.7272
8.8012 6.5044 1.7272
8.5715 6.8252 1.7272
8.3312 7.1389 1.7272
8.0805 7.4450 1.7272
7.8196 7.7433 1.7272
7.5487 8.0335 1.7272
7.2679 8.3154 1.7272
6.9776 8.5885 1.7272
6.6778 8.8525 1.7272
6.3689 9.1072 1.7272
6.0511 9.3523 1.7272
5.7246 9.5875 1.7272
5.3896 9.8123 1.7272
5.0465 10.0267 1.7272
4.6955 10.2302 1.7272
4.3369 10.4226 1.7272
3.9710 10.6035 1.7272
3.5980 10.7728 1.7272
3.2185 10.9300 1.7272
2.8325 11.0750 1.7272
2.4406 11.2076 1.7272
2.0430 11.3272 1.7272
1.6402 11.4339 1.7272
1.2324 11.5272 1.7272
0.8202 11.6069 1.7272
0.4039 11.6729 1.7272
-0.0160 11.7249 1.7272
-0.4392 11.7626 1.7272
-0.8651 11.7858 1.7272
-1.2933 11.7945 1.7272
-1.7233 11.7883 1.7272
-2.1546 11.7671 1.7272
-2.5867 11.7307 1.7272
-3.0191 11.6791 1.7272
-3.4513 11.6120 1.7272
-3.6505 10.8401 1.6240
-4.0548 10.7478 1.6240
-4.4572 10.6407 1.6240
-4.8572 10.5188 1.6240
-5.2543 10.3821 1.6240
-5.6479 10.2305 1.6240
-6.0374 10.0642 1.6240
-6.4222 9.8831 1.6240
-6.8017 9.6873 1.6240
-7.1752 9.4769 1.6240
-5.9244 7.2673 1.2756
-8.6239 9.8356 1.7722
-8.9161 9.4613 1.7541
-9.2802 9.1652 1.7527
-9.9597 9.1541 1.8105
-10.6940 9.1434 1.8757
-12.1044 9.6194 2.0532
-13.3355 9.8384 2.1923
-13.9117 9.5122 2.2211
-14.4076 9.1106 2.2385
-14.9613 8.7256 2.2663
-15.3950 8.2532 2.2777
-15.7329 7.7212 2.2776
-16.0501 7.1746 2.2773
-16.3460 6.6142 2.2769
-16.6198 6.0409 2.2765
-16.8707 5.4556 2.2759
-17.0998 4.8598 2.2755
-17.3219 4.2580 2.2772
-17.5197 3.6459 2.2788
-17.6924 3.0246 2.2802
-17.8259 2.3932 2.2798
-17.9289 1.7554 2.2786
-18.0056 1.1131 2.2774
-18.0559 0.4675 2.2761
-6.4767 -0.0646 0.8149
-18.0762 -0.8289 2.2732
-11.4962 -0.9411 1.4472
-11.8293 -1.3967 1.4927
-17.6516 -2.7289 2.2361
-10.7608 -2.0610 1.3706
-12.6638 -2.8996 1.6241
-11.1628 -2.9808 1.4437
-12.4331 -3.8023 1.6241
-12.2903 -4.2460 1.6241
-12.1296 -4.6836 1.6241
-11.9513 -5.1142 1.6241
-11.7557 -5.5372 1.6241
-11.5432 -5.9516 1.6241
-11.3141 -6.3569 1.6241
-11.0055 -6.7135 1.6148
-11.3569 -7.4993 1.7066
-11.2009 -7.9873 1.7272
-10.8922 -8.3719 1.7272
-10.5685 -8.7433 1.7272
-10.2307 -9.1009 1.7272
-9.8793 -9.4441 1.7272
-9.5151 -9.7723 1.7272
-9.1387 -10.0852 1.7272
-8.7509 -10.3822 1.7272
-8.3524 -10.6630 1.7272
-7.9441 -10.9272 1.7272
-7.5266 -11.1744 1.7272
-7.1007 -11.4045 1.7272
-6.6673 -11.6171 1.7272
-6.2271 -11.8120 1.7272
-5.7808 -11.9891 1.7272
-5.3294 -12.1483 1.7272
-4.8516 -12.2342 1.7194
-4.1502 -11.6706 1.6240
-3.7154 -11.7693 1.6240
-3.2787 -11.8511 1.6240
-2.8407 -11.9160 1.6240
-2.4021 -11.9640 1.6240
-1.9636 -11.9954 1.6240
-1.5258 -12.0101 1.6240
-1.0895 -12.0085 1.6240
-0.6552 -11.9906 1.6240
-0.2235 -11.9568 1.6240
0.2049 -11.9073 1.6240
0.6369 -11.9810 1.6430
1.0613 -11.8918 1.6419
1.4802 -11.7879 1.6408
1.8938 -11.6732 1.6403
2.3032 -11.5551 1.6413
2.7065 -11.4225 1.6422
3.1033 -11.2756 1.6431
3.4931 -11.1149 1.6439
3.8753 -10.9407 1.6447
4.2495 -10.7533 1.6455
4.6154 -10.5534 1.6462
4.9725 -10.3411 1.6468
5.3204 -10.1170 1.6474
5.6581 -9.8801 1.6476
5.9764 -9.6172 1.6453
6.2986 -9.3671 1.6468
6.5986 -9.0897 1.6453
6.8874 -8.8037 1.6438
7.1648 -8.5094 1.6422
7.4308 -8.2073 1.6407
7.6892 -7.9021 1.6400
7.9393 -7.5927 1.6400
8.1778 -7.2762 1.6400
7.7562 -6.4165 1.5135
8.6198 -6.6236 1.6400
8.8231 -6.2883 1.6400
9.0177 -5.9498 1.6406
9.2064 -5.6097 1.6423
9.3835 -5.2643 1.6440
9.5489 -4.9141 1.6458
9.7048 -4.5604 1.6479
9.8637 -4.2086 1.6526
10.0099 -3.8514 1.6571
10.1429 -3.4890 1.6614
10.0069 -3.0441 1.6240
10.0873 -2.6759 1.6240
10.1554 -2.3062 1.6240
10.2113 -1.9353 1.6240
10.2549 -1.5635 1.6240
10.2865 -1.1912 1.6240
10.3059 -0.8187 1.6241
10.3131 -0.4465 1.6241
7.6505 -0.0555 1.2053
7.6711 0.2207 1.2106
10.2630 0.6657 1.6241
10.8712 1.0994 1.7272
10.8154 1.4889 1.7272
10.7472 1.8761 1.7272
10.6665 2.2606 1.7272
10.5736 2.6421 1.7272
10.4685 3.0203 1.7272
10.3513 3.3947 1.7272
10.2221 3.7652 1.7272
10.0810 4.1313 1.7272
9.9282 4.4928 1.7272
9.7638 4.8494 1.7272
9.5879 5.2006 1.7272
9.4007 5.5462 1.7272
9.2023 5.8858 1.7272
8.9928 6.2192 1.7272
8.7724 6.5459 1.7272
8.5413 6.8658 1.7272
8.2997 7.1785 1.7272
8.0477 7.4836 1.7272
7.7855 7.7810 1.7272
7.5133 8.0701 1.7272
7.2313 8.3508 1.7272
6.9397 8.6228 1.7272
6.6388 8.8857 1.7272
6.3287 9.1392 1.7272
6.6245 -6.8757 1.6400
6.8455 -6.6118 1.6400
7.0567 -6.3415 1.6400
7.2580 -6.0649 1.6400
7.4491 -5.7825 1.6400
7.6319 -5.4961 1.6404
7.8087 -5.2073 1.6417
7.9753 -4.9133 1.6430
8.1315 -4.6144 1.6443
8.2774 -4.3110 1.6456
8.4126 -4.0034 1.6468
8.5398 -3.6930 1.6486
8.6669 -3.3832 1.6523
8.8062 -3.0770 1.6603
8.9691 -2.7759 1.6746
8.7717 -2.3723 1.6240
8.8348 -2.0511 1.6240
8.8871 -1.7286 1.6240
8.9287 -1.4051 1.6240
8.9595 -1.0809 1.6240
8.9796 -0.7565 1.6240
8.9890 -0.4320 1.6240
8.9878 -0.1078 1.6241
7.6181 0.1831 1.3784
8.9534 0.5384 1.6241
8.9204 0.8598 1.6241
8.8769 1.1796 1.6241
9.3833 1.5928 1.7272
9.3150 1.9288 1.7272
9.2358 2.2622 1.7272
9.1457 2.5927 1.7272
9.0450 2.9201 1.7272
8.9336 3.2439 1.7272
8.8117 3.5639 1.7272
8.6794 3.8799 1.7272
8.5368 4.1914 1.7272
8.3840 4.4983 1.7272
8.2212 4.8001 1.7272
8.0485 5.0966 1.7272
7.8661 5.3876 1.7272
7.6740 5.6727 1.7272
7.4725 5.9517 1.7272
7.2617 6.2242 1.7272
7.0418 6.4899 1.7272
6.8130 6.7487 1.7272
6.5754 7.0002 1.7272
6.3292 7.2441 1.7272
6.0748 7.4802 1.7272
5.8121 7.7082 1.7272
5.5415 7.9278 1.7272
5.2633 8.1388 1.7272
4.9775 8.3409 1.7272
4.6845 8.5338 1.7272
4.3846 8.7173 1.7272
4.0779 8.8911 1.7272
3.7648 9.0549 1.7272
3.4455 9.2086 1.7272
3.1204 9.3519 1.7272
2.7896 9.4846 1.7272
2.4536 9.6063 1.7272
2.1127 9.7170 1.7272
1.7672 9.8163 1.7272
1.4173 9.9042 1.7272
1.0636 9.9803 1.7272
0.7063 10.0444 1.7272
0.3458 10.0965 1.7272
-0.0175 10.1363 1.7272
-0.3832 10.1636 1.7272
-0.7508 10.1783 1.7272
-1.1201 10.1803 1.7272
-1.4905 10.1694 1.7272
-1.8616 10.1455 1.7272
-2.2330 10.1085 1.7272
-2.6042 10.0582 1.7272
-2.7969 9.3972 1.6240
-3.1442 9.3249 1.6240
-3.4900 9.2401 1.6240
-3.8337 9.1426 1.6240
-4.1751 9.0325 1.6240
-4.5134 8.9097 1.6240
-4.8483 8.7744 1.6240
-5.1793 8.6266 1.6240
-5.5059 8.4662 1.6240
-5.8276 8.2935 1.6240
-6.1438 8.1084 1.6240
-5.9117 7.2464 1.4875
-7.2529 8.2662 1.7429
-7.5511 8.0073 1.7382
-7.8786 7.7756 1.7421
-8.1995 7.5312 1.7461
-8.5133 7.2740 1.7502
-8.8051 6.9928 1.7516
-9.0817 6.6957 1.7520
-9.5034 6.4938 1.7815
-9.9620 6.2952 1.8183
-10.7224 6.2493 1.9091
-12.5636 6.7308 2.1860
-12.9545 6.3533 2.2065
-13.3496 5.9632 2.2297
-13.7352 5.5537 2.2533
-14.0825 5.1148 2.2728
-14.2924 4.6182 2.2728
-14.4831 4.1127 2.2728
-14.6100 3.5881 2.2659
-14.7406 3.0646 2.2628
-14.8125 2.5294 2.2539
-9.8436 1.3198 1.4868
-14.9483 1.4611 2.2445
-15.0337 0.9271 2.2471
-15.0419 0.3874 2.2414
-6.4761 -0.0654 0.9634
-10.9190 -0.5019 1.6240
-10.9062 -0.8938 1.6240
-10.8777 -1.2853 1.6240
-10.8337 -1.6756 1.6240
-10.7601 -2.0615 1.6218
-10.6991 -2.4502 1.6240
-10.6086 -2.8331 1.6240
-10.5030 -3.2122 1.6240
-10.3822 -3.5869 1.6240
-10.2466 -3.9564 1.6240
-10.0974 -4.3206 1.6241
-9.9328 -4.6781 1.6241
-9.7541 -5.0286 1.6241
-9.9647 -5.5979 1.6926
-9.9498 -6.0685 1.7272
-9.7171 -6.4152 1.7272
-9.4710 -6.7522 1.7272
-9.2120 -7.0788 1.7272
-8.9405 -7.3945 1.7272
-8.6571 -7.6989 1.7272
-8.3623 -7.9914 1.7272
-8.0566 -8.2716 1.7272
-7.7406 -8.5392 1.7272
-7.4149 -8.7937 1.7272
-7.0801 -9.0349 1.7272
-6.7367 -9.2623 1.7272
-6.3855 -9.4757 1.7272
-6.0270 -9.6749 1.7272
-5.6619 -9.8596 1.7272
-5.2907 -10.0296 1.7272
-4.9142 -10.1849 1.7272
-4.5330 -10.3252 1.7272
-4.1477 -10.4504 1.7272
-3.7589 -10.5605 1.7272
-3.1661 -10.0185 1.6240
-2.7959 -10.0936 1.6240
-2.4242 -10.1544 1.6240
-2.0516 -10.2010 1.6240
-1.6788 -10.2342 1.6241
-1.3061 -10.2526 1.6241
-0.9341 -10.2571 1.6240
-0.5635 -10.2478 1.6240
-0.1947 -10.2248 1.6240
0.1717 -10.1884 1.6240
0.5353 -10.1388 1.6240
0.8956 -10.0761 1.6240
1.2520 -10.0005 1.6240
1.6043 -9.9124 1.6240
1.9794 -9.9502 1.6468
2.3245 -9.8267 1.6452
2.6635 -9.6921 1.6438
2.9962 -9.5465 1.6424
3.3221 -9.3904 1.6410
3.6418 -9.2256 1.6401
3.9577 -9.0589 1.6407
4.2665 -8.8814 1.6413
4.5677 -8.6935 1.6418
4.8597 -8.4933 1.6418
5.1406 -8.2791 1.6409
5.4129 -8.0563 1.6400
5.6792 -7.8293 1.6400
5.9366 -7.5941 1.6400
6.1849 -7.3509 1.6400
6.4239 -7.1002 1.6400
6.6534 -6.8423 1.6400
6.8731 -6.5776 1.6400
7.0830 -6.3064 1.6400
7.2830 -6.0291 1.6400
7.4728 -5.7460 1.6400
7.6551 -5.4594 1.6406
7.8306 -5.1700 1.6419
7.9958 -4.8753 1.6432
8.1508 -4.5758 1.6444
8.2953 -4.2718 1.6457
8.4292 -3.9637 1.6470
8.5567 -3.6536 1.6490
8.6825 -3.3432 1.6528
8.8275 -3.0389 1.6621
8.7079 -2.6511 1.6240
8.7804 -2.3313 1.6240
8.8421 -2.0099 1.6240
8.8930 -1.6872 1.6240
8.9332 -1.3636 1.6240
8.9627 -1.0394 1.6240
8.9814 -0.7149 1.6240
8.9895 -0.3905 1.6241
7.6431 -0.0564 1.3812
7.6145 0.2182 1.3781
8.9498 0.5796 1.6241
8.9154 0.9008 1.6241
8.8705 1.2205 1.6241
9.3751 1.6360 1.7272
9.3054 1.9716 1.7272
9.2248 2.3047 1.7272
9.1334 2.6348 1.7272
9.0313 2.9618 1.7272
8.9186 3.2851 1.7272
8.7953 3.6046 1.7272
8.6617 3.9200 1.7272
8.5178 4.2310 1.7272
8.3637 4.5372 1.7272
8.1997 4.8384 1.7272
8.0257 5.1342 1.7272
7.8420 5.4245 1.7272
7.6487 5.7088 1.7272
7.4460 5.9869 1.7272
7.2341 6.2586 1.7272
7.0130 6.5235 1.7272
6.7830 6.7814 1.7272
6.5444 7.0319 1.7272
6.2971 7.2748 1.7272
6.0416 7.5099 1.7272
5.7779 7.7369 1.7272
5.5063 7.9554 1.7272
5.8339 -6.0594 1.6406
6.0303 -5.8284 1.6404
6.2183 -5.5918 1.6403
6.3979 -5.3498 1.6403
6.5690 -5.1028 1.6404
6.7338 -4.8526 1.6411
6.8925 -4.5994 1.6425
7.0427 -4.3417 1.6440
7.1843 -4.0796 1.6456
7.3173 -3.8136 1.6473
7.4414 -3.5437 1.6491
7.5618 -3.2724 1.6521
7.6940 -3.0056 1.6596
7.6146 -2.6627 1.6240
7.6911 -2.3823 1.6240
7.7581 -2.1000 1.6240
7.8155 -1.8162 1.6240
7.8633 -1.5310 1.6240
7.9015 -1.2449 1.6240
7.9301 -0.9581 1.6240
7.9492 -0.6709 1.6240
7.9587 -0.3836 1.6240
7.9586 -0.0965 1.6240
7.6107 0.1820 1.5549
7.9300 0.4760 1.6240
7.9015 0.7608 1.6240
7.8636 1.0443 1.6240
8.3132 1.4106 1.7272
8.2532 1.7085 1.7272
8.1833 2.0041 1.7272
8.1037 2.2971 1.7272
8.0146 2.5873 1.7272
7.9159 2.8744 1.7272
7.8078 3.1580 1.7272
7.6903 3.4380 1.7272
7.5636 3.7140 1.7272
7.4279 3.9858 1.7272
7.2831 4.2531 1.7272
7.1295 4.5155 1.7272
6.9672 4.7730 1.7272
6.7963 5.0251 1.7272
6.6170 5.2716 1.7272
6.4294 5.5123 1.7272
6.2338 5.7470 1.7272
6.0302 5.9752 1.7272
5.8188 6.1969 1.7272
5.5998 6.4117 1.7272
5.3735 6.6195 1.7272
5.1400 6.8199 1.7272
4.8995 7.0127 1.7272
4.6522 7.1977 1.7272
4.3984 7.3746 1.7272
4.1383 7.5433 1.7272
3.8721 7.7035 1.7272
3.6001 7.8549 1.7272
3.3224 7.9974 1.7272
3.0395 8.1308 1.7272
2.7515 8.2548 1.7272
0.8945 3.0447 0.6283
0.7844 3.0752 0.6268
0.6733 3.1018 0.6252
0.5614 3.1245 0.6236
0.4487 3.1431 0.6220
0.3354 3.1577 0.6204
0.2217 3.1683 0.6187
0.1076 3.1748 0.6170
-0.0066 3.1772 0.6153
-0.1209 3.1756 0.6136
-0.2350 3.1699 0.6118
-0.3489 3.1601 0.6101
-0.4623 3.1463 0.6083
-0.5753 3.1284 0.6066
-0.6875 3.1066 0.6048
-0.7989 3.0807 0.6030
-2.4561 8.2406 1.6240
-2.7595 8.1736 1.6240
-3.0613 8.0956 1.6240
-3.3610 8.0066 1.6240
-3.6583 7.9066 1.6240
-3.9527 7.7956 1.6240
-4.2439 7.6738 1.6240
-4.5314 7.5410 1.6240
-4.8148 7.3974 1.6240
-5.0936 7.2432 1.6240
-5.3674 7.0784 1.6240
-5.6358 6.9032 1.6240
-5.8984 6.7176 1.6240
-6.1547 6.5219 1.6240
-6.9897 6.8936 1.7724
-7.2300 6.6362 1.7664
-7.4649 6.3739 1.7615
-6.8296 5.4203 1.5601
-7.9293 5.8422 1.7573
-8.1641 5.5749 1.7589
-8.3766 5.2899 1.7578
-8.5863 5.0010 1.7584
-8.7935 4.7079 1.7605
-8.9985 4.4102 1.7643
-9.1454 4.0823 1.7589
-9.3665 3.7845 1.7700
-9.5835 3.4781 1.7823
-9.7961 3.1628 1.7957
-8.9747 2.5464 1.6240
-9.0782 2.2275 1.6240
-9.1694 1.9044 1.6240
-9.2481 1.5775 1.6240
-9.3142 1.2472 1.6240
-9.3674 0.9141 1.6240
-9.4078 0.5788 1.6240
-9.4350 0.2417 1.6240
-6.4755 -0.0662 1.1129
-9.4498 -0.4354 1.6240
-9.4373 -0.7744 1.6240
-9.4115 -1.1129 1.6240
-9.3724 -1.4503 1.6240
-9.3200 -1.7861 1.6240
-9.2544 -2.1198 1.6240
-9.1758 -2.4508 1.6240
-9.0841 -2.7784 1.6240
-8.9796 -3.1023 1.6240
-8.8624 -3.4218 1.6240
-8.7327 -3.7364 1.6240
-8.9667 -4.2227 1.6950
-8.9733 -4.6254 1.7272
-8.7971 -4.9412 1.7272
-8.6087 -5.2496 1.7272
-8.4084 -5.5501 1.7272
-8.1967 -5.8424 1.7272
-7.9739 -6.1259 1.7272
-7.7404 -6.4002 1.7272
-7.4966 -6.6649 1.7272
-7.2429 -6.9195 1.7272
-6.9798 -7.1637 1.7272
-6.7079 -7.3972 1.7272
-6.4274 -7.6196 1.7272
-6.1390 -7.8307 1.7272
-5.8432 -8.0301 1.7272
-5.5404 -8.2176 1.7272
-5.2312 -8.3929 1.7272
-4.9161 -8.5559 1.7272
-4.5956 -8.7064 1.7272
-4.2703 -8.8443 1.7272
-3.9408 -8.9694 1.7272
-3.6074 -9.0816 1.7272
-3.2709 -9.1808 1.7272
-2.9317 -9.2670 1.7272
-2.4989 -9.0104 1.6662
-2.1132 -8.8392 1.6241
-1.7897 -8.8835 1.6241
-1.4656 -8.9155 1.6241
-1.1414 -8.9354 1.6241
-0.8176 -8.9432 1.6241
-0.4947 -8.9390 1.6241
-0.1732 -8.9229 1.6240
0.1467 -8.8951 1.6240
0.4643 -8.8558 1.6240
0.7793 -8.8050 1.6240
1.0913 -8.7429 1.6240
1.3998 -8.6698 1.6240
1.7046 -8.5859 1.6240
2.0052 -8.4912 1.6240
2.3012 -8.3862 1.6240
2.5924 -8.2710 1.6240
2.8783 -8.1459 1.6240
3.1587 -8.0110 1.6240
3.4810 -7.9760 1.6465
3.7510 -7.8160 1.6455
4.0144 -7.6476 1.6447
4.2710 -7.4710 1.6439
4.5205 -7.2865 1.6432
4.7628 -7.0945 1.6425
4.9976 -6.8951 1.6420
5.2249 -6.6887 1.6415
5.4444 -6.4755 1.6411
5.6560 -6.2559 1.6408
5.8595 -6.0301 1.6406
6.0548 -5.7984 1.6404
6.2418 -5.5611 1.6403
6.4203 -5.3185 1.6403
6.5903 -5.0708 1.6404
6.7546 -4.8204 1.6412
6.9122 -4.5667 1.6427
7.0613 -4.3084 1.6442
7.2018 -4.0458 1.6458
7.3336 -3.7792 1.6475
7.4567 -3.5089 1.6493
7.5775 -3.2378 1.6527
7.7130 -2.9721 1.6612
7.6249 -2.6269 1.6240
7.7002 -2.3462 1.6240
7.7660 -2.0637 1.6240
7.8221 -1.7797 1.6240
7.8687 -1.4944 1.6240
7.9057 -1.2082 1.6240
7.9331 -0.9214 1.6240
7.9509 -0.6341 1.6240
7.9592 -0.3469 1.6240
7.6357 -0.0574 1.5582
7.6071 0.2171 1.5545
7.9268 0.5125 1.6240
7.8971 0.7972 1.6240
7.8581 1.0806 1.6240
8.3061 1.4489 1.7272
8.2448 1.7465 1.7272
8.1737 2.0418 1.7272
8.0929 2.3345 1.7272
8.0025 2.6243 1.7272
7.9026 2.9109 1.7272
7.7933 3.1941 1.7272
7.6746 3.4736 1.7272
7.5468 3.7491 1.7272
7.4098 4.0203 1.7272
7.2639 4.2869 1.7272
7.1092 4.5488 1.7272
6.9458 4.8056 1.7272
6.7738 5.0570 1.7272
6.5934 5.3028 1.7272
6.4048 5.5427 1.7272
6.2081 5.7766 1.7272
6.0035 6.0040 1.7272
5.7912 6.2248 1.7272
5.5713 6.4387 1.7272
5.3440 6.6455 1.7272
5.1096 6.8450 1.7272
4.8682 7.0368 1.7272
5.1523 -5.3552 1.6240
5.4037 -5.2265 1.6470
5.5761 -5.0177 1.6476
5.7422 -4.8048 1.6485
5.9009 -4.5869 1.6496
6.0522 -4.3643 1.6507
6.0908 -4.0672 1.6240
6.2195 -3.8368 1.6240
6.3400 -3.6027 1.6240
6.4522 -3.3651 1.6240
6.5561 -3.1243 1.6240
6.6515 -2.8806 1.6240
6.7384 -2.6343 1.6240
6.8169 -2.3856 1.6240
6.8868 -2.1349 1.6240
6.9480 -1.8824 1.6240
7.0006 -1.6283 1.6240
7.0445 -1.3731 1.6240
7.0798 -1.1168 1.6240
7.1065 -0.8599 1.6240
7.1244 -0.6025 1.6240
7.1338 -0.3449 1.6240
7.1345 -0.0875 1.6240
7.1266 0.1696 1.6240
7.1102 0.4260 1.6240
7.0852 0.6816 1.6240
7.0517 0.9360 1.6240
7.0441 1.1948 1.6320
7.4016 1.5318 1.7272
7.3392 1.7971 1.7272
7.2680 2.0600 1.7272
7.1881 2.3204 1.7272
7.0996 2.5780 1.7272
7.0025 2.8325 1.7272
6.8970 3.0836 1.7272
6.7832 3.3312 1.7272
6.6611 3.5749 1.7272
6.5309 3.8144 1.7272
6.3927 4.0497 1.7272
6.2467 4.2803 1.7272
6.0929 4.5060 1.7272
5.9315 4.7267 1.7272
5.7627 4.9421 1.7272
5.5866 5.1519 1.7272
5.4034 5.3559 1.7272
5.2132 5.5539 1.7272
5.0162 5.7457 1.7272
4.8126 5.9309 1.7272
4.6026 6.1095 1.7272
4.3863 6.2812 1.7272
4.1641 6.4457 1.7272
3.9360 6.6030 1.7272
3.7023 6.7526 1.7272
3.4632 6.8946 1.7272
3.2190 7.0286 1.7272
2.9698 7.1545 1.7272
2.7161 7.2721 1.7272
0.8920 2.6789 0.6269
0.7951 2.7096 0.6255
0.6972 2.7368 0.6242
0.5983 2.7604 0.6228
0.4987 2.7806 0.6213
0.3983 2.7971 0.6199
0.2975 2.8101 0.6184
0.1963 2.8195 0.6169
0.0947 2.8253 0.6154
-0.0069 2.8274 0.6139
-0.1086 2.8259 0.6124
-0.2102 2.8208 0.6108
-0.3115 2.8121 0.6093
-0.4125 2.7998 0.6077
-0.5130 2.7838 0.6061
-0.6129 2.7643 0.6046
-0.7120 2.7412 0.6030
-0.8102 2.7146 0.6014
-2.4570 7.2683 1.6240
-2.7244 7.1964 1.6240
-2.9899 7.1148 1.6240
-3.2530 7.0234 1.6240
-3.5133 6.9224 1.6240
-3.7706 6.8117 1.6240
-4.0244 6.6915 1.6240
-4.2744 6.5618 1.6240
-4.5201 6.4227 1.6240
-4.7613 6.2744 1.6240
-4.9975 6.1168 1.6240
-5.2285 5.9503 1.6240
-5.4537 5.7750 1.6240
-5.6728 5.5910 1.6240
-5.8856 5.3985 1.6240
-6.0915 5.1978 1.6240
-6.2904 4.9890 1.6240
-6.4818 4.7725 1.6240
-6.6653 4.5484 1.6240
-6.8408 4.3171 1.6240
-7.0078 4.0788 1.6240
-7.1660 3.8339 1.6240
-7.3152 3.5827 1.6240
-7.4551 3.3254 1.6240
-7.5853 3.0626 1.6240
-7.7057 2.7945 1.6240
-7.8160 2.5215 1.6240
-7.9159 2.2441 1.6240
-8.0053 1.9625 1.6240
-8.0839 1.6773 1.6240
-8.1517 1.3889 1.6240
-8.2083 1.0976 1.6240
-8.2537 0.8041 1.6240
-8.2879 0.5086 1.6240
-8.3106 0.2118 1.6240
-6.4749 -0.0670 1.2636
-8.3214 -0.3844 1.6240
-8.3094 -0.6826 1.6240
-8.2859 -0.9805 1.6240
-8.2508 -1.2773 1.6240
-8.2041 -1.5728 1.6240
-8.1460 -1.8663 1.6240
-8.0765 -2.1574 1.6240
-7.9956 -2.4457 1.6240
-7.9036 -2.7306 1.6240
-8.1897 -3.1620 1.7050
-8.1752 -3.4977 1.7272
-8.0427 -3.7871 1.7272
-7.8990 -4.0712 1.7272
-7.7445 -4.3493 1.7272
-7.5793 -4.6210 1.7272
-7.4037 -4.8860 1.7272
-7.2182 -5.1438 1.7272
-7.0229 -5.3940 1.7272
-6.8182 -5.6362 1.7272
-6.6045 -5.8701 1.7272
-6.3822 -6.0953 1.7272
-6.1516 -6.3115 1.7272
-5.9131 -6.5184 1.7272
-5.6671 -6.7157 1.7272
-5.4141 -6.9031 1.7272
-5.1545 -7.0804 1.7272
-4.8887 -7.2474 1.7272
-4.6172 -7.4038 1.7272
-4.3403 -7.5495 1.7272
-4.0587 -7.6844 1.7272
-3.7726 -7.8081 1.7272
-3.4827 -7.9208 1.7272
-3.1893 -8.0222 1.7272
-2.8929 -8.1122 1.7272
-2.5940 -8.1909 1.7272
-2.2931 -8.2582 1.7272
-1.9893 -8.3091 1.7262
-1.5861 -7.8594 1.6241
-1.2998 -7.8904 1.6241
-1.0133 -7.9106 1.6241
-0.7269 -7.9202 1.6241
-0.4411 -7.9192 1.6241
-0.1563 -7.9078 1.6241
0.1271 -7.8859 1.6241
0.4088 -7.8537 1.6241
0.6884 -7.8114 1.6240
0.9655 -7.7592 1.6240
1.2398 -7.6970 1.6240
1.5108 -7.6252 1.6240
1.7784 -7.5438 1.6240
2.0421 -7.4532 1.6240
2.3017 -7.3534 1.6240
2.5567 -7.2447 1.6240
2.8071 -7.1272 1.6240
3.0524 -7.0014 1.6240
3.2924 -6.8672 1.6240
3.5269 -6.7251 1.6240
3.7555 -6.5752 1.6240
3.9782 -6.4177 1.6240
4.1945 -6.2530 1.6240
4.4044 -6.0813 1.6240
4.6076 -5.9028 1.6240
4.8039 -5.7179 1.6240
4.9932 -5.5268 1.6240
5.1752 -5.3297 1.6240
5.4260 -5.1998 1.6470
5.5978 -4.9907 1.6477
5.7629 -4.7771 1.6487
5.9207 -4.5586 1.6497
5.9720 -4.2648 1.6240
6.1078 -4.0379 1.6240
6.2354 -3.8070 1.6240
6.3548 -3.5724 1.6240
6.4660 -3.3344 1.6240
6.5687 -3.0932 1.6240
6.6631 -2.8492 1.6240
6.7490 -2.6026 1.6240
6.8263 -2.3536 1.6240
6.8951 -2.1026 1.6240
6.9552 -1.8499 1.6240
7.0067 -1.5957 1.6240
7.0496 -1.3403 1.6240
7.0837 -1.0839 1.6240
7.1093 -0.8269 1.6240
7.1261 -0.5695 1.6240
7.1344 -0.3120 1.6240
7.1340 -0.0546 1.6240
7.1250 0.2024 1.6240
7.1075 0.4588 1.6240
7.0814 0.7142 1.6240
7.0468 0.9684 1.6240
7.2239 1.2596 1.6750
7.3942 1.5659 1.7272
7.3306 1.8309 1.7272
7.2583 2.0936 1.7272
7.1773 2.3536 1.7272
7.0877 2.6108 1.7272
6.9895 2.8648 1.7272
6.8829 3.1155 1.7272
6.7680 3.3626 1.7272
6.6449 3.6058 1.7272
6.5137 3.8448 1.7272
6.3745 4.0795 1.7272
6.2274 4.3095 1.7272
6.0727 4.5346 1.7272
5.9103 4.7546 1.7272
5.7406 4.9693 1.7272
5.5635 5.1784 1.7272
5.3794 5.3816 1.7272
5.1883 5.5788 1.7272
4.9905 5.7697 1.7272
4.7860 5.9542 1.7272
4.5752 6.1319 1.7272
4.3582 6.3026 1.7272
4.6463 -4.8327 1.6240
4.8059 -4.6515 1.6240
4.9588 -4.4653 1.6240
5.1049 -4.2744 1.6240
5.2439 -4.0789 1.6240
5.3758 -3.8792 1.6240
5.5006 -3.6755 1.6240
5.6180 -3.4681 1.6240
5.7280 -3.2571 1.6240
5.8305 -3.0429 1.6240
5.9255 -2.8258 1.6240
6.0128 -2.6059 1.6240
6.0925 -2.3835 1.6240
6.1644 -2.1590 1.6240
6.2286 -1.9325 1.6240
6.2849 -1.7042 1.6240
6.3334 -1.4746 1.6240
6.3741 -1.2437 1.6240
6.4068 -1.0118 1.6240
6.4317 -0.7793 1.6240
6.4487 -0.5464 1.6240
6.4578 -0.3132 1.6241
6.4590 -0.0801 1.6241
6.4524 0.1527 1.6241
6.4380 0.3850 1.6241
6.4157 0.6165 1.6241
6.3857 0.8470 1.6241
6.7512 1.1446 1.7272
6.7029 1.3868 1.7272
6.6466 1.6272 1.7272
6.5822 1.8655 1.7272
6.5099 2.1014 1.7272
6.4297 2.3348 1.7272
6.3417 2.5653 1.7272
6.2460 2.7928 1.7272
6.1427 3.0170 1.7272
6.0320 3.2377 1.7272
5.9137 3.4546 1.7272
5.7883 3.6675 1.7272
5.6557 3.8762 1.7272
5.5160 4.0804 1.7272
5.3694 4.2799 1.7272
5.2161 4.4746 1.7272
5.0561 4.6642 1.7272
4.8897 4.8484 1.7272
4.7170 5.0271 1.7272
4.5381 5.2001 1.7272
4.3533 5.3671 1.7272
4.1627 5.5280 1.7272
3.9664 5.6826 1.7272
3.7647 5.8306 1.7272
3.5578 5.9719 1.7272
3.3458 6.1063 1.7272
3.1291 6.2336 1.7272
2.9077 6.3536 1.7272
2.6820 6.4663 1.7272
0.8882 2.3802 0.6256
0.8020 2.4109 0.6244
0.7147 2.4385 0.6232
0.6266 2.4630 0.6220
0.5376 2.4843 0.6208
0.4479 2.5024 0.6195
0.3576 2.5173 0.6182
0.2668 2.5290 0.6169
0.1757 2.5374 0.6155
0.0843 2.5426 0.6142
-0.0072 2.5445 0.6128
-0.0987 2.5432 0.6114
-0.1901 2.5386 0.6100
-0.2813 2.5307 0.6086
-0.3722 2.5195 0.6072
-0.4626 2.5052 0.6058
-0.5525 2.4876 0.6044
-0.6417 2.4668 0.6029
-0.7301 2.4428 0.6015
-0.8176 2.4157 0.6001
-2.4525 6.4707 1.6240
-2.6905 6.3955 1.6240
-2.9262 6.3115 1.6240
-3.1593 6.2189 1.6240
-3.3895 6.1178 1.6240
-3.6165 6.0080 1.6240
-3.8399 5.8899 1.6240
-4.0593 5.7634 1.6240
-4.2746 5.6286 1.6240
-4.4853 5.4858 1.6240
-4.6911 5.3349 1.6240
-4.8917 5.1762 1.6240
-5.0868 5.0099 1.6240
-5.2761 4.8361 1.6240
-5.4592 4.6550 1.6240
-5.6359 4.4669 1.6240
-5.8057 4.2718 1.6240
-5.9686 4.0702 1.6240
-6.1241 3.8622 1.6240
-6.2721 3.6481 1.6240
-6.4122 3.4282 1.6240
-6.5441 3.2028 1.6240
-6.6677 2.9721 1.6240
-6.7827 2.7365 1.6240
-6.8889 2.4963 1.6240
-6.9860 2.2519 1.6240
-7.0740 2.0037 1.6240
-7.1525 1.7518 1.6240
-7.2215 1.4968 1.6240
-7.2808 1.2391 1.6240
-7.3303 0.9789 1.6240
-7.3698 0.7167 1.6240
-7.3993 0.4530 1.6240
-7.4186 0.1880 1.6240
-6.4743 -0.0678 1.4155
-7.4267 -0.3439 1.6240
-7.4154 -0.6100 1.6240
-7.3938 -0.8756 1.6240
-7.3620 -1.1403 1.6240
-7.3200 -1.4037 1.6240
-7.2678 -1.6654 1.6240
-7.3148 -1.9542 1.6486
-7.5689 -2.3153 1.7231
-7.4995 -2.5910 1.7272
-7.4017 -2.8577 1.7272
-7.2938 -3.1203 1.7272
-7.1758 -3.3786 1.7272
-7.0479 -3.6320 1.7272
-6.9104 -3.8803 1.7272
-6.7635 -4.1229 1.7272
-6.6074 -4.3596 1.7272
-6.4424 -4.5899 1.7272
-6.2688 -4.8136 1.7272
-6.0868 -5.0302 1.7272
-5.8968 -5.2395 1.7272
-5.6991 -5.4412 1.7272
-5.4941 -5.6349 1.7272
-5.2819 -5.8205 1.7272
-5.0632 -5.9976 1.7272
-4.8381 -6.1660 1.7272
-4.6070 -6.3255 1.7272
-4.3704 -6.4758 1.7272
-4.1286 -6.6168 1.7272
-3.8820 -6.7484 1.7272
-3.6311 -6.8703 1.7272
-3.3761 -6.9825 1.7272
-3.1175 -7.0848 1.7272
-2.8558 -7.1772 1.7272
-2.5913 -7.2594 1.7272
-2.3244 -7.3316 1.7272
-2.0555 -7.3936 1.7272
-1.7851 -7.4455 1.7272
-1.5135 -7.4872 1.7272
-1.1935 -7.2296 1.6608
-0.9106 -7.0900 1.6241
-0.6542 -7.1005 1.6241
-0.3981 -7.1016 1.6241
-0.1428 -7.0932 1.6241
0.1115 -7.0756 1.6241
0.3643 -7.0487 1.6241
0.6154 -7.0128 1.6241
0.8643 -6.9678 1.6241
1.1109 -6.9140 1.6241
1.3548 -6.8514 1.6240
1.5956 -6.7803 1.6240
1.8331 -6.7007 1.6240
2.0670 -6.6129 1.6240
2.2971 -6.5170 1.6240
2.5230 -6.4132 1.6240
2.7444 -6.3017 1.6240
2.9613 -6.1827 1.6240
3.1732 -6.0564 1.6240
3.3800 -5.9230 1.6240
3.5815 -5.7827 1.6240
3.7774 -5.6358 1.6240
3.9676 -5.4825 1.6240
4.1518 -5.3230 1.6240
4.3299 -5.1576 1.6240
4.5018 -4.9864 1.6240
4.6671 -4.8098 1.6240
4.8259 -4.6280 1.6240
4.9779 -4.4412 1.6240
5.1231 -4.2496 1.6240
5.2612 -4.0536 1.6240
5.3922 -3.8534 1.6240
5.5160 -3.6492 1.6240
5.6325 -3.4412 1.6240
5.7415 -3.2299 1.6240
5.8431 -3.0153 1.6240
5.9371 -2.7978 1.6240
6.0234 -2.5776 1.6240
6.1021 -2.3549 1.6240
6.1731 -2.1301 1.6240
6.2362 -1.9033 1.6240
6.2916 -1.6749 1.6240
6.3391 -1.4451 1.6240
6.3787 -1.2140 1.6240
6.4105 -0.9821 1.6240
6.4343 -0.7495 1.6240
6.4503 -0.5165 1.6240
6.4584 -0.2833 1.6241
6.4586 -0.0502 1.6241
6.4510 0.1825 1.6241
6.4355 0.4147 1.6241
6.4123 0.6461 1.6241
6.3813 0.8765 1.6241
6.7454 1.1757 1.7272
6.6962 1.4177 1.7272
6.6388 1.6578 1.7272
6.5734 1.8958 1.7272
6.5001 2.1315 1.7272
6.4189 2.3645 1.7272
6.3299 2.5946 1.7272
6.2332 2.8217 1.7272
6.1290 3.0455 1.7272
6.0172 3.2657 1.7272
5.8981 3.4821 1.7272
5.7717 3.6944 1.7272
5.6381 3.9025 1.7272
5.4976 4.1062 1.7272
5.3502 4.3052 1.7272
5.1960 4.4991 1.7272
5.0352 4.6881 1.7272
4.8680 4.8716 1.7272
4.6944 5.0496 1.7272
4.5148 5.2218 1.7272
4.3292 5.3881 1.7272
4.1378 5.5482 1.7272
3.9409 5.7019 1.7272
4.2264 -4.3991 1.6240
4.3725 -4.2350 1.6240
4.5126 -4.0663 1.6240
4.6464 -3.8932 1.6240
4.7739 -3.7159 1.6240
4.8950 -3.5347 1.6240
5.0095 -3.3497 1.6240
5.1173 -3.1612 1.6240
5.2184 -2.9694 1.6240
5.3127 -2.7747 1.6240
5.4001 -2.5771 1.6240
5.4806 -2.3770 1.6240
5.5540 -2.1745 1.6240
5.6203 -1.9700 1.6240
5.6796 -1.7636 1.6240
5.7317 -1.5556 1.6240
5.7766 -1.3462 1.6240
5.8143 -1.1357 1.6240
5.8448 -0.9242 1.6241
5.8681 -0.7121 1.6241
5.8841 -0.4995 1.6241
5.8929 -0.2867 1.6241
5.8945 -0.0739 1.6241
5.8889 0.1387 1.6241
5.8761 0.3508 1.6241
5.8561 0.5622 1.6241
5.8290 0.7727 1.6241
6.1626 1.0444 1.7272
6.1187 1.2656 1.7272
6.0674 1.4851 1.7272
6.0087 1.7028 1.7272
5.9428 1.9183 1.7272
5.8695 2.1314 1.7272
5.7892 2.3419 1.7272
5.7017 2.5497 1.7272
5.6073 2.7543 1.7272
5.5059 2.9557 1.7272
5.3978 3.1537 1.7272
5.2830 3.3480 1.7272
5.1616 3.5383 1.7272
5.0338 3.7246 1.7272
4.8997 3.9066 1.7272
4.7594 4.0840 1.7272
4.6130 4.2567 1.7272
4.4607 4.4245 1.7272
4.3027 4.5872 1.7272
4.1390 4.7446 1.7272
3.9699 4.8966 1.7272
3.7955 5.0428 1.7272
3.6161 5.1832 1.7272
3.4316 5.3176 1.7272
3.2425 5.4458 1.7272
3.0487 5.5676 1.7272
2.8506 5.6828 1.7272
2.6484 5.7914 1.7272
0.8831 2.1310 0.6246
0.8059 2.1616 0.6235
0.7276 2.1895 0.6225
0.6483 2.2146 0.6214
0.5682 2.2368 0.6202
0.4874 2.2562 0.6191
0.4060 2.2726 0.6179
0.3239 2.2862 0.6168
0.2415 2.2967 0.6156
0.1587 2.3044 0.6143
0.0757 2.3091 0.6131
-0.0074 2.3108 0.6119
-0.0905 2.3096 0.6106
-0.1735 2.3053 0.6094
-0.2564 2.2982 0.6081
-0.3389 2.2880 0.6068
-0.4210 2.2749 0.6055
-0.5027 2.2589 0.6042
-0.5837 2.2400 0.6029
-0.6640 2.2182 0.6016
-0.7434 2.1936 0.6003
-0.8220 2.1661 0.5990
-0.8995 2.1358 0.5978
-2.6569 5.7249 1.6240
-2.8678 5.6396 1.6240
-3.0758 5.5465 1.6240
-3.2808 5.4457 1.6240
-3.4826 5.3374 1.6240
-3.6806 5.2215 1.6240
-3.8748 5.0982 1.6240
-4.0647 4.9676 1.6240
-4.2502 4.8299 1.6240
-4.4308 4.6852 1.6240
-4.6064 4.5336 1.6240
-4.7767 4.3753 1.6240
-4.9413 4.2105 1.6240
-5.1000 4.0394 1.6240
-5.2526 3.8622 1.6240
-5.3988 3.6791 1.6240
-5.5383 3.4903 1.6240
-5.6709 3.2962 1.6240
-5.7964 3.0968 1.6240
-5.9145 2.8926 1.6240
-6.0251 2.6837 1.6240
-6.1279 2.4705 1.6240
-6.2227 2.2532 1.6240
-6.3094 2.0322 1.6240
-6.3879 1.8077 1.6240
-6.4578 1.5802 1.6240
-6.5192 1.3499 1.6240
-6.5718 1.1171 1.6240
-6.6156 0.8823 1.6240
-6.6505 0.6457 1.6240
-6.6764 0.4077 1.6240
-6.6932 0.1687 1.6240
-6.4737 -0.0686 1.5689
-6.6993 -0.3110 1.6240
-6.6887 -0.5509 1.6240
-6.6688 -0.7903 1.6240
-6.6454 -1.0298 1.6253
-6.8357 -1.3113 1.6816
-6.9710 -1.5977 1.7272
-6.9111 -1.8466 1.7272
-6.8417 -2.0930 1.7272
-6.7629 -2.3366 1.7272
-6.6748 -2.5769 1.7272
-6.5776 -2.8137 1.7272
-6.4713 -3.0466 1.7272
-6.3563 -3.2752 1.7272
-6.2326 -3.4991 1.7272
-6.1004 -3.7180 1.7272
-5.9601 -3.9317 1.7272
-5.8117 -4.1396 1.7272
-5.6556 -4.3416 1.7272
-5.4920 -4.5374 1.7272
-5.3211 -4.7266 1.7272
-5.1434 -4.9090 1.7272
-4.9589 -5.0843 1.7272
-4.7682 -5.2524 1.7272
-4.5713 -5.4128 1.7272
-4.3688 -5.5655 1.7272
-4.1609 -5.7103 1.7272
-3.9479 -5.8469 1.7272
-3.7302 -5.9751 1.7272
-3.5082 -6.0949 1.7272
-3.2821 -6.2061 1.7272
-3.0524 -6.3085 1.7272
-2.8193 -6.4021 1.7272
-2.5833 -6.4868 1.7272
-2.3447 -6.5624 1.7272
-2.1039 -6.6290 1.7272
-1.8612 -6.6864 1.7272
-1.6170 -6.7347 1.7272
-1.3717 -6.7738 1.7272
-1.1256 -6.8038 1.7272
-0.8740 -6.7863 1.7175
-0.5946 -6.4283 1.6241
-0.3629 -6.4307 1.6241
-0.1317 -6.4246 1.6241
0.0986 -6.4101 1.6241
0.3277 -6.3873 1.6241
0.5553 -6.3562 1.6241
0.7811 -6.3169 1.6241
1.0049 -6.2696 1.6241
1.2263 -6.2143 1.6241
1.4450 -6.1512 1.6241
1.6609 -6.0805 1.6241
1.8736 -6.0022 1.6240
2.0828 -5.9165 1.6240
2.2884 -5.8237 1.6240
2.4901 -5.7237 1.6240
2.6876 -5.6170 1.6240
2.8808 -5.5035 1.6240
3.0694 -5.3835 1.6240
3.2532 -5.2572 1.6240
3.4320 -5.1248 1.6240
3.6057 -4.9865 1.6240
3.7741 -4.8425 1.6240
3.9369 -4.6930 1.6240
4.0941 -4.5382 1.6240
4.2454 -4.3784 1.6240
4.3908 -4.2137 1.6240
4.5301 -4.0444 1.6240
4.6631 -3.8708 1.6240
4.7898 -3.6929 1.6240
4.9100 -3.5112 1.6240
5.0237 -3.3257 1.6240
5.1306 -3.1368 1.6240
5.2309 -2.9447 1.6240
5.3243 -2.7495 1.6240
5.4108 -2.5516 1.6240
5.4903 -2.3512 1.6240
5.5629 -2.1484 1.6240
5.6283 -1.9437 1.6240
5.6866 -1.7371 1.6240
5.7378 -1.5289 1.6240
5.7818 -1.3193 1.6240
5.8186 -1.1087 1.6240
5.8482 -0.8971 1.6241
5.8705 -0.6849 1.6241
5.8856 -0.4723 1.6241
5.8935 -0.2594 1.6241
5.8942 -0.0467 1.6241
5.8876 0.1659 1.6241
5.8739 0.3779 1.6241
5.8530 0.5892 1.6241
5.8250 0.7996 1.6241
6.1574 1.0728 1.7272
6.1126 1.2938 1.7272
6.0603 1.5131 1.7272
6.0007 1.7305 1.7272
5.9338 1.9457 1.7272
5.8596 2.1585 1.7272
5.7783 2.3687 1.7272
5.6900 2.5760 1.7272
5.5947 2.7803 1.7272
5.4925 2.9813 1.7272
5.3835 3.1788 1.7272
5.2678 3.3726 1.7272
5.1456 3.5624 1.7272
5.0170 3.7482 1.7272
4.8821 3.9296 1.7272
4.7410 4.1064 1.7272
4.5938 4.2785 1.7272
4.4408 4.4457 1.7272
4.2820 4.6077 1.7272
4.1177 4.7644 1.7272
3.9479 4.9156 1.7272
3.7728 5.0611 1.7272
3.5927 5.2007 1.7272
3.8719 -4.0331 1.6240
4.0066 -3.8834 1.6240
4.1357 -3.7293 1.6240
4.2591 -3.5712 1.6240
4.3767 -3.4091 1.6240
4.4884 -3.2433 1.6240
4.5941 -3.0741 1.6240
4.6937 -2.9015 1.6240
4.7872 -2.7260 1.6240
4.8744 -2.5476 1.6240
4.9552 -2.3665 1.6240
5.0297 -2.1831 1.6240
5.0977 -1.9974 1.6240
5.1593 -1.8098 1.6240
5.2142 -1.6205 1.6240
5.2626 -1.4296 1.6241
5.3044 -1.2374 1.6241
5.3395 -1.0441 1.6241
5.3680 -0.8499 1.6241
5.3898 -0.6550 1.6241
5.4050 -0.4597 1.6241
5.4134 -0.2642 1.6241
5.4152 -0.0686 1.6241
5.4104 0.1267 1.6241
5.3989 0.3217 1.6241
5.3807 0.5160 1.6241
5.5270 0.7322 1.6760
5.6627 0.9593 1.7272
5.6226 1.1627 1.7272
5.5755 1.3645 1.7272
5.5216 1.5646 1.7272
5.4610 1.7627 1.7272
5.3937 1.9586 1.7272
5.3198 2.1522 1.7272
5.2394 2.3431 1.7272
5.1524 2.5312 1.7272
5.0592 2.7163 1.7272
4.9596 2.8982 1.7272
4.8540 3.0767 1.7272
4.7422 3.2515 1.7272
4.6245 3.4226 1.7272
4.5010 3.5896 1.7272
4.3717 3.7525 1.7272
4.2370 3.9109 1.7272
4.0967 4.0649 1.7272
3.9512 4.2140 1.7272
3.8005 4.3583 1.7272
3.6448 4.4975 1.7272
3.4843 4.6314 1.7272
3.3191 4.7599 1.7272
3.1493 4.8828 1.7272
2.9753 4.9999 1.7272
2.7971 5.1112 1.7272
2.6149 5.2164 1.7272
0.8770 1.9192 0.6236
0.8073 1.9498 0.6227
0.7366 1.9778 0.6218
0.6650 2.0033 0.6208
0.5925 2.0263 0.6198
0.5192 2.0466 0.6188
0.4452 2.0643 0.6177
0.3707 2.0794 0.6166
0.2956 2.0918 0.6156
0.2202 2.1014 0.6145
0.1445 2.1084 0.6134
0.0685 2.1127 0.6122
-0.0075 2.1143 0.6111
-0.0836 2.1131 0.6099
-0.1596 2.1092 0.6088
-0.2354 2.1027 0.6076
-0.3109 2.0934 0.6064
-0.3861 2.0814 0.6053
-0.4607 2.0667 0.6041
-0.5349 2.0494 0.6029
-0.6083 2.0294 0.6017
-0.6810 2.0068 0.6005
-0.7529 1.9817 0.5994
-0.8238 1.9539 0.5982
-0.8937 1.9237 0.5970
-2.6232 5.1536 1.6240
-2.8128 5.0676 1.6240
-2.9996 4.9745 1.6240
-3.1833 4.8746 1.6240
-3.3636 4.7678 1.6240
-3.5402 4.6543 1.6240
-3.7129 4.5342 1.6240
-3.8815 4.4076 1.6240
-4.0456 4.2747 1.6240
-4.2051 4.1356 1.6240
-4.3596 3.9904 1.6240
-4.5089 3.8394 1.6240
-4.6529 3.6827 1.6240
-4.7912 3.5205 1.6240
-4.9236 3.3530 1.6240
-5.0499 3.1804 1.6240
-5.1700 3.0029 1.6240
-5.2835 2.8208 1.6240
-5.3903 2.6343 1.6240
-5.4902 2.4436 1.6240
-5.5830 2.2491 1.6240
-5.6686 2.0509 1.6240
-5.7468 1.8494 1.6240
-5.8174 1.6449 1.6240
-5.8804 1.4376 1.6240
-5.9356 1.2278 1.6240
-5.9828 1.0158 1.6240
-6.0221 0.8020 1.6240
-6.0533 0.5867 1.6240
-6.0762 0.3701 1.6240
-6.0910 0.1526 1.6240
-6.0975 -0.0654 1.6240
-6.0993 -0.2838 1.6249
-6.2551 -0.5158 1.6692
-6.4323 -0.7628 1.7217
-6.4246 -0.9961 1.7272
-6.3875 -1.2257 1.7272
-6.3416 -1.4538 1.7272
-6.2870 -1.6800 1.7272
-6.2238 -1.9041 1.7272
-6.1521 -2.1255 1.7272
-6.0720 -2.3441 1.7272
-5.9837 -2.5595 1.7272
-5.8871 -2.7713 1.7272
-5.7827 -2.9792 1.7272
-5.6704 -3.1830 1.7272
-5.5504 -3.3822 1.7272
-5.4230 -3.5766 1.7272
-5.2884 -3.7660 1.7272
-5.1467 -3.9500 1.7272
-4.9983 -4.1283 1.7272
-4.8432 -4.3008 1.7272
-4.6819 -4.4671 1.7272
-4.5145 -4.6271 1.7272
-4.3414 -4.7804 1.7272
-4.1627 -4.9270 1.7272
-3.9789 -5.0665 1.7272
-3.7901 -5.1989 1.7272
-3.5967 -5.3239 1.7272
-3.3989 -5.4414 1.7272
-3.1972 -5.5513 1.7272
-2.9917 -5.6533 1.7272
-2.7829 -5.7475 1.7272
-2.5710 -5.8336 1.7272
-2.3563 -5.9116 1.7272
-2.1393 -5.9815 1.7272
-1.9201 -6.0432 1.7272
-1.6992 -6.0966 1.7272
-1.4768 -6.1417 1.7272
-1.2533 -6.1784 1.7272
-1.0290 -6.2069 1.7272
-0.8043 -6.2270 1.7272
-0.5793 -6.2388 1.7272
-0.3445 -6.0651 1.6782
-0.1224 -5.8654 1.6241
0.0878 -5.8533 1.6241
0.2970 -5.8336 1.6241
0.5050 -5.8063 1.6241
0.7114 -5.7716 1.6241
0.9160 -5.7294 1.6241
1.1185 -5.6800 1.6241
1.3187 -5.6235 1.6241
1.5163 -5.5599 1.6241
1.7111 -5.4894 1.6241
1.9028 -5.4122 1.6241
2.0913 -5.3283 1.6241
2.2762 -5.2379 1.6241
2.4574 -5.1411 1.6241
2.6347 -5.0383 1.6240
2.8079 -4.9294 1.6240
2.9768 -4.8146 1.6240
3.1411 -4.6943 1.6240
3.3008 -4.5684 1.6240
3.4556 -4.4373 1.6240
3.6054 -4.3011 1.6240
3.7501 -4.1600 1.6240
3.8895 -4.0142 1.6240
4.0234 -3.8639 1.6240
4.1518 -3.7093 1.6240
4.2745 -3.5506 1.6240
4.3913 -3.3881 1.6240
4.5023 -3.2218 1.6240
4.6072 -3.0521 1.6240
4.7061 -2.8792 1.6240
4.7987 -2.7033 1.6240
4.8851 -2.5245 1.6240
4.9651 -2.3431 1.6240
5.0388 -2.1594 1.6240
5.1060 -1.9735 1.6240
5.1667 -1.7857 1.6240
5.2208 -1.5961 1.6240
5.2683 -1.4050 1.6241
5.3092 -1.2127 1.6241
5.3435 -1.0193 1.6241
5.3712 -0.8250 1.6241
5.3921 -0.6301 1.6241
5.4064 -0.4347 1.6241
5.4140 -0.2391 1.6241
5.4150 -0.0436 1.6241
5.4093 0.1517 1.6241
5.3969 0.3466 1.6241
5.3779 0.5409 1.6241
5.5786 0.7653 1.6927
5.6580 0.9854 1.7272
5.6169 1.1886 1.7272
5.5690 1.3902 1.7272
5.5143 1.5901 1.7272
5.4528 1.7879 1.7272
5.3846 1.9836 1.7272
5.3099 2.1768 1.7272
5.2286 2.3673 1.7272
5.1409 2.5551 1.7272
5.0468 2.7398 1.7272
4.9465 2.9213 1.7272
4.8400 3.0993 1.7272
4.7274 3.2736 1.7272
4.6090 3.4442 1.7272
4.4847 3.6107 1.7272
4.3548 3.7730 1.7272
4.2193 3.9309 1.7272
4.0784 4.0842 1.7272
3.9322 4.2328 1.7272
3.7808 4.3764 1.7272
3.6245 4.5149 1.7272
3.4634 4.6481 1.7272
3.2976 4.7759 1.7272
3.5685 -3.7198 1.6240
3.6932 -3.5822 1.6240
3.8128 -3.4406 1.6240
3.9272 -3.2952 1.6240
4.0362 -3.1461 1.6240
4.1398 -2.9935 1.6240
4.2379 -2.8377 1.6240
4.3304 -2.6788 1.6240
4.4172 -2.5171 1.6240
4.4982 -2.3526 1.6241
4.5733 -2.1857 1.6241
4.6426 -2.0166 1.6241
4.7059 -1.8453 1.6241
4.7632 -1.6723 1.6241
4.8144 -1.4975 1.6241
4.8595 -1.3213 1.6241
4.8985 -1.1438 1.6241
4.9314 -0.9653 1.6241
4.9580 -0.7860 1.6241
4.9786 -0.6060 1.6241
4.9929 -0.4255 1.6241
5.0010 -0.2448 1.6241
5.0029 -0.0641 1.6241
4.9987 0.1164 1.6241
4.9883 0.2967 1.6241
5.1557 0.4940 1.6842
5.2631 0.6968 1.7272
5.2325 0.8860 1.7272
5.1955 1.0741 1.7272
5.1521 1.2607 1.7272
5.1024 1.4457 1.7272
5.0464 1.6288 1.7272
4.9842 1.8099 1.7272
4.9158 1.9888 1.7272
4.8414 2.1653 1.7272
4.7610 2.3392 1.7272
4.6747 2.5102 1.7272
4.5826 2.6783 1.7272
4.4847 2.8432 1.7272
4.3813 3.0047 1.7272
4.2723 3.1627 1.7272
4.1579 3.3169 1.7272
4.0383 3.4673 1.7272
3.9135 3.6135 1.7272
3.7836 3.7555 1.7272
3.6489 3.8931 1.7272
3.5094 4.0261 1.7272
3.3653 4.1544 1.7272
3.2167 4.2777 1.7272
3.0638 4.3961 1.7272
2.9068 4.5092 1.7272
2.7458 4.6169 1.7272
2.5809 4.7192 1.7272
0.8699 1.7365 0.6228
0.8068 1.7670 0.6220
0.7427 1.7951 0.6211
0.6776 1.8209 0.6202
0.6116 1.8444 0.6193
0.5448 1.8656 0.6184
0.4774 1.8843 0.6175
0.4092 1.9006 0.6165
0.3406 1.9144 0.6155
0.2715 1.9258 0.6145
0.2020 1.9348 0.6135
0.1323 1.9412 0.6125
0.0623 1.9451 0.6115
-0.0077 1.9466 0.6104
-0.0777 1.9455 0.6094
-0.1477 1.9419 0.6083
-0.2175 1.9358 0.6072
-0.2870 1.9272 0.6062
-0.3562 1.9162 0.6051
-0.4250 1.9027 0.6040
-0.4932 1.8867 0.6029
-0.5608 1.8683 0.6018
-0.6278 1.8475 0.6007
-0.6940 1.8243 0.5996
-0.7592 1.7987 0.5985
-0.8236 1.7709 0.5975
-0.8869 1.7407 0.5964
-2.6346 4.7420 1.6525
-2.7603 4.5736 1.6240
-2.9287 4.4809 1.6240
-3.0940 4.3820 1.6240
-3.2558 4.2770 1.6240
-3.4140 4.1659 1.6240
-3.5683 4.0489 1.6240
-3.7185 3.9262 1.6240
-3.8644 3.7978 1.6240
-4.0057 3.6639 1.6240
-4.1422 3.5247 1.6240
-4.2737 3.3803 1.6240
-4.4001 3.2308 1.6240
-4.5210 3.0766 1.6240
-4.6362 2.9178 1.6240
-4.7457 2.7545 1.6240
-4.8492 2.5871 1.6240
-4.9466 2.4157 1.6240
-5.0376 2.2405 1.6240
-5.1221 2.0618 1.6240
-5.2000 1.8799 1.6240
-5.2711 1.6949 1.6240
-5.3353 1.5072 1.6240
-5.3925 1.3170 1.6240
-5.4425 1.1246 1.6240
-5.4853 0.9302 1.6240
-5.5208 0.7342 1.6240
-5.5489 0.5368 1.6240
-5.6351 0.3423 1.6431
-5.7705 0.1438 1.6786
-5.9209 -0.0643 1.7206
-5.9415 -0.2772 1.7272
-5.9314 -0.4897 1.7272
-5.9132 -0.7018 1.7272
-5.8870 -0.9132 1.7272
-5.8528 -1.1235 1.7272
-5.8106 -1.3323 1.7272
-5.7605 -1.5395 1.7272
-5.7026 -1.7447 1.7272
-5.6369 -1.9475 1.7272
-5.5635 -2.1477 1.7272
-5.4826 -2.3450 1.7272
-5.3943 -2.5391 1.7272
-5.2987 -2.7295 1.7272
-5.1960 -2.9162 1.7272
-5.0863 -3.0988 1.7272
-4.9699 -3.2771 1.7272
-4.8468 -3.4507 1.7272
-4.7172 -3.6194 1.7272
-4.5815 -3.7831 1.7272
-4.4398 -3.9413 1.7272
-4.2923 -4.0940 1.7272
-4.1392 -4.2409 1.7272
-3.9809 -4.3818 1.7272
-3.8175 -4.5165 1.7272
-3.6494 -4.6449 1.7272
-3.4766 -4.7667 1.7272
-3.2997 -4.8818 1.7272
-3.1187 -4.9901 1.7272
-2.9341 -5.0914 1.7272
-2.7460 -5.1856 1.7272
-2.5548 -5.2726 1.7272
-2.3607 -5.3523 1.7272
-2.1641 -5.4246 1.7272
-1.9652 -5.4895 1.7272
-1.7644 -5.5469 1.7272
-1.5618 -5.5967 1.7272
-1.3579 -5.6389 1.7272
-1.1530 -5.6735 1.7272
-0.9472 -5.7005 1.7272
-0.7409 -5.7199 1.7272
-0.5343 -5.7316 1.7272
-0.3279 -5.7358 1.7272
-0.1218 -5.7324 1.7272
0.0803 -5.4928 1.6582
0.2710 -5.3628 1.6241
0.4622 -5.3386 1.6241
0.6521 -5.3076 1.6241
0.8404 -5.2697 1.6241
1.0268 -5.2252 1.6241
1.2111 -5.1741 1.6241
1.3932 -5.1164 1.6241
1.5726 -5.0524 1.6241
1.7494 -4.9821 1.6241
1.9232 -4.9057 1.6241
2.0938 -4.8233 1.6241
2.2610 -4.7350 1.6241
2.4246 -4.6410 1.6241
2.5846 -4.5415 1.6241
2.7405 -4.4365 1.6241
2.8924 -4.3263 1.6241
3.0400 -4.2110 1.6241
3.1832 -4.0908 1.6241
3.3218 -3.9658 1.6241
3.4557 -3.8363 1.6240
3.5847 -3.7024 1.6240
3.7088 -3.5643 1.6240
3.8277 -3.4222 1.6240
3.9414 -3.2763 1.6240
4.0498 -3.1267 1.6240
4.1527 -2.9738 1.6240
4.2501 -2.8175 1.6240
4.3418 -2.6583 1.6240
4.4279 -2.4961 1.6240
4.5081 -2.3314 1.6241
4.5825 -2.1642 1.6241
4.6510 -1.9947 1.6241
4.7135 -1.8233 1.6241
4.7701 -1.6500 1.6241
4.8205 -1.4750 1.6241
4.8649 -1.2986 1.6241
4.9031 -1.1210 1.6241
4.9351 -0.9424 1.6241
4.9610 -0.7630 1.6241
4.9807 -0.5829 1.6241
4.9942 -0.4024 1.6241
5.0016 -0.2217 1.6241
5.0027 -0.0410 1.6241
4.9977 0.1395 1.6241
4.9865 0.3197 1.6241
5.2002 0.5225 1.6996
5.2596 0.7211 1.7272
5.2282 0.9102 1.7272
5.1903 1.0980 1.7272
5.1461 1.2844 1.7272
5.0956 1.4692 1.7272
5.0388 1.6521 1.7272
4.9758 1.8330 1.7272
4.9066 2.0116 1.7272
4.8314 2.1877 1.7272
4.7503 2.3612 1.7272
4.6632 2.5319 1.7272
4.5703 2.6996 1.7272
4.4718 2.8641 1.7272
4.3676 3.0252 1.7272
4.2579 3.1826 1.7272
4.1429 3.3364 1.7272
4.0226 3.4862 1.7272
3.8971 3.6319 1.7272
3.7666 3.7734 1.7272
3.6313 3.9104 1.7272
3.4912 4.0428 1.7272
3.3465 4.1705 1.7272
3.1974 4.2932 1.7272
3.0440 4.4109 1.7272
3.3055 -3.4483 1.6241
3.4215 -3.3212 1.6241
3.5328 -3.1903 1.6241
3.6393 -3.0558 1.6241
3.7408 -2.9179 1.6241
3.8373 -2.7768 1.6241
3.9287 -2.6326 1.6241
4.0149 -2.4855 1.6241
4.0959 -2.3357 1.6241
4.1714 -2.1833 1.6241
4.2416 -2.0287 1.6241
4.3062 -1.8719 1.6241
4.3654 -1.7132 1.6241
4.4189 -1.5527 1.6241
4.4668 -1.3906 1.6241
4.5090 -1.2271 1.6241
4.5456 -1.0625 1.6241
4.5764 -0.8968 1.6241
4.6015 -0.7304 1.6241
4.6208 -0.5633 1.6241
4.6343 -0.3958 1.6241
4.6421 -0.2280 1.6241
4.6782 -0.0606 1.6360
4.6403 0.1075 1.6241
4.8329 0.2869 1.6950
4.9086 0.4698 1.7272
4.8863 0.6465 1.7272
4.8580 0.8223 1.7272
4.8237 0.9969 1.7272
4.7835 1.1703 1.7272
4.7374 1.3421 1.7272
4.6854 1.5122 1.7272
4.6276 1.6804 1.7272
4.5641 1.8466 1.7272
4.4949 2.0105 1.7272
4.4202 2.1720 1.7272
4.3399 2.3308 1.7272
4.2543 2.4869 1.7272
4.1633 2.6400 1.7272
4.0671 2.7899 1.7272
3.9658 2.9365 1.7272
3.8594 3.0796 1.7272
3.7481 3.2191 1.7272
3.6320 3.3547 1.7272
3.5113 3.4864 1.7272
3.3860 3.6140 1.7272
3.2563 3.7372 1.7272
3.1223 3.8560 1.7272
2.9841 3.9703 1.7272
2.8420 4.0798 1.7272
2.6960 4.1845 1.7272
2.5463 4.2841 1.7272
0.8619 1.5770 0.6221
0.8045 1.6072 0.6213
0.7461 1.6354 0.6205
0.6868 1.6614 0.6198
0.6265 1.6854 0.6189
0.5654 1.7071 0.6181
0.5036 1.7267 0.6173
0.4412 1.7440 0.6164
0.3781 1.7591 0.6155
0.3146 1.7719 0.6146
0.2506 1.7824 0.6137
0.1863 1.7907 0.6127
0.1217 1.7966 0.6118
0.0570 1.8003 0.6108
-0.0078 1.8016 0.6099
-0.0726 1.8006 0.6089
-0.1374 1.7973 0.6079
-0.2020 1.7916 0.6069
-0.2664 1.7837 0.6059
-0.3304 1.7734 0.6049
-0.3941 1.7609 0.6039
-0.4572 1.7461 0.6029
-0.5198 1.7291 0.6019
-0.5818 1.7098 0.6009
-0.6430 1.6883 0.5998
-0.7034 1.6646 0.5988
-0.7630 1.6388 0.5978
-0.8216 1.6109 0.5969
-0.8791 1.5809 0.5959
-2.7155 4.4952 1.7266
-2.8218 4.3135 1.6913
-2.9288 4.1447 1.6621
-3.0376 3.9871 1.6384
-3.1566 3.8488 1.6240
-3.2988 3.7402 1.6240
-3.4371 3.6263 1.6240
-3.5869 3.5225 1.6310
-3.7014 3.3831 1.6240
-3.8269 3.2541 1.6240
-3.9479 3.1203 1.6240
-4.0640 2.9820 1.6240
-4.1751 2.8392 1.6240
-4.2810 2.6923 1.6240
-4.3815 2.5413 1.6240
-4.4765 2.3865 1.6240
-4.5658 2.2281 1.6240
-4.6493 2.0662 1.6240
-4.7423 1.9075 1.6293
-4.7981 1.7332 1.6240
-4.8632 1.5624 1.6240
-4.9220 1.3892 1.6240
-4.9968 1.2192 1.6313
-5.1102 1.0548 1.6532
-5.2275 0.8854 1.6780
-5.3538 0.7110 1.7077
-5.4423 0.5256 1.7272
-5.4622 0.3310 1.7272
-5.4747 0.1356 1.7272
-5.4799 -0.0602 1.7272
-5.4778 -0.2562 1.7272
-5.4682 -0.4520 1.7272
-5.4512 -0.6475 1.7272
-5.4269 -0.8422 1.7272
-5.3952 -1.0360 1.7272
-5.3562 -1.2284 1.7272
-5.3100 -1.4193 1.7272
-5.2565 -1.6084 1.7272
-5.1960 -1.7952 1.7272
-5.1284 -1.9797 1.7272
-5.0539 -2.1615 1.7272
-4.9726 -2.3403 1.7272
-4.8846 -2.5159 1.7272
-4.7901 -2.6880 1.7272
-4.6892 -2.8563 1.7272
-4.5820 -3.0207 1.7272
-4.4687 -3.1808 1.7272
-4.3496 -3.3365 1.7272
-4.2247 -3.4874 1.7272
-4.0943 -3.6335 1.7272
-3.9586 -3.7745 1.7272
-3.8178 -3.9102 1.7272
-3.6721 -4.0404 1.7272
-3.5217 -4.1649 1.7272
-3.3670 -4.2836 1.7272
-3.2080 -4.3963 1.7272
-3.0451 -4.5028 1.7272
-2.8785 -4.6031 1.7272
-2.7085 -4.6970 1.7272
-2.5352 -4.7844 1.7272
-2.3591 -4.8652 1.7272
-2.1803 -4.9393 1.7272
-1.9991 -5.0066 1.7272
-1.8158 -5.0670 1.7272
-1.6306 -5.1206 1.7272
-1.4439 -5.1672 1.7272
-1.2558 -5.2068 1.7272
-1.0667 -5.2394 1.7272
-0.8767 -5.2651 1.7272
-0.6863 -5.2836 1.7272
-0.4956 -5.2952 1.7272
-0.3050 -5.2998 1.7272
-0.1146 -5.2974 1.7272
0.0753 -5.2881 1.7272
0.2626 -5.2364 1.7156
0.4323 -5.0161 1.6506
0.6010 -4.9076 1.6241
0.7752 -4.8734 1.6241
0.9477 -4.8329 1.6241
1.1183 -4.7863 1.6241
1.2869 -4.7337 1.6241
1.4531 -4.6751 1.6241
1.6169 -4.6108 1.6241
1.7779 -4.5407 1.6241
1.9361 -4.4651 1.6241
2.0912 -4.3840 1.6241
2.2430 -4.2976 1.6241
2.3914 -4.2060 1.6241
2.5362 -4.1094 1.6241
2.6772 -4.0078 1.6241
2.8143 -3.9016 1.6241
2.9473 -3.7907 1.6241
3.0762 -3.6754 1.6241
3.2007 -3.5559 1.6241
3.3207 -3.4322 1.6241
3.4361 -3.3046 1.6241
3.5467 -3.1733 1.6241
3.6526 -3.0384 1.6241
3.7535 -2.9000 1.6241
3.8493 -2.7585 1.6241
3.9401 -2.6139 1.6241
4.0256 -2.4664 1.6241
4.1059 -2.3163 1.6241
4.1807 -2.1637 1.6241
4.2502 -2.0087 1.6241
4.3141 -1.8517 1.6241
4.3725 -1.6927 1.6241
4.4254 -1.5320 1.6241
4.4725 -1.3697 1.6241
4.5140 -1.2061 1.6241
4.5498 -1.0413 1.6241
4.5799 -0.8756 1.6241
4.6043 -0.7090 1.6241
4.6228 -0.5418 1.6241
4.6356 -0.3743 1.6241
4.6427 -0.2065 1.6241
4.6439 -0.0387 1.6241
4.6445 0.1291 1.6259
4.8718 0.3118 1.7092
4.9061 0.4925 1.7272
4.8830 0.6690 1.7272
4.8540 0.8447 1.7272
4.8189 1.0192 1.7272
4.7779 1.1924 1.7272
4.7310 1.3640 1.7272
4.6783 1.5339 1.7272
4.6198 1.7019 1.7272
4.5555 1.8677 1.7272
4.4857 2.0314 1.7272
4.4102 2.1925 1.7272
4.3293 2.3510 1.7272
4.2429 2.5067 1.7272
4.1513 2.6593 1.7272
4.0544 2.8089 1.7272
3.9524 2.9550 1.7272
3.8454 3.0977 1.7272
3.7335 3.2367 1.7272
3.6168 3.3718 1.7272
3.4955 3.5030 1.7272
3.3696 3.6300 1.7272
3.2393 3.7527 1.7272
3.1048 3.8709 1.7272
2.9661 3.9846 1.7272
2.8235 4.0935 1.7272
3.0753 -3.2105 1.6241
3.1836 -3.0925 1.6241
3.2875 -2.9710 1.6241
3.3870 -2.8461 1.6241
3.4819 -2.7180 1.6241
3.5722 -2.5868 1.6241
3.6576 -2.4527 1.6241
3.7383 -2.3159 1.6241
3.8140 -2.1765 1.6241
3.8848 -2.0348 1.6241
3.9504 -1.8909 1.6241
4.0110 -1.7449 1.6241
4.0664 -1.5971 1.6241
4.1166 -1.4477 1.6241
4.1616 -1.2967 1.6241
4.2012 -1.1444 1.6241
4.2356 -0.9910 1.6241
4.2645 -0.8367 1.6241
4.2882 -0.6815 1.6241
4.3064 -0.5258 1.6241
4.3192 -0.3696 1.6241
4.3267 -0.2132 1.6241
4.3470 -0.0569 1.6310
4.5492 0.1048 1.7082
4.5906 0.2719 1.7272
4.5757 0.4374 1.7272
4.5550 0.6022 1.7272
4.5287 0.7662 1.7272
4.4968 0.9291 1.7272
4.4594 1.0908 1.7272
4.4164 1.2510 1.7272
4.3679 1.4097 1.7272
4.3141 1.5666 1.7272
4.2548 1.7216 1.7272
4.1903 1.8744 1.7272
4.1205 2.0250 1.7272
4.0456 2.1731 1.7272
3.9657 2.3186 1.7272
3.8807 2.4613 1.7272
3.7909 2.6010 1.7272
3.6963 2.7376 1.7272
3.5970 2.8710 1.7272
3.4930 3.0009 1.7272
3.3847 3.1273 1.7272
3.2719 3.2499 1.7272
3.1549 3.3687 1.7272
3.0338 3.4834 1.7272
2.9087 3.5939 1.7272
2.7798 3.7002 1.7272
2.6471 3.8021 1.7272
2.5109 3.8993 1.7272
0.8530 1.4361 0.6214
0.8008 1.4661 0.6207
0.7474 1.4942 0.6200
0.6931 1.5204 0.6193
0.6379 1.5447 0.6186
0.5819 1.5669 0.6178
0.5251 1.5871 0.6170
0.4677 1.6053 0.6162
0.4096 1.6214 0.6154
0.3509 1.6354 0.6146
0.2918 1.6474 0.6138
0.2324 1.6572 0.6129
0.1726 1.6648 0.6120
0.1125 1.6704 0.6111
0.0523 1.6737 0.6103
-0.0079 1.6750 0.6094
-0.0682 1.6740 0.6084
-0.1284 1.6709 0.6075
-0.1885 1.6657 0.6066
-0.2483 1.6583 0.6057
-0.3079 1.6487 0.6047
-0.3671 1.6371 0.6038
-0.4258 1.6233 0.6029
-0.4840 1.6075 0.6019
-0.5416 1.5895 0.6010
-0.5985 1.5695 0.6001
-0.6547 1.5475 0.5991
-0.7101 1.5235 0.5982
-0.7645 1.4975 0.5973
-0.8180 1.4696 0.5964
-0.8705 1.4398 0.5954
-2.6783 4.0905 1.7272
-2.8284 3.9992 1.7272
-2.9754 3.9022 1.7272
-3.1178 3.7985 1.7266
-3.2167 3.6443 1.7048
-3.3211 3.5013 1.6896
-3.4241 3.3601 1.6767
-3.5288 3.2230 1.6675
-3.6330 3.0869 1.6607
-3.7359 2.9506 1.6556
-3.8377 2.8139 1.6523
-3.9369 2.6753 1.6501
-4.0357 2.5362 1.6499
-4.1345 2.3963 1.6517
-4.2335 2.2553 1.6555
-4.3329 2.1129 1.6614
-4.4351 1.9695 1.6702
-4.5397 1.8245 1.6818
-4.6469 1.6772 1.6961
-4.7563 1.5268 1.7129
-4.8536 1.3686 1.7272
-4.9047 1.1955 1.7272
-4.9494 1.0205 1.7272
-4.9876 0.8438 1.7272
-5.0191 0.6656 1.7272
-5.0440 0.4862 1.7272
-5.0622 0.3059 1.7272
-5.0735 0.1249 1.7272
-5.0781 -0.0565 1.7272
-5.0759 -0.2380 1.7272
-5.0668 -0.4194 1.7272
-5.0509 -0.6004 1.7272
-5.0283 -0.7808 1.7272
-4.9988 -0.9602 1.7272
-4.9626 -1.1384 1.7272
-4.9197 -1.3152 1.7272
-4.8702 -1.4902 1.7272
-4.8141 -1.6633 1.7272
-4.7515 -1.8342 1.7272
-4.6825 -2.0025 1.7272
-4.6073 -2.1682 1.7272
-4.5259 -2.3308 1.7272
-4.4384 -2.4902 1.7272
-4.3451 -2.6462 1.7272
-4.2459 -2.7985 1.7272
-4.1412 -2.9469 1.7272
-4.0310 -3.0913 1.7272
-3.9155 -3.2312 1.7272
-3.7949 -3.3667 1.7272
-3.6694 -3.4975 1.7272
-3.5391 -3.6234 1.7272
-3.4043 -3.7443 1.7272
-3.2652 -3.8599 1.7272
-3.1221 -3.9702 1.7272
-2.9750 -4.0749 1.7272
-2.8242 -4.1740 1.7272
-2.6700 -4.2673 1.7272
-2.5126 -4.3547 1.7272
-2.3523 -4.4361 1.7272
-2.1892 -4.5114 1.7272
-2.0236 -4.5805 1.7272
-1.8558 -4.6434 1.7272
-1.6860 -4.7000 1.7272
-1.5144 -4.7501 1.7272
-1.3413 -4.7939 1.7272
-1.1669 -4.8312 1.7272
-0.9916 -4.8620 1.7272
-0.8155 -4.8863 1.7272
-0.6389 -4.9041 1.7272
-0.4620 -4.9154 1.7272
-0.2850 -4.9203 1.7272
-0.1083 -4.9187 1.7272
0.0680 -4.9106 1.7272
0.2435 -4.8962 1.7272
0.4182 -4.8754 1.7272
0.5854 -4.7968 1.7088
0.7310 -4.6081 1.6530
0.8787 -4.4907 1.6241
1.0373 -4.4480 1.6241
1.1941 -4.3997 1.6241
1.3488 -4.3458 1.6241
1.5012 -4.2865 1.6241
1.6511 -4.2219 1.6241
1.7983 -4.1521 1.6241
1.9428 -4.0772 1.6241
2.0842 -3.9974 1.6241
2.2225 -3.9127 1.6241
2.3575 -3.8233 1.6241
2.4890 -3.7293 1.6241
2.6168 -3.6308 1.6241
2.7409 -3.5281 1.6241
2.8611 -3.4212 1.6241
2.9773 -3.3103 1.6241
3.0894 -3.1956 1.6241
3.1971 -3.0771 1.6241
3.3005 -2.9552 1.6241
3.3994 -2.8299 1.6241
3.4937 -2.7013 1.6241
3.5834 -2.5697 1.6241
3.6682 -2.4353 1.6241
3.7483 -2.2982 1.6241
3.8233 -2.1585 1.6241
3.8934 -2.0165 1.6241
3.9585 -1.8723 1.6241
4.0184 -1.7261 1.6241
