ply
format ascii 1.0
element vertex 2159
property float32 x
property float32 y
property float32 z
end_header
3.8601 -3.1101 1.5928
3.9689 -2.9703 1.5928
-3.8603 2.4960 1.6960
-3.9479 2.3558 1.6960
-4.0306 2.2125 1.6960
-4.1083 2.0664 1.6960
-4.1808 1.9177 1.6960
-4.2481 1.7665 1.6960
-4.3102 1.6131 1.6960
-4.3668 1.4575 1.6960
-4.4180 1.3000 1.6960
-4.4637 1.1407 1.6960
-4.5038 0.9799 1.6960
-4.5382 0.8177 1.6960
-4.5670 0.6543 1.6960
-4.5901 0.4899 1.6960
-4.6074 0.3248 1.6960
-4.6190 0.1590 1.6960
-4.6247 -0.0071 1.6960
-4.6246 -0.1735 1.6960
-4.6186 -0.3398 1.6960
-4.6069 -0.5059 1.6960
-4.5892 -0.6717 1.6960
-4.5658 -0.8368 1.6960
-4.5365 -1.0011 1.6960
-4.5015 -1.1644 1.6960
-4.4607 -1.3265 1.6960
-4.4142 -1.4872 1.6960
-4.3620 -1.6463 1.6960
-4.3041 -1.8036 1.6960
-4.2407 -1.9589 1.6960
-4.1718 -2.1120 1.6960
-4.0975 -2.2627 1.6960
-4.0178 -2.4107 1.6960
-3.9328 -2.5560 1.6960
-3.8426 -2.6984 1.6960
-3.7473 -2.8375 1.6960
-3.6471 -2.9734 1.6960
-3.5420 -3.1057 1.6960
-3.4321 -3.2343 1.6960
-3.3176 -3.3591 1.6960
-3.1986 -3.4798 1.6960
-3.0753 -3.5962 1.6960
-2.9477 -3.7084 1.6960
-2.8161 -3.8159 1.6960
-2.6806 -3.9189 1.6960
-2.5414 -4.0170 1.6960
-2.3985 -4.1101 1.6960
-2.2523 -4.1981 1.6960
-2.1028 -4.2809 1.6960
-1.9503 -4.3583 1.6960
-1.7950 -4.4303 1.6960
-1.6370 -4.4967 1.6960
-1.4766 -4.5574 1.6960
-1.3140 -4.6123 1.6960
-1.1492 -4.6613 1.6960
-0.9827 -4.7044 1.6960
-0.8146 -4.7414 1.6960
-0.6451 -4.7724 1.6960
-0.4744 -4.7972 1.6960
-0.3028 -4.8158 1.6960
-0.1305 -4.8281 1.6960
0.0423 -4.8342 1.6960
0.2154 -4.8340 1.6960
0.3885 -4.8274 1.6960
0.5613 -4.8146 1.6960
0.7337 -4.7954 1.6960
0.9053 -4.7699 1.6960
1.0761 -4.7382 1.6960
1.2457 -4.7002 1.6960
1.4139 -4.6559 1.6960
1.5804 -4.6055 1.6960
1.7451 -4.5490 1.6960
1.9077 -4.4865 1.6960
2.0680 -4.4180 1.6960
2.2257 -4.3436 1.6960
2.3806 -4.2634 1.6960
2.5326 -4.1776 1.6960
2.6813 -4.0861 1.6960
2.8266 -3.9893 1.6960
2.9683 -3.8871 1.6960
3.0104 -3.6632 1.6437
3.0429 -3.4441 1.5928
3.1646 -3.3339 1.5928
3.2823 -3.2194 1.5928
3.3956 -3.1005 1.5928
3.5046 -2.9776 1.5928
3.6089 -2.8507 1.5928
3.7084 -2.7200 1.5928
3.8031 -2.5858 1.5928
3.8928 -2.4481 1.5928
3.9773 -2.3073 1.5928
4.0566 -2.1634 1.5928
4.1305 -2.0168 1.5928
4.1989 -1.8675 1.5928
4.2617 -1.7159 1.5928
4.3190 -1.5621 1.5928
4.3705 -1.4063 1.5928
4.4162 -1.2488 1.5928
4.4561 -1.0898 1.5928
4.4901 -0.9295 1.5928
4.5181 -0.7681 1.5928
4.5402 -0.6058 1.5928
4.5563 -0.4429 1.5928
4.5664 -0.2797 1.5928
4.5706 -0.1162 1.5928
4.5687 0.0471 1.5928
4.5608 0.2102 1.5928
4.5470 0.3728 1.5928
4.5272 0.5347 1.5928
4.5016 0.6957 1.5928
4.4701 0.8555 1.5928
4.4328 1.0139 1.5928
4.3899 1.1707 1.5928
4.3412 1.3257 1.5928
4.2870 1.4788 1.5928
4.2273 1.6296 1.5928
4.1622 1.7780 1.5928
4.0918 1.9239 1.5928
4.0163 2.0669 1.5928
3.9357 2.2070 1.5928
3.8501 2.3440 1.5928
3.7597 2.4777 1.5928
3.6647 2.6079 1.5928
3.5650 2.7344 1.5928
3.4610 2.8571 1.5928
3.3528 2.9759 1.5928
3.2404 3.0906 1.5928
3.1241 3.2011 1.5928
3.0727 3.3828 1.6292
3.0670 3.6299 1.6960
2.9317 3.7332 1.6960
2.7928 3.8315 1.6960
2.6507 3.9247 1.6960
0.8885 1.4230 0.6015
0.8368 1.4537 0.6020
0.7840 1.4826 0.6026
0.7302 1.5095 0.6032
0.6755 1.5345 0.6038
0.6200 1.5575 0.6044
0.5636 1.5786 0.6049
0.5066 1.5976 0.6055
0.4488 1.6145 0.6061
0.3906 1.6294 0.6066
0.3318 1.6422 0.6072
0.2726 1.6529 0.6078
0.2131 1.6615 0.6083
0.1533 1.6679 0.6089
0.0933 1.6722 0.6094
0.0332 1.6744 0.6099
-0.0270 1.6744 0.6104
-0.0871 1.6723 0.6109
-0.1471 1.6680 0.6114
-0.2070 1.6616 0.6119
-0.2665 1.6530 0.6124
-0.3258 1.6424 0.6128
-0.3846 1.6296 0.6133
-0.4429 1.6147 0.6137
-0.5006 1.5978 0.6141
-0.5578 1.5788 0.6146
-0.6142 1.5578 0.6149
-0.6698 1.5347 0.6153
-0.7246 1.5097 0.6157
-0.7785 1.4828 0.6160
-0.8313 1.4539 0.6163
-0.8831 1.4232 0.6167
-2.5671 3.8229 1.6960
-2.7020 3.7268 1.6960
-2.8334 3.6261 1.6960
-2.9612 3.5208 1.6960
-3.0852 3.4112 1.6960
-3.2052 3.2974 1.6960
-3.3212 3.1794 1.6960
-3.4331 3.0576 1.6960
-3.5405 2.9318 1.6960
-3.6435 2.8025 1.6960
-3.7420 2.6696 1.6960
-3.8358 2.5334 1.6960
-3.9247 2.3939 1.6960
-4.0088 2.2515 1.6960
-4.0878 2.1062 1.6960
-4.1617 1.9581 1.6960
-4.2305 1.8076 1.6960
-4.2939 1.6547 1.6960
-4.3520 1.4997 1.6960
-4.4047 1.3427 1.6960
-4.4519 1.1839 1.6960
-4.4935 1.0235 1.6960
-4.5295 0.8616 1.6960
-4.5598 0.6985 1.6960
-4.5844 0.5344 1.6960
-4.6033 0.3695 1.6960
-4.6164 0.2039 1.6960
-4.6237 0.0378 1.6960
-4.6252 -0.1285 1.6960
-4.6208 -0.2949 1.6960
-4.6106 -0.4611 1.6960
-4.5946 -0.6269 1.6960
-4.5727 -0.7923 1.6960
-4.5450 -0.9568 1.6960
-4.5115 -1.1204 1.6960
-4.4723 -1.2829 1.6960
-4.4273 -1.4440 1.6960
-4.3766 -1.6035 1.6960
-4.3203 -1.7613 1.6960
-4.2584 -1.9172 1.6960
-4.1910 -2.0708 1.6960
-4.1181 -2.2222 1.6960
-4.0398 -2.3710 1.6960
-3.9562 -2.5171 1.6960
-3.8675 -2.6602 1.6960
-3.7736 -2.8003 1.6960
-3.6747 -2.9370 1.6960
-3.5708 -3.0703 1.6960
-3.4623 -3.1999 1.6960
-3.3490 -3.3257 1.6960
-3.2312 -3.4476 1.6960
-3.1090 -3.5652 1.6960
-2.9826 -3.6785 1.6960
-2.8521 -3.7873 1.6960
-2.7176 -3.8915 1.6960
-2.5793 -3.9909 1.6960
-2.4374 -4.0854 1.6960
-2.2921 -4.1748 1.6960
-2.1435 -4.2591 1.6960
-1.9918 -4.3379 1.6960
-1.8372 -4.4114 1.6960
-1.6800 -4.4793 1.6960
-1.5202 -4.5415 1.6960
-1.3581 -4.5980 1.6960
-1.1939 -4.6486 1.6960
-1.0279 -4.6933 1.6960
-0.8602 -4.7320 1.6960
-0.6910 -4.7646 1.6960
-0.5206 -4.7911 1.6960
-0.3492 -4.8114 1.6960
-0.1771 -4.8254 1.6960
-0.0044 -4.8332 1.6960
0.1686 -4.8347 1.6960
0.3417 -4.8299 1.6960
0.5146 -4.8187 1.6960
0.6871 -4.8012 1.6960
0.8591 -4.7774 1.6960
1.0301 -4.7474 1.6960
1.2000 -4.7110 1.6960
1.3686 -4.6685 1.6960
1.5356 -4.6197 1.6960
1.7008 -4.5649 1.6960
1.8640 -4.5040 1.6960
2.0249 -4.4371 1.6960
2.1833 -4.3643 1.6960
2.3390 -4.2856 1.6960
2.4918 -4.2013 1.6960
2.6415 -4.1114 1.6960
2.7877 -4.0160 1.6960
2.9304 -3.9152 1.6960
3.0098 -3.7353 1.6631
3.0228 -3.4887 1.5999
3.1321 -3.3641 1.5928
3.2509 -3.2508 1.5928
3.3655 -3.1330 1.5928
3.4756 -3.0112 1.5928
3.5812 -2.8853 1.5928
3.6820 -2.7557 1.5928
-3.6080 2.3328 1.6960
-3.6899 2.2016 1.6960
-3.7672 2.0677 1.6960
-3.8397 1.9311 1.6960
-3.9075 1.7921 1.6960
-3.9704 1.6507 1.6960
-4.0283 1.5073 1.6960
-4.0812 1.3618 1.6960
-4.1289 1.2145 1.6960
-4.1715 1.0656 1.6960
-4.2089 0.9152 1.6960
-4.2410 0.7636 1.6960
-4.2678 0.6109 1.6960
-4.2892 0.4572 1.6960
-4.3053 0.3029 1.6960
-4.3159 0.1480 1.6960
-4.3211 -0.0073 1.6960
-4.3208 -0.1627 1.6960
-4.3151 -0.3182 1.6960
-4.3039 -0.4734 1.6960
-4.2872 -0.6283 1.6960
-4.2651 -0.7825 1.6960
-4.2376 -0.9360 1.6960
-4.2047 -1.0886 1.6960
-4.1663 -1.2399 1.6960
-4.1226 -1.3900 1.6960
-4.0737 -1.5385 1.6960
-4.0194 -1.6854 1.6960
-3.9600 -1.8303 1.6960
-3.8954 -1.9732 1.6960
-3.8257 -2.1137 1.6960
-3.7510 -2.2519 1.6960
-3.6714 -2.3875 1.6960
-3.5870 -2.5202 1.6960
-3.4978 -2.6500 1.6960
-3.4040 -2.7766 1.6960
-3.3057 -2.9000 1.6960
-3.2029 -3.0198 1.6960
-3.0958 -3.1361 1.6960
-2.9846 -3.2485 1.6960
-2.8693 -3.3570 1.6960
-2.7500 -3.4614 1.6960
-2.6270 -3.5616 1.6960
-2.5004 -3.6574 1.6960
-2.3703 -3.7487 1.6960
-2.2369 -3.8353 1.6960
-2.1003 -3.9172 1.6960
-1.9607 -3.9941 1.6960
-1.8184 -4.0661 1.6960
-1.6734 -4.1330 1.6960
-1.5259 -4.1946 1.6960
-1.3762 -4.2509 1.6960
-1.2244 -4.3019 1.6960
-1.0707 -4.3473 1.6960
-0.9154 -4.3872 1.6960
-0.7586 -4.4215 1.6960
-0.6005 -4.4501 1.6960
-0.4413 -4.4729 1.6960
-0.2813 -4.4900 1.6960
-0.1207 -4.5013 1.6960
0.0404 -4.5067 1.6960
0.2017 -4.5062 1.6960
0.3630 -4.4999 1.6960
0.5240 -4.4877 1.6960
0.6846 -4.4696 1.6960
0.8446 -4.4456 1.6960
1.0037 -4.4158 1.6960
1.1616 -4.3802 1.6960
1.3183 -4.3388 1.6960
1.4734 -4.2917 1.6960
1.6268 -4.2388 1.6960
1.7782 -4.1804 1.6960
1.9274 -4.1164 1.6960
2.0743 -4.0470 1.6960
2.2186 -3.9722 1.6960
2.3600 -3.8921 1.6960
2.4985 -3.8069 1.6960
2.6338 -3.7166 1.6960
2.7658 -3.6213 1.6960
2.8942 -3.5212 1.6960
3.0125 -3.4094 1.6925
3.0177 -3.1788 1.6302
3.0580 -2.9991 1.5928
3.1635 -2.8884 1.5928
3.2650 -2.7739 1.5928
3.3621 -2.6557 1.5928
3.4548 -2.5340 1.5928
3.5430 -2.4090 1.5928
3.6265 -2.2808 1.5928
3.7053 -2.1496 1.5928
3.7791 -2.0156 1.5928
3.8480 -1.8791 1.5928
3.9118 -1.7401 1.5928
3.9704 -1.5989 1.5928
4.0238 -1.4557 1.5928
4.0718 -1.3106 1.5928
4.1145 -1.1639 1.5928
4.1518 -1.0158 1.5928
4.1836 -0.8665 1.5928
4.2098 -0.7162 1.5928
4.2305 -0.5650 1.5928
4.2457 -0.4133 1.5928
4.2553 -0.2612 1.5928
4.2593 -0.1090 1.5928
4.2577 0.0433 1.5928
4.2506 0.1952 1.5928
4.2379 0.3468 1.5928
4.2197 0.4976 1.5928
4.1960 0.6477 1.5928
4.1669 0.7966 1.5928
4.1323 0.9443 1.5928
4.0925 1.0905 1.5928
4.0474 1.2351 1.5928
3.9971 1.3778 1.5928
3.9417 1.5185 1.5928
3.8812 1.6570 1.5928
3.8158 1.7930 1.5928
3.7456 1.9265 1.5928
3.6707 2.0573 1.5928
3.5911 2.1852 1.5928
3.5071 2.3100 1.5928
3.4186 2.4315 1.5928
3.3259 2.5497 1.5928
3.2291 2.6644 1.5928
3.1284 2.7754 1.5928
3.0717 2.9283 1.6180
3.0672 3.1412 1.6757
2.9853 3.2850 1.6960
2.8627 3.3862 1.6960
2.7365 3.4829 1.6960
2.6072 3.5748 1.6960
0.8770 1.2977 0.6010
0.8297 1.3281 0.6016
0.7814 1.3568 0.6021
0.7322 1.3837 0.6026
0.6820 1.4088 0.6032
0.6309 1.4322 0.6037
0.5790 1.4536 0.6043
0.5264 1.4733 0.6048
0.4732 1.4910 0.6053
0.4193 1.5068 0.6059
0.3649 1.5207 0.6064
0.3100 1.5327 0.6069
0.2548 1.5427 0.6074
0.1992 1.5507 0.6079
0.1434 1.5567 0.6084
0.0874 1.5607 0.6089
0.0313 1.5627 0.6094
-0.0249 1.5627 0.6099
-0.0810 1.5607 0.6104
-0.1370 1.5567 0.6108
-0.1929 1.5507 0.6113
-0.2485 1.5428 0.6117
-0.3037 1.5328 0.6122
-0.3586 1.5209 0.6126
-0.4131 1.5070 0.6130
-0.4670 1.4912 0.6134
-0.5203 1.4734 0.6138
-0.5729 1.4538 0.6141
-0.6249 1.4323 0.6145
-0.6760 1.4089 0.6148
-0.7263 1.3837 0.6151
-0.7756 1.3568 0.6154
-0.8240 1.3281 0.6157
-0.8713 1.2977 0.6160
-2.5250 3.4831 1.6960
-2.6478 3.3890 1.6960
-2.7673 3.2907 1.6960
-2.8833 3.1883 1.6960
-2.9955 3.0819 1.6960
-3.1040 2.9717 1.6960
-3.2086 2.8578 1.6960
-3.3090 2.7402 1.6960
-3.4054 2.6193 1.6960
-3.4974 2.4951 1.6960
-3.5850 2.3677 1.6960
-3.6682 2.2374 1.6960
-3.7467 2.1042 1.6960
-3.8206 1.9683 1.6960
-3.8897 1.8299 1.6960
-3.9539 1.6892 1.6960
-4.0131 1.5462 1.6960
-4.0674 1.4013 1.6960
-4.1165 1.2544 1.6960
-4.1605 1.1060 1.6960
-4.1993 0.9560 1.6960
-4.2329 0.8047 1.6960
-4.2611 0.6523 1.6960
-4.2840 0.4988 1.6960
-4.3015 0.3446 1.6960
-4.3136 0.1899 1.6960
-4.3202 0.0347 1.6960
-4.3214 -0.1207 1.6960
-4.3172 -0.2762 1.6960
-4.3075 -0.4315 1.6960
-4.2923 -0.5865 1.6960
-4.2716 -0.7409 1.6960
-4.2456 -0.8946 1.6960
-4.2141 -1.0474 1.6960
-4.1772 -1.1992 1.6960
-4.1350 -1.3496 1.6960
-4.0874 -1.4985 1.6960
-4.0346 -1.6459 1.6960
-3.9765 -1.7913 1.6960
-3.9133 -1.9348 1.6960
-3.8450 -2.0760 1.6960
-3.7717 -2.2148 1.6960
-3.6934 -2.3511 1.6960
-3.6103 -2.4846 1.6960
-3.5224 -2.6152 1.6960
-3.4298 -2.7427 1.6960
-3.3327 -2.8670 1.6960
-3.2311 -2.9878 1.6960
-3.1252 -3.1050 1.6960
-3.0150 -3.2185 1.6960
-2.9008 -3.3281 1.6960
-2.7826 -3.4337 1.6960
-2.6606 -3.5350 1.6960
-2.5349 -3.6320 1.6960
-2.4058 -3.7245 1.6960
-2.2732 -3.8124 1.6960
-2.1375 -3.8955 1.6960
-1.9987 -3.9738 1.6960
-1.8571 -4.0472 1.6960
-1.7128 -4.1154 1.6960
-1.5660 -4.1785 1.6960
-1.4168 -4.2362 1.6960
-1.2656 -4.2886 1.6960
-1.1124 -4.3356 1.6960
-0.9575 -4.3770 1.6960
-0.8011 -4.4128 1.6960
-0.6433 -4.4429 1.6960
-0.4844 -4.4673 1.6960
-0.3246 -4.4860 1.6960
-0.1641 -4.4988 1.6960
-0.0031 -4.5058 1.6960
0.1581 -4.5069 1.6960
0.3194 -4.5022 1.6960
0.4805 -4.4915 1.6960
0.6413 -4.4750 1.6960
0.8015 -4.4527 1.6960
0.9608 -4.4244 1.6960
1.1191 -4.3904 1.6960
1.2761 -4.3505 1.6960
1.4317 -4.3049 1.6960
1.5855 -4.2537 1.6960
1.7375 -4.1967 1.6960
1.8873 -4.1343 1.6960
2.0349 -4.0663 1.6960
2.1798 -3.9929 1.6960
2.3221 -3.9143 1.6960
2.4614 -3.8304 1.6960
2.5976 -3.7415 1.6960
2.7305 -3.6475 1.6960
2.8599 -3.5488 1.6960
2.9855 -3.4452 1.6960
3.0140 -3.2369 1.6451
3.0288 -3.0284 1.5928
3.1354 -2.9187 1.5928
3.2380 -2.8052 1.5928
3.3363 -2.6880 1.5928
3.4302 -2.5672 1.5928
-3.3829 2.1872 1.6960
-3.4597 2.0642 1.6960
-3.5322 1.9386 1.6960
-3.6002 1.8105 1.6960
-3.6637 1.6800 1.6960
-3.7226 1.5475 1.6960
-3.7769 1.4129 1.6960
-3.8264 1.2764 1.6960
-3.8711 1.1383 1.6960
-3.9110 0.9986 1.6960
-3.9460 0.8576 1.6960
-3.9760 0.7154 1.6960
-4.0010 0.5722 1.6960
-4.0210 0.4281 1.6960
-4.0359 0.2833 1.6960
-4.0457 0.1381 1.6960
-4.0504 -0.0075 1.6960
-4.0501 -0.1532 1.6960
-4.0445 -0.2989 1.6960
-4.0339 -0.4444 1.6960
-4.0181 -0.5896 1.6960
-3.9972 -0.7342 1.6960
-3.9712 -0.8780 1.6960
-3.9402 -1.0209 1.6960
-3.9041 -1.1628 1.6960
-3.8630 -1.3034 1.6960
-3.8169 -1.4425 1.6960
-3.7658 -1.5800 1.6960
-3.7099 -1.7158 1.6960
-3.6492 -1.8495 1.6960
-3.5837 -1.9812 1.6960
-3.5136 -2.1105 1.6960
-3.4388 -2.2374 1.6960
-3.3595 -2.3616 1.6960
-3.2758 -2.4831 1.6960
-3.1878 -2.6016 1.6960
-3.0955 -2.7170 1.6960
-2.9990 -2.8291 1.6960
-2.8986 -2.9378 1.6960
-2.7942 -3.0429 1.6960
-2.6860 -3.1443 1.6960
-2.5742 -3.2419 1.6960
-2.4589 -3.3355 1.6960
-2.3402 -3.4250 1.6960
-2.2183 -3.5103 1.6960
-2.0932 -3.5912 1.6960
-1.9652 -3.6676 1.6960
-1.8345 -3.7394 1.6960
-1.7011 -3.8065 1.6960
-1.5653 -3.8689 1.6960
-1.4272 -3.9263 1.6960
-1.2870 -3.9788 1.6960
-1.1449 -4.0263 1.6960
-1.0010 -4.0686 1.6960
-0.8556 -4.1057 1.6960
-0.7089 -4.1375 1.6960
-0.5609 -4.1640 1.6960
-0.4120 -4.1852 1.6960
-0.2623 -4.2009 1.6960
-0.1120 -4.2113 1.6960
0.0387 -4.2161 1.6960
0.1895 -4.2155 1.6960
0.3404 -4.2094 1.6960
0.4910 -4.1978 1.6960
0.6412 -4.1806 1.6960
0.7907 -4.1581 1.6960
0.9394 -4.1300 1.6960
1.0871 -4.0965 1.6960
1.2336 -4.0577 1.6960
1.3786 -4.0135 1.6960
1.5219 -3.9639 1.6960
1.6634 -3.9092 1.6960
1.8029 -3.8492 1.6960
1.9402 -3.7842 1.6960
2.0750 -3.7142 1.6960
2.2072 -3.6392 1.6960
2.3366 -3.5595 1.6960
2.4631 -3.4750 1.6960
2.5863 -3.3859 1.6960
2.7063 -3.2923 1.6960
2.8228 -3.1943 1.6960
2.9356 -3.0921 1.6960
3.0163 -2.9581 1.6802
3.0219 -2.7590 1.6272
3.0527 -2.5935 1.5928
3.1435 -2.4830 1.5928
3.2342 -2.3722 1.5948
3.3126 -2.2523 1.5928
3.3907 -2.1325 1.5928
3.4643 -2.0100 1.5928
3.5334 -1.8847 1.5928
3.5978 -1.7571 1.5928
3.6575 -1.6272 1.5928
3.7123 -1.4952 1.5928
3.7623 -1.3614 1.5928
3.8073 -1.2258 1.5928
3.8473 -1.0887 1.5928
3.8822 -0.9503 1.5928
3.9120 -0.8107 1.5928
3.9366 -0.6702 1.5928
3.9561 -0.5289 1.5928
3.9704 -0.3871 1.5928
3.9795 -0.2449 1.5928
3.9834 -0.1025 1.5928
3.9821 0.0398 1.5928
3.9756 0.1820 1.5928
3.9639 0.3237 1.5928
3.9470 0.4648 1.5928
3.9250 0.6051 1.5928
3.8979 0.7444 1.5928
3.8658 0.8826 1.5928
3.8287 1.0194 1.5928
3.7867 1.1547 1.5928
3.7399 1.2882 1.5928
3.6882 1.4199 1.5928
3.6319 1.5495 1.5928
3.5709 1.6769 1.5928
3.5054 1.8019 1.5928
3.4354 1.9244 1.5928
3.3612 2.0442 1.5928
3.2827 2.1610 1.5928
3.2001 2.2749 1.5928
3.1136 2.3857 1.5928
3.0687 2.5307 1.6168
3.0636 2.7165 1.6660
3.0148 2.8725 1.6960
2.9070 2.9756 1.6960
2.7957 3.0747 1.6960
2.6810 3.1697 1.6960
0.9069 1.1536 0.6001
0.8648 1.1852 0.6006
0.8216 1.2152 0.6011
0.7774 1.2436 0.6016
0.7322 1.2705 0.6021
0.6860 1.2957 0.6026
0.6390 1.3192 0.6032
0.5912 1.3411 0.6037
0.5426 1.3612 0.6042
0.4934 1.3796 0.6047
0.4435 1.3962 0.6052
0.3930 1.4110 0.6057
0.3421 1.4241 0.6062
0.2907 1.4353 0.6066
0.2389 1.4446 0.6071
0.1869 1.4521 0.6076
0.1346 1.4577 0.6081
0.0822 1.4615 0.6086
0.0296 1.4634 0.6090
-0.0230 1.4634 0.6095
-0.0756 1.4615 0.6099
-0.1280 1.4578 0.6103
-0.1803 1.4521 0.6108
-0.2324 1.4447 0.6112
-0.2842 1.4353 0.6116
-0.3356 1.4241 0.6120
-0.3866 1.4111 0.6123
-0.4370 1.3963 0.6127
-0.4870 1.3797 0.6131
-0.5363 1.3613 0.6134
-0.5849 1.3411 0.6137
-0.6328 1.3192 0.6141
-0.6799 1.2957 0.6143
-0.7261 1.2704 0.6146
-0.7713 1.2435 0.6149
-0.8156 1.2150 0.6152
-0.8589 1.1850 0.6154
-2.4823 3.1776 1.6960
-2.5944 3.0855 1.6960
-2.7032 2.9894 1.6960
-2.8085 2.8897 1.6960
-2.9102 2.7864 1.6960
-3.0083 2.6795 1.6960
-3.1026 2.5693 1.6960
-3.1929 2.4559 1.6960
-3.2792 2.3394 1.6960
-3.3614 2.2199 1.6960
-3.4394 2.0977 1.6960
-3.5130 1.9727 1.6960
-3.5823 1.8453 1.6960
-3.6470 1.7155 1.6960
-3.7072 1.5835 1.6960
-3.7627 1.4494 1.6960
-3.8135 1.3135 1.6960
-3.8595 1.1758 1.6960
-3.9007 1.0365 1.6960
-3.9370 0.8958 1.6960
-3.9684 0.7539 1.6960
-3.9947 0.6110 1.6960
-4.0161 0.4671 1.6960
-4.0324 0.3225 1.6960
-4.0436 0.1774 1.6960
-4.0497 0.0319 1.6960
-4.0507 -0.1138 1.6960
-4.0465 -0.2596 1.6960
-4.0373 -0.4052 1.6960
-4.0229 -0.5504 1.6960
-4.0034 -0.6952 1.6960
-3.9788 -0.8392 1.6960
-3.9491 -0.9824 1.6960
-3.9143 -1.1246 1.6960
-3.8746 -1.2655 1.6960
-3.8298 -1.4051 1.6960
-3.7801 -1.5430 1.6960
-3.7255 -1.6793 1.6960
-3.6661 -1.8136 1.6960
-3.6019 -1.9458 1.6960
-3.5330 -2.0758 1.6960
-3.4595 -2.2034 1.6960
-3.3814 -2.3284 1.6960
-3.2989 -2.4506 1.6960
-3.2120 -2.5699 1.6960
-3.1208 -2.6861 1.6960
-3.0255 -2.7991 1.6960
-2.9261 -2.9087 1.6960
-2.8228 -3.0149 1.6960
-2.7156 -3.1173 1.6960
-2.6048 -3.2160 1.6960
-2.4904 -3.3106 1.6960
-2.3726 -3.4013 1.6960
-2.2515 -3.4877 1.6960
-2.1273 -3.5697 1.6960
-2.0001 -3.6474 1.6960
-1.8701 -3.7205 1.6960
-1.7374 -3.7889 1.6960
-1.6022 -3.8525 1.6960
-1.4647 -3.9113 1.6960
-1.3251 -3.9651 1.6960
-1.1835 -4.0140 1.6960
-1.0401 -4.0576 1.6960
-0.8951 -4.0962 1.6960
-0.7486 -4.1294 1.6960
-0.6010 -4.1574 1.6960
-0.4523 -4.1800 1.6960
-0.3028 -4.1972 1.6960
-0.1527 -4.2090 1.6960
-0.0021 -4.2153 1.6960
0.1488 -4.2162 1.6960
0.2996 -4.2116 1.6960
0.4503 -4.2014 1.6960
0.6006 -4.1858 1.6960
0.7504 -4.1647 1.6960
0.8994 -4.1381 1.6960
1.0473 -4.1061 1.6960
1.1941 -4.0687 1.6960
1.3395 -4.0259 1.6960
1.4834 -3.9778 1.6960
1.6254 -3.9245 1.6960
1.7654 -3.8659 1.6960
1.9033 -3.8023 1.6960
2.0388 -3.7336 1.6960
2.1717 -3.6600 1.6960
2.3019 -3.5815 1.6960
2.4292 -3.4982 1.6960
2.5534 -3.4104 1.6960
2.6742 -3.3180 1.6960
2.7917 -3.2212 1.6960
2.9055 -3.1201 1.6960
3.0156 -3.0149 1.6960
3.0183 -2.8095 1.6398
3.0314 -2.6261 1.5948
3.1194 -2.5131 1.5928
3.2072 -2.4003 1.5928
-3.1807 2.0564 1.6960
-3.2529 1.9407 1.6960
-3.3210 1.8225 1.6960
-3.3850 1.7021 1.6960
-3.4447 1.5794 1.6960
-3.5001 1.4547 1.6960
-3.5510 1.3281 1.6960
-3.5976 1.1997 1.6960
-3.6396 1.0698 1.6960
-3.6770 0.9385 1.6960
-3.7098 0.8059 1.6960
-3.7379 0.6721 1.6960
-3.7613 0.5374 1.6960
-3.7800 0.4019 1.6960
-3.7940 0.2658 1.6960
-3.8031 0.1292 1.6960
-3.8074 -0.0076 1.6960
-3.8070 -0.1447 1.6960
-3.8016 -0.2817 1.6960
-3.7915 -0.4184 1.6960
-3.7765 -0.5549 1.6960
-3.7568 -0.6907 1.6960
-3.7322 -0.8259 1.6960
-3.7028 -0.9603 1.6960
-3.6688 -1.0935 1.6960
-3.6299 -1.2256 1.6960
-3.5865 -1.3564 1.6960
-3.5383 -1.4855 1.6960
-3.4857 -1.6130 1.6960
-3.4284 -1.7387 1.6960
-3.3667 -1.8623 1.6960
-3.3007 -1.9837 1.6960
-3.2303 -2.1028 1.6960
-3.1556 -2.2195 1.6960
-3.0768 -2.3335 1.6960
-2.9939 -2.4447 1.6960
-2.9071 -2.5529 1.6960
-2.8163 -2.6581 1.6960
-2.7218 -2.7601 1.6960
-2.6236 -2.8587 1.6960
-2.5219 -2.9538 1.6960
-2.4168 -3.0453 1.6960
-2.3083 -3.1330 1.6960
-2.1967 -3.2169 1.6960
-2.0821 -3.2968 1.6960
-1.9646 -3.3725 1.6960
-1.8443 -3.4441 1.6960
-1.7215 -3.5114 1.6960
-1.5962 -3.5742 1.6960
-1.4686 -3.6325 1.6960
-1.3389 -3.6863 1.6960
-1.2072 -3.7354 1.6960
-1.0738 -3.7797 1.6960
-0.9387 -3.8192 1.6960
-0.8022 -3.8538 1.6960
-0.6644 -3.8835 1.6960
-0.5255 -3.9082 1.6960
-0.3858 -3.9279 1.6960
-0.2453 -3.9425 1.6960
-0.1043 -3.9520 1.6960
0.0371 -3.9564 1.6960
0.1787 -3.9556 1.6960
0.3202 -3.9497 1.6960
0.4614 -3.9387 1.6960
0.6023 -3.9224 1.6960
0.7426 -3.9011 1.6960
0.8821 -3.8747 1.6960
1.0206 -3.8431 1.6960
1.1579 -3.8065 1.6960
1.2938 -3.7649 1.6960
1.4282 -3.7184 1.6960
1.5609 -3.6669 1.6960
1.6917 -3.6106 1.6960
1.8204 -3.5495 1.6960
1.9468 -3.4838 1.6960
2.0707 -3.4134 1.6960
2.1920 -3.3385 1.6960
2.3105 -3.2592 1.6960
2.4261 -3.1756 1.6960
2.5386 -3.0878 1.6960
2.6478 -2.9959 1.6960
2.7535 -2.9001 1.6960
2.8557 -2.8004 1.6960
2.9542 -2.6970 1.6960
3.0196 -2.5652 1.6797
3.0235 -2.3881 1.6333
3.0345 -2.2257 1.5954
3.1069 -2.1125 1.5928
3.1802 -2.0002 1.5928
3.2492 -1.8853 1.5928
3.3140 -1.7679 1.5928
3.3744 -1.6482 1.5928
3.4304 -1.5264 1.5928
3.4819 -1.4027 1.5928
3.5288 -1.2772 1.5928
3.5710 -1.1501 1.5928
3.6086 -1.0215 1.5928
3.6414 -0.8917 1.5928
3.6695 -0.7609 1.5928
3.6927 -0.6291 1.5928
3.7110 -0.4966 1.5928
3.7246 -0.3636 1.5928
3.7332 -0.2302 1.5928
3.7369 -0.0967 1.5928
3.7358 0.0368 1.5928
3.7298 0.1701 1.5928
3.7190 0.3030 1.5928
3.7033 0.4354 1.5928
3.6828 0.5670 1.5928
3.6576 0.6978 1.5928
3.6276 0.8274 1.5928
3.5930 0.9558 1.5928
3.5537 1.0828 1.5928
3.5099 1.2082 1.5928
3.4616 1.3318 1.5928
3.4089 1.4535 1.5928
3.3518 1.5731 1.5928
3.2905 1.6905 1.5928
3.2250 1.8055 1.5928
3.1555 1.9180 1.5928
3.0820 2.0278 1.5928
3.0639 2.1769 1.6242
3.0605 2.3438 1.6674
3.0229 2.4915 1.6960
2.9289 2.5957 1.6960
2.8313 2.6963 1.6960
2.7303 2.7932 1.6960
2.6259 2.8864 1.6960
0.8906 1.0524 0.5998
0.8522 1.0834 0.6003
0.8126 1.1130 0.6008
0.7721 1.1412 0.6012
0.7305 1.1680 0.6017
0.6881 1.1932 0.6022
0.6447 1.2169 0.6027
0.6005 1.2390 0.6031
0.5556 1.2595 0.6036
0.5100 1.2784 0.6041
0.4637 1.2957 0.6045
0.4169 1.3113 0.6050
0.3695 1.3252 0.6055
0.3216 1.3374 0.6060
0.2733 1.3480 0.6064
0.2247 1.3567 0.6069
0.1759 1.3638 0.6073
0.1267 1.3690 0.6078
0.0775 1.3726 0.6082
0.0281 1.3743 0.6086
-0.0213 1.3743 0.6091
-0.0707 1.3726 0.6095
-0.1200 1.3691 0.6099
-0.1691 1.3638 0.6103
-0.2180 1.3567 0.6107
-0.2666 1.3480 0.6110
-0.3149 1.3375 0.6114
-0.3628 1.3252 0.6118
-0.4102 1.3113 0.6121
-0.4571 1.2957 0.6124
-0.5034 1.2784 0.6128
-0.5491 1.2595 0.6131
-0.5941 1.2389 0.6134
-0.6383 1.2168 0.6136
-0.6817 1.1930 0.6139
-0.7242 1.1678 0.6142
-0.7658 1.1410 0.6144
-0.8064 1.1128 0.6146
-0.8460 1.0831 0.6148
-0.8845 1.0520 0.6150
-2.5413 2.8108 1.6960
-2.6404 2.7170 1.6960
-2.7361 2.6199 1.6960
-2.8284 2.5194 1.6960
-2.9170 2.4158 1.6960
-3.0020 2.3091 1.6960
-3.0832 2.1995 1.6960
-3.1605 2.0872 1.6960
-3.2338 1.9722 1.6960
-3.3030 1.8547 1.6960
-3.3681 1.7348 1.6960
-3.4290 1.6127 1.6960
-3.4855 1.4886 1.6960
-3.5377 1.3625 1.6960
-3.5854 1.2346 1.6960
-3.6287 1.1051 1.6960
-3.6673 0.9741 1.6960
-3.7014 0.8418 1.6960
-3.7308 0.7084 1.6960
-3.7555 0.5739 1.6960
-3.7755 0.4386 1.6960
-3.7907 0.3027 1.6960
-3.8011 0.1662 1.6960
-3.8067 0.0294 1.6960
-3.8076 -0.1076 1.6960
-3.8035 -0.2446 1.6960
-3.7947 -0.3815 1.6960
-3.7811 -0.5180 1.6960
-3.7626 -0.6541 1.6960
-3.7393 -0.7895 1.6960
-3.7112 -0.9241 1.6960
-3.6784 -1.0576 1.6960
-3.6409 -1.1901 1.6960
-3.5987 -1.3212 1.6960
-3.5518 -1.4508 1.6960
-3.5003 -1.5788 1.6960
-3.4443 -1.7049 1.6960
-3.3839 -1.8291 1.6960
-3.3190 -1.9511 1.6960
-3.2497 -2.0709 1.6960
-3.1762 -2.1882 1.6960
-3.0985 -2.3029 1.6960
-3.0167 -2.4149 1.6960
-2.9309 -2.5240 1.6960
-2.8412 -2.6300 1.6960
-2.7477 -2.7328 1.6960
-2.6505 -2.8324 1.6960
-2.5497 -2.9285 1.6960
-2.4455 -3.0209 1.6960
-2.3379 -3.1097 1.6960
-2.2272 -3.1946 1.6960
-2.1134 -3.2756 1.6960
-1.9966 -3.3525 1.6960
-1.8771 -3.4252 1.6960
-1.7549 -3.4936 1.6960
-1.6302 -3.5577 1.6960
-1.5033 -3.6172 1.6960
-1.3741 -3.6722 1.6960
-1.2430 -3.7226 1.6960
-1.1100 -3.7682 1.6960
-0.9753 -3.8090 1.6960
-0.8392 -3.8450 1.6960
-0.7017 -3.8760 1.6960
-0.5632 -3.9021 1.6960
-0.4236 -3.9231 1.6960
-0.2833 -3.9391 1.6960
-0.1424 -3.9499 1.6960
-0.0011 -3.9557 1.6960
0.1404 -3.9563 1.6960
0.2820 -3.9518 1.6960
0.4233 -3.9421 1.6960
0.5643 -3.9273 1.6960
0.7048 -3.9074 1.6960
0.8445 -3.8823 1.6960
0.9832 -3.8521 1.6960
1.1209 -3.8169 1.6960
1.2572 -3.7767 1.6960
1.3921 -3.7314 1.6960
1.5253 -3.6813 1.6960
1.6566 -3.6263 1.6960
1.7858 -3.5665 1.6960
1.9128 -3.5020 1.6960
2.0375 -3.4329 1.6960
2.1595 -3.3592 1.6960
2.2788 -3.2811 1.6960
2.3952 -3.1986 1.6960
2.5085 -3.1119 1.6960
2.6186 -3.0211 1.6960
2.7253 -2.9263 1.6960
2.8285 -2.8277 1.6960
2.9280 -2.7253 1.6960
3.0192 -2.6154 1.6935
3.0207 -2.4336 1.6445
3.0317 -2.2689 1.6053
-2.9978 1.9381 1.6960
-3.0659 1.8290 1.6960
-3.1301 1.7176 1.6960
-3.1904 1.6040 1.6960
-3.2467 1.4884 1.6960
-3.2988 1.3708 1.6960
-3.3468 1.2514 1.6960
-3.3906 1.1304 1.6960
-3.4302 1.0079 1.6960
-3.4654 0.8841 1.6960
-3.4963 0.7591 1.6960
-3.5227 0.6330 1.6960
-3.5447 0.5060 1.6960
-3.5623 0.3783 1.6960
-3.5753 0.2500 1.6960
-3.5838 0.1212 1.6960
-3.5878 -0.0078 1.6960
-3.5873 -0.1369 1.6960
-3.5821 -0.2660 1.6960
-3.5725 -0.3949 1.6960
-3.5583 -0.5235 1.6960
-3.5395 -0.6515 1.6960
-3.5162 -0.7789 1.6960
-3.4885 -0.9055 1.6960
-3.4562 -1.0310 1.6960
-3.4195 -1.1554 1.6960
-3.3784 -1.2785 1.6960
-3.3329 -1.4002 1.6960
-3.2832 -1.5203 1.6960
-3.2291 -1.6386 1.6960
-3.1709 -1.7549 1.6960
-3.1085 -1.8693 1.6960
-3.0420 -1.9814 1.6960
-2.9716 -2.0912 1.6960
-2.8972 -2.1984 1.6960
-2.8190 -2.3031 1.6960
-2.7371 -2.4049 1.6960
-2.6515 -2.5039 1.6960
-2.5623 -2.5998 1.6960
-2.4698 -2.6925 1.6960
-2.3739 -2.7819 1.6960
-2.2748 -2.8679 1.6960
-2.1726 -2.9504 1.6960
-2.0674 -3.0292 1.6960
-1.9594 -3.1043 1.6960
-1.8486 -3.1755 1.6960
-1.7353 -3.2427 1.6960
-1.6196 -3.3058 1.6960
-1.5016 -3.3648 1.6960
-1.3814 -3.4196 1.6960
-1.2593 -3.4700 1.6960
-1.1353 -3.5160 1.6960
-1.0097 -3.5576 1.6960
-0.8825 -3.5946 1.6960
-0.7540 -3.6270 1.6960
-0.6244 -3.6548 1.6960
-0.4937 -3.6779 1.6960
-0.3622 -3.6962 1.6960
-0.2300 -3.7098 1.6960
-0.0973 -3.7186 1.6960
0.0357 -3.7226 1.6960
0.1689 -3.7217 1.6960
0.3020 -3.7160 1.6960
0.4349 -3.7055 1.6960
0.5674 -3.6901 1.6960
0.6993 -3.6699 1.6960
0.8304 -3.6449 1.6960
0.9607 -3.6151 1.6960
1.0898 -3.5806 1.6960
1.2176 -3.5414 1.6960
1.3440 -3.4975 1.6960
1.4687 -3.4490 1.6960
1.5917 -3.3960 1.6960
1.7126 -3.3385 1.6960
1.8314 -3.2766 1.6960
1.9479 -3.2103 1.6960
2.0620 -3.1399 1.6960
2.1734 -3.0652 1.6960
2.2821 -2.9866 1.6960
2.3878 -2.9040 1.6960
2.4904 -2.8175 1.6960
2.5898 -2.7274 1.6960
2.6859 -2.6336 1.6960
2.7785 -2.5364 1.6960
2.8674 -2.4359 1.6960
2.9526 -2.3321 1.6960
3.0225 -2.2169 1.6896
3.0238 -2.0561 1.6483
3.0322 -1.9073 1.6148
3.0558 -1.7732 1.5928
3.1167 -1.6628 1.5928
3.1736 -1.5503 1.5928
3.2407 -1.4422 1.5999
3.2747 -1.3195 1.5928
3.3188 -1.2015 1.5928
3.3586 -1.0820 1.5928
3.3940 -0.9611 1.5928
3.4249 -0.8391 1.5928
3.4513 -0.7160 1.5928
3.4732 -0.5921 1.5928
3.4906 -0.4676 1.5928
3.5034 -0.3425 1.5928
3.5116 -0.2171 1.5928
3.5152 -0.0915 1.5928
3.5143 0.0340 1.5928
3.5088 0.1594 1.5928
3.4987 0.2844 1.5928
3.4840 0.4090 1.5928
3.4649 0.5328 1.5928
3.4413 0.6558 1.5928
3.4132 0.7778 1.5928
3.3808 0.8986 1.5928
3.3440 1.0181 1.5928
3.3029 1.1361 1.5928
3.2642 1.2550 1.5960
3.2081 1.3670 1.5928
3.1545 1.4796 1.5928
3.0970 1.5901 1.5928
3.0642 1.7145 1.6078
3.0573 1.8573 1.6395
3.0577 2.0107 1.6787
3.0119 2.1388 1.6960
2.9307 2.2432 1.6960
2.8460 2.3445 1.6960
2.7577 2.4426 1.6960
2.6659 2.5374 1.6960
2.5710 2.6288 1.6960
0.8742 0.9604 0.5996
0.8390 0.9909 0.6000
0.8028 1.0201 0.6004
0.7656 1.0480 0.6009
0.7274 1.0745 0.6013
0.6882 1.0997 0.6018
0.6482 1.1234 0.6022
0.6074 1.1457 0.6027
0.5658 1.1666 0.6031
0.5235 1.1859 0.6036
0.4806 1.2037 0.6040
0.4370 1.2200 0.6044
0.3928 1.2347 0.6049
0.3482 1.2478 0.6053
0.3032 1.2593 0.6058
0.2577 1.2692 0.6062
0.2119 1.2775 0.6066
0.1659 1.2841 0.6071
0.1196 1.2891 0.6075
0.0732 1.2924 0.6079
0.0267 1.2940 0.6083
-0.0198 1.2940 0.6087
-0.0663 1.2924 0.6091
-0.1127 1.2891 0.6095
-0.1589 1.2841 0.6098
-0.2050 1.2775 0.6102
-0.2508 1.2692 0.6106
-0.2963 1.2593 0.6109
-0.3414 1.2478 0.6112
-0.3860 1.2346 0.6116
-0.4302 1.2199 0.6119
-0.4738 1.2036 0.6122
-0.5168 1.1858 0.6125
-0.5591 1.1664 0.6127
-0.6007 1.1456 0.6130
-0.6416 1.1232 0.6133
-0.6816 1.0994 0.6135
-0.7208 1.0742 0.6137
-0.7590 1.0476 0.6139
-0.7963 1.0197 0.6141
-0.8326 0.9904 0.6143
-0.8677 0.9598 0.6145
-2.4885 2.5609 1.6960
-2.5787 2.4693 1.6960
-2.6657 2.3746 1.6960
-2.7493 2.2769 1.6960
-2.8294 2.1764 1.6960
-2.9059 2.0731 1.6960
-2.9788 1.9672 1.6960
-3.0479 1.8587 1.6960
-3.1132 1.7479 1.6960
-3.1745 1.6349 1.6960
-3.2319 1.5198 1.6960
-3.2851 1.4027 1.6960
-3.3343 1.2838 1.6960
-3.3792 1.1633 1.6960
-3.4199 1.0412 1.6960
-3.4563 0.9177 1.6960
-3.4884 0.7930 1.6960
-3.5160 0.6671 1.6960
-3.5392 0.5404 1.6960
-3.5580 0.4129 1.6960
-3.5722 0.2847 1.6960
-3.5820 0.1560 1.6960
-3.5872 0.0271 1.6960
-3.5879 -0.1020 1.6960
-3.5840 -0.2312 1.6960
-3.5755 -0.3601 1.6960
-3.5625 -0.4888 1.6960
-3.5450 -0.6170 1.6960
-3.5230 -0.7446 1.6960
-3.4964 -0.8714 1.6960
-3.4653 -0.9972 1.6960
-3.4299 -1.1219 1.6960
-3.3899 -1.2454 1.6960
-3.3456 -1.3675 1.6960
-3.2970 -1.4880 1.6960
-3.2441 -1.6068 1.6960
-3.1870 -1.7237 1.6960
-3.1257 -1.8386 1.6960
-3.0604 -1.9513 1.6960
-2.9910 -2.0618 1.6960
-2.9177 -2.1697 1.6960
-2.8405 -2.2751 1.6960
-2.7596 -2.3777 1.6960
-2.6749 -2.4774 1.6960
-2.5868 -2.5742 1.6960
-2.4951 -2.6678 1.6960
-2.4001 -2.7581 1.6960
-2.3018 -2.8450 1.6960
-2.2005 -2.9285 1.6960
-2.0961 -3.0083 1.6960
-1.9888 -3.0844 1.6960
-1.8788 -3.1566 1.6960
-1.7662 -3.2249 1.6960
-1.6511 -3.2892 1.6960
-1.5337 -3.3493 1.6960
-1.4141 -3.4052 1.6960
-1.2925 -3.4568 1.6960
-1.1690 -3.5040 1.6960
-1.0438 -3.5468 1.6960
-0.9170 -3.5851 1.6960
-0.7889 -3.6187 1.6960
-0.6595 -3.6478 1.6960
-0.5291 -3.6721 1.6960
-0.3978 -3.6918 1.6960
-0.2657 -3.7066 1.6960
-0.1332 -3.7167 1.6960
-0.0002 -3.7220 1.6960
0.1329 -3.7224 1.6960
0.2660 -3.7180 1.6960
0.3990 -3.7088 1.6960
0.5316 -3.6947 1.6960
0.6637 -3.6758 1.6960
0.7951 -3.6521 1.6960
0.9256 -3.6236 1.6960
1.0550 -3.5904 1.6960
1.1832 -3.5524 1.6960
1.3100 -3.5098 1.6960
1.4352 -3.4626 1.6960
1.5586 -3.4108 1.6960
1.6801 -3.3544 1.6960
1.7996 -3.2937 1.6960
1.9167 -3.2287 1.6960
2.0314 -3.1593 1.6960
2.1436 -3.0858 1.6960
2.2530 -3.0082 1.6960
2.3595 -2.9267 1.6960
2.4630 -2.8413 1.6960
2.5633 -2.7521 1.6960
2.6603 -2.6593 1.6960
2.7538 -2.5630 1.6960
2.8437 -2.4634 1.6960
2.9300 -2.3605 1.6960
3.0124 -2.2545 1.6960
-2.8316 1.8305 1.6960
-2.8959 1.7275 1.6960
-2.9565 1.6222 1.6960
-3.0134 1.5149 1.6960
-3.0666 1.4056 1.6960
-3.1158 1.2945 1.6960
-3.1611 1.1817 1.6960
-3.2025 1.0674 1.6960
-3.2398 0.9517 1.6960
-3.2730 0.8347 1.6960
-3.3021 0.7165 1.6960
-3.3271 0.5974 1.6960
-3.3478 0.4774 1.6960
-3.3643 0.3568 1.6960
-3.3765 0.2356 1.6960
-3.3845 0.1140 1.6960
-3.3882 -0.0079 1.6960
-3.3876 -0.1299 1.6960
-3.3826 -0.2518 1.6960
-3.3734 -0.3736 1.6960
-3.3599 -0.4950 1.6960
-3.3421 -0.6159 1.6960
-3.3200 -0.7362 1.6960
-3.2936 -0.8557 1.6960
-3.2631 -0.9742 1.6960
-3.2283 -1.0916 1.6960
-3.1894 -1.2079 1.6960
-3.1463 -1.3227 1.6960
-3.0992 -1.4360 1.6960
-3.0481 -1.5476 1.6960
-2.9929 -1.6575 1.6960
-2.9339 -1.7654 1.6960
-2.8711 -1.8711 1.6960
-2.8044 -1.9747 1.6960
-2.7341 -2.0758 1.6960
-2.6602 -2.1745 1.6960
-2.5827 -2.2706 1.6960
-2.5018 -2.3639 1.6960
-2.4176 -2.4543 1.6960
-2.3302 -2.5417 1.6960
-2.2396 -2.6260 1.6960
-2.1459 -2.7070 1.6960
-2.0494 -2.7847 1.6960
-1.9500 -2.8590 1.6960
-1.8480 -2.9297 1.6960
-1.7435 -2.9967 1.6960
-1.6365 -3.0600 1.6960
-1.5273 -3.1195 1.6960
-1.4158 -3.1750 1.6960
-1.3024 -3.2265 1.6960
-1.1872 -3.2739 1.6960
-1.0702 -3.3172 1.6960
-0.9516 -3.3563 1.6960
-0.8316 -3.3911 1.6960
-0.7104 -3.4215 1.6960
-0.5881 -3.4476 1.6960
-0.4648 -3.4692 1.6960
-0.3408 -3.4864 1.6960
-0.2161 -3.4990 1.6960
-0.0909 -3.5072 1.6960
0.0345 -3.5108 1.6960
0.1600 -3.5099 1.6960
0.2855 -3.5044 1.6960
0.4108 -3.4943 1.6960
0.5357 -3.4797 1.6960
0.6601 -3.4606 1.6960
0.7837 -3.4369 1.6960
0.9064 -3.4087 1.6960
1.0281 -3.3761 1.6960
1.1486 -3.3390 1.6960
1.2677 -3.2976 1.6960
1.3853 -3.2518 1.6960
1.5011 -3.2017 1.6960
1.6151 -3.1474 1.6960
1.7271 -3.0890 1.6960
1.8369 -3.0265 1.6960
1.9443 -2.9601 1.6960
2.0493 -2.8897 1.6960
2.1517 -2.8155 1.6960
2.2513 -2.7376 1.6960
2.3480 -2.6561 1.6960
2.4417 -2.5711 1.6960
2.5322 -2.4828 1.6960
2.6194 -2.3911 1.6960
2.7033 -2.2964 1.6960
2.7836 -2.1986 1.6960
2.8603 -2.0979 1.6960
2.9332 -1.9945 1.6960
3.0023 -1.8885 1.6960
3.0263 -1.7562 1.6732
3.0279 -1.6156 1.6414
3.0355 -1.4830 1.6160
3.0424 -1.3542 1.5932
3.0872 -1.2442 1.5928
3.1288 -1.1330 1.5928
3.1664 -1.0203 1.5928
3.1998 -0.9064 1.5928
3.2457 -0.7955 1.6010
3.2539 -0.6755 1.5928
3.2746 -0.5587 1.5928
3.2911 -0.4413 1.5928
3.3032 -0.3234 1.5928
3.3110 -0.2052 1.5928
3.3145 -0.0868 1.5928
3.3137 0.0315 1.5928
3.3086 0.1497 1.5928
3.2992 0.2676 1.5928
3.2855 0.3850 1.5928
3.2676 0.5018 1.5928
3.2581 0.6202 1.5990
3.2191 0.7328 1.5928
3.1886 0.8468 1.5928
3.1540 0.9595 1.5928
3.1153 1.0708 1.5928
3.0727 1.1805 1.5928
3.0601 1.3030 1.6106
3.0549 1.4319 1.6351
3.0540 1.5671 1.6649
3.0494 1.7052 1.6960
2.9840 1.8116 1.6960
2.9148 1.9156 1.6960
2.8419 2.0169 1.6960
2.7655 2.1155 1.6960
2.6856 2.2112 1.6960
2.6024 2.3039 1.6960
0.8885 0.8452 0.5989
0.8575 0.8763 0.5993
0.8253 0.9062 0.5997
0.7922 0.9350 0.6001
0.7580 0.9626 0.6006
0.7228 0.9889 0.6010
0.6868 1.0140 0.6014
0.6499 1.0377 0.6018
0.6121 1.0601 0.6022
0.5736 1.0812 0.6027
0.5343 1.1009 0.6031
0.4944 1.1191 0.6035
0.4538 1.1359 0.6039
0.4127 1.1513 0.6044
0.3711 1.1651 0.6048
0.3289 1.1775 0.6052
0.2864 1.1884 0.6056
0.2435 1.1977 0.6060
0.2003 1.2055 0.6064
0.1568 1.2118 0.6068
0.1132 1.2165 0.6072
0.0694 1.2196 0.6076
0.0255 1.2212 0.6080
-0.0184 1.2212 0.6084
-0.0623 1.2196 0.6087
-0.1061 1.2165 0.6091
-0.1497 1.2117 0.6094
-0.1932 1.2055 0.6098
-0.2364 1.1977 0.6101
-0.2793 1.1883 0.6104
-0.3219 1.1775 0.6108
-0.3640 1.1650 0.6111
-0.4057 1.1512 0.6114
-0.4469 1.1358 0.6116
-0.4875 1.1189 0.6119
-0.5274 1.1007 0.6122
-0.5667 1.0810 0.6124
-0.6053 1.0599 0.6127
-0.6430 1.0374 0.6129
-0.6800 1.0136 0.6131
-0.7161 0.9885 0.6133
-0.7513 0.9621 0.6135
-0.7855 0.9345 0.6137
-0.8187 0.9057 0.6138
-0.8508 0.8756 0.6140
-0.8819 0.8445 0.6141
-2.5177 2.2429 1.6960
-2.5967 2.1506 1.6960
-2.6724 2.0556 1.6960
-2.7447 1.9580 1.6960
-2.8136 1.8580 1.6960
-2.8788 1.7555 1.6960
-2.9405 1.6508 1.6960
-2.9984 1.5441 1.6960
-3.0526 1.4353 1.6960
-3.1029 1.3247 1.6960
-3.1493 1.2123 1.6960
-3.1917 1.0984 1.6960
-3.2301 0.9831 1.6960
-3.2645 0.8664 1.6960
-3.2947 0.7486 1.6960
-3.3207 0.6297 1.6960
-3.3426 0.5099 1.6960
-3.3602 0.3894 1.6960
-3.3736 0.2684 1.6960
-3.3828 0.1468 1.6960
-3.3876 0.0250 1.6960
-3.3882 -0.0969 1.6960
-3.3844 -0.2189 1.6960
-3.3763 -0.3407 1.6960
-3.3640 -0.4622 1.6960
-3.3473 -0.5833 1.6960
-3.3264 -0.7038 1.6960
-3.3012 -0.8235 1.6960
-3.2717 -0.9423 1.6960
-3.2381 -1.0600 1.6960
-3.2003 -1.1766 1.6960
-3.1584 -1.2918 1.6960
-3.1123 -1.4056 1.6960
-3.0623 -1.5177 1.6960
-3.0082 -1.6280 1.6960
-2.9503 -1.7364 1.6960
-2.8884 -1.8428 1.6960
-2.8228 -1.9469 1.6960
-2.7535 -2.0488 1.6960
-2.6805 -2.1481 1.6960
-2.6040 -2.2449 1.6960
-2.5240 -2.3390 1.6960
-2.4407 -2.4302 1.6960
-2.3541 -2.5184 1.6960
-2.2643 -2.6035 1.6960
-2.1715 -2.6855 1.6960
-2.0757 -2.7641 1.6960
-1.9771 -2.8393 1.6960
-1.8759 -2.9109 1.6960
-1.7720 -2.9790 1.6960
-1.6656 -3.0433 1.6960
-1.5570 -3.1038 1.6960
-1.4461 -3.1604 1.6960
-1.3333 -3.2130 1.6960
-1.2185 -3.2615 1.6960
-1.1019 -3.3059 1.6960
-0.9838 -3.3461 1.6960
-0.8642 -3.3821 1.6960
-0.7433 -3.4137 1.6960
-0.6212 -3.4409 1.6960
-0.4982 -3.4638 1.6960
-0.3743 -3.4822 1.6960
-0.2498 -3.4960 1.6960
-0.1248 -3.5054 1.6960
0.0006 -3.5103 1.6960
0.1261 -3.5106 1.6960
0.2516 -3.5063 1.6960
0.3770 -3.4975 1.6960
0.5020 -3.4841 1.6960
0.6265 -3.4662 1.6960
0.7504 -3.4437 1.6960
0.8734 -3.4168 1.6960
0.9954 -3.3853 1.6960
1.1162 -3.3495 1.6960
1.2357 -3.3092 1.6960
1.3537 -3.2646 1.6960
1.4700 -3.2156 1.6960
1.5845 -3.1625 1.6960
1.6970 -3.1052 1.6960
1.8074 -3.0438 1.6960
1.9155 -2.9784 1.6960
2.0212 -2.9091 1.6960
2.1243 -2.8359 1.6960
2.2247 -2.7590 1.6960
2.3222 -2.6785 1.6960
2.4167 -2.5944 1.6960
2.5081 -2.5070 1.6960
2.5962 -2.4162 1.6960
2.6810 -2.3223 1.6960
2.7622 -2.2253 1.6960
2.8399 -2.1254 1.6960
-2.6795 1.7322 1.6960
-2.7404 1.6346 1.6960
-2.7978 1.5350 1.6960
-2.8516 1.4334 1.6960
-2.9019 1.3299 1.6960
-2.9485 1.2247 1.6960
-2.9914 1.1180 1.6960
-3.0305 1.0098 1.6960
-3.0658 0.9002 1.6960
-3.0972 0.7895 1.6960
-3.1247 0.6776 1.6960
-3.1482 0.5649 1.6960
-3.1678 0.4513 1.6960
-3.1833 0.3371 1.6960
-3.1948 0.2224 1.6960
-3.2023 0.1073 1.6960
-3.2057 -0.0080 1.6960
-3.2051 -0.1235 1.6960
-3.2003 -0.2389 1.6960
-3.1915 -0.3540 1.6960
-3.1786 -0.4689 1.6960
-3.1617 -0.5833 1.6960
-3.1407 -0.6971 1.6960
-3.1157 -0.8101 1.6960
-3.0867 -0.9223 1.6960
-3.0537 -1.0334 1.6960
-3.0167 -1.1433 1.6960
-2.9759 -1.2519 1.6960
-2.9312 -1.3591 1.6960
-2.8827 -1.4646 1.6960
-2.8305 -1.5685 1.6960
-2.7746 -1.6705 1.6960
-2.7150 -1.7704 1.6960
-2.6519 -1.8683 1.6960
-2.5853 -1.9640 1.6960
-2.5153 -2.0572 1.6960
-2.4419 -2.1480 1.6960
-2.3653 -2.2361 1.6960
-2.2856 -2.3215 1.6960
-2.2028 -2.4041 1.6960
-2.1170 -2.4837 1.6960
-2.0284 -2.5603 1.6960
-1.9370 -2.6336 1.6960
-1.8430 -2.7037 1.6960
-1.7465 -2.7705 1.6960
-1.6476 -2.8337 1.6960
-1.5464 -2.8935 1.6960
-1.4430 -2.9495 1.6960
-1.3377 -3.0019 1.6960
-1.2304 -3.0505 1.6960
-1.1214 -3.0952 1.6960
-1.0108 -3.1360 1.6960
-0.8987 -3.1728 1.6960
-0.7853 -3.2055 1.6960
-0.6707 -3.2342 1.6960
-0.5550 -3.2587 1.6960
-0.4385 -3.2790 1.6960
-0.3213 -3.2951 1.6960
-0.2034 -3.3070 1.6960
-0.0852 -3.3146 1.6960
0.0333 -3.3179 1.6960
0.1520 -3.3169 1.6960
0.2705 -3.3116 1.6960
0.3889 -3.3020 1.6960
0.5069 -3.2881 1.6960
0.6243 -3.2699 1.6960
0.7411 -3.2475 1.6960
0.8571 -3.2208 1.6960
0.9720 -3.1899 1.6960
1.0858 -3.1548 1.6960
1.1983 -3.1155 1.6960
1.3093 -3.0722 1.6960
1.4187 -3.0249 1.6960
1.5263 -2.9736 1.6960
1.6321 -2.9183 1.6960
1.7358 -2.8592 1.6960
1.8372 -2.7964 1.6960
1.9364 -2.7299 1.6960
2.0330 -2.6598 1.6960
2.1271 -2.5862 1.6960
2.2184 -2.5092 1.6960
2.3069 -2.4289 1.6960
2.3924 -2.3455 1.6960
2.4747 -2.2589 1.6960
2.5539 -2.1694 1.6960
2.6297 -2.0770 1.6960
2.7022 -1.9820 1.6960
2.7711 -1.8843 1.6960
2.8364 -1.7842 1.6960
2.8979 -1.6818 1.6960
2.9557 -1.5772 1.6960
3.0096 -1.4706 1.6960
3.0297 -1.3488 1.6794
3.0308 -1.2217 1.6552
3.0339 -1.0989 1.6348
3.0391 -0.9796 1.6182
3.0438 -0.8626 1.6037
3.0506 -0.7481 1.5928
3.0742 -0.6385 1.5928
3.0939 -0.5283 1.5928
3.1095 -0.4174 1.5928
3.1210 -0.3060 1.5928
3.1284 -0.1944 1.5928
3.1318 -0.0826 1.5928
3.1311 0.0293 1.5928
3.1264 0.1409 1.5928
3.1176 0.2523 1.5928
3.1047 0.3632 1.5928
3.0879 0.4736 1.5928
3.0670 0.5832 1.5928
3.0575 0.6954 1.6008
3.0549 0.8106 1.6147
3.0518 0.9276 1.6307
3.0497 1.0474 1.6497
3.0507 1.1713 1.6731
3.0459 1.2961 1.6960
2.9953 1.4031 1.6960
2.9409 1.5081 1.6960
2.8828 1.6110 1.6960
2.8210 1.7117 1.6960
2.7557 1.8100 1.6960
2.6869 1.9059 1.6960
2.6148 1.9991 1.6960
0.8959 0.7373 0.5984
0.8688 0.7687 0.5988
0.8405 0.7991 0.5991
0.8111 0.8285 0.5995
0.7808 0.8568 0.5999
0.7494 0.8840 0.6003
0.7171 0.9101 0.6007
0.6839 0.9350 0.6011
0.6498 0.9587 0.6015
0.6148 0.9812 0.6019
0.5791 1.0024 0.6023
0.5427 1.0223 0.6027
0.5056 1.0409 0.6031
0.4678 1.0581 0.6035
0.4295 1.0741 0.6039
0.3906 1.0886 0.6043
0.3512 1.1017 0.6047
0.3113 1.1134 0.6051
0.2711 1.1237 0.6054
0.2306 1.1325 0.6058
0.1897 1.1399 0.6062
0.1486 1.1458 0.6066
0.1073 1.1502 0.6070
0.0659 1.1532 0.6073
0.0244 1.1547 0.6077
-0.0171 1.1547 0.6080
-0.0586 1.1532 0.6084
-0.1001 1.1502 0.6087
-0.1413 1.1457 0.6091
-0.1824 1.1398 0.6094
-0.2233 1.1324 0.6097
-0.2639 1.1236 0.6100
-0.3041 1.1133 0.6103
-0.3440 1.1016 0.6106
-0.3834 1.0884 0.6109
-0.4223 1.0739 0.6112
-0.4607 1.0579 0.6114
-0.4985 1.0407 0.6117
-0.5356 1.0220 0.6119
-0.5721 1.0021 0.6121
-0.6078 0.9808 0.6123
-0.6428 0.9583 0.6125
-0.6769 0.9346 0.6127
-0.7101 0.9096 0.6129
-0.7425 0.8835 0.6131
-0.7739 0.8562 0.6132
-0.8043 0.8278 0.6134
-0.8336 0.7984 0.6135
-0.8619 0.7679 0.6136
-0.8891 0.7364 0.6137
-2.5289 1.9453 1.6960
-2.5973 1.8529 1.6960
-2.6625 1.7581 1.6960
-2.7243 1.6612 1.6960
-2.7826 1.5621 1.6960
-2.8374 1.4610 1.6960
-2.8887 1.3580 1.6960
-2.9363 1.2533 1.6960
-2.9802 1.1470 1.6960
-3.0203 1.0391 1.6960
-3.0566 0.9299 1.6960
-3.0891 0.8195 1.6960
-3.1176 0.7079 1.6960
-3.1422 0.5954 1.6960
-3.1629 0.4821 1.6960
-3.1795 0.3680 1.6960
-3.1921 0.2534 1.6960
-3.2007 0.1384 1.6960
-3.2052 0.0231 1.6960
-3.2057 -0.0923 1.6960
-3.2020 -0.2077 1.6960
-3.1943 -0.3230 1.6960
-3.1825 -0.4379 1.6960
-3.1667 -0.5525 1.6960
-3.1468 -0.6664 1.6960
-3.1228 -0.7797 1.6960
-3.0949 -0.8921 1.6960
-3.0630 -1.0035 1.6960
-3.0271 -1.1137 1.6960
-2.9873 -1.2227 1.6960
-2.9437 -1.3303 1.6960
-2.8962 -1.4363 1.6960
-2.8450 -1.5406 1.6960
-2.7900 -1.6431 1.6960
-2.7315 -1.7437 1.6960
-2.6693 -1.8421 1.6960
-2.6036 -1.9384 1.6960
-2.5345 -2.0323 1.6960
-2.4621 -2.1237 1.6960
-2.3863 -2.2126 1.6960
-2.3074 -2.2987 1.6960
-2.2254 -2.3821 1.6960
-2.1405 -2.4625 1.6960
-2.0526 -2.5399 1.6960
-1.9620 -2.6141 1.6960
-1.8687 -2.6851 1.6960
-1.7728 -2.7528 1.6960
-1.6745 -2.8170 1.6960
-1.5739 -2.8777 1.6960
-1.4712 -2.9347 1.6960
-1.3663 -2.9881 1.6960
-1.2596 -3.0377 1.6960
-1.1510 -3.0835 1.6960
-1.0408 -3.1254 1.6960
-0.9291 -3.1632 1.6960
-0.8160 -3.1971 1.6960
-0.7017 -3.2268 1.6960
-0.5864 -3.2525 1.6960
-0.4701 -3.2739 1.6960
-0.3530 -3.2912 1.6960
-0.2353 -3.3042 1.6960
-0.1172 -3.3130 1.6960
0.0013 -3.3174 1.6960
0.1199 -3.3176 1.6960
0.2385 -3.3135 1.6960
0.3569 -3.3050 1.6960
0.4750 -3.2923 1.6960
0.5927 -3.2753 1.6960
0.7097 -3.2540 1.6960
0.8258 -3.2284 1.6960
0.9411 -3.1986 1.6960
1.0552 -3.1647 1.6960
1.1680 -3.1265 1.6960
1.2795 -3.0843 1.6960
1.3893 -3.0381 1.6960
1.4975 -2.9878 1.6960
1.6037 -2.9336 1.6960
1.7080 -2.8756 1.6960
1.8100 -2.8138 1.6960
1.9098 -2.7482 1.6960
2.0072 -2.6791 1.6960
2.1019 -2.6064 1.6960
2.1940 -2.5304 1.6960
2.2833 -2.4509 1.6960
2.3696 -2.3683 1.6960
2.4528 -2.2826 1.6960
2.5328 -2.1939 1.6960
2.6096 -2.1022 1.6960
2.6830 -2.0079 1.6960
-2.5398 1.6418 1.6960
-2.5975 1.5493 1.6960
-2.6520 1.4548 1.6960
-2.7030 1.3585 1.6960
-2.7507 1.2604 1.6960
-2.7948 1.1607 1.6960
-2.8354 1.0594 1.6960
-2.8725 0.9568 1.6960
-2.9059 0.8530 1.6960
-2.9356 0.7479 1.6960
-2.9616 0.6419 1.6960
-2.9839 0.5350 1.6960
-3.0024 0.4274 1.6960
-3.0171 0.3191 1.6960
-3.0280 0.2103 1.6960
-3.0350 0.1012 1.6960
-3.0382 -0.0081 1.6960
-3.0375 -0.1176 1.6960
-3.0329 -0.2269 1.6960
-3.0245 -0.3361 1.6960
-3.0122 -0.4450 1.6960
-2.9961 -0.5534 1.6960
-2.9761 -0.6613 1.6960
-2.9523 -0.7684 1.6960
-2.9247 -0.8746 1.6960
-2.8934 -0.9799 1.6960
-2.8583 -1.0841 1.6960
-2.8195 -1.1869 1.6960
-2.7771 -1.2885 1.6960
-2.7310 -1.3884 1.6960
-2.6815 -1.4868 1.6960
-2.6284 -1.5834 1.6960
-2.5718 -1.6781 1.6960
-2.5120 -1.7708 1.6960
-2.4487 -1.8613 1.6960
-2.3823 -1.9496 1.6960
-2.3127 -2.0355 1.6960
-2.2401 -2.1190 1.6960
-2.1645 -2.1998 1.6960
-2.0860 -2.2779 1.6960
-2.0046 -2.3533 1.6960
-1.9206 -2.4257 1.6960
-1.8340 -2.4951 1.6960
-1.7449 -2.5614 1.6960
-1.6534 -2.6245 1.6960
-1.5597 -2.6843 1.6960
-1.4638 -2.7408 1.6960
-1.3659 -2.7938 1.6960
-1.2660 -2.8433 1.6960
-1.1644 -2.8892 1.6960
-1.0611 -2.9314 1.6960
-0.9564 -2.9699 1.6960
-0.8502 -3.0047 1.6960
-0.7428 -3.0356 1.6960
-0.6342 -3.0626 1.6960
-0.5247 -3.0857 1.6960
-0.4144 -3.1049 1.6960
-0.3034 -3.1200 1.6960
-0.1918 -3.1311 1.6960
-0.0799 -3.1382 1.6960
0.0323 -3.1413 1.6960
0.1446 -3.1402 1.6960
0.2568 -3.1351 1.6960
0.3688 -3.1260 1.6960
0.4805 -3.1127 1.6960
0.5917 -3.0954 1.6960
0.7022 -3.0741 1.6960
0.8119 -3.0488 1.6960
0.9207 -3.0194 1.6960
1.0283 -2.9862 1.6960
1.1347 -2.9490 1.6960
1.2398 -2.9079 1.6960
1.3433 -2.8631 1.6960
1.4451 -2.8145 1.6960
1.5452 -2.7621 1.6960
1.6432 -2.7062 1.6960
1.7392 -2.6467 1.6960
1.8330 -2.5837 1.6960
1.9245 -2.5174 1.6960
2.0135 -2.4477 1.6960
2.0999 -2.3748 1.6960
2.1835 -2.2989 1.6960
2.2644 -2.2198 1.6960
2.3424 -2.1379 1.6960
2.4173 -2.0532 1.6960
2.4890 -1.9658 1.6960
2.5575 -1.8759 1.6960
2.6227 -1.7835 1.6960
2.6845 -1.6888 1.6960
2.7428 -1.5919 1.6960
2.7975 -1.4929 1.6960
2.8485 -1.3921 1.6960
2.8958 -1.2894 1.6960
2.9394 -1.1851 1.6960
2.9791 -1.0793 1.6960
3.0149 -0.9721 1.6960
3.0338 -0.8601 1.6888
3.0348 -0.7445 1.6740
3.0357 -0.6309 1.6617
3.0366 -0.5189 1.6516
3.0376 -0.4082 1.6438
3.0395 -0.2985 1.6387
3.0412 -0.1894 1.6357
3.0424 -0.0807 1.6346
3.0431 0.0279 1.6353
3.0434 0.1366 1.6379
3.0431 0.2457 1.6423
3.0439 0.3555 1.6495
3.0449 0.4663 1.6590
3.0458 0.5785 1.6707
3.0467 0.6922 1.6848
3.0381 0.8054 1.6960
3.0054 0.9128 1.6960
2.9688 1.0188 1.6960
2.9284 1.1235 1.6960
2.8843 1.2265 1.6960
2.8365 1.3278 1.6960
2.7850 1.4273 1.6960
2.7301 1.5248 1.6960
2.6717 1.6201 1.6960
2.6100 1.7133 1.6960
0.8972 0.6360 0.5979
0.8737 0.6676 0.5983
0.8490 0.6982 0.5986
0.8233 0.7280 0.5990
0.7965 0.7568 0.5993
0.7687 0.7847 0.5997
0.7399 0.8115 0.6000
0.7102 0.8373 0.6004
0.6796 0.8620 0.6008
0.6481 0.8856 0.6012
0.6158 0.9080 0.6015
0.5827 0.9293 0.6019
0.5489 0.9494 0.6023
0.5144 0.9683 0.6027
0.4792 0.9859 0.6031
0.4434 1.0022 0.6034
0.4071 1.0173 0.6038
0.3703 1.0311 0.6042
0.3330 1.0435 0.6046
0.2952 1.0546 0.6049
0.2571 1.0643 0.6053
0.2187 1.0727 0.6057
0.1800 1.0797 0.6060
0.1410 1.0852 0.6064
0.1019 1.0895 0.6067
0.0627 1.0923 0.6071
0.0234 1.0937 0.6074
-0.0160 1.0936 0.6078
-0.0553 1.0922 0.6081
-0.0945 1.0894 0.6084
-0.1336 1.0852 0.6087
-0.1726 1.0796 0.6090
-0.2113 1.0726 0.6094
-0.2497 1.0642 0.6096
-0.2879 1.0544 0.6099
-0.3256 1.0433 0.6102
-0.3630 1.0309 0.6105
-0.3998 1.0171 0.6107
-0.4362 1.0020 0.6110
-0.4720 0.9856 0.6112
-0.5072 0.9680 0.6114
-0.5417 0.9491 0.6116
-0.5755 0.9289 0.6118
-0.6086 0.9076 0.6120
-0.6410 0.8851 0.6122
-0.6724 0.8615 0.6124
-0.7031 0.8367 0.6125
-0.7328 0.8109 0.6127
-0.7616 0.7840 0.6128
-0.7894 0.7561 0.6129
-0.8162 0.7272 0.6130
-0.8420 0.6974 0.6131
-0.8666 0.6666 0.6132
-0.8902 0.6350 0.6132
-2.5237 1.6664 1.6960
-2.5823 1.5745 1.6960
-2.6376 1.4805 1.6960
-2.6896 1.3847 1.6960
-2.7381 1.2871 1.6960
-2.7832 1.1878 1.6960
-2.8248 1.0869 1.6960
-2.8628 0.9847 1.6960
-2.8972 0.8811 1.6960
-2.9280 0.7764 1.6960
-2.9550 0.6706 1.6960
-2.9783 0.5640 1.6960
-2.9978 0.4565 1.6960
-3.0135 0.3484 1.6960
-3.0254 0.2397 1.6960
-3.0335 0.1307 1.6960
-3.0377 0.0214 1.6960
-3.0381 -0.0880 1.6960
-3.0345 -0.1974 1.6960
-3.0272 -0.3067 1.6960
-3.0159 -0.4156 1.6960
-3.0008 -0.5242 1.6960
-2.9819 -0.6322 1.6960
-2.9591 -0.7395 1.6960
-2.9325 -0.8460 1.6960
-2.9022 -0.9516 1.6960
-2.8681 -1.0560 1.6960
-2.8303 -1.1593 1.6960
-2.7889 -1.2612 1.6960
-2.7438 -1.3616 1.6960
-2.6952 -1.4604 1.6960
-2.6430 -1.5575 1.6960
-2.5874 -1.6527 1.6960
-2.5285 -1.7459 1.6960
-2.4661 -1.8371 1.6960
-2.4006 -1.9260 1.6960
-2.3318 -2.0126 1.6960
-2.2600 -2.0967 1.6960
-2.1852 -2.1782 1.6960
-2.1074 -2.2571 1.6960
-2.0269 -2.3332 1.6960
-1.9436 -2.4064 1.6960
-1.8576 -2.4766 1.6960
-1.7692 -2.5438 1.6960
-1.6784 -2.6078 1.6960
-1.5852 -2.6685 1.6960
-1.4899 -2.7259 1.6960
-1.3925 -2.7798 1.6960
-1.2932 -2.8303 1.6960
-1.1920 -2.8772 1.6960
-1.0892 -2.9204 1.6960
-0.9848 -2.9599 1.6960
-0.8790 -2.9957 1.6960
-0.7719 -3.0276 1.6960
-0.6637 -3.0557 1.6960
-0.5544 -3.0799 1.6960
-0.4443 -3.1001 1.6960
-0.3334 -3.1163 1.6960
-0.2220 -3.1285 1.6960
-0.1102 -3.1367 1.6960
0.0020 -3.1408 1.6960
0.1142 -3.1409 1.6960
0.2265 -3.1369 1.6960
0.3386 -3.1288 1.6960
0.4504 -3.1167 1.6960
0.5617 -3.1005 1.6960
0.6724 -3.0803 1.6960
0.7823 -3.0560 1.6960
0.8914 -3.0278 1.6960
0.9993 -2.9955 1.6960
1.1061 -2.9594 1.6960
1.2115 -2.9194 1.6960
1.3155 -2.8755 1.6960
1.4178 -2.8279 1.6960
1.5183 -2.7766 1.6960
1.6169 -2.7217 1.6960
1.7135 -2.6631 1.6960
1.8079 -2.6011 1.6960
1.9000 -2.5356 1.6960
1.9897 -2.4669 1.6960
2.0768 -2.3948 1.6960
2.1612 -2.3197 1.6960
2.2429 -2.2415 1.6960
2.3216 -2.1603 1.6960
2.3973 -2.0764 1.6960
2.4699 -1.9897 1.6960
2.5393 -1.9004 1.6960
-0.8711 0.5630 0.6128
-0.8909 0.5313 0.6128
-2.5174 1.3809 1.6960
-2.5659 1.2894 1.6960
-2.6111 1.1962 1.6960
-2.6530 1.1016 1.6960
-2.6915 1.0054 1.6960
-2.7267 0.9080 1.6960
-2.7584 0.8093 1.6960
-2.7866 0.7096 1.6960
-2.8113 0.6090 1.6960
-2.8324 0.5074 1.6960
-2.8499 0.4052 1.6960
-2.8638 0.3024 1.6960
-2.8741 0.1991 1.6960
-2.8807 0.0956 1.6960
-2.8836 -0.0082 1.6960
-2.8829 -0.1121 1.6960
-2.8785 -0.2159 1.6960
-2.8705 -0.3196 1.6960
-2.8587 -0.4230 1.6960
-2.8434 -0.5259 1.6960
-2.8243 -0.6282 1.6960
-2.8017 -0.7299 1.6960
-2.7754 -0.8307 1.6960
-2.7456 -0.9306 1.6960
-2.7122 -1.0294 1.6960
-2.6753 -1.1270 1.6960
-2.6350 -1.2234 1.6960
-2.5912 -1.3182 1.6960
-2.5441 -1.4115 1.6960
-2.4936 -1.5031 1.6960
-2.4399 -1.5930 1.6960
-2.3830 -1.6809 1.6960
-2.3229 -1.7667 1.6960
-2.2598 -1.8504 1.6960
-2.1937 -1.9319 1.6960
-2.1247 -2.0110 1.6960
-2.0529 -2.0876 1.6960
-1.9783 -2.1617 1.6960
-1.9011 -2.2331 1.6960
-1.8214 -2.3017 1.6960
-1.7391 -2.3675 1.6960
-1.6546 -2.4303 1.6960
-1.5677 -2.4901 1.6960
-1.4787 -2.5468 1.6960
-1.3877 -2.6002 1.6960
-1.2948 -2.6504 1.6960
-1.2001 -2.6973 1.6960
-1.1037 -2.7407 1.6960
-1.0057 -2.7807 1.6960
-0.9063 -2.8171 1.6960
-0.8056 -2.8500 1.6960
-0.7037 -2.8792 1.6960
-0.6007 -2.9047 1.6960
-0.4969 -2.9265 1.6960
-0.3922 -2.9446 1.6960
-0.2870 -2.9589 1.6960
-0.1812 -2.9694 1.6960
-0.0751 -2.9760 1.6960
0.0313 -2.9788 1.6960
