ply
format ascii 1.0
element vertex 2171
property float32 x
property float32 y
property float32 z
end_header
2.9091 18.7883 1.5982
2.2311 18.8584 1.5982
1.6239 19.7838 1.6723
0.9288 20.1581 1.7014
0.2053 20.1649 1.7014
-0.5175 20.1492 1.7014
-1.2391 20.1110 1.7014
-1.9590 20.0503 1.7014
-2.6766 19.9673 1.7014
-3.3914 19.8620 1.7014
-4.1027 19.7345 1.7014
-4.8101 19.5848 1.7014
-5.5129 19.4130 1.7014
-6.2106 19.2192 1.7014
-6.4844 17.8521 1.5983
-7.1287 17.6291 1.5983
-7.7666 17.3856 1.5983
-8.3977 17.1220 1.5983
-9.0212 16.8382 1.5983
-9.6368 16.5344 1.5983
-10.2438 16.2107 1.5983
-11.0005 16.0997 1.6218
-11.5812 15.7093 1.6195
-12.1501 15.3007 1.6172
-12.7069 14.8743 1.6150
-13.1958 14.3700 1.6062
-9.6256 9.7558 1.1250
-6.1767 5.8269 0.6949
-9.4940 8.3338 1.0305
-14.8540 12.1243 1.5588
-9.5630 7.2504 0.9722
-10.8702 7.6438 1.0727
-11.7012 7.6165 1.1228
-12.6221 7.5862 1.1797
-12.4031 6.8619 1.1310
-14.8116 7.5141 1.3197
-16.0660 7.4391 1.4008
-17.1766 7.2176 1.4677
-17.0175 6.4435 1.4271
-17.7376 5.9987 1.4618
-18.0112 5.3802 1.4607
-18.2661 4.7506 1.4596
-18.5017 4.1102 1.4586
-14.4287 2.6669 1.1237
-18.8685 2.7925 1.4534
-19.0113 2.1209 1.4502
-13.1266 -8.6559 1.4303
-12.5988 -8.9711 1.4014
-12.3166 -9.4525 1.4014
-12.1012 -9.9955 1.4114
-5.8157 -5.1649 0.6969
-11.4382 -10.9151 1.4114
-11.0791 -11.3575 1.4114
-5.7767 -6.3624 0.7618
-10.2348 -12.1171 1.4014
-9.8492 -12.5454 1.4047
-9.4685 -12.9923 1.4114
-9.1173 -13.5004 1.4259
-9.2330 -14.7866 1.5214
-9.1631 -15.9156 1.5983
-5.6396 -10.6606 1.0468
-8.0428 -16.6165 1.5983
-5.5745 -12.6528 1.1942
-5.5283 -13.8735 1.2870
-6.2578 -17.5012 1.5983
-5.6386 -17.7490 1.5983
-5.1362 -18.4287 1.6389
-4.6518 -19.3425 1.7014
-3.9626 -19.5263 1.7014
-3.2658 -19.6825 1.7014
-2.5624 -19.8106 1.7014
-1.8538 -19.9105 1.7014
-1.1411 -19.9816 1.7014
-0.4256 -20.0240 1.7014
0.2914 -20.0375 1.7014
1.0086 -20.0219 1.7014
1.7249 -19.9772 1.7014
2.4388 -19.9037 1.7014
2.9583 -18.6015 1.5983
3.6209 -18.4781 1.5983
4.2778 -18.3280 1.5983
4.9278 -18.1515 1.5983
5.5697 -17.9490 1.5982
6.2024 -17.7210 1.5982
6.8248 -17.4679 1.5982
7.0245 -16.2391 1.5097
6.7570 -14.2029 1.3440
6.7098 -12.8929 1.2440
8.6830 -15.3194 1.5097
8.4051 -13.6648 1.3781
6.6124 -9.9351 1.0273
7.8149 -10.8766 1.1553
2.9672 -3.8324 0.4191
6.5685 -7.8840 0.8895
6.5252 -7.2852 0.8499
6.5081 -6.7625 0.8178
6.5102 -6.2972 0.7915
6.7832 -6.1069 0.8000
7.2728 -6.0908 0.8340
7.8341 -6.0973 0.8755
8.3814 -6.0543 0.9149
9.0242 -6.0391 0.9641
9.1993 -5.6904 0.9637
9.1843 -5.2362 0.9453
9.1357 -4.7835 0.9254
9.1563 -4.3840 0.9144
9.1088 -3.9669 0.8983
9.1303 -3.5932 0.8906
9.1179 -3.2163 0.8810
9.1017 -2.8485 0.8725
9.0940 -2.4923 0.8661
9.0485 -2.1347 0.8574
9.0713 -1.7998 0.8564
9.0602 -1.4626 0.8534
9.0492 -1.1300 0.8515
9.0384 -0.8012 0.8508
8.9938 -0.4735 0.8480
9.0170 -0.1513 0.8527
9.0064 0.1716 0.8553
8.9958 0.4941 0.8590
8.9515 0.8141 0.8606
8.9745 1.1416 0.8699
8.9637 1.4682 0.8770
8.9193 1.7911 0.8820
8.9419 2.1315 0.8949
8.9308 2.4701 0.9057
8.9194 2.8146 0.9179
8.8745 3.1543 0.9280
8.8960 3.5258 0.9466
8.8839 3.8948 0.9633
8.8381 4.2586 0.9780
8.8585 4.6667 1.0018
8.8451 5.0726 1.0240
8.7981 5.4737 1.0444
8.8168 5.9338 1.0750
8.7687 6.3696 1.1001
8.7858 6.8763 1.1363
8.7362 7.3572 1.1672
8.7513 7.9232 1.2103
8.6998 8.4634 1.2482
8.7124 9.1059 1.3000
8.6583 9.7244 1.3470
8.6490 10.4450 1.4070
8.6424 11.2337 1.4745
8.4086 11.7808 1.5097
7.9608 12.0442 1.5097
7.5058 12.2923 1.5097
7.0441 12.5247 1.5097
6.5762 12.7414 1.5097
6.1025 12.9423 1.5097
5.8426 13.6386 1.5685
5.4411 14.0753 1.5982
4.9246 14.2372 1.5982
4.4040 14.3820 1.5982
3.8798 14.5097 1.5982
3.3526 14.6202 1.5982
2.8229 14.7135 1.5982
2.2910 14.7896 1.5982
1.7946 15.1613 1.6318
1.3020 15.8521 1.7014
0.7322 15.8780 1.7014
0.1622 15.8857 1.7014
-0.4074 15.8749 1.7014
-0.9761 15.8459 1.7014
-1.5436 15.7987 1.7014
-2.1091 15.7333 1.7014
-2.6724 15.6497 1.7014
-3.2327 15.5481 1.7014
-3.7898 15.4284 1.7014
-4.3429 15.2908 1.7014
-4.8918 15.1354 1.7014
-5.4358 14.9624 1.7014
-5.9744 14.7716 1.7014
-6.2242 13.9300 1.6274
-6.6075 13.4692 1.5983
-7.0956 13.2411 1.5983
-7.5769 12.9971 1.5983
-8.0508 12.7372 1.5983
-8.5168 12.4615 1.5983
-8.9745 12.1704 1.5983
-9.4235 11.8639 1.5983
-9.8632 11.5422 1.5983
-10.5467 11.4817 1.6377
-9.6222 9.7493 1.4356
-9.6208 9.0730 1.3826
-9.5087 8.3439 1.3193
-12.0448 9.8279 1.6170
-9.5656 7.2497 1.2450
-10.8743 7.6437 1.3748
-11.7059 7.6163 1.4403
-12.6275 7.5860 1.5146
-13.3703 7.3934 1.5659
-13.5512 6.8712 1.5522
-13.7199 6.3492 1.5394
-13.8768 5.8274 1.5274
-14.0220 5.3057 1.5161
-14.1557 4.7837 1.5057
-14.2780 4.2615 1.4960
-14.3891 3.7387 1.4872
-14.4892 3.2152 1.4791
-14.5954 2.6940 1.4734
-14.7337 2.1769 1.4728
-14.8431 1.6522 1.4711
-11.8573 -7.8227 1.6154
-11.6123 -8.2725 1.6163
-11.1906 -8.5922 1.5945
-10.3649 -8.5650 1.5150
-9.6124 -8.5402 1.4446
-9.4172 -8.9902 1.4584
-9.3902 -9.6299 1.5025
-5.7766 -6.3647 0.9575
-9.2811 -10.9921 1.5983
-8.9048 -11.3466 1.5983
-8.5143 -11.6872 1.5983
-8.1102 -12.0133 1.5983
-5.6967 -9.1263 1.1836
-7.2631 -12.6198 1.5983
-5.6385 -10.6623 1.3212
-6.3682 -13.1613 1.5983
-5.9045 -13.4063 1.5983
-5.4308 -13.6335 1.5983
-5.2669 -14.7352 1.7014
-4.7438 -14.9377 1.7014
-4.2124 -15.1198 1.7014
-3.6736 -15.2811 1.7014
-3.1283 -15.4214 1.7014
-2.5774 -15.5403 1.7014
-2.0217 -15.6375 1.7014
-1.4621 -15.7128 1.7014
-0.8997 -15.7661 1.7014
-0.3352 -15.7972 1.7014
0.2303 -15.8059 1.7014
0.7958 -15.7924 1.7014
1.3605 -15.7565 1.7014
1.9234 -15.6983 1.7014
2.4836 -15.6179 1.7014
2.8556 -14.5740 1.5982
3.3739 -14.4572 1.5982
3.8871 -14.3202 1.5982
4.3942 -14.1631 1.5982
4.8943 -13.9862 1.5982
5.3868 -13.7899 1.5982
5.8708 -13.5746 1.5982
6.3455 -13.3407 1.5982
6.7162 -12.9081 1.5761
6.8620 -12.1094 1.5097
7.2799 -11.8383 1.5097
6.6125 -9.9377 1.2988
7.7930 -10.8490 1.4560
2.9670 -3.8332 0.5293
7.6939 -9.2373 1.3154
6.5253 -7.2874 1.0725
6.5081 -6.7647 1.0314
6.5082 -6.2973 0.9973
6.7811 -6.1069 1.0074
7.2724 -6.0925 1.0498
7.8005 -6.0734 1.0968
8.3782 -6.0544 1.1498
9.0242 -6.0417 1.2112
9.1994 -5.6930 1.2100
9.1844 -5.2387 1.1859
9.1357 -4.7859 1.1602
9.1564 -4.3865 1.1455
9.1089 -3.9693 1.1245
9.1303 -3.5955 1.1140
9.1179 -3.2186 1.1011
9.0950 -2.8487 1.0888
9.0941 -2.4947 1.0808
9.0486 -2.1370 1.0691
9.0713 -1.8021 1.0670
9.0602 -1.4649 1.0624
9.0493 -1.1323 1.0592
9.0385 -0.8035 1.0575
8.9939 -0.4757 1.0531
9.0171 -0.1535 1.0581
9.0065 0.1693 1.0605
8.9958 0.4918 1.0642
8.9515 0.8118 1.0654
8.9745 1.1393 1.0759
8.9638 1.4659 1.0839
8.9194 1.7888 1.0892
8.9420 2.1292 1.1043
8.9308 2.4677 1.1168
8.9195 2.8122 1.1310
8.8745 3.1518 1.1426
8.8961 3.5233 1.1646
8.8840 3.8923 1.1843
8.8382 4.2560 1.2015
8.8586 4.6640 1.2300
8.8452 5.0699 1.2564
8.7982 5.4710 1.2805
8.8169 5.9310 1.3172
8.7687 6.3668 1.3471
8.7859 6.8733 1.3906
8.7363 7.3542 1.4274
8.7514 7.9200 1.4793
8.6137 8.3763 1.5097
8.2872 8.6581 1.5097
7.9522 8.9280 1.5097
7.6092 9.1858 1.5097
7.2586 9.4315 1.5097
6.9007 9.6647 1.5097
6.5362 9.8854 1.5097
6.1652 10.0933 1.5097
5.9438 10.5646 1.5503
5.7227 11.0839 1.5982
5.3124 11.2628 1.5982
4.8972 11.4277 1.5982
4.4775 11.5786 1.5982
4.0537 11.7153 1.5982
3.6262 11.8377 1.5982
3.1955 11.9459 1.5982
2.7620 12.0397 1.5982
2.3260 12.1190 1.5982
1.8973 12.2426 1.6059
1.5425 13.0249 1.7014
1.0736 13.0632 1.7014
0.6040 13.0861 1.7014
0.1341 13.0936 1.7014
-0.3355 13.0857 1.7014
-0.8045 13.0624 1.7014
-1.2724 13.0237 1.7014
-1.7387 12.9698 1.7014
-2.2031 12.9005 1.7014
-2.6650 12.8161 1.7014
-3.1241 12.7165 1.7014
-3.5798 12.6020 1.7014
-4.0318 12.4724 1.7014
-4.4795 12.3280 1.7014
-4.9227 12.1688 1.7014
-5.3607 11.9950 1.7014
-5.7932 11.8067 1.7014
-6.1378 11.4511 1.6790
-6.2376 10.6973 1.5983
-6.6259 10.4804 1.5983
-7.0074 10.2505 1.5983
-7.3817 10.0077 1.5983
-7.7483 9.7522 1.5983
-8.1069 9.4843 1.5983
-8.4571 9.2041 1.5983
-8.7984 8.9118 1.5983
-9.1305 8.6078 1.5983
-9.4530 8.2921 1.5983
-9.7654 7.9652 1.5983
-9.5683 7.2490 1.5191
-10.5516 7.4139 1.6281
-10.7922 7.0189 1.6214
-11.0573 6.6397 1.6203
-6.1006 3.3718 0.8734
-11.5508 5.8538 1.6184
-11.7785 5.4477 1.6174
-11.9931 5.0333 1.6165
-12.1944 4.6110 1.6157
-12.3820 4.1812 1.6149
-12.5544 3.7439 1.6141
-12.6556 3.2851 1.6060
-12.7463 2.8253 1.5987
-12.8264 2.3643 1.5921
-12.8962 1.9022 1.5862
-12.9555 1.4389 1.5811
-9.9902 -6.5942 1.6351
-9.5538 -6.8093 1.5983
-9.3279 -7.1653 1.5983
-9.0884 -7.5134 1.5983
-8.8355 -7.8533 1.5983
-8.5695 -8.1842 1.5983
-8.2906 -8.5056 1.5983
-5.7759 -6.3663 1.1541
-7.6958 -9.1179 1.5983
-7.3805 -9.4077 1.5983
-7.0538 -9.6859 1.5983
-6.7162 -9.9521 1.5983
-6.3681 -10.2057 1.5983
-6.0101 -10.4463 1.5983
-5.6376 -10.6643 1.5970
-5.3962 -11.1564 1.6379
-5.1955 -11.8007 1.7014
-4.7772 -11.9969 1.7014
-4.3511 -12.1772 1.7014
-3.9178 -12.3411 1.7014
-3.4780 -12.4884 1.7014
-3.0324 -12.6187 1.7014
-2.5817 -12.7319 1.7014
-2.1266 -12.8276 1.7014
-1.6677 -12.9057 1.7014
-1.2058 -12.9660 1.7014
-0.7417 -13.0084 1.7014
-0.2761 -13.0327 1.7014
0.1903 -13.0390 1.7014
0.6567 -13.0271 1.7014
1.1224 -12.9971 1.7014
1.5866 -12.9490 1.7014
2.0485 -12.8830 1.7014
2.5075 -12.7990 1.7014
2.7830 -11.9268 1.5982
3.2065 -11.8148 1.5982
3.6252 -11.6865 1.5982
4.0383 -11.5421 1.5982
4.4453 -11.3819 1.5982
4.8455 -11.2062 1.5982
5.2383 -11.0153 1.5982
5.6230 -10.8095 1.5982
5.9992 -10.5893 1.5982
6.3662 -10.3550 1.5982
6.6126 -9.9403 1.5718
6.6792 -9.3009 1.5097
2.9667 -3.8339 0.6401
7.3040 -8.7717 1.5097
6.5254 -7.2897 1.2963
6.5082 -6.7668 1.2462
6.5061 -6.2974 1.2041
6.7788 -6.1070 1.2157
7.2724 -6.0947 1.2669
7.7977 -6.0735 1.3224
8.3751 -6.0545 1.3857
9.0243 -6.0443 1.4597
9.1995 -5.6956 1.4575
9.1845 -5.2412 1.4279
9.1358 -4.7884 1.3962
9.1565 -4.3889 1.3779
9.1090 -3.9717 1.3519
9.1304 -3.5979 1.3385
9.1180 -3.2210 1.3224
9.0884 -2.8489 1.3060
9.0942 -2.4970 1.2966
9.0487 -2.1393 1.2819
9.0714 -1.8044 1.2787
9.0603 -1.4671 1.2725
9.0494 -1.1346 1.2680
9.0385 -0.8057 1.2652
8.9940 -0.4780 1.2593
9.0172 -0.1558 1.2646
9.0065 0.1670 1.2667
8.9959 0.4895 1.2705
8.9516 0.8095 1.2712
8.9746 1.1370 1.2831
8.9639 1.4635 1.2919
8.9195 1.7865 1.2976
8.9420 2.1268 1.3148
8.9309 2.4654 1.3290
8.9196 2.8098 1.3452
8.8746 3.1494 1.3583
8.8962 3.5208 1.3838
8.8840 3.8898 1.4065
8.8383 4.2535 1.4262
8.8586 4.6614 1.4593
8.8453 5.0672 1.4899
8.7508 5.4387 1.5097
8.5292 5.7347 1.5097
8.2980 6.0221 1.5097
8.0577 6.3008 1.5097
7.8085 6.5704 1.5097
7.5509 6.8307 1.5097
7.2852 7.0815 1.5097
7.0117 7.3226 1.5097
6.7307 7.5537 1.5097
6.4427 7.7747 1.5097
6.1479 7.9854 1.5097
6.0143 8.4203 1.5530
5.8641 8.8659 1.5982
5.5330 9.0551 1.5982
5.1963 9.2328 1.5982
4.8543 9.3988 1.5982
4.5075 9.5530 1.5982
4.1562 9.6952 1.5982
3.8009 9.8254 1.5982
3.4419 9.9435 1.5982
3.0795 10.0494 1.5982
2.7142 10.1431 1.5982
2.3464 10.2244 1.5982
1.9764 10.2933 1.5982
1.7083 11.0185 1.7014
1.3111 11.0654 1.7014
0.9127 11.0991 1.7014
0.5137 11.1194 1.7014
0.1143 11.1265 1.7014
-0.2849 11.1203 1.7014
-0.6835 11.1009 1.7014
-1.0813 11.0682 1.7014
-1.4777 11.0223 1.7014
-1.8724 10.9633 1.7014
-2.2650 10.8911 1.7014
-2.6551 10.8060 1.7014
-3.0422 10.7079 1.7014
-3.4261 10.5969 1.7014
-3.8062 10.4731 1.7014
-4.1823 10.3367 1.7014
-4.5539 10.1877 1.7014
-4.9206 10.0262 1.7014
-5.2821 9.8525 1.7014
-5.6380 9.6666 1.7014
-5.9878 9.4687 1.7014
-6.0572 8.8583 1.6278
-6.2639 8.4900 1.5983
-6.5734 8.2712 1.5983
-6.8759 8.0418 1.5983
-7.1710 7.8021 1.5983
-7.4583 7.5521 1.5983
-7.7375 7.2921 1.5983
-8.0082 7.0224 1.5983
-8.2703 6.7432 1.5983
-8.5231 6.4547 1.5983
-8.7666 6.1572 1.5983
-9.0003 5.8510 1.5983
-9.2239 5.5363 1.5983
-6.1015 3.3707 1.0334
-9.6398 4.8828 1.5983
-9.8314 4.5445 1.5983
-10.2499 4.2990 1.6364
-10.3868 3.9249 1.6307
-10.4973 3.5421 1.6231
-10.6342 3.1686 1.6215
-10.7650 2.7916 1.6210
-10.8831 2.4096 1.6205
-10.9885 2.0228 1.6200
-11.0809 1.6317 1.6196
-11.1602 1.2367 1.6193
-8.3564 -5.5185 1.5983
-8.1720 -5.8271 1.5983
-7.9759 -6.1294 1.5983
-7.7682 -6.4248 1.5983
-7.5494 -6.7129 1.5983
-7.3195 -6.9933 1.5983
-7.0790 -7.2654 1.5983
-5.7751 -6.3680 1.3519
-6.5667 -7.7832 1.5983
-6.2957 -8.0280 1.5983
-6.0153 -8.2628 1.5983
-5.7257 -8.4873 1.5983
-5.4799 -8.7852 1.6138
-5.4492 -9.4747 1.7008
-5.1164 -9.6816 1.7014
-4.7736 -9.8726 1.7014
-4.4235 -10.0507 1.7014
-4.0664 -10.2156 1.7014
-3.7029 -10.3669 1.7014
-3.3335 -10.5044 1.7014
-2.9588 -10.6279 1.7014
-2.5792 -10.7371 1.7014
-2.1955 -10.8317 1.7014
-1.8082 -10.9117 1.7014
-1.4178 -10.9768 1.7014
-1.0249 -11.0270 1.7014
-0.6303 -11.0621 1.7014
-0.2344 -11.0820 1.7014
0.1621 -11.0867 1.7014
0.5585 -11.0762 1.7014
0.9543 -11.0505 1.7014
1.3489 -11.0096 1.7014
1.7416 -10.9536 1.7014
2.1318 -10.8825 1.7014
2.5190 -10.7965 1.7014
2.7263 -10.0467 1.5982
3.0824 -9.9384 1.5982
3.4340 -9.8166 1.5982
3.7804 -9.6814 1.5982
4.1213 -9.5332 1.5982
4.4559 -9.3721 1.5982
4.7839 -9.1985 1.5982
5.1048 -9.0127 1.5982
5.4181 -8.8149 1.5982
5.7232 -8.6055 1.5982
6.0199 -8.3850 1.5982
2.9665 -3.8346 0.7516
6.5504 -7.8689 1.5895
6.5255 -7.2919 1.5214
6.5083 -6.7690 1.4622
6.5041 -6.2974 1.4120
6.7766 -6.1071 1.4252
7.2725 -6.0969 1.4853
7.5953 -5.9181 1.5097
7.7876 -5.6320 1.5097
7.9686 -5.3394 1.5097
8.1383 -5.0408 1.5097
8.2964 -4.7367 1.5097
8.4429 -4.4275 1.5097
8.5775 -4.1137 1.5097
8.7001 -3.7958 1.5097
8.8107 -3.4742 1.5097
8.9092 -3.1495 1.5097
8.9954 -2.8221 1.5097
9.0695 -2.4925 1.5097
9.0487 -2.1416 1.4961
9.0715 -1.8067 1.4918
9.0604 -1.4694 1.4839
9.0494 -1.1369 1.4781
9.0386 -0.8080 1.4742
8.9941 -0.4803 1.4668
9.0172 -0.1581 1.4724
9.0066 0.1647 1.4743
8.9960 0.4873 1.4781
8.9517 0.8072 1.4783
8.9747 1.1346 1.4916
8.9640 1.4612 1.5012
8.9195 1.7841 1.5072
8.8430 2.1009 1.5097
8.7408 2.4105 1.5097
8.6281 2.7156 1.5097
8.5049 3.0158 1.5097
8.3716 3.3108 1.5097
8.2283 3.6003 1.5097
8.0754 3.8839 1.5097
7.9130 4.1614 1.5097
7.7415 4.4324 1.5097
7.5610 4.6968 1.5097
7.3719 4.9541 1.5097
7.1744 5.2043 1.5097
6.9688 5.4469 1.5097
6.7554 5.6818 1.5097
6.5345 5.9088 1.5097
6.3064 6.1276 1.5097
6.0918 6.3594 1.5148
6.0674 6.8067 1.5713
5.9086 7.1276 1.5982
5.6397 7.3226 1.5982
5.3647 7.5081 1.5982
5.0841 7.6838 1.5982
4.7981 7.8496 1.5982
4.5070 8.0054 1.5982
4.2113 8.1509 1.5982
3.9112 8.2863 1.5982
3.6070 8.4112 1.5982
3.2992 8.5256 1.5982
2.9881 8.6294 1.5982
2.6739 8.7226 1.5982
2.3571 8.8051 1.5982
2.0379 8.8767 1.5982
1.8277 9.5150 1.7014
1.4841 9.5682 1.7014
1.1392 9.6097 1.7014
0.7932 9.6397 1.7014
0.4465 9.6579 1.7014
0.0996 9.6646 1.7014
-0.2472 9.6595 1.7014
-0.5936 9.6429 1.7014
-0.9392 9.6146 1.7014
-1.2837 9.5747 1.7014
-1.6266 9.5233 1.7014
-1.9677 9.4604 1.7014
-2.3065 9.3860 1.7014
-2.6428 9.3003 1.7014
-2.9761 9.2033 1.7014
-3.3061 9.0952 1.7014
-3.6324 8.9759 1.7014
-3.9548 8.8456 1.7014
-4.2729 8.7044 1.7014
-4.5862 8.5525 1.7014
-4.8946 8.3900 1.7014
-5.1975 8.2170 1.7014
-5.4948 8.0337 1.7014
-5.7860 7.8402 1.7014
-6.0097 7.5598 1.6843
-6.0011 7.0167 1.6082
-6.2191 6.7644 1.5983
-6.4669 6.5462 1.5983
-6.7075 6.3194 1.5983
-6.9406 6.0841 1.5983
-7.1660 5.8407 1.5983
-6.1664 4.6681 1.3349
-7.5922 5.3302 1.5983
-7.7925 5.0636 1.5983
-7.9839 4.7898 1.5983
-6.1032 3.3700 1.1946
-8.3389 4.2216 1.5983
-8.5021 3.9278 1.5983
-8.6553 3.6280 1.5983
-8.7983 3.3223 1.5983
-8.9310 3.0113 1.5983
-9.0531 2.6951 1.5983
-9.1643 2.3742 1.5983
-9.2646 2.0489 1.5983
-9.3536 1.7195 1.5983
-9.4312 1.3864 1.5983
-9.4972 1.0500 1.5983
-7.2956 -4.8203 1.5983
-7.1326 -5.0884 1.5983
-6.9595 -5.3508 1.5983
-6.7765 -5.6070 1.5983
-6.5838 -5.8568 1.5983
-6.3817 -6.0997 1.5983
-6.1704 -6.3354 1.5983
-5.7748 -6.3701 1.5513
-5.7299 -6.7939 1.6008
-5.5366 -7.0625 1.6137
-5.5117 -7.5739 1.6818
-5.3065 -7.8688 1.7014
-5.0290 -8.0652 1.7014
-4.7439 -8.2514 1.7014
-4.4517 -8.4269 1.7014
-4.1527 -8.5915 1.7014
-3.8475 -8.7449 1.7014
-3.5363 -8.8869 1.7014
-3.2197 -9.0171 1.7014
-2.8980 -9.1354 1.7014
-2.5719 -9.2416 1.7014
-2.2417 -9.3353 1.7014
-1.9079 -9.4166 1.7014
-1.5711 -9.4852 1.7014
-1.2317 -9.5409 1.7014
-0.8903 -9.5838 1.7014
-0.5473 -9.6137 1.7014
-0.2034 -9.6305 1.7014
0.1411 -9.6342 1.7014
0.4855 -9.6248 1.7014
0.8294 -9.6023 1.7014
1.1721 -9.5668 1.7014
1.5133 -9.5182 1.7014
1.8523 -9.4567 1.7014
2.1887 -9.3823 1.7014
2.5219 -9.2952 1.7014
2.6785 -8.6375 1.5982
2.9841 -8.5322 1.5982
3.2855 -8.4154 1.5982
3.5820 -8.2874 1.5982
3.8732 -8.1482 1.5982
4.1588 -7.9983 1.5982
4.4383 -7.8377 1.5982
4.7112 -7.6668 1.5982
4.9773 -7.4859 1.5982
5.2361 -7.2952 1.5982
2.9662 -3.8353 0.8639
5.7305 -6.8859 1.5982
5.9654 -6.6680 1.5982
6.1916 -6.4417 1.5982
6.4089 -6.2073 1.5982
6.4838 -5.8452 1.5660
6.4776 -5.4325 1.5189
6.6169 -5.1577 1.5097
6.7860 -4.9096 1.5097
6.9454 -4.6558 1.5097
7.0951 -4.3966 1.5097
7.2348 -4.1326 1.5097
7.3644 -3.8639 1.5097
7.4838 -3.5912 1.5097
7.5929 -3.3147 1.5097
7.6915 -3.0349 1.5097
7.7797 -2.7522 1.5097
7.8572 -2.4671 1.5097
7.9242 -2.1798 1.5097
7.9805 -1.8908 1.5097
8.0261 -1.6006 1.5097
8.0611 -1.3094 1.5097
8.0855 -1.0178 1.5097
8.0993 -0.7261 1.5097
8.1025 -0.4347 1.5097
8.0952 -0.1440 1.5097
8.0775 0.1457 1.5097
8.0495 0.4339 1.5097
8.0112 0.7203 1.5097
7.9629 1.0046 1.5097
7.9045 1.2864 1.5097
7.8364 1.5654 1.5097
7.7585 1.8411 1.5097
7.6710 2.1134 1.5097
7.5742 2.3818 1.5097
7.4682 2.6461 1.5097
7.3532 2.9059 1.5097
7.2294 3.1611 1.5097
7.0970 3.4112 1.5097
6.9561 3.6560 1.5097
6.8071 3.8953 1.5097
6.6501 4.1288 1.5097
6.4854 4.3563 1.5097
6.3133 4.5774 1.5097
6.1444 4.8003 1.5123
6.1221 5.1469 1.5541
6.0913 5.5057 1.5982
5.8800 5.7110 1.5982
5.6620 5.9085 1.5982
5.4378 6.0980 1.5982
5.2075 6.2794 1.5982
4.9714 6.4526 1.5982
4.7300 6.6173 1.5982
4.4833 6.7734 1.5982
4.2319 6.9208 1.5982
3.9758 7.0593 1.5982
3.7155 7.1888 1.5982
3.4512 7.3093 1.5982
3.1833 7.4205 1.5982
2.9121 7.5224 1.5982
2.6377 7.6150 1.5982
2.3607 7.6981 1.5982
0.8208 3.0650 0.6303
0.7103 3.0924 0.6307
0.5988 3.1159 0.6312
0.4866 3.1355 0.6315
0.3737 3.1511 0.6319
0.2604 3.1626 0.6322
0.1467 3.1701 0.6325
0.0328 3.1736 0.6327
-0.0811 3.1730 0.6329
-0.1950 3.1683 0.6330
-0.3086 3.1597 0.6332
-0.4219 3.1469 0.6332
-0.5347 3.1302 0.6333
-0.6468 3.1095 0.6333
-0.7582 3.0848 0.6332
-0.8685 3.0561 0.6332
-2.6282 8.1262 1.7014
-2.9195 8.0302 1.7014
-3.2075 7.9243 1.7014
-3.4919 7.8087 1.7014
-3.7725 7.6834 1.7014
-4.0488 7.5485 1.7014
-4.3205 7.4043 1.7014
-4.5875 7.2508 1.7014
-4.8493 7.0881 1.7014
-5.1057 6.9164 1.7014
-5.3563 6.7360 1.7014
-5.6009 6.5469 1.7014
-5.8392 6.3493 1.7014
-5.9594 6.0305 1.6702
-5.9546 5.6081 1.6092
-6.1301 5.3717 1.6013
-6.3163 5.1462 1.5983
-6.5065 4.9237 1.5983
-6.6893 4.6944 1.5983
-6.8644 4.4585 1.5983
-7.0315 4.2164 1.5983
-6.1048 3.3692 1.3570
-7.3408 3.7143 1.5983
-6.0847 2.8094 1.2997
-7.6157 3.1902 1.5983
-7.7397 2.9206 1.5983
-7.8544 2.6463 1.5983
-6.0491 1.7993 1.2147
-8.0554 2.0849 1.5983
-8.1414 1.7984 1.5983
-8.2173 1.5085 1.5983
-8.2832 1.2155 1.5983
-8.3389 0.9198 1.5983
-6.4675 -4.2754 1.5983
-6.3216 -4.5120 1.5983
-6.1669 -4.7436 1.5983
-6.0035 -4.9696 1.5983
-5.8316 -5.1899 1.5983
-5.6514 -5.4039 1.5983
-5.5764 -5.7278 1.6315
-5.5591 -6.1345 1.6870
-5.3900 -6.3933 1.7014
-5.1654 -6.5916 1.7014
-4.9333 -6.7816 1.7014
-4.6940 -6.9630 1.7014
-4.4478 -7.1357 1.7014
-4.1950 -7.2992 1.7014
-3.9360 -7.4533 1.7014
-3.6711 -7.5978 1.7014
-3.4008 -7.7324 1.7014
-3.1253 -7.8569 1.7014
-2.8451 -7.9711 1.7014
-2.5606 -8.0747 1.7014
-2.2721 -8.1677 1.7014
-1.9802 -8.2498 1.7014
-1.6852 -8.3208 1.7014
-1.3875 -8.3808 1.7014
-1.0877 -8.4295 1.7014
-0.7861 -8.4669 1.7014
-0.4831 -8.4928 1.7014
-0.1794 -8.5073 1.7014
0.1248 -8.5104 1.7014
0.4290 -8.5019 1.7014
0.7326 -8.4819 1.7014
1.0353 -8.4505 1.7014
1.3366 -8.4076 1.7014
1.6360 -8.3534 1.7014
1.9332 -8.2880 1.7014
2.2275 -8.2113 1.7014
2.5187 -8.1237 1.7014
2.6360 -7.5381 1.5982
2.9023 -7.4354 1.5982
3.1644 -7.3228 1.5982
3.4220 -7.2005 1.5982
3.6746 -7.0686 1.5982
3.9219 -6.9274 1.5982
4.1635 -6.7772 1.5982
4.3992 -6.6180 1.5982
4.6285 -6.4503 1.5982
2.8997 -3.7504 0.9553
3.0757 -3.6970 0.9702
5.2752 -5.8983 1.5982
5.4761 -5.6990 1.5982
5.6692 -5.4927 1.5982
5.8542 -5.2794 1.5982
6.0310 -5.0598 1.5982
6.1993 -4.8340 1.5982
6.3588 -4.6024 1.5982
6.4334 -4.3144 1.5795
6.4225 -3.9817 1.5433
6.4226 -3.6704 1.5132
6.5240 -3.4248 1.5097
6.6312 -3.1838 1.5097
6.7293 -2.9395 1.5097
6.8181 -2.6921 1.5097
6.8978 -2.4421 1.5097
6.9681 -2.1897 1.5097
7.0290 -1.9354 1.5097
7.0806 -1.6794 1.5097
7.1227 -1.4223 1.5097
7.1554 -1.1642 1.5097
7.1787 -0.9055 1.5097
7.1926 -0.6467 1.5097
7.1972 -0.3880 1.5097
7.1924 -0.1298 1.5097
7.1784 0.1276 1.5097
7.1552 0.3838 1.5097
7.1228 0.6386 1.5097
7.0815 0.8916 1.5097
7.0313 1.1424 1.5097
6.9722 1.3909 1.5097
6.9045 1.6366 1.5097
6.8283 1.8793 1.5097
6.7436 2.1187 1.5097
6.6507 2.3545 1.5097
6.5497 2.5865 1.5097
6.4409 2.8144 1.5097
6.3242 3.0379 1.5097
6.2000 3.2567 1.5097
6.1752 3.5318 1.5363
6.1655 3.8259 1.5698
6.1229 4.1107 1.5982
5.9615 4.3204 1.5982
5.7932 4.5239 1.5982
5.6182 4.7212 1.5982
5.4367 4.9119 1.5982
5.2490 5.0960 1.5982
5.0553 5.2732 1.5982
4.8558 5.4433 1.5982
4.6509 5.6062 1.5982
4.4408 5.7617 1.5982
4.2258 5.9097 1.5982
4.0060 6.0501 1.5982
3.7818 6.1826 1.5982
3.5535 6.3072 1.5982
3.3212 6.4237 1.5982
3.0854 6.5321 1.5982
2.8462 6.6323 1.5982
2.6039 6.7241 1.5982
2.3589 6.8075 1.5982
0.8281 2.6993 0.6268
0.7306 2.7273 0.6273
0.6322 2.7517 0.6277
0.5330 2.7726 0.6280
0.4332 2.7900 0.6284
0.3327 2.8038 0.6287
0.2318 2.8141 0.6290
0.1306 2.8208 0.6292
0.0293 2.8238 0.6294
-0.0721 2.8233 0.6296
-0.1735 2.8191 0.6297
-0.2746 2.8113 0.6298
-0.3754 2.8000 0.6299
-0.4758 2.7850 0.6299
-0.5756 2.7666 0.6299
-0.6746 2.7445 0.6299
-0.7729 2.7190 0.6298
-0.8701 2.6899 0.6297
-2.6115 7.1816 1.7014
-2.8690 7.0866 1.7014
-3.1232 6.9827 1.7014
-3.3739 6.8702 1.7014
-3.6208 6.7491 1.7014
-3.8635 6.6195 1.7014
-4.1019 6.4816 1.7014
-4.3356 6.3356 1.7014
-4.5644 6.1815 1.7014
-4.7879 6.0195 1.7014
-5.0060 5.8497 1.7014
-5.2184 5.6724 1.7014
-5.4247 5.4877 1.7014
-5.6249 5.2958 1.7014
-5.8185 5.0969 1.7014
-5.9196 4.8213 1.6771
-5.9132 4.4730 1.6266
-5.9729 4.1899 1.5983
-6.1282 3.9787 1.5983
-6.2763 3.7619 1.5983
-6.1065 3.3684 1.5210
-6.5502 3.3125 1.5983
-6.0892 2.8098 1.4580
-6.7929 2.8437 1.5983
-6.9021 2.6027 1.5983
-7.0030 2.3576 1.5983
-7.0955 2.1087 1.5983
-6.0379 1.5611 1.3442
-7.2543 1.6006 1.5983
-7.3205 1.3420 1.5983
-7.3776 1.0807 1.5983
-7.4255 0.8172 1.5983
-5.8026 -3.8377 1.5983
-5.6707 -4.0494 1.5983
-5.6239 -4.3279 1.6252
-5.6081 -4.6444 1.6651
-5.5656 -4.9553 1.7014
-5.3928 -5.1588 1.7014
-5.2123 -5.3561 1.7014
-5.0245 -5.5468 1.7014
-4.8295 -5.7307 1.7014
-4.6276 -5.9075 1.7014
-4.4190 -6.0768 1.7014
-4.2041 -6.2385 1.7014
-3.9830 -6.3923 1.7014
-3.7562 -6.5380 1.7014
-3.5238 -6.6752 1.7014
-3.2863 -6.8038 1.7014
-3.0440 -6.9235 1.7014
-2.7971 -7.0343 1.7014
-2.5461 -7.1358 1.7014
-2.2912 -7.2279 1.7014
-2.0329 -7.3105 1.7014
-1.7716 -7.3834 1.7014
-1.5075 -7.4465 1.7014
-1.2411 -7.4997 1.7014
-0.9728 -7.5428 1.7014
-0.7029 -7.5759 1.7014
-0.4319 -7.5989 1.7014
-0.1602 -7.6116 1.7014
0.1119 -7.6141 1.7014
0.3839 -7.6064 1.7014
0.6555 -7.5885 1.7014
0.9263 -7.5604 1.7014
1.1957 -7.5221 1.7014
1.4636 -7.4737 1.7014
1.7294 -7.4153 1.7014
1.9927 -7.3469 1.7014
2.2533 -7.2688 1.7014
2.5106 -7.1809 1.7014
2.5966 -6.6536 1.5982
2.8313 -6.5533 1.5982
3.0619 -6.4442 1.5982
3.2881 -6.3267 1.5982
3.5097 -6.2008 1.5982
3.7262 -6.0669 1.5982
3.9375 -5.9250 1.5982
4.1431 -5.7754 1.5982
2.8949 -3.7452 1.0653
3.0710 -3.6924 1.0819
4.7235 -5.2831 1.5982
4.9040 -5.1053 1.5982
5.0776 -4.9211 1.5982
5.2440 -4.7308 1.5982
5.4031 -4.5346 1.5982
5.5546 -4.3329 1.5982
5.6984 -4.1261 1.5982
5.8342 -3.9143 1.5982
5.9620 -3.6979 1.5982
6.0816 -3.4772 1.5982
6.1928 -3.2526 1.5982
6.2956 -3.0244 1.5982
6.3832 -2.7901 1.5965
6.3743 -2.5186 1.5732
6.3656 -2.2554 1.5527
6.3572 -1.9994 1.5347
6.3556 -1.7516 1.5207
6.3570 -1.5094 1.5097
6.3960 -1.2788 1.5097
6.4266 -1.0472 1.5097
6.4487 -0.8151 1.5097
6.4624 -0.5827 1.5097
6.4677 -0.3503 1.5097
6.4646 -0.1183 1.5097
6.4532 0.1130 1.5097
6.4336 0.3434 1.5097
6.4057 0.5726 1.5097
6.3698 0.8003 1.5097
6.3257 1.0261 1.5097
6.2738 1.2498 1.5097
6.2504 1.4798 1.5186
6.2358 1.7145 1.5317
6.2271 1.9547 1.5484
6.2190 2.1999 1.5677
6.2108 2.4508 1.5895
6.1419 2.6819 1.5982
6.0317 2.8956 1.5982
5.9143 3.1048 1.5982
5.7898 3.3095 1.5982
5.6584 3.5094 1.5982
5.5202 3.7043 1.5982
5.3756 3.8939 1.5982
5.2246 4.0781 1.5982
5.0675 4.2566 1.5982
4.9046 4.4293 1.5982
4.7359 4.5960 1.5982
4.5618 4.7565 1.5982
4.3824 4.9107 1.5982
4.1981 5.0584 1.5982
4.0089 5.1994 1.5982
3.8152 5.3336 1.5982
3.6172 5.4609 1.5982
3.4152 5.5812 1.5982
3.2093 5.6943 1.5982
2.9999 5.8001 1.5982
2.7871 5.8986 1.5982
2.5713 5.9896 1.5982
2.3527 6.0731 1.5982
0.8322 2.4008 0.6240
0.7454 2.4290 0.6244
0.6577 2.4541 0.6248
0.5692 2.4761 0.6252
0.4799 2.4950 0.6255
0.3900 2.5106 0.6258
0.2995 2.5230 0.6261
0.2087 2.5322 0.6263
0.1177 2.5382 0.6265
0.0264 2.5410 0.6267
-0.0648 2.5404 0.6269
-0.1561 2.5367 0.6270
-0.2471 2.5297 0.6271
-0.3378 2.5194 0.6272
-0.4281 2.5059 0.6272
-0.5179 2.4893 0.6272
-0.6071 2.4694 0.6272
-0.6955 2.4464 0.6271
-0.7830 2.4202 0.6270
-0.8696 2.3909 0.6269
-2.5927 6.4028 1.7014
-2.8223 6.3086 1.7014
-3.0487 6.2066 1.7014
-3.2716 6.0968 1.7014
-3.4907 5.9793 1.7014
-3.7058 5.8543 1.7014
-3.9167 5.7219 1.7014
-4.1230 5.5822 1.7014
-4.3246 5.4354 1.7014
-4.5211 5.2816 1.7014
-4.7125 5.1209 1.7014
-4.8983 4.9536 1.7014
-5.0785 4.7798 1.7014
-5.2527 4.5996 1.7014
-5.4208 4.4134 1.7014
-5.5826 4.2212 1.7014
-5.7377 4.0233 1.7014
-5.8861 3.8198 1.7014
-5.8768 3.5208 1.6589
-5.8737 3.2384 1.6219
-5.9077 2.9860 1.5983
-6.0198 2.7762 1.5983
-6.1247 2.5624 1.5983
-6.2222 2.3447 1.5983
-6.3122 2.1233 1.5983
-6.3945 1.8987 1.5983
-6.0384 1.5597 1.4920
-6.5354 1.4403 1.5983
-6.5939 1.2071 1.5983
-6.6441 0.9716 1.5983
-6.6861 0.7341 1.5983
-5.5954 -3.7026 1.7014
-5.4674 -3.9061 1.7014
-5.3319 -4.1051 1.7014
-5.1890 -4.2992 1.7014
-5.0389 -4.4883 1.7014
-4.8817 -4.6719 1.7014
-4.7178 -4.8498 1.7014
-4.5472 -5.0218 1.7014
-4.3701 -5.1876 1.7014
-4.1869 -5.3470 1.7014
-3.9977 -5.4996 1.7014
-3.8028 -5.6453 1.7014
-3.6025 -5.7838 1.7014
-3.3970 -5.9149 1.7014
-3.1865 -6.0384 1.7014
-2.9715 -6.1542 1.7014
-2.7521 -6.2619 1.7014
-2.5286 -6.3615 1.7014
-2.3015 -6.4528 1.7014
-2.0710 -6.5356 1.7014
-1.8374 -6.6098 1.7014
-1.6010 -6.6753 1.7014
-1.3623 -6.7320 1.7014
-1.1215 -6.7797 1.7014
-0.8789 -6.8184 1.7014
-0.6350 -6.8480 1.7014
-0.3901 -6.8685 1.7014
-0.1446 -6.8799 1.7014
0.1013 -6.8820 1.7014
0.3471 -6.8750 1.7014
0.5925 -6.8587 1.7014
0.8372 -6.8333 1.7014
1.0807 -6.7987 1.7014
1.3227 -6.7551 1.7014
1.5629 -6.7024 1.7014
1.8009 -6.6408 1.7014
2.0364 -6.5703 1.7014
2.2690 -6.4912 1.7014
2.4985 -6.4034 1.7014
2.5590 -5.9244 1.5982
2.7676 -5.8261 1.5982
2.9723 -5.7202 1.5982
3.1727 -5.6068 1.5982
3.3687 -5.4861 1.5982
3.5599 -5.3582 1.5982
3.7461 -5.2234 1.5982
2.8900 -3.7399 1.1761
3.0663 -3.6877 1.1945
4.2721 -4.7796 1.5982
4.4357 -4.6193 1.5982
4.5932 -4.4531 1.5982
4.7442 -4.2814 1.5982
4.8887 -4.1044 1.5982
5.0264 -3.9224 1.5982
5.1571 -3.7357 1.5982
5.2807 -3.5444 1.5982
5.3970 -3.3490 1.5982
5.5060 -3.1497 1.5982
5.6075 -2.9467 1.5982
5.7013 -2.7405 1.5982
5.7874 -2.5312 1.5982
5.8657 -2.3192 1.5982
5.9361 -2.1047 1.5982
5.9986 -1.8882 1.5982
6.0530 -1.6698 1.5982
6.0995 -1.4499 1.5982
6.1378 -1.2288 1.5982
6.1681 -1.0067 1.5982
6.1903 -0.7840 1.5982
6.2044 -0.5610 1.5982
6.2104 -0.3380 1.5982
6.2085 -0.1153 1.5982
6.1985 0.1069 1.5982
6.1806 0.3283 1.5982
6.1548 0.5486 1.5982
6.1212 0.7674 1.5982
6.0798 0.9846 1.5982
6.0309 1.1998 1.5982
5.9743 1.4128 1.5982
5.9103 1.6234 1.5982
5.8390 1.8312 1.5982
5.7605 2.0361 1.5982
5.6749 2.2377 1.5982
5.5823 2.4359 1.5982
5.4830 2.6305 1.5982
5.3770 2.8211 1.5982
5.2646 3.0076 1.5982
5.1458 3.1898 1.5982
5.0208 3.3674 1.5982
4.8899 3.5403 1.5982
4.7532 3.7084 1.5982
4.6109 3.8712 1.5982
4.4631 4.0289 1.5982
4.3102 4.1811 1.5982
4.1522 4.3276 1.5982
3.9894 4.4685 1.5982
3.8220 4.6034 1.5982
3.6501 4.7323 1.5982
3.4741 4.8550 1.5982
3.2942 4.9714 1.5982
3.1105 5.0814 1.5982
2.9232 5.1848 1.5982
2.7327 5.2816 1.5982
2.5391 5.3718 1.5982
0.9106 2.1204 0.6212
0.8338 2.1516 0.6216
0.7560 2.1800 0.6220
0.6771 2.2057 0.6224
0.5975 2.2285 0.6228
0.5170 2.2484 0.6231
0.4359 2.2655 0.6234
0.3543 2.2797 0.6237
0.2721 2.2910 0.6239
0.1897 2.2994 0.6242
0.1070 2.3048 0.6244
0.0241 2.3073 0.6245
-0.0588 2.3068 0.6247
-0.1417 2.3033 0.6248
-0.2243 2.2969 0.6249
-0.3068 2.2876 0.6249
-0.3888 2.2753 0.6250
-0.4703 2.2602 0.6250
-0.5513 2.2421 0.6249
-0.6316 2.2212 0.6249
-0.7111 2.1974 0.6248
-0.7897 2.1707 0.6247
-0.8673 2.1413 0.6245
-2.5719 5.7476 1.7014
-2.7781 5.6543 1.7014
-2.9810 5.5540 1.7014
-3.1805 5.4466 1.7014
-3.3763 5.3324 1.7014
-3.5682 5.2114 1.7014
-3.7559 5.0838 1.7014
-3.9392 4.9497 1.7014
-4.1180 4.8092 1.7014
-4.2919 4.6624 1.7014
-4.4608 4.5096 1.7014
-4.6244 4.3510 1.7014
-4.7827 4.1865 1.7014
-4.9352 4.0165 1.7014
-5.0820 3.8411 1.7014
-5.2226 3.6605 1.7014
-5.3571 3.4750 1.7014
-5.4852 3.2846 1.7014
-5.6067 3.0896 1.7014
-5.7215 2.8903 1.7014
-5.8294 2.6868 1.7014
-5.8413 2.4422 1.6759
-5.8334 2.1966 1.6476
-5.8312 1.9600 1.6237
-5.8285 1.7291 1.6023
-5.8808 1.5174 1.5983
-5.9404 1.3076 1.5983
-5.9927 1.0955 1.5983
-6.0375 0.8813 1.5983
-6.0747 0.6654 1.5983
-5.1088 -3.3824 1.7014
-4.9913 -3.5678 1.7014
-4.8670 -3.7490 1.7014
-4.7360 -3.9257 1.7014
-4.5985 -4.0978 1.7014
-4.4546 -4.2649 1.7014
-4.3045 -4.4268 1.7014
-4.1484 -4.5833 1.7014
-3.9865 -4.7341 1.7014
-3.8190 -4.8789 1.7014
-3.6460 -5.0177 1.7014
-3.4680 -5.1501 1.7014
-3.2850 -5.2759 1.7014
-3.0973 -5.3950 1.7014
-2.9052 -5.5072 1.7014
-2.7089 -5.6123 1.7014
-2.5086 -5.7101 1.7014
-2.3048 -5.8005 1.7014
-2.0976 -5.8834 1.7014
-1.8874 -5.9585 1.7014
-1.6744 -6.0258 1.7014
-1.4589 -6.0852 1.7014
-1.2413 -6.1365 1.7014
-1.0218 -6.1798 1.7014
-0.8007 -6.2148 1.7014
-0.5785 -6.2416 1.7014
-0.3553 -6.2602 1.7014
-0.1315 -6.2703 1.7014
0.0925 -6.2722 1.7014
0.3165 -6.2657 1.7014
0.5401 -6.2508 1.7014
0.7630 -6.2277 1.7014
0.9848 -6.1962 1.7014
1.2054 -6.1565 1.7014
1.4242 -6.1086 1.7014
1.6411 -6.0526 1.7014
1.8558 -5.9885 1.7014
2.0678 -5.9165 1.7014
2.2769 -5.8367 1.7014
2.4781 -5.7383 1.6982
2.5224 -5.3110 1.5982
2.7090 -5.2148 1.5982
2.8918 -5.1117 1.5982
3.0706 -5.0020 1.5982
3.2451 -4.8857 1.5982
3.4151 -4.7632 1.5982
2.8851 -3.7346 1.2879
3.0615 -3.6831 1.3081
3.8954 -4.3596 1.5982
4.0450 -4.2137 1.5982
4.1889 -4.0625 1.5982
4.3271 -3.9063 1.5982
4.4592 -3.7452 1.5982
4.5852 -3.5796 1.5982
4.7050 -3.4096 1.5982
4.8182 -3.2354 1.5982
4.9249 -3.0575 1.5982
5.0249 -2.8759 1.5982
5.1181 -2.6910 1.5982
5.2043 -2.5030 1.5982
5.2835 -2.3122 1.5982
5.3556 -2.1190 1.5982
5.4205 -1.9234 1.5982
5.4783 -1.7259 1.5982
5.5287 -1.5266 1.5982
5.5718 -1.3259 1.5982
5.6075 -1.1241 1.5982
5.6359 -0.9213 1.5982
5.6569 -0.7180 1.5982
5.6706 -0.5143 1.5982
5.6768 -0.3105 1.5982
5.6758 -0.1069 1.5982
5.6674 0.0963 1.5982
5.6518 0.2987 1.5982
5.6289 0.5002 1.5982
5.5989 0.7004 1.5982
5.5618 0.8992 1.5982
5.5177 1.0962 1.5982
5.4667 1.2912 1.5982
5.4088 1.4841 1.5982
5.3443 1.6745 1.5982
5.2731 1.8622 1.5982
5.1953 2.0471 1.5982
5.1112 2.2288 1.5982
5.0209 2.4072 1.5982
4.9245 2.5821 1.5982
4.8220 2.7532 1.5982
4.7138 2.9204 1.5982
4.5998 3.0835 1.5982
4.4782 3.2407 1.5974
4.3534 3.3949 1.5974
4.2235 3.5444 1.5974
4.0907 3.6910 1.5982
3.9509 3.8309 1.5982
3.8064 3.9656 1.5982
3.6575 4.0951 1.5982
3.5044 4.2192 1.5982
3.3471 4.3377 1.5982
3.1860 4.4506 1.5982
3.0212 4.5577 1.5982
2.8530 4.6590 1.5982
2.6814 4.7542 1.5982
2.5069 4.8434 1.5982
0.9026 1.9088 0.6192
0.8334 1.9398 0.6196
0.7631 1.9683 0.6200
0.6918 1.9944 0.6204
0.6197 2.0178 0.6208
0.5468 2.0387 0.6211
0.4732 2.0570 0.6214
0.3990 2.0726 0.6217
0.3242 2.0856 0.6219
0.2491 2.0959 0.6221
0.1736 2.1036 0.6224
0.0979 2.1085 0.6225
0.0221 2.1107 0.6227
-0.0538 2.1103 0.6228
-0.1296 2.1071 0.6229
-0.2052 2.1013 0.6230
-0.2806 2.0927 0.6230
-0.3557 2.0815 0.6231
-0.4303 2.0676 0.6231
-0.5044 2.0510 0.6230
-0.5778 2.0318 0.6230
-0.6506 2.0100 0.6229
-0.7225 1.9857 0.6228
-0.7935 1.9587 0.6227
-0.8635 1.9293 0.6225
-2.5491 5.1871 1.7014
-2.7352 5.0948 1.7014
-2.9181 4.9960 1.7014
-3.0976 4.8910 1.7014
-3.2735 4.7797 1.7014
-3.4455 4.6624 1.7014
-3.6135 4.5390 1.7014
-3.7772 4.4098 1.7014
-3.9364 4.2749 1.7014
-4.0911 4.1345 1.7014
-4.2408 3.9886 1.7014
-4.3856 3.8375 1.7014
-4.5251 3.6813 1.7014
-4.6592 3.5202 1.7014
-4.7878 3.3543 1.7014
-4.9106 3.1839 1.7014
-5.0275 3.0091 1.7014
-5.1384 2.8301 1.7014
-5.2431 2.6471 1.7014
-5.3414 2.4604 1.7014
-5.4332 2.2701 1.7014
-5.5183 2.0764 1.7014
-5.5967 1.8797 1.7014
-5.6683 1.6800 1.7014
-5.7328 1.4777 1.7014
-5.7902 1.2730 1.7014
-5.7958 1.0579 1.6884
-5.7887 0.8435 1.6741
-5.7817 0.6318 1.6620
-4.6952 -3.1102 1.7014
-4.5868 -3.2802 1.7014
-4.4721 -3.4464 1.7014
-4.3513 -3.6085 1.7014
-4.2245 -3.7663 1.7014
-4.0920 -3.9194 1.7014
-3.9537 -4.0678 1.7014
-3.8100 -4.2111 1.7014
-3.6609 -4.3492 1.7014
-3.5068 -4.4819 1.7014
-3.3477 -4.6089 1.7014
-3.1840 -4.7301 1.7014
-3.0157 -4.8453 1.7014
-2.8432 -4.9543 1.7014
-2.6666 -5.0570 1.7014
-2.4863 -5.1531 1.7014
-2.3024 -5.2425 1.7014
-2.1152 -5.3252 1.7014
-1.9249 -5.4009 1.7014
-1.7319 -5.4696 1.7014
-1.5363 -5.5311 1.7014
-1.3385 -5.5854 1.7014
-1.1388 -5.6323 1.7014
-0.9373 -5.6717 1.7014
-0.7345 -5.7037 1.7014
-0.5306 -5.7282 1.7014
-0.3258 -5.7450 1.7014
-0.1205 -5.7543 1.7014
0.0850 -5.7559 1.7014
0.2905 -5.7499 1.7014
0.4956 -5.7362 1.7014
0.7001 -5.7149 1.7014
0.9037 -5.6861 1.7014
1.1060 -5.6497 1.7014
1.3068 -5.6058 1.7014
1.5058 -5.5545 1.7014
1.7028 -5.4959 1.7014
1.8974 -5.4300 1.7014
2.0893 -5.3569 1.7014
2.2783 -5.2768 1.7014
2.4598 -5.1805 1.6984
2.4860 -4.7867 1.5982
2.6571 -4.6979 1.6001
2.8181 -4.5918 1.5982
2.9784 -4.4854 1.5982
3.1346 -4.3732 1.5982
2.8801 -3.7293 1.4006
3.0566 -3.6784 1.4227
3.5761 -4.0034 1.5982
3.7136 -3.8698 1.5982
3.8461 -3.7313 1.5982
3.9732 -3.5882 1.5982
4.0949 -3.4406 1.5982
4.2110 -3.2887 1.5982
4.3213 -3.1328 1.5982
4.4257 -2.9732 1.5982
4.5241 -2.8100 1.5982
4.6164 -2.6434 1.5982
4.7024 -2.4738 1.5982
4.7821 -2.3013 1.5982
4.8554 -2.1262 1.5982
4.9221 -1.9488 1.5982
4.9823 -1.7693 1.5982
5.0359 -1.5879 1.5982
5.0828 -1.4049 1.5982
5.1229 -1.2205 1.5982
5.1564 -1.0350 1.5982
5.1830 -0.8487 1.5982
5.2029 -0.6617 1.5982
5.2160 -0.4744 1.5982
5.2224 -0.2870 1.5982
5.2220 -0.0997 1.5982
5.2149 0.0872 1.5982
5.2011 0.2735 1.5982
5.1806 0.4589 1.5982
5.1536 0.6433 1.5982
5.1200 0.8263 1.5982
5.0800 1.0078 1.5982
5.0336 1.1875 1.5982
4.9808 1.3652 1.5982
4.9219 1.5407 1.5982
4.8568 1.7138 1.5982
4.7858 1.8842 1.5982
4.7088 2.0519 1.5982
4.6261 2.2164 1.5982
4.5376 2.3778 1.5982
4.4437 2.5357 1.5982
4.3444 2.6901 1.5982
4.2398 2.8406 1.5982
4.1280 2.9858 1.5974
4.0134 3.1282 1.5974
3.8940 3.2664 1.5974
3.7719 3.4019 1.5982
3.6433 3.5311 1.5982
3.5104 3.6557 1.5982
3.3733 3.7754 1.5982
3.2323 3.8901 1.5982
3.0875 3.9998 1.5982
2.9391 4.1042 1.5982
2.7873 4.2033 1.5982
2.6323 4.2969 1.5982
2.4742 4.3851 1.5982
0.8938 1.7263 0.6175
0.8311 1.7571 0.6179
0.7674 1.7857 0.6183
0.7027 1.8119 0.6187
0.6371 1.8359 0.6190
0.5707 1.8575 0.6193
0.5036 1.8767 0.6196
0.4358 1.8936 0.6199
0.3674 1.9080 0.6202
0.2986 1.9199 0.6204
0.2294 1.9294 0.6206
0.1599 1.9364 0.6208
0.0902 1.9410 0.6210
0.0204 1.9430 0.6211
-0.0494 1.9426 0.6212
-0.1192 1.9397 0.6213
-0.1889 1.9343 0.6214
-0.2583 1.9264 0.6214
-0.3274 1.9160 0.6215
-0.3961 1.9032 0.6215
-0.4643 1.8879 0.6214
-0.5320 1.8703 0.6214
-0.5989 1.8502 0.6213
-0.6651 1.8277 0.6212
-0.7305 1.8029 0.6211
-0.7950 1.7758 0.6210
-0.8584 1.7463 0.6208
-2.5243 4.7009 1.7014
-2.6931 4.6096 1.7014
-2.8586 4.5124 1.7014
-3.0208 4.4095 1.7014
-3.1794 4.3010 1.7014
-3.3342 4.1869 1.7014
-3.4850 4.0675 1.7014
-3.6318 3.9428 1.7014
-3.7742 3.8130 1.7014
-3.9121 3.6782 1.7014
-4.0453 3.5385 1.7014
-4.1738 3.3942 1.7014
-4.2971 3.2453 1.7014
-4.4154 3.0921 1.7014
-4.5283 2.9346 1.7014
-4.6357 2.7732 1.7014
-4.7376 2.6079 1.7014
-4.8336 2.4390 1.7014
-4.9238 2.2666 1.7014
-5.0080 2.0910 1.7014
-5.0860 1.9123 1.7014
-5.1578 1.7308 1.7014
-5.2232 1.5467 1.7014
-5.2821 1.3601 1.7014
-5.3345 1.1714 1.7014
-5.3802 0.9806 1.7014
-5.4192 0.7882 1.7014
-5.4513 0.5942 1.7014
-4.3390 -2.8757 1.7014
-4.2384 -3.0327 1.7014
-4.1321 -3.1860 1.7014
-4.0202 -3.3354 1.7014
-3.9027 -3.4809 1.7014
-3.7799 -3.6221 1.7014
-3.6519 -3.7589 1.7014
-3.5189 -3.8910 1.7014
-3.3810 -4.0182 1.7014
-3.2384 -4.1405 1.7014
-3.0913 -4.2575 1.7014
-2.9398 -4.3691 1.7014
-2.7843 -4.4752 1.7014
-2.6248 -4.5755 1.7014
-2.4617 -4.6700 1.7014
-2.2950 -4.7585 1.7014
-2.1252 -4.8408 1.7014
-1.9522 -4.9169 1.7014
-1.7765 -4.9866 1.7014
-1.5983 -5.0497 1.7014
-1.4177 -5.1063 1.7014
-1.2352 -5.1562 1.7014
-1.0508 -5.1993 1.7014
-0.8648 -5.2356 1.7014
-0.6776 -5.2649 1.7014
-0.4894 -5.2874 1.7014
-0.3005 -5.3028 1.7014
-0.1110 -5.3113 1.7014
0.0786 -5.3127 1.7014
0.2682 -5.3071 1.7014
0.4575 -5.2945 1.7014
0.6462 -5.2748 1.7014
0.8340 -5.2482 1.7014
1.0207 -5.2147 1.7014
1.2061 -5.1742 1.7014
1.3897 -5.1270 1.7014
1.5715 -5.0729 1.7014
1.7511 -5.0122 1.7014
1.9282 -4.9449 1.7014
2.1027 -4.8711 1.7014
2.2743 -4.7910 1.7014
2.4428 -4.7045 1.7014
2.4496 -4.3321 1.5982
2.6013 -4.2395 1.5982
2.7493 -4.1415 1.5982
2.8936 -4.0381 1.5982
2.8751 -3.7239 1.5145
3.0518 -3.6736 1.5386
3.3017 -3.6974 1.5982
3.4289 -3.5743 1.5982
3.5514 -3.4466 1.5982
3.6690 -3.3147 1.5982
3.7816 -3.1786 1.5982
3.8891 -3.0386 1.5982
3.9913 -2.8948 1.5982
4.0880 -2.7476 1.5982
4.1792 -2.5970 1.5982
4.2648 -2.4434 1.5982
4.3446 -2.2868 1.5982
4.4186 -2.1277 1.5982
4.4867 -1.9661 1.5982
4.5488 -1.8023 1.5982
4.6048 -1.6365 1.5982
4.6548 -1.4690 1.5982
4.6985 -1.2999 1.5982
4.7361 -1.1296 1.5982
4.7674 -0.9583 1.5982
4.7926 -0.7860 1.5982
4.8114 -0.6133 1.5982
4.8240 -0.4401 1.5982
4.8303 -0.2668 1.5982
4.8304 -0.0936 1.5982
4.8243 0.0793 1.5982
4.8120 0.2517 1.5982
4.7935 0.4233 1.5982
4.7690 0.5939 1.5982
4.7384 0.7634 1.5982
4.7018 0.9314 1.5982
4.6593 1.0979 1.5982
4.6109 1.2625 1.5982
4.5568 1.4251 1.5982
4.4969 1.5855 1.5982
4.4316 1.7434 1.5982
4.3607 1.8988 1.5982
4.2844 2.0514 1.5982
4.2029 2.2010 1.5982
4.1163 2.3475 1.5982
4.0246 2.4907 1.5982
3.9281 2.6304 1.5982
3.8267 2.7665 1.5982
3.7208 2.8987 1.5982
3.6104 3.0271 1.5982
3.4957 3.1513 1.5982
3.3767 3.2714 1.5982
3.2538 3.3870 1.5982
3.1270 3.4983 1.5982
2.9965 3.6048 1.5982
2.8625 3.7067 1.5982
2.7251 3.8038 1.5982
2.5845 3.8959 1.5982
2.4409 3.9829 1.5982
0.8844 1.5669 0.6160
0.8274 1.5975 0.6164
0.7694 1.6260 0.6168
0.7104 1.6525 0.6172
0.6505 1.6768 0.6175
0.5898 1.6990 0.6178
0.5283 1.7190 0.6181
0.4662 1.7368 0.6184
0.4034 1.7523 0.6186
0.3402 1.7657 0.6189
0.2765 1.7767 0.6191
0.2124 1.7855 0.6193
0.1481 1.7920 0.6195
0.0836 1.7962 0.6196
0.0189 1.7981 0.6197
-0.0457 1.7977 0.6199
-0.1103 1.7950 0.6199
-0.1748 1.7900 0.6200
-0.2391 1.7827 0.6200
-0.3030 1.7731 0.6201
-0.3666 1.7612 0.6201
-0.4298 1.7470 0.6200
-0.4923 1.7307 0.6200
-0.5543 1.7121 0.6199
-0.6156 1.6912 0.6198
-0.6761 1.6683 0.6197
-0.7357 1.6431 0.6196
-0.7945 1.6159 0.6195
-0.8522 1.5866 0.6193
-2.4977 4.2741 1.7014
-2.6512 4.1838 1.7014
-2.8015 4.0882 1.7014
-2.9484 3.9874 1.7014
-3.0918 3.8815 1.7014
-3.2316 3.7705 1.7014
-3.3675 3.6547 1.7014
-3.4993 3.5341 1.7014
-3.6270 3.4089 1.7014
-3.7503 3.2792 1.7014
-3.8691 3.1452 1.7014
-3.9833 3.0070 1.7014
-4.0926 2.8648 1.7014
-4.1970 2.7186 1.7014
-4.2962 2.5688 1.7014
-4.3903 2.4155 1.7014
-4.4790 2.2588 1.7014
-4.5622 2.0989 1.7014
-4.6398 1.9360 1.7014
-4.7117 1.7703 1.7014
-4.7778 1.6020 1.7014
-4.8379 1.4313 1.7014
-4.8921 1.2584 1.7014
-4.9402 1.0834 1.7014
-4.9821 0.9067 1.7014
-5.0177 0.7284 1.7014
-5.0470 0.5488 1.7014
-4.0288 -2.6716 1.7014
-3.9351 -2.8170 1.7014
-3.8361 -2.9592 1.7014
-3.7318 -3.0977 1.7014
-3.6225 -3.2325 1.7014
-3.5083 -3.3633 1.7014
-3.3893 -3.4900 1.7014
-3.2656 -3.6124 1.7014
-3.1374 -3.7303 1.7014
-3.0049 -3.8434 1.7014
-2.8682 -3.9518 1.7014
-2.7275 -4.0551 1.7014
-2.5831 -4.1533 1.7014
-2.4350 -4.2462 1.7014
-2.2835 -4.3336 1.7014
-2.1288 -4.4155 1.7014
-1.9711 -4.4917 1.7014
-1.8106 -4.5620 1.7014
-1.6476 -4.6265 1.7014
-1.4822 -4.6849 1.7014
-1.3147 -4.7372 1.7014
-1.1454 -4.7833 1.7014
-0.9743 -4.8231 1.7014
-0.8019 -4.8566 1.7014
-0.6283 -4.8838 1.7014
-0.4537 -4.9045 1.7014
-0.2785 -4.9187 1.7014
-0.1028 -4.9265 1.7014
0.0731 -4.9278 1.7014
0.2489 -4.9225 1.7014
0.4244 -4.9108 1.7014
0.5994 -4.8926 1.7014
0.7735 -4.8679 1.7014
0.9467 -4.8369 1.7014
1.1185 -4.7994 1.7014
1.2888 -4.7556 1.7014
1.4574 -4.7056 1.7014
1.6240 -4.6494 1.7014
1.7883 -4.5871 1.7014
1.9502 -4.5187 1.7014
2.1094 -4.4445 1.7014
2.2657 -4.3645 1.7014
2.4188 -4.2788 1.7014
2.4296 -3.9608 1.6093
2.5502 -3.8426 1.5982
2.6842 -3.7469 1.5982
2.8144 -3.6463 1.5982
2.9408 -3.5411 1.5982
3.0631 -3.4314 1.5982
3.1813 -3.3173 1.5982
3.2951 -3.1991 1.5982
3.4045 -3.0768 1.5982
3.5092 -2.9507 1.5982
3.6091 -2.8210 1.5982
3.7041 -2.6877 1.5982
3.7942 -2.5512 1.5982
3.8791 -2.4117 1.5982
3.9588 -2.2692 1.5982
4.0332 -2.1241 1.5982
4.1022 -1.9765 1.5982
4.1657 -1.8266 1.5982
4.2237 -1.6747 1.5982
4.2760 -1.5208 1.5982
4.3227 -1.3654 1.5982
4.3637 -1.2085 1.5982
4.3989 -1.0504 1.5982
4.4284 -0.8913 1.5982
4.4521 -0.7314 1.5982
4.4700 -0.5710 1.5982
4.4821 -0.4101 1.5982
4.4883 -0.2491 1.5982
4.4888 -0.0882 1.5982
4.4835 0.0725 1.5982
4.4724 0.2327 1.5982
4.4556 0.3922 1.5982
4.4332 0.5509 1.5982
4.4051 0.7084 1.5982
4.3714 0.8647 1.5982
4.3323 1.0195 1.5982
4.2876 1.1727 1.5982
4.2377 1.3240 1.5982
4.1824 1.4733 1.5982
4.1219 1.6203 1.5982
4.0563 1.7650 1.5982
3.9857 1.9071 1.5982
3.9102 2.0464 1.5982
3.8299 2.1829 1.5982
3.7448 2.3162 1.5982
3.6553 2.4464 1.5982
3.5612 2.5732 1.5982
3.4629 2.6965 1.5982
3.3604 2.8161 1.5982
3.2538 2.9320 1.5982
3.1433 3.0439 1.5982
3.0291 3.1518 1.5982
2.9112 3.2555 1.5982
2.7899 3.3549 1.5982
2.6653 3.4500 1.5982
2.5375 3.5405 1.5982
2.4067 3.6265 1.5982
0.8743 1.4262 0.6147
0.8224 1.4565 0.6151
0.7695 1.4849 0.6155
0.7155 1.5115 0.6158
0.6606 1.5361 0.6161
0.6050 1.5587 0.6165
0.5485 1.5793 0.6167
0.4913 1.5979 0.6170
0.4335 1.6145 0.6173
0.3752 1.6289 0.6175
0.3164 1.6413 0.6177
0.2571 1.6516 0.6179
0.1976 1.6598 0.6181
0.1378 1.6658 0.6183
0.0778 1.6697 0.6184
0.0177 1.6715 0.6185
-0.0425 1.6711 0.6187
-0.1025 1.6686 0.6187
-0.1625 1.6639 0.6188
-0.2222 1.6571 0.6188
-0.2817 1.6481 0.6189
-0.3408 1.6371 0.6189
-0.3995 1.6239 0.6188
-0.4577 1.6087 0.6188
-0.5153 1.5914 0.6187
-0.5723 1.5720 0.6186
-0.6286 1.5506 0.6185
-0.6840 1.5273 0.6184
-0.7386 1.5019 0.6183
-0.7923 1.4746 0.6181
-0.8449 1.4454 0.6179
-0.8965 1.4144 0.6177
-2.6091 3.8065 1.7014
-2.7459 3.7125 1.7014
-2.8794 3.6136 1.7014
-3.0094 3.5102 1.7014
-3.1358 3.4021 1.7014
-3.2585 3.2897 1.7014
-3.3772 3.1729 1.7014
-3.4918 3.0520 1.7014
-3.6022 2.9271 1.7014
-3.7083 2.7982 1.7014
-3.8098 2.6657 1.7014
-3.9068 2.5295 1.7014
-3.9989 2.3899 1.7014
-4.0862 2.2470 1.7014
-4.1685 2.1010 1.7014
-4.2456 1.9520 1.7014
-4.3175 1.8003 1.7014
-4.3841 1.6460 1.7014
-4.4453 1.4893 1.7014
-4.5010 1.3303 1.7014
-4.5510 1.1693 1.7014
-4.5954 1.0065 1.7014
-4.6340 0.8421 1.7014
-4.6668 0.6762 1.7014
-4.6937 0.5090 1.7014
-3.7558 -2.4919 1.7014
-3.6682 -2.6274 1.7014
-3.5757 -2.7597 1.7014
-3.4783 -2.8886 1.7014
-3.3762 -3.0141 1.7014
-3.2695 -3.1358 1.7014
-3.1584 -3.2537 1.7014
-3.0430 -3.3676 1.7014
-2.9233 -3.4772 1.7014
-2.7997 -3.5825 1.7014
-2.6722 -3.6832 1.7014
-2.5410 -3.7793 1.7014
-2.4063 -3.8706 1.7014
-2.2682 -3.9570 1.7014
-2.1270 -4.0382 1.7014
-1.9828 -4.1143 1.7014
-1.8359 -4.1851 1.7014
-1.6863 -4.2505 1.7014
-1.5344 -4.3103 1.7014
-1.3803 -4.3646 1.7014
-1.2243 -4.4132 1.7014
-1.0665 -4.4560 1.7014
-0.9072 -4.4930 1.7014
-0.7466 -4.5241 1.7014
-0.5849 -4.5493 1.7014
-0.4224 -4.5685 1.7014
-0.2592 -4.5817 1.7014
-0.0956 -4.5888 1.7014
0.0682 -4.5900 1.7014
0.2319 -4.5851 1.7014
0.3953 -4.5741 1.7014
0.5583 -4.5572 1.7014
0.7205 -4.5342 1.7014
0.8817 -4.5053 1.7014
1.0417 -4.4705 1.7014
1.2003 -4.4297 1.7014
1.3573 -4.3832 1.7014
1.5124 -4.3309 1.7014
1.6655 -4.2730 1.7014
1.8163 -4.2094 1.7014
1.9646 -4.1404 1.7014
2.1102 -4.0660 1.7014
2.2529 -3.9863 1.7014
2.3925 -3.9015 1.7014
2.4151 -3.6400 1.6248
2.5003 -3.4912 1.5982
2.6217 -3.3977 1.5982
2.7395 -3.2998 1.5982
2.8536 -3.1977 1.5982
2.9638 -3.0916 1.5982
3.0700 -2.9816 1.5982
3.1721 -2.8678 1.5982
3.2698 -2.7505 1.5982
3.3631 -2.6297 1.5982
3.4518 -2.5057 1.5982
3.5359 -2.3787 1.5982
3.6153 -2.2488 1.5982
3.6898 -2.1161 1.5982
3.7594 -1.9810 1.5982
3.8239 -1.8435 1.5982
3.8834 -1.7039 1.5982
3.9376 -1.5624 1.5982
3.9867 -1.4191 1.5982
4.0305 -1.2743 1.5982
4.0690 -1.1281 1.5982
4.1022 -0.9807 1.5982
4.1300 -0.8324 1.5982
4.1524 -0.6834 1.5982
4.1694 -0.5337 1.5982
4.1809 -0.3837 1.5982
4.1871 -0.2336 1.5982
4.1878 -0.0835 1.5982
4.1832 0.0665 1.5982
4.1732 0.2159 1.5982
4.1578 0.3648 1.5982
4.1372 0.5129 1.5982
4.1113 0.6600 1.5982
4.0801 0.8059 1.5982
4.0439 0.9505 1.5982
4.0025 1.0935 1.5982
3.9561 1.2348 1.5982
3.9048 1.3743 1.5982
3.8486 1.5117 1.5982
3.7876 1.6468 1.5982
3.7220 1.7796 1.5982
3.6517 1.9099 1.5982
3.5769 2.0375 1.5982
3.4978 2.1622 1.5982
3.4143 2.2839 1.5982
3.3267 2.4025 1.5982
3.2351 2.5178 1.5982
3.1395 2.6297 1.5982
3.0401 2.7381 1.5982
2.9370 2.8428 1.5982
2.8305 2.9438 1.5982
2.7205 3.0409 1.5982
2.6072 3.1340 1.5982
2.4909 3.2229 1.5982
2.3900 3.3334 1.6106
0.8636 1.3008 0.6136
0.8162 1.3308 0.6139
0.7677 1.3591 0.6143
0.7183 1.3857 0.6146
0.6679 1.4104 0.6149
0.6167 1.4334 0.6152
0.5648 1.4545 0.6155
0.5121 1.4738 0.6158
0.4587 1.4911 0.6161
0.4047 1.5066 0.6163
0.3503 1.5201 0.6165
0.2954 1.5317 0.6167
0.2401 1.5413 0.6169
0.1845 1.5489 0.6171
0.1287 1.5545 0.6173
0.0726 1.5581 0.6174
0.0166 1.5598 0.6175
-0.0396 1.5594 0.6176
-0.0957 1.5570 0.6177
-0.1516 1.5527 0.6177
-0.2074 1.5463 0.6178
-0.2629 1.5380 0.6178
-0.3181 1.5276 0.6178
-0.3729 1.5154 0.6178
-0.4272 1.5011 0.6177
-0.4810 1.4849 0.6177
-0.5341 1.4669 0.6176
-0.5866 1.4469 0.6175
-0.6384 1.4251 0.6174
-0.6893 1.4014 0.6172
-0.7394 1.3759 0.6171
-0.7886 1.3487 0.6169
-0.8367 1.3197 0.6167
-0.8838 1.2890 0.6165
-2.5667 3.4692 1.7014
-2.6914 3.3767 1.7014
-2.8128 3.2798 1.7014
-2.9309 3.1787 1.7014
-3.0454 3.0735 1.7014
-3.1562 2.9642 1.7014
-3.2632 2.8511 1.7014
-3.3662 2.7342 1.7014
-3.4652 2.6137 1.7014
-3.5599 2.4896 1.7014
-3.6502 2.3623 1.7014
-3.7362 2.2317 1.7014
-3.8175 2.0980 1.7014
-3.8941 1.9615 1.7014
-3.9659 1.8223 1.7014
-4.0329 1.6804 1.7014
-4.0948 1.5362 1.7014
-4.1517 1.3897 1.7014
-4.2034 1.2412 1.7014
-4.2499 1.0908 1.7014
-4.2910 0.9387 1.7014
-4.3267 0.7850 1.7014
-4.3570 0.6301 1.7014
-4.3819 0.4740 1.7014
-3.5136 -2.3325 1.7014
-3.4314 -2.4591 1.7014
-3.3447 -2.5827 1.7014
-3.2534 -2.7032 1.7014
-3.1577 -2.8204 1.7014
-3.0578 -2.9341 1.7014
-2.9537 -3.0442 1.7014
-2.8456 -3.1505 1.7014
-2.7336 -3.2529 1.7014
-2.6178 -3.3511 1.7014
-2.4985 -3.4452 1.7014
-2.3757 -3.5349 1.7014
-2.2496 -3.6201 1.7014
-2.1205 -3.7007 1.7014
-1.9884 -3.7765 1.7014
-1.8535 -3.8475 1.7014
-1.7161 -3.9135 1.7014
-1.5762 -3.9745 1.7014
-1.4342 -4.0303 1.7014
-1.2901 -4.0809 1.7014
-1.1442 -4.1262 1.7014
-0.9967 -4.1661 1.7014
-0.8478 -4.2006 1.7014
-0.6977 -4.2296 1.7014
-0.5465 -4.2530 1.7014
-0.3946 -4.2709 1.7014
-0.2421 -4.2832 1.7014
-0.0892 -4.2899 1.7014
0.0639 -4.2909 1.7014
0.2169 -4.2863 1.7014
0.3696 -4.2761 1.7014
0.5219 -4.2602 1.7014
0.6735 -4.2388 1.7014
0.8241 -4.2117 1.7014
0.9737 -4.1792 1.7014
1.1219 -4.1412 1.7014
1.2687 -4.0977 1.7014
1.4137 -4.0489 1.7014
1.5568 -3.9949 1.7014
1.6977 -3.9356 1.7014
1.8364 -3.8711 1.7014
1.9725 -3.8017 1.7014
2.1060 -3.7273 1.7014
2.2365 -3.6481 1.7014
2.3641 -3.5641 1.7014
2.4013 -3.3540 1.6419
2.4510 -3.1774 1.5982
2.5612 -3.0860 1.5982
2.6680 -2.9907 1.5982
2.7711 -2.8916 1.5982
2.8705 -2.7889 1.5982
2.9661 -2.6826 1.5982
3.0576 -2.5730 1.5982
3.1450 -2.4602 1.5982
3.2281 -2.3444 1.5982
3.3069 -2.2257 1.5982
3.3813 -2.1043 1.5982
3.4512 -1.9804 1.5982
3.5165 -1.8541 1.5982
3.5770 -1.7256 1.5982
3.6329 -1.5951 1.5982
3.6839 -1.4628 1.5982
3.7300 -1.3288 1.5982
3.7712 -1.1934 1.5982
3.8075 -1.0566 1.5982
3.8388 -0.9188 1.5982
3.8650 -0.7801 1.5982
3.8862 -0.6407 1.5982
3.9023 -0.5007 1.5982
3.9134 -0.3603 1.5982
3.9194 -0.2198 1.5982
3.9204 -0.0792 1.5982
3.9163 0.0611 1.5982
3.9072 0.2010 1.5982
3.8931 0.3405 1.5982
3.8740 0.4791 1.5982
3.8500 0.6169 1.5982
3.8211 0.7536 1.5982
3.7874 0.8890 1.5982
3.7489 1.0231 1.5982
3.7057 1.1555 1.5982
3.6579 1.2862 1.5982
3.6054 1.4150 1.5982
3.5485 1.5417 1.5982
