ply
format ascii 1.0
element vertex 2174
property float32 x
property float32 y
property float32 z
end_header
-7.9673 -2.3173 0.9060
-5.0868 -1.6784 0.5858
-5.2425 -1.9397 0.6125
-5.1983 -2.1370 0.6173
-6.3808 -2.8932 0.7715
-6.4910 -3.2270 0.8007
-5.1918 -3.1779 0.8175
-5.1722 -3.4251 0.8361
-5.3281 -3.8083 0.8860
-9.4369 -7.2669 1.6178
-9.1327 -7.5662 1.6178
-8.8171 -7.8513 1.6178
-8.1361 -7.7823 1.5502
-8.1553 -8.3775 1.6178
-8.3091 -9.1679 1.7211
-7.9338 -9.4072 1.7211
-7.5507 -9.6299 1.7211
-7.1608 -9.8359 1.7211
-6.7649 -10.0249 1.7211
-6.3638 -10.1970 1.7211
-5.9583 -10.3521 1.7211
-5.5493 -10.4903 1.7211
-5.1375 -10.6116 1.7211
-4.7238 -10.7161 1.7211
-4.3088 -10.8041 1.7211
-3.8934 -10.8756 1.7211
-3.4783 -10.9309 1.7211
-3.0640 -10.9702 1.7211
-2.6513 -10.9938 1.7211
-2.2407 -11.0020 1.7211
-1.8329 -10.9950 1.7211
-1.4285 -10.9733 1.7211
-1.0279 -10.9371 1.7211
-0.6317 -10.8868 1.7211
-0.2404 -10.8228 1.7211
0.1456 -10.7455 1.7211
0.5259 -10.6552 1.7211
0.9000 -10.5523 1.7211
1.2677 -10.4374 1.7211
1.6285 -10.3106 1.7211
1.9822 -10.1726 1.7211
2.3284 -10.0236 1.7211
2.6669 -9.8641 1.7211
2.9974 -9.6945 1.7211
3.3197 -9.5151 1.7211
3.6336 -9.3265 1.7211
3.9389 -9.1289 1.7211
4.2355 -8.9228 1.7211
4.5231 -8.7086 1.7211
4.8017 -8.4866 1.7211
5.0711 -8.2572 1.7211
5.3312 -8.0207 1.7211
5.5820 -7.7776 1.7211
5.8233 -7.5282 1.7211
6.0551 -7.2728 1.7211
6.2772 -7.0117 1.7211
6.4898 -6.7453 1.7211
6.6927 -6.4739 1.7211
6.8858 -6.1979 1.7211
7.0692 -5.9175 1.7211
7.2429 -5.6330 1.7211
7.4069 -5.3447 1.7211
7.5610 -5.0529 1.7211
7.7054 -4.7579 1.7211
7.8400 -4.4599 1.7211
7.9649 -4.1593 1.7211
8.0801 -3.8562 1.7211
8.1855 -3.5509 1.7211
8.2812 -3.2437 1.7211
8.3672 -2.9348 1.7211
8.1720 -2.5400 1.6657
8.0005 -2.1743 1.6180
8.0542 -1.8804 1.6180
8.0989 -1.5859 1.6180
8.1346 -1.2907 1.6180
8.1613 -0.9953 1.6180
8.1791 -0.6998 1.6180
8.1880 -0.4043 1.6180
8.1880 -0.1091 1.6180
8.1792 0.1856 1.6180
8.1616 0.4797 1.6180
8.1351 0.7729 1.6180
8.0999 1.0651 1.6180
8.0560 1.3560 1.6180
8.0034 1.6455 1.6180
7.9421 1.9334 1.6180
7.8722 2.2195 1.6180
7.7936 2.5036 1.6180
7.7065 2.7855 1.6180
7.6109 3.0650 1.6180
7.5067 3.3420 1.6180
7.3940 3.6162 1.6180
7.2729 3.8874 1.6180
7.1434 4.1555 1.6180
7.0055 4.4201 1.6180
6.8593 4.6812 1.6180
6.7048 4.9385 1.6180
6.5420 5.1919 1.6180
6.3711 5.4409 1.6180
6.1920 5.6856 1.6180
6.0048 5.9256 1.6180
5.8095 6.1607 1.6180
5.6063 6.3906 1.6180
5.3951 6.6153 1.6180
5.1761 6.8343 1.6180
4.9494 7.0474 1.6180
4.7149 7.2545 1.6180
4.4729 7.4552 1.6180
4.2234 7.6492 1.6180
3.9665 7.8364 1.6180
3.7023 8.0165 1.6180
3.4309 8.1891 1.6180
3.1526 8.3541 1.6180
2.0375 6.0477 1.1497
1.8325 6.1614 1.1512
2.2771 8.7998 1.6180
1.9722 8.9310 1.6180
1.6613 9.0531 1.6180
1.3443 9.1658 1.6180
1.0217 9.2687 1.6180
0.6935 9.3615 1.6180
0.3602 9.4441 1.6180
0.0218 9.5159 1.6180
-0.3211 9.5769 1.6180
-0.6685 9.6266 1.6180
-1.0198 9.6647 1.6180
-1.4344 10.1108 1.6880
-1.8436 10.3237 1.7211
-2.2278 10.3256 1.7211
-2.6146 10.3141 1.7211
-3.0037 10.2889 1.7211
-3.3944 10.2498 1.7211
-3.7863 10.1963 1.7211
-4.1788 10.1284 1.7211
-4.5714 10.0458 1.7211
-4.9635 9.9484 1.7211
-5.3544 9.8359 1.7211
-5.7437 9.7082 1.7211
-6.1305 9.5652 1.7211
-6.5142 9.4067 1.7211
-6.8942 9.2328 1.7211
-7.2697 9.0434 1.7211
-7.6400 8.8384 1.7211
-8.0043 8.6180 1.7211
-8.3619 8.3822 1.7211
-8.7121 8.1312 1.7211
-9.0540 7.8650 1.7211
-9.3868 7.5839 1.7211
-9.1273 6.8509 1.6178
-9.4209 6.5594 1.6178
-9.7038 6.2547 1.6178
-9.9753 5.9372 1.6178
-10.2346 5.6073 1.6178
-10.4811 5.2655 1.6178
-9.6933 4.4443 1.4637
-10.0315 4.1733 1.4845
-9.8643 3.6970 1.4330
-9.8832 3.3074 1.4119
-10.0136 2.9586 1.4091
-10.1586 2.6117 1.4104
-10.7717 2.3635 1.4780
-10.4195 1.8998 1.4151
-10.0938 1.4709 1.3592
-9.7909 1.0721 1.3092
-9.5078 0.6994 1.2645
-9.2420 0.3494 1.2244
-8.9789 0.0193 1.1869
-8.8137 -0.2953 1.1642
-8.6849 -0.6013 1.1483
-8.7601 -0.9211 1.1611
-8.2346 -1.1638 1.0959
-8.1233 -1.4449 1.0873
-8.1173 -1.7443 1.0945
-8.3489 -2.1079 1.1359
-7.9375 -2.3078 1.0915
-5.0598 -1.6688 0.7044
-5.2425 -1.9388 0.7402
-5.2011 -2.1371 0.7461
-8.5341 -3.8675 1.2459
-5.5709 -2.7680 0.8293
-5.2776 -3.2283 0.9732
-5.2546 -3.4774 0.9941
-8.3171 -5.9405 1.6178
-8.0722 -6.2114 1.6178
-7.8169 -6.4711 1.6178
-7.5519 -6.7192 1.6178
-7.2778 -6.9554 1.6178
-6.9952 -7.1793 1.6178
-7.1326 -7.8624 1.7211
-6.8159 -8.0737 1.7211
-6.4922 -8.2713 1.7211
-6.1622 -8.4549 1.7211
-5.8267 -8.6244 1.7211
-5.4862 -8.7798 1.7211
-5.1415 -8.9210 1.7211
-4.7932 -9.0479 1.7211
-4.4420 -9.1606 1.7211
-4.0885 -9.2591 1.7211
-3.7333 -9.3435 1.7211
-3.3771 -9.4140 1.7211
-3.0205 -9.4705 1.7211
-2.6640 -9.5133 1.7211
-2.3083 -9.5426 1.7211
-1.9537 -9.5585 1.7211
-1.6009 -9.5613 1.7211
-1.2503 -9.5512 1.7211
-0.9025 -9.5285 1.7211
-0.5579 -9.4934 1.7211
-0.2168 -9.4462 1.7211
0.1202 -9.3873 1.7211
0.4529 -9.3168 1.7211
0.7807 -9.2351 1.7211
1.1035 -9.1425 1.7211
1.4208 -9.0394 1.7211
1.7323 -8.9260 1.7211
2.0379 -8.8027 1.7211
2.3371 -8.6699 1.7211
2.6297 -8.5278 1.7211
2.9156 -8.3768 1.7211
3.1945 -8.2172 1.7211
3.4662 -8.0493 1.7211
3.7305 -7.8736 1.7211
3.9873 -7.6902 1.7211
4.2363 -7.4996 1.7211
4.4776 -7.3020 1.7211
4.7108 -7.0978 1.7211
4.9360 -6.8873 1.7211
5.1530 -6.6708 1.7211
5.3618 -6.4485 1.7211
5.5622 -6.2209 1.7211
5.7541 -5.9881 1.7211
5.9376 -5.7505 1.7211
6.1125 -5.5083 1.7211
6.2789 -5.2619 1.7211
6.4366 -5.0115 1.7211
6.5856 -4.7574 1.7211
6.7259 -4.4998 1.7211
6.8575 -4.2390 1.7211
6.9804 -3.9753 1.7211
7.0946 -3.7088 1.7211
7.2000 -3.4399 1.7211
7.2966 -3.1688 1.7211
7.3845 -2.8957 1.7211
7.4636 -2.6208 1.7211
7.5340 -2.3444 1.7211
7.5956 -2.0668 1.7211
7.5879 -1.7738 1.7074
7.3331 -1.4378 1.6406
7.2653 -1.1545 1.6180
7.2905 -0.8906 1.6180
7.3076 -0.6265 1.6180
7.3166 -0.3624 1.6180
7.3174 -0.0984 1.6180
7.3102 0.1652 1.6180
7.2949 0.4282 1.6180
7.2716 0.6905 1.6180
7.2404 0.9519 1.6180
7.2011 1.2122 1.6180
7.1539 1.4711 1.6180
7.0988 1.7286 1.6180
7.0358 1.9844 1.6180
6.9650 2.2383 1.6180
6.8863 2.4901 1.6180
6.7999 2.7398 1.6180
6.7057 2.9870 1.6180
6.6038 3.2315 1.6180
6.4943 3.4733 1.6180
6.3772 3.7120 1.6180
6.2525 3.9476 1.6180
6.1202 4.1797 1.6180
5.9805 4.4083 1.6180
5.8334 4.6330 1.6180
5.6790 4.8537 1.6180
5.5172 5.0703 1.6180
5.3482 5.2824 1.6180
5.1721 5.4898 1.6180
4.9889 5.6924 1.6180
4.7986 5.8900 1.6180
4.6015 6.0822 1.6180
4.3976 6.2689 1.6180
4.1869 6.4499 1.6180
3.9696 6.6249 1.6180
3.7457 6.7937 1.6180
3.5155 6.9561 1.6180
3.2791 7.1118 1.6180
3.0365 7.2606 1.6180
2.7879 7.4023 1.6180
2.0280 6.0327 1.2951
0.9018 3.0397 0.6418
0.7923 3.0708 0.6385
0.6818 3.0979 0.6351
0.5705 3.1212 0.6317
0.4583 3.1404 0.6282
0.3455 3.1557 0.6247
0.2323 3.1670 0.6212
0.1187 3.1742 0.6177
0.0049 3.1774 0.6141
-0.1089 3.1765 0.6105
-0.2226 3.1716 0.6070
-0.3361 3.1627 0.6034
-0.4493 3.1497 0.5998
-0.5619 3.1328 0.5962
-0.6738 3.1118 0.5926
-0.7850 3.0869 0.5890
-0.8952 3.0580 0.5855
-2.9702 8.9469 1.7211
-3.3094 8.8921 1.7211
-3.6484 8.8248 1.7211
-3.9869 8.7448 1.7211
-4.3243 8.6519 1.7211
-4.6601 8.5461 1.7211
-4.9938 8.4273 1.7211
-5.3247 8.2955 1.7211
-5.6524 8.1505 1.7211
-5.9762 7.9924 1.7211
-6.2956 7.8213 1.7211
-6.6100 7.6371 1.7211
-6.9187 7.4399 1.7211
-7.2211 7.2299 1.7211
-7.5166 7.0071 1.7211
-7.8046 6.7719 1.7211
-8.0844 6.5243 1.7211
-8.3554 6.2646 1.7211
-8.1264 5.6518 1.6230
-8.3366 5.3676 1.6178
-8.5631 5.0912 1.6178
-8.7791 4.8047 1.6178
-8.9839 4.5085 1.6178
-9.1771 4.2031 1.6178
-9.3582 3.8889 1.6178
-9.5265 3.5665 1.6178
-9.6818 3.2363 1.6178
-9.8235 2.8990 1.6178
-9.6701 2.4830 1.5721
-9.9227 2.1744 1.5950
-10.1632 1.8505 1.6178
-10.0919 1.4684 1.5933
-9.7893 1.0700 1.5353
-9.5065 0.6977 1.4834
-9.2410 0.3480 1.4368
-8.9905 0.0183 1.3950
-8.7533 -0.2940 1.3576
-8.5182 -0.5903 1.3225
-8.2795 -0.8709 1.2887
-8.0631 -1.1396 1.2603
-7.9009 -1.4053 1.2420
-7.8068 -1.6773 1.2362
-7.7546 -1.9573 1.2389
-7.7342 -2.2479 1.2486
-5.0599 -1.6681 0.8269
-5.0667 -1.8729 0.8395
-5.0588 -2.0776 0.8513
-8.5014 -3.8507 1.4556
-5.6849 -2.8231 0.9921
-5.3534 -3.2726 1.1323
-5.3642 -3.5475 1.1636
-7.2569 -5.1796 1.6178
-7.0464 -5.4181 1.6178
-6.8269 -5.6472 1.6178
-6.5989 -5.8665 1.6178
-6.3628 -6.0757 1.6178
-6.1192 -6.2746 1.6178
-5.8685 -6.4629 1.6178
-5.9696 -7.0641 1.7211
-5.6897 -7.2412 1.7211
-5.4041 -7.4065 1.7211
-5.1134 -7.5597 1.7211
-4.8180 -7.7007 1.7211
-4.5186 -7.8297 1.7211
-4.2157 -7.9463 1.7211
-3.9099 -8.0507 1.7211
-3.6017 -8.1429 1.7211
-3.2917 -8.2228 1.7211
-2.9803 -8.2905 1.7211
-2.6681 -8.3462 1.7211
-2.3557 -8.3899 1.7211
-2.0433 -8.4217 1.7211
-1.7317 -8.4418 1.7211
-1.4211 -8.4503 1.7211
-1.1121 -8.4475 1.7211
-0.8050 -8.4334 1.7211
-0.5003 -8.4084 1.7211
-0.1984 -8.3725 1.7211
0.1004 -8.3261 1.7211
0.3957 -8.2694 1.7211
0.6872 -8.2026 1.7211
0.9746 -8.1260 1.7211
1.2575 -8.0399 1.7211
1.5356 -7.9444 1.7211
1.8087 -7.8399 1.7211
2.0766 -7.7267 1.7211
2.3389 -7.6050 1.7211
2.5955 -7.4751 1.7211
2.8462 -7.3373 1.7211
3.0907 -7.1918 1.7211
3.3288 -7.0390 1.7211
3.5605 -6.8792 1.7211
3.7855 -6.7125 1.7211
4.0036 -6.5394 1.7211
4.2148 -6.3600 1.7211
4.4190 -6.1747 1.7211
4.6159 -5.9837 1.7211
4.8056 -5.7872 1.7211
4.9879 -5.5857 1.7211
5.1627 -5.3793 1.7211
5.3299 -5.1682 1.7211
5.4895 -4.9528 1.7211
5.6415 -4.7333 1.7211
5.7857 -4.5099 1.7211
5.9221 -4.2829 1.7211
6.0507 -4.0526 1.7211
6.1715 -3.8191 1.7211
6.2843 -3.5828 1.7211
6.3893 -3.3438 1.7211
6.4863 -3.1023 1.7211
6.5753 -2.8587 1.7211
6.6564 -2.6131 1.7211
6.7295 -2.3658 1.7211
6.7946 -2.1169 1.7211
6.8518 -1.8667 1.7211
6.9009 -1.6153 1.7211
6.9421 -1.3631 1.7211
6.9753 -1.1101 1.7211
6.8824 -0.8422 1.6920
6.6794 -0.5739 1.6380
6.6064 -0.3283 1.6180
6.6078 -0.0897 1.6180
6.6018 0.1485 1.6180
6.5884 0.3863 1.6180
6.5676 0.6234 1.6180
6.5394 0.8596 1.6180
6.5040 1.0949 1.6180
6.4612 1.3289 1.6180
6.4112 1.5616 1.6180
6.3539 1.7927 1.6180
6.2895 2.0220 1.6180
6.2178 2.2494 1.6180
6.1391 2.4748 1.6180
6.0532 2.6978 1.6180
5.9604 2.9183 1.6180
5.8605 3.1362 1.6180
5.7537 3.3512 1.6180
5.6399 3.5632 1.6180
5.5194 3.7720 1.6180
5.3920 3.9774 1.6180
5.2580 4.1792 1.6180
5.1172 4.3772 1.6180
4.9699 4.5712 1.6180
4.8161 4.7610 1.6180
4.6558 4.9464 1.6180
4.4892 5.1273 1.6180
4.3163 5.3034 1.6180
4.1372 5.4745 1.6180
3.9520 5.6404 1.6180
3.7609 5.8009 1.6180
3.5639 5.9558 1.6180
3.3612 6.1050 1.6180
3.1529 6.2481 1.6180
2.9390 6.3850 1.6180
2.7199 6.5154 1.6180
2.4955 6.6392 1.6180
0.8969 2.6741 0.6404
0.8005 2.7052 0.6375
0.7031 2.7328 0.6345
0.6048 2.7570 0.6315
0.5056 2.7777 0.6285
0.4058 2.7948 0.6254
0.3054 2.8084 0.6223
0.2046 2.8184 0.6192
0.1035 2.8248 0.6160
0.0023 2.8276 0.6128
-0.0990 2.8268 0.6097
-0.2002 2.8224 0.6065
-0.3013 2.8144 0.6033
-0.4019 2.8029 0.6001
-0.5022 2.7877 0.5969
-0.6018 2.7690 0.5937
-0.7007 2.7468 0.5905
-0.7987 2.7210 0.5873
-0.8959 2.6918 0.5842
-2.9378 7.8759 1.7211
-3.2359 7.8107 1.7211
-3.5330 7.7343 1.7211
-3.8288 7.6467 1.7211
-4.1227 7.5477 1.7211
-4.4142 7.4375 1.7211
-4.7030 7.3158 1.7211
-4.9885 7.1829 1.7211
-5.2703 7.0385 1.7211
-5.5477 6.8829 1.7211
-5.8204 6.7161 1.7211
-6.0877 6.5382 1.7211
-6.3493 6.3493 1.7211
-6.6044 6.1495 1.7211
-6.8528 5.9391 1.7211
-7.0937 5.7182 1.7211
-7.3267 5.4871 1.7211
-7.5513 5.2461 1.7211
-7.4747 4.8074 1.6563
-7.4949 4.4512 1.6178
-7.6795 4.1983 1.6178
-7.8543 3.9373 1.6178
-8.0190 3.6686 1.6178
-8.1730 3.3927 1.6178
-8.3161 3.1098 1.6178
-8.4478 2.8206 1.6178
-8.5678 2.5255 1.6178
-8.6758 2.2250 1.6178
-8.7714 1.9196 1.6178
-8.8544 1.6099 1.6178
-8.9245 1.2965 1.6178
-8.9816 0.9800 1.6178
-9.0254 0.6608 1.6178
-9.0558 0.3398 1.6178
-8.9897 0.0172 1.6030
-8.7527 -0.2948 1.5602
-8.5178 -0.5908 1.5200
-8.2793 -0.8712 1.4814
-8.0631 -1.1397 1.4487
-7.9009 -1.4051 1.4277
-7.8069 -1.6769 1.4210
-7.7547 -1.9567 1.4240
-7.7342 -2.2471 1.4350
-5.0599 -1.6675 0.9502
-5.0667 -1.8721 0.9645
-5.0588 -2.0766 0.9779
-8.2283 -3.7250 1.6178
-5.8567 -2.9067 1.1733
-5.4932 -3.3558 1.3120
-5.7634 -3.8088 1.4113
-6.4308 -4.5867 1.6178
-6.2466 -4.7994 1.6178
-6.0543 -5.0041 1.6178
-5.8545 -5.2004 1.6178
-5.6474 -5.3880 1.6178
-5.4337 -5.5666 1.6178
-5.2136 -5.7361 1.6178
-5.3059 -6.2725 1.7211
-5.0598 -6.4327 1.7211
-4.8084 -6.5826 1.7211
-4.5523 -6.7220 1.7211
-4.2918 -6.8509 1.7211
-4.0275 -6.9692 1.7211
-3.7599 -7.0767 1.7211
-3.4894 -7.1735 1.7211
-3.2166 -7.2595 1.7211
-2.9418 -7.3348 1.7211
-2.6655 -7.3993 1.7211
-2.3882 -7.4532 1.7211
-2.1104 -7.4964 1.7211
-1.8324 -7.5291 1.7211
-1.5546 -7.5514 1.7211
-1.2775 -7.5633 1.7211
-1.0015 -7.5651 1.7211
-0.7270 -7.5568 1.7211
-0.4542 -7.5387 1.7211
-0.1836 -7.5109 1.7211
0.0845 -7.4735 1.7211
0.3498 -7.4268 1.7211
0.6119 -7.3709 1.7211
0.8706 -7.3062 1.7211
1.1256 -7.2327 1.7211
1.3765 -7.1507 1.7211
1.6233 -7.0605 1.7211
1.8655 -6.9622 1.7211
2.1030 -6.8561 1.7211
2.3355 -6.7425 1.7211
2.5629 -6.6216 1.7211
2.7849 -6.4936 1.7211
3.0014 -6.3588 1.7211
3.2122 -6.2174 1.7211
3.4172 -6.0696 1.7211
3.6161 -5.9158 1.7211
3.8089 -5.7561 1.7211
3.9954 -5.5908 1.7211
4.1755 -5.4202 1.7211
4.3491 -5.2445 1.7211
4.5161 -5.0639 1.7211
4.6763 -4.8787 1.7211
4.8298 -4.6890 1.7211
4.9765 -4.4952 1.7211
5.1162 -4.2975 1.7211
5.2489 -4.0961 1.7211
5.3745 -3.8913 1.7211
5.4930 -3.6832 1.7211
5.6044 -3.4721 1.7211
5.7086 -3.2582 1.7211
5.8056 -3.0417 1.7211
5.8953 -2.8228 1.7211
5.9778 -2.6018 1.7211
6.0529 -2.3789 1.7211
6.1207 -2.1542 1.7211
6.1812 -1.9281 1.7211
6.2344 -1.7006 1.7211
6.2802 -1.4719 1.7211
6.3187 -1.2424 1.7211
6.3498 -1.0121 1.7211
6.3737 -0.7813 1.7211
6.3901 -0.5502 1.7211
6.3993 -0.3190 1.7211
6.3107 -0.0865 1.6967
6.1412 0.1375 1.6526
6.0007 0.3514 1.6180
5.9819 0.5675 1.6180
5.9564 0.7829 1.6180
5.9241 0.9973 1.6180
5.8850 1.2106 1.6180
5.8393 1.4227 1.6180
5.7868 1.6332 1.6180
5.7277 1.8422 1.6180
5.6620 2.0493 1.6180
5.5898 2.2545 1.6180
5.5110 2.4574 1.6180
5.4257 2.6581 1.6180
5.3340 2.8562 1.6180
5.2359 3.0516 1.6180
5.1315 3.2442 1.6180
5.0208 3.4337 1.6180
4.9039 3.6200 1.6180
4.7809 3.8030 1.6180
4.6518 3.9823 1.6180
4.5166 4.1578 1.6180
4.3756 4.3294 1.6180
4.2287 4.4969 1.6180
4.0760 4.6601 1.6180
3.9177 4.8187 1.6180
3.7538 4.9727 1.6180
3.5845 5.1218 1.6180
3.4097 5.2658 1.6180
3.2298 5.4046 1.6180
3.0447 5.5380 1.6180
2.8546 5.6657 1.6180
2.6596 5.7876 1.6180
2.4599 5.9035 1.6180
0.8911 2.3755 0.6392
0.8054 2.4066 0.6366
0.7186 2.4346 0.6340
0.6310 2.4595 0.6313
0.5424 2.4813 0.6286
0.4532 2.4999 0.6259
0.3633 2.5153 0.6231
0.2730 2.5275 0.6203
0.1823 2.5365 0.6175
0.0913 2.5422 0.6147
0.0001 2.5447 0.6118
-0.0910 2.5440 0.6089
-0.1822 2.5400 0.6061
-0.2731 2.5328 0.6032
-0.3637 2.5224 0.6003
-0.4539 2.5087 0.5974
-0.5435 2.4918 0.5946
-0.6325 2.4718 0.5917
-0.7208 2.4486 0.5889
-0.8082 2.4222 0.5860
-0.8946 2.3928 0.5832
-2.9055 6.9985 1.7211
-3.1700 6.9261 1.7211
-3.4329 6.8437 1.7211
-3.6939 6.7513 1.7211
-3.9525 6.6488 1.7211
-4.2084 6.5363 1.7211
-4.4610 6.4139 1.7211
-4.7100 6.2815 1.7211
-4.9549 6.1391 1.7211
-5.1953 5.9870 1.7211
-5.4307 5.8252 1.7211
-5.6607 5.6538 1.7211
-5.8849 5.4730 1.7211
-6.1028 5.2830 1.7211
-6.3140 5.0839 1.7211
-6.5180 4.8760 1.7211
-6.7144 4.6595 1.7211
-6.9028 4.4347 1.7211
-6.9613 4.1297 1.6915
-6.8187 3.7237 1.6178
-6.9709 3.4906 1.6178
-7.1141 3.2511 1.6178
-7.2479 3.0053 1.6178
-7.3720 2.7536 1.6178
-7.4861 2.4966 1.6178
-7.5899 2.2345 1.6178
-7.6831 1.9680 1.6178
-7.7656 1.6973 1.6178
-7.8370 1.4229 1.6178
-7.8972 1.1455 1.6178
-7.9461 0.8654 1.6178
-7.9833 0.5832 1.6178
-8.0090 0.2993 1.6178
-8.0228 0.0144 1.6178
-8.0249 -0.2710 1.6178
-8.0152 -0.5565 1.6178
-7.9936 -0.8414 1.6178
-7.9601 -1.1253 1.6178
-7.9010 -1.4050 1.6149
-7.8070 -1.6766 1.6073
-7.7548 -1.9562 1.6105
-7.7099 -2.2392 1.6178
-5.0599 -1.6668 1.0744
-5.0668 -1.8712 1.0905
-5.0588 -2.0755 1.1054
-7.2804 -3.2941 1.6178
-7.1466 -3.5449 1.6178
-6.0727 -3.7075 1.6178
-5.7134 -3.7732 1.5602
-5.7684 -4.1112 1.6178
-5.6048 -4.3031 1.6178
-5.4340 -4.4878 1.6178
-5.2564 -4.6652 1.6178
-5.0723 -4.8350 1.6178
-4.8821 -4.9970 1.6178
-4.6862 -5.1509 1.6178
-4.7712 -5.6346 1.7211
-4.5518 -5.7806 1.7211
-4.3276 -5.9176 1.7211
-4.0989 -6.0453 1.7211
-3.8663 -6.1637 1.7211
-3.6300 -6.2727 1.7211
-3.3906 -6.3721 1.7211
-3.1484 -6.4621 1.7211
-2.9039 -6.5424 1.7211
-2.6574 -6.6132 1.7211
-2.4094 -6.6744 1.7211
-2.1603 -6.7260 1.7211
-1.9105 -6.7681 1.7211
-1.6602 -6.8008 1.7211
-1.4100 -6.8241 1.7211
-1.1602 -6.8381 1.7211
-0.9111 -6.8429 1.7211
-0.6630 -6.8386 1.7211
-0.4164 -6.8254 1.7211
-0.1714 -6.8034 1.7211
0.0714 -6.7727 1.7211
0.3120 -6.7335 1.7211
0.5499 -6.6859 1.7211
0.7849 -6.6302 1.7211
1.0167 -6.5665 1.7211
1.2451 -6.4951 1.7211
1.4699 -6.4160 1.7211
1.6907 -6.3295 1.7211
1.9075 -6.2358 1.7211
2.1199 -6.1351 1.7211
2.3277 -6.0276 1.7211
2.5309 -5.9135 1.7211
2.7292 -5.7931 1.7211
2.9224 -5.6665 1.7211
3.1104 -5.5341 1.7211
3.2930 -5.3959 1.7211
3.4701 -5.2522 1.7211
3.6416 -5.1033 1.7211
3.8074 -4.9493 1.7211
3.9673 -4.7905 1.7211
4.1212 -4.6271 1.7211
4.2690 -4.4594 1.7211
4.4107 -4.2874 1.7211
4.5461 -4.1115 1.7211
4.6753 -3.9319 1.7211
4.7980 -3.7487 1.7211
4.9144 -3.5622 1.7211
5.0242 -3.3726 1.7211
5.1274 -3.1802 1.7211
5.2241 -2.9850 1.7211
5.3141 -2.7873 1.7211
5.3975 -2.5874 1.7211
5.4741 -2.3854 1.7211
5.5441 -2.1814 1.7211
5.6073 -1.9758 1.7211
5.6637 -1.7688 1.7211
5.7133 -1.5604 1.7211
5.7562 -1.3509 1.7211
5.7922 -1.1405 1.7211
5.8215 -0.9293 1.7211
5.8439 -0.7177 1.7211
5.8596 -0.5056 1.7211
5.8684 -0.2934 1.7211
5.8705 -0.0812 1.7211
5.8659 0.1307 1.7211
5.8545 0.3424 1.7211
5.8272 0.5525 1.7184
5.6804 0.7465 1.6822
5.5396 0.9326 1.6495
5.4144 1.1140 1.6229
5.3557 1.3052 1.6180
5.3073 1.4985 1.6180
5.2529 1.6901 1.6180
5.1922 1.8801 1.6180
5.1255 2.0683 1.6180
5.0528 2.2543 1.6180
4.9740 2.4382 1.6180
4.8894 2.6197 1.6180
4.7988 2.7987 1.6180
4.7023 2.9749 1.6180
4.6001 3.1483 1.6180
4.4922 3.3186 1.6180
4.3786 3.4857 1.6180
4.2594 3.6494 1.6180
4.1348 3.8096 1.6180
4.0046 3.9660 1.6180
3.8692 4.1185 1.6180
3.7285 4.2670 1.6180
3.5826 4.4112 1.6180
3.4316 4.5510 1.6180
3.2757 4.6862 1.6180
3.1150 4.8167 1.6180
2.9494 4.9422 1.6180
2.7793 5.0626 1.6180
2.6047 5.1778 1.6180
2.4257 5.2876 1.6180
0.8844 2.1264 0.6381
0.8076 2.1574 0.6358
0.7298 2.1856 0.6335
0.6510 2.2111 0.6311
0.5713 2.2337 0.6287
0.4909 2.2534 0.6262
0.4099 2.2703 0.6237
0.3283 2.2843 0.6212
0.2462 2.2954 0.6187
0.1638 2.3035 0.6161
0.0811 2.3088 0.6135
-0.0016 2.3110 0.6109
-0.0845 2.3104 0.6083
-0.1672 2.3067 0.6057
-0.2498 2.3001 0.6031
-0.3321 2.2906 0.6005
-0.4140 2.2782 0.5979
-0.4954 2.2628 0.5953
-0.5762 2.2446 0.5927
-0.6564 2.2235 0.5901
-0.7357 2.1995 0.5875
-0.8142 2.1728 0.5850
-0.8916 2.1432 0.5824
-2.8727 6.2644 1.7211
-3.1091 6.1869 1.7211
-3.3436 6.1005 1.7211
-3.5756 6.0051 1.7211
-3.8050 5.9008 1.7211
-4.0313 5.7875 1.7211
-4.2540 5.6654 1.7211
-4.4730 5.5345 1.7211
-4.6876 5.3949 1.7211
-4.8977 5.2468 1.7211
-5.1027 5.0902 1.7211
-5.3023 4.9253 1.7211
-5.4962 4.7522 1.7211
-5.6839 4.5712 1.7211
-5.8650 4.3825 1.7211
-6.0393 4.1862 1.7211
-6.2062 3.9827 1.7211
-6.3656 3.7722 1.7211
-6.5170 3.5549 1.7211
-6.2605 3.1314 1.6178
-6.3869 2.9155 1.6178
-6.5049 2.6942 1.6178
-6.6143 2.4678 1.6178
-6.7147 2.2367 1.6178
-6.8060 2.0014 1.6178
-6.8879 1.7621 1.6178
-6.9602 1.5192 1.6178
-7.0228 1.2733 1.6178
-7.0754 1.0246 1.6178
-7.1179 0.7738 1.6178
-7.1503 0.5211 1.6178
-7.1723 0.2670 1.6178
-7.1840 0.0120 1.6178
-7.1852 -0.2433 1.6178
-7.1761 -0.4987 1.6178
-7.1564 -0.7536 1.6178
-7.1264 -1.0075 1.6178
-7.0860 -1.2600 1.6178
-7.0353 -1.5106 1.6178
-6.9744 -1.7588 1.6178
-6.9035 -2.0043 1.6178
-5.0599 -1.6661 1.1998
-5.0668 -1.8704 1.2176
-5.0589 -2.0745 1.2341
-6.5222 -2.9495 1.6178
-6.4036 -3.1745 1.6178
-5.4981 -3.3544 1.6178
-5.3651 -3.5407 1.6178
-5.2249 -3.7212 1.6178
-5.0780 -3.8956 1.6178
-4.9245 -4.0638 1.6178
-4.7649 -4.2255 1.6178
-4.5994 -4.3804 1.6178
-4.4283 -4.5283 1.6178
-4.4873 -4.9275 1.7073
-4.3306 -5.1090 1.7211
-4.1330 -5.2431 1.7211
-3.9309 -5.3690 1.7211
-3.7246 -5.4866 1.7211
-3.5147 -5.5959 1.7211
-3.3013 -5.6968 1.7211
-3.0850 -5.7891 1.7211
-2.8660 -5.8729 1.7211
-2.6447 -5.9481 1.7211
-2.4216 -6.0147 1.7211
-2.1969 -6.0726 1.7211
-1.9710 -6.1219 1.7211
-1.7442 -6.1626 1.7211
-1.5170 -6.1947 1.7211
-1.2896 -6.2183 1.7211
-1.0623 -6.2335 1.7211
-0.8356 -6.2403 1.7211
-0.6096 -6.2389 1.7211
-0.3847 -6.2292 1.7211
-0.1613 -6.2116 1.7211
0.0605 -6.1860 1.7211
0.2803 -6.1526 1.7211
0.4978 -6.1115 1.7211
0.7129 -6.0629 1.7211
0.9253 -6.0069 1.7211
1.1347 -5.9438 1.7211
1.3408 -5.8736 1.7211
1.5436 -5.7966 1.7211
1.7427 -5.7129 1.7211
1.9380 -5.6227 1.7211
2.1293 -5.5261 1.7211
2.3163 -5.4235 1.7211
2.4990 -5.3149 1.7211
2.6772 -5.2005 1.7211
2.8506 -5.0806 1.7211
3.0193 -4.9554 1.7211
3.1830 -4.8250 1.7211
3.3415 -4.6897 1.7211
3.4949 -4.5496 1.7211
3.6429 -4.4049 1.7211
3.7855 -4.2559 1.7211
3.9226 -4.1028 1.7211
4.0540 -3.9456 1.7211
4.1797 -3.7848 1.7211
4.2997 -3.6203 1.7211
4.4138 -3.4525 1.7211
4.5219 -3.2816 1.7211
4.6241 -3.1077 1.7211
4.7202 -2.9310 1.7211
4.8103 -2.7517 1.7211
4.8942 -2.5700 1.7211
4.9720 -2.3861 1.7211
5.0435 -2.2003 1.7211
5.1089 -2.0125 1.7211
5.1679 -1.8232 1.7211
5.2207 -1.6324 1.7211
5.2672 -1.4404 1.7211
5.3074 -1.2472 1.7211
5.3412 -1.0532 1.7211
5.3688 -0.8584 1.7211
5.3900 -0.6631 1.7211
5.4049 -0.4674 1.7211
5.4134 -0.2715 1.7211
5.4156 -0.0757 1.7211
5.4116 0.1201 1.7211
5.4012 0.3154 1.7211
5.3846 0.5103 1.7211
5.3617 0.7045 1.7211
5.3326 0.8978 1.7211
5.2973 1.0901 1.7211
5.2558 1.2813 1.7211
5.1456 1.4533 1.7004
5.0219 1.6165 1.6768
4.9012 1.7756 1.6557
4.7834 1.9312 1.6371
4.6760 2.0874 1.6235
4.5870 2.2498 1.6180
4.5084 2.4171 1.6180
4.4243 2.5820 1.6180
4.3349 2.7443 1.6180
4.2400 2.9039 1.6180
4.1398 3.0606 1.6180
4.0345 3.2143 1.6180
3.9239 3.3647 1.6180
3.8083 3.5118 1.6180
3.6877 3.6554 1.6180
3.5621 3.7953 1.6180
3.4317 3.9313 1.6180
3.2966 4.0634 1.6180
3.1568 4.1913 1.6180
3.0125 4.3148 1.6180
2.8770 4.4544 1.6254
2.7481 4.6112 1.6403
2.6202 4.7798 1.6603
2.4881 4.9540 1.6829
0.8769 1.9148 0.6372
0.8077 1.9456 0.6351
0.7374 1.9740 0.6330
0.6662 1.9998 0.6308
0.5941 2.0231 0.6287
0.5212 2.0438 0.6264
0.4476 2.0619 0.6242
0.3734 2.0773 0.6219
0.2987 2.0901 0.6196
0.2237 2.1002 0.6173
0.1483 2.1077 0.6150
0.0726 2.1124 0.6126
-0.0031 2.1145 0.6102
-0.0789 2.1139 0.6078
-0.1546 2.1105 0.6055
-0.2302 2.1045 0.6031
-0.3055 2.0958 0.6007
-0.3804 2.0844 0.5983
-0.4549 2.0703 0.5959
-0.5289 2.0536 0.5935
-0.6022 2.0343 0.5912
-0.6748 2.0123 0.5888
-0.7466 1.9878 0.5865
-0.8175 1.9607 0.5842
-0.8873 1.9312 0.5819
-2.8391 5.6392 1.7211
-3.0517 5.5583 1.7211
-3.2619 5.4692 1.7211
-3.4695 5.3721 1.7211
-3.6741 5.2669 1.7211
-3.8754 5.1539 1.7211
-4.0731 5.0329 1.7211
-4.2668 4.9041 1.7211
-4.4562 4.7676 1.7211
-4.6408 4.6236 1.7211
-4.8205 4.4722 1.7211
-4.9949 4.3136 1.7211
-5.1635 4.1478 1.7211
-5.3262 3.9752 1.7211
-5.4825 3.7959 1.7211
-5.6322 3.6102 1.7211
-5.7750 3.4183 1.7211
-5.9105 3.2205 1.7211
-6.0385 3.0170 1.7211
-5.8639 2.6737 1.6387
-5.8946 2.4386 1.6178
-5.9922 2.2331 1.6178
-6.0817 2.0235 1.6178
-6.1631 1.8101 1.6178
-6.2359 1.5932 1.6178
-6.3002 1.3733 1.6178
-6.3557 1.1507 1.6178
-6.4023 0.9257 1.6178
-6.4399 0.6987 1.6178
-6.4684 0.4702 1.6178
-6.4876 0.2406 1.6178
-6.4976 0.0101 1.6178
-6.4983 -0.2207 1.6178
-6.4897 -0.4514 1.6178
-6.4718 -0.6817 1.6178
-6.4445 -0.9112 1.6178
-6.4080 -1.1393 1.6178
-6.3623 -1.3658 1.6178
-6.3076 -1.5902 1.6178
-6.2438 -1.8121 1.6178
-5.0600 -1.6654 1.3265
-5.0668 -1.8695 1.3461
-5.0589 -2.0735 1.3641
-5.9015 -2.6673 1.6178
-5.7950 -2.8711 1.6178
-5.0181 -3.0595 1.6178
-4.8975 -3.2298 1.6178
-4.7705 -3.3950 1.6178
-4.6374 -3.5548 1.6178
-4.4982 -3.7090 1.6178
-4.3535 -3.8573 1.6178
-4.2033 -3.9996 1.6178
-4.2945 -4.3873 1.7163
-4.1361 -4.5374 1.7211
-3.9610 -4.6682 1.7211
-3.7814 -4.7919 1.7211
-3.5977 -4.9082 1.7211
-3.4101 -5.0171 1.7211
-3.2191 -5.1185 1.7211
-3.0248 -5.2123 1.7211
-2.8277 -5.2983 1.7211
-2.6281 -5.3766 1.7211
-2.4263 -5.4471 1.7211
-2.2226 -5.5097 1.7211
-2.0174 -5.5646 1.7211
-1.8110 -5.6115 1.7211
-1.6037 -5.6506 1.7211
-1.3958 -5.6819 1.7211
-1.1876 -5.7055 1.7211
-0.9794 -5.7213 1.7211
-0.7716 -5.7294 1.7211
-0.5643 -5.7300 1.7211
-0.3579 -5.7231 1.7211
-0.1527 -5.7087 1.7211
0.0512 -5.6871 1.7211
0.2533 -5.6582 1.7211
0.4535 -5.6223 1.7211
0.6516 -5.5795 1.7211
0.8473 -5.5298 1.7211
1.0404 -5.4734 1.7211
1.2306 -5.4105 1.7211
1.4178 -5.3413 1.7211
1.6018 -5.2658 1.7211
1.7823 -5.1842 1.7211
1.9593 -5.0968 1.7211
2.1325 -5.0036 1.7211
2.3017 -4.9049 1.7211
2.4668 -4.8008 1.7211
2.6277 -4.6914 1.7211
2.7842 -4.5771 1.7211
2.9361 -4.4579 1.7211
3.0835 -4.3340 1.7211
3.2260 -4.2056 1.7211
3.3637 -4.0730 1.7211
3.4964 -3.9362 1.7211
3.6240 -3.7954 1.7211
3.7465 -3.6510 1.7211
3.8637 -3.5029 1.7211
3.9755 -3.3515 1.7211
4.0820 -3.1968 1.7211
4.1829 -3.0392 1.7211
4.2784 -2.8787 1.7211
4.3682 -2.7155 1.7211
4.4524 -2.5499 1.7211
4.5310 -2.3820 1.7211
4.6037 -2.2120 1.7211
4.6708 -2.0400 1.7211
4.7320 -1.8663 1.7211
4.7874 -1.6910 1.7211
4.8369 -1.5143 1.7211
4.8806 -1.3363 1.7211
4.9184 -1.1574 1.7211
4.9502 -0.9775 1.7211
4.9762 -0.7969 1.7211
4.9963 -0.6158 1.7211
5.0104 -0.4343 1.7211
5.0186 -0.2526 1.7211
5.0210 -0.0708 1.7211
5.0174 0.1108 1.7211
5.0080 0.2921 1.7211
4.9926 0.4729 1.7211
4.9715 0.6531 1.7211
4.9445 0.8325 1.7211
4.9116 1.0110 1.7211
4.8731 1.1883 1.7211
4.8287 1.3643 1.7211
4.7787 1.5389 1.7211
4.7230 1.7118 1.7211
4.6617 1.8830 1.7211
4.5948 2.0523 1.7211
4.5223 2.2194 1.7211
4.4405 2.3822 1.7195
4.3295 2.5283 1.7086
4.2195 2.6731 1.6998
4.1102 2.8171 1.6930
4.0013 2.9605 1.6883
3.8925 3.1037 1.6855
3.7835 3.2471 1.6848
3.6741 3.3912 1.6861
3.5640 3.5362 1.6894
3.4529 3.6825 1.6947
3.3404 3.8306 1.7022
3.2262 3.9810 1.7118
3.1054 4.1278 1.7211
2.9627 4.2486 1.7211
2.8156 4.3650 1.7211
2.6643 4.4768 1.7211
2.5089 4.5837 1.7211
0.8686 1.7323 0.6363
0.8060 1.7629 0.6344
0.7422 1.7913 0.6325
0.6775 1.8174 0.6306
0.6119 1.8412 0.6286
0.5455 1.8626 0.6266
0.4784 1.8817 0.6245
0.4106 1.8983 0.6225
0.3423 1.9126 0.6204
0.2736 1.9243 0.6183
0.2044 1.9337 0.6161
0.1350 1.9405 0.6140
0.0654 1.9449 0.6118
-0.0044 1.9468 0.6096
-0.0742 1.9462 0.6074
-0.1439 1.9431 0.6052
-0.2135 1.9375 0.6030
-0.2828 1.9295 0.6008
-0.3518 1.9190 0.5986
-0.4204 1.9060 0.5964
-0.4885 1.8906 0.5942
-0.5560 1.8728 0.5921
-0.6229 1.8526 0.5899
-0.6889 1.8300 0.5877
-0.7542 1.8050 0.5856
-0.8185 1.7778 0.5835
-0.8818 1.7483 0.5814
-2.8045 5.0991 1.7211
-2.9964 5.0158 1.7211
-3.1858 4.9251 1.7211
-3.3724 4.8271 1.7211
-3.5558 4.7219 1.7211
-3.7357 4.6096 1.7211
-3.9119 4.4902 1.7211
-4.0841 4.3639 1.7211
-4.2519 4.2308 1.7211
-4.4150 4.0910 1.7211
-4.5732 3.9447 1.7211
-4.7262 3.7920 1.7211
-4.8736 3.6332 1.7211
-5.0151 3.4683 1.7211
-5.1506 3.2977 1.7211
-5.2797 3.1216 1.7211
-5.4022 2.9402 1.7211
-5.5178 2.7537 1.7211
-5.6263 2.5625 1.7211
-5.5988 2.3136 1.6824
-5.4718 2.0368 1.6178
-5.5525 1.8452 1.6178
-5.6256 1.6502 1.6178
-5.6912 1.4522 1.6178
-5.7489 1.2514 1.6178
-5.7987 1.0483 1.6178
-5.8405 0.8431 1.6178
-5.8741 0.6361 1.6178
-5.8994 0.4278 1.6178
-5.9165 0.2185 1.6178
-5.9252 0.0085 1.6178
-5.9255 -0.2018 1.6178
-5.9174 -0.4120 1.6178
-5.9009 -0.6218 1.6178
-5.8760 -0.8308 1.6178
-5.8427 -1.0387 1.6178
-5.8012 -1.2451 1.6178
-5.7515 -1.4495 1.6178
-5.6936 -1.6518 1.6178
-5.0600 -1.6647 1.4546
-5.5540 -2.0483 1.6178
-5.4725 -2.2418 1.6178
-5.3835 -2.4318 1.6178
-5.2870 -2.6179 1.6178
-4.6106 -2.8092 1.6178
-4.5006 -2.9659 1.6178
-4.3846 -3.1181 1.6178
-4.2630 -3.2653 1.6178
-4.1360 -3.4075 1.6178
-4.0288 -3.5665 1.6279
-4.1132 -3.9103 1.7211
-3.9622 -4.0440 1.7211
-3.8065 -4.1716 1.7211
-3.6463 -4.2927 1.7211
-3.4819 -4.4074 1.7211
-3.3137 -4.5154 1.7211
-3.1419 -4.6167 1.7211
-2.9668 -4.7111 1.7211
-2.7887 -4.7986 1.7211
-2.6079 -4.8790 1.7211
-2.4247 -4.9524 1.7211
-2.2394 -5.0186 1.7211
-2.0523 -5.0777 1.7211
-1.8637 -5.1295 1.7211
-1.6739 -5.1742 1.7211
-1.4832 -5.2117 1.7211
-1.2918 -5.2421 1.7211
-1.1001 -5.2653 1.7211
-0.9082 -5.2814 1.7211
-0.7166 -5.2904 1.7211
-0.5253 -5.2924 1.7211
-0.3348 -5.2875 1.7211
-0.1452 -5.2758 1.7211
0.0431 -5.2573 1.7211
0.2301 -5.2321 1.7211
0.4153 -5.2004 1.7211
0.5987 -5.1622 1.7211
0.7800 -5.1177 1.7211
0.9589 -5.0669 1.7211
1.1353 -5.0101 1.7211
1.3090 -4.9473 1.7211
1.4798 -4.8787 1.7211
1.6476 -4.8045 1.7211
1.8120 -4.7247 1.7211
1.9730 -4.6395 1.7211
2.1305 -4.5492 1.7211
2.2842 -4.4537 1.7211
2.4340 -4.3534 1.7211
2.5799 -4.2483 1.7211
2.7216 -4.1387 1.7211
2.8590 -4.0246 1.7211
2.9920 -3.9063 1.7211
3.1206 -3.7839 1.7211
3.2445 -3.6576 1.7211
3.3638 -3.5276 1.7211
3.4783 -3.3940 1.7211
3.5880 -3.2571 1.7211
3.6927 -3.1169 1.7211
3.7923 -2.9736 1.7211
3.8869 -2.8275 1.7211
3.9764 -2.6786 1.7211
4.0606 -2.5273 1.7211
4.1396 -2.3735 1.7211
4.2133 -2.2176 1.7211
4.2816 -2.0596 1.7211
4.3446 -1.8998 1.7211
4.4022 -1.7383 1.7211
4.4542 -1.5752 1.7211
4.5009 -1.4108 1.7211
4.5420 -1.2453 1.7211
4.5776 -1.0786 1.7211
4.6077 -0.9112 1.7211
4.6322 -0.7430 1.7211
4.6512 -0.5743 1.7211
4.6647 -0.4052 1.7211
4.6726 -0.2359 1.7211
4.6750 -0.0666 1.7211
4.6718 0.1026 1.7211
4.6631 0.2716 1.7211
4.6489 0.4401 1.7211
4.6293 0.6081 1.7211
4.6041 0.7753 1.7211
4.5735 0.9415 1.7211
4.5375 1.1068 1.7211
4.4961 1.2708 1.7211
4.4493 1.4334 1.7211
4.3972 1.5945 1.7211
4.3398 1.7540 1.7211
4.2772 1.9115 1.7211
4.2095 2.0671 1.7211
4.1366 2.2206 1.7211
4.0586 2.3717 1.7211
3.9755 2.5204 1.7211
3.8876 2.6665 1.7211
3.7947 2.8098 1.7211
3.6970 2.9503 1.7211
3.5946 3.0876 1.7211
3.4875 3.2217 1.7211
3.3758 3.3525 1.7211
3.2595 3.4798 1.7211
3.1389 3.6034 1.7211
3.0140 3.7232 1.7211
2.8848 3.8391 1.7211
2.7516 3.9508 1.7211
2.6143 4.0583 1.7211
2.4732 4.1615 1.7211
0.8596 1.5729 0.6354
0.8027 1.6033 0.6338
0.7446 1.6317 0.6320
0.6856 1.6580 0.6303
0.6257 1.6821 0.6285
0.5650 1.7041 0.6266
0.5035 1.7240 0.6248
0.4414 1.7416 0.6229
0.3787 1.7570 0.6210
0.3155 1.7702 0.6190
0.2518 1.7811 0.6171
0.1878 1.7897 0.6151
0.1235 1.7961 0.6131
0.0591 1.8001 0.6111
-0.0055 1.8018 0.6091
-0.0701 1.8013 0.6071
-0.1346 1.7984 0.6050
-0.1990 1.7933 0.6030
-0.2632 1.7858 0.6009
-0.3271 1.7761 0.5989
-0.3906 1.7640 0.5969
-0.4536 1.7498 0.5948
-0.5161 1.7333 0.5928
-0.5779 1.7145 0.5908
-0.6391 1.6936 0.5888
-0.6995 1.6705 0.5869
-0.7590 1.6453 0.5849
-0.8176 1.6179 0.5830
-0.8752 1.5885 0.5811
-2.7686 4.6267 1.7211
-2.9425 4.5417 1.7211
-3.1138 4.4501 1.7211
-3.2820 4.3519 1.7211
-3.4469 4.2472 1.7211
-3.6084 4.1361 1.7211
-3.7660 4.0187 1.7211
-3.9196 3.8951 1.7211
-4.0688 3.7654 1.7211
-4.2133 3.6298 1.7211
-4.3530 3.4884 1.7211
-4.4876 3.3415 1.7211
-4.6168 3.1891 1.7211
-4.7404 3.0316 1.7211
-4.8580 2.8690 1.7211
-4.9696 2.7016 1.7211
-5.0749 2.5297 1.7211
-5.1736 2.3536 1.7211
-5.2656 2.1733 1.7211
-5.3506 1.9893 1.7211
-5.1593 1.7124 1.6357
-5.1693 1.5145 1.6178
-5.2288 1.3325 1.6178
-5.2811 1.1480 1.6178
-5.3262 0.9614 1.6178
-5.3639 0.7730 1.6178
-5.3943 0.5830 1.6178
-5.4171 0.3919 1.6178
-5.4323 0.1998 1.6178
-5.4400 0.0071 1.6178
-5.4400 -0.1858 1.6178
-5.4324 -0.3786 1.6178
-5.4171 -0.5711 1.6178
-5.3942 -0.7628 1.6178
-5.3637 -0.9535 1.6178
-5.3257 -1.1428 1.6178
-5.2802 -1.3304 1.6178
-5.2273 -1.5159 1.6178
-5.0600 -1.6640 1.5843
-5.0998 -1.8799 1.6178
-5.0254 -2.0576 1.6178
-4.9442 -2.2321 1.6178
-4.8561 -2.4031 1.6178
-4.2602 -2.5938 1.6178
-4.1591 -2.7389 1.6178
-4.0525 -2.8797 1.6178
-3.9408 -3.0161 1.6178
-3.8975 -3.2083 1.6489
-3.9386 -3.4837 1.7211
-3.8044 -3.6134 1.7211
-3.6655 -3.7376 1.7211
-3.5222 -3.8561 1.7211
-3.3747 -3.9688 1.7211
-3.2234 -4.0756 1.7211
-3.0685 -4.1763 1.7211
-2.9101 -4.2708 1.7211
-2.7487 -4.3590 1.7211
-2.5845 -4.4409 1.7211
-2.4178 -4.5163 1.7211
-2.2487 -4.5852 1.7211
-2.0776 -4.6476 1.7211
-1.9048 -4.7033 1.7211
-1.7306 -4.7525 1.7211
-1.5551 -4.7951 1.7211
-1.3787 -4.8310 1.7211
-1.2016 -4.8603 1.7211
-1.0240 -4.8829 1.7211
-0.8463 -4.8991 1.7211
-0.6687 -4.9087 1.7211
-0.4914 -4.9118 1.7211
-0.3147 -4.9084 1.7211
-0.1388 -4.8988 1.7211
0.0361 -4.8828 1.7211
0.2098 -4.8606 1.7211
0.3820 -4.8324 1.7211
0.5525 -4.7981 1.7211
0.7212 -4.7578 1.7211
0.8878 -4.7118 1.7211
1.0521 -4.6601 1.7211
1.2139 -4.6028 1.7211
1.3731 -4.5401 1.7211
1.5295 -4.4720 1.7211
1.6830 -4.3988 1.7211
1.8333 -4.3205 1.7211
1.9804 -4.2373 1.7211
2.1240 -4.1493 1.7211
2.2641 -4.0567 1.7211
2.4005 -3.9597 1.7211
2.5331 -3.8583 1.7211
2.6617 -3.7527 1.7211
2.7863 -3.6432 1.7211
2.9068 -3.5297 1.7211
3.0230 -3.4126 1.7211
3.1348 -3.2919 1.7211
3.2422 -3.1678 1.7211
3.3451 -3.0405 1.7211
3.4434 -2.9101 1.7211
3.5371 -2.7769 1.7211
3.6259 -2.6408 1.7211
3.7100 -2.5022 1.7211
3.7892 -2.3612 1.7211
3.8636 -2.2179 1.7211
3.9329 -2.0725 1.7211
3.9973 -1.9251 1.7211
4.0566 -1.7760 1.7211
4.1108 -1.6252 1.7211
4.1599 -1.4730 1.7211
4.2039 -1.3194 1.7211
4.2427 -1.1647 1.7211
4.2764 -1.0091 1.7211
4.3048 -0.8525 1.7211
4.3281 -0.6953 1.7211
4.3461 -0.5376 1.7211
4.3589 -0.3795 1.7211
4.3665 -0.2212 1.7211
4.3689 -0.0628 1.7211
4.3661 0.0955 1.7211
4.3580 0.2535 1.7211
4.3448 0.4111 1.7211
4.3265 0.5682 1.7211
4.3029 0.7246 1.7211
4.2743 0.8801 1.7211
4.2405 1.0347 1.7211
4.2017 1.1880 1.7211
4.1578 1.3401 1.7211
4.1090 1.4908 1.7211
4.0552 1.6398 1.7211
3.9964 1.7871 1.7211
3.9328 1.9325 1.7211
3.8644 2.0758 1.7211
3.7912 2.2170 1.7211
3.7133 2.3558 1.7211
3.6307 2.4922 1.7211
3.5435 2.6259 1.7211
3.4519 2.7569 1.7211
3.3558 2.8850 1.7211
3.2553 3.0100 1.7211
3.1505 3.1319 1.7211
3.0415 3.2504 1.7211
2.9285 3.3654 1.7211
2.8114 3.4768 1.7211
2.6903 3.5845 1.7211
2.5655 3.6883 1.7211
2.4369 3.7881 1.7211
0.8499 1.4322 0.6347
0.7980 1.4623 0.6331
0.7450 1.4906 0.6316
0.6910 1.5170 0.6300
0.6362 1.5414 0.6283
0.5805 1.5639 0.6267
0.5240 1.5844 0.6250
0.4669 1.6028 0.6232
0.4091 1.6192 0.6215
0.3508 1.6336 0.6197
0.2920 1.6458 0.6179
0.2328 1.6559 0.6161
0.1733 1.6639 0.6142
0.1135 1.6698 0.6124
0.0536 1.6736 0.6105
-0.0065 1.6752 0.6086
-0.0665 1.6747 0.6067
-0.1265 1.6720 0.6048
-0.1864 1.6672 0.6029
-0.2461 1.6603 0.6010
-0.3055 1.6512 0.5992
-0.3645 1.6400 0.5973
-0.4231 1.6267 0.5954
-0.4812 1.6114 0.5935
-0.5387 1.5939 0.5916
-0.5956 1.5745 0.5898
-0.6517 1.5530 0.5880
-0.7071 1.5295 0.5861
-0.7615 1.5041 0.5843
-0.8151 1.4767 0.5826
-0.8676 1.4474 0.5808
-2.7314 4.2091 1.7211
-2.8895 4.1232 1.7211
-3.0446 4.0312 1.7211
-3.1967 3.9333 1.7211
-3.3455 3.8295 1.7211
-3.4907 3.7199 1.7211
-3.6320 3.6046 1.7211
-3.7693 3.4838 1.7211
-3.9023 3.3576 1.7211
-4.0307 3.2262 1.7211
-4.1543 3.0896 1.7211
-4.2730 2.9481 1.7211
-4.3864 2.8019 1.7211
-4.4944 2.6511 1.7211
-4.5967 2.4960 1.7211
-4.6931 2.3367 1.7211
-4.7836 2.1736 1.7211
-4.8678 2.0068 1.7211
-4.9457 1.8365 1.7211
-5.0169 1.6631 1.7211
-4.9652 1.4528 1.6817
-4.8313 1.2295 1.6179
-4.8788 1.0591 1.6178
-4.9199 0.8867 1.6178
-4.9543 0.7128 1.6178
-4.9818 0.5374 1.6178
-5.0025 0.3610 1.6178
-5.0163 0.1837 1.6178
-5.0231 0.0060 1.6178
-5.0229 -0.1720 1.6178
-5.0157 -0.3499 1.6178
-5.0015 -0.5275 1.6178
-4.9804 -0.7043 1.6178
-4.9522 -0.8802 1.6178
-4.9172 -1.0549 1.6178
-4.8753 -1.2280 1.6178
-4.8267 -1.3992 1.6178
-4.7714 -1.5684 1.6178
-4.7095 -1.7352 1.6178
-4.6412 -1.8993 1.6178
-4.5665 -2.0605 1.6178
-4.4857 -2.2184 1.6178
-3.9552 -2.4065 1.6178
-3.8896 -2.5596 1.6294
-3.8735 -2.7503 1.6651
-3.8780 -2.9657 1.7141
-3.7789 -3.1081 1.7211
-3.6593 -3.2338 1.7211
-3.5352 -3.3546 1.7211
-3.4068 -3.4704 1.7211
-3.2742 -3.5810 1.7211
-3.1378 -3.6862 1.7211
-2.9978 -3.7860 1.7211
-2.8544 -3.8802 1.7211
-2.7078 -3.9687 1.7211
-2.5583 -4.0514 1.7211
-2.4061 -4.1282 1.7211
-2.2515 -4.1991 1.7211
-2.0947 -4.2640 1.7211
-1.9361 -4.3229 1.7211
-1.7757 -4.3756 1.7211
-1.6139 -4.4223 1.7211
-1.4510 -4.4628 1.7211
-1.2870 -4.4971 1.7211
-1.1224 -4.5254 1.7211
-0.9573 -4.5475 1.7211
-0.7920 -4.5635 1.7211
-0.6267 -4.5734 1.7211
-0.4617 -4.5773 1.7211
-0.2970 -4.5752 1.7211
-0.1331 -4.5672 1.7211
0.0300 -4.5533 1.7211
0.1920 -4.5336 1.7211
0.3526 -4.5082 1.7211
0.5118 -4.4772 1.7211
0.6693 -4.4406 1.7211
0.8250 -4.3986 1.7211
0.9786 -4.3513 1.7211
1.1299 -4.2987 1.7211
1.2789 -4.2410 1.7211
1.4253 -4.1783 1.7211
1.5690 -4.1107 1.7211
1.7098 -4.0384 1.7211
1.8476 -3.9614 1.7211
1.9823 -3.8799 1.7211
2.1136 -3.7941 1.7211
2.2416 -3.7040 1.7211
2.3661 -3.6099 1.7211
2.4869 -3.5117 1.7211
2.6039 -3.4098 1.7211
2.7171 -3.3042 1.7211
2.8264 -3.1951 1.7211
2.9315 -3.0826 1.7211
3.0326 -2.9669 1.7211
3.1294 -2.8482 1.7211
3.2220 -2.7265 1.7211
3.3101 -2.6020 1.7211
3.3939 -2.4749 1.7211
3.4731 -2.3453 1.7211
3.5478 -2.2134 1.7211
3.6179 -2.0794 1.7211
3.6833 -1.9433 1.7211
3.7441 -1.8054 1.7211
3.8001 -1.6657 1.7211
3.8513 -1.5245 1.7211
3.8977 -1.3819 1.7211
3.9393 -1.2380 1.7211
3.9760 -1.0930 1.7211
4.0079 -0.9470 1.7211
4.0348 -0.8003 1.7211
4.0569 -0.6528 1.7211
4.0740 -0.5049 1.7211
4.0862 -0.3566 1.7211
4.0935 -0.2081 1.7211
4.0959 -0.0595 1.7211
4.0934 0.0890 1.7211
4.0859 0.2373 1.7211
4.0736 0.3852 1.7211
4.0564 0.5327 1.7211
4.0343 0.6794 1.7211
4.0074 0.8253 1.7211
3.9757 0.9703 1.7211
3.9392 1.1142 1.7211
3.8979 1.2569 1.7211
3.8520 1.3982 1.7211
3.8013 1.5380 1.7211
3.7460 1.6761 1.7211
3.6862 1.8124 1.7211
3.6218 1.9468 1.7211
3.5528 2.0791 1.7211
3.4795 2.2092 1.7211
3.4018 2.3369 1.7211
3.3198 2.4621 1.7211
3.2335 2.5847 1.7211
3.1431 2.7046 1.7211
3.0486 2.8215 1.7211
2.9500 2.9354 1.7211
2.8476 3.0462 1.7211
2.7412 3.1536 1.7211
2.6311 3.2577 1.7211
2.5174 3.3582 1.7211
0.8859 1.2752 0.6352
0.8395 1.3068 0.6339
0.7921 1.3366 0.6325
0.7436 1.3648 0.6311
0.6941 1.3912 0.6296
0.6438 1.4158 0.6281
0.5926 1.4387 0.6266
0.5406 1.4596 0.6250
0.4879 1.4788 0.6235
0.4345 1.4960 0.6218
0.3806 1.5113 0.6202
0.3262 1.5246 0.6185
0.2713 1.5361 0.6169
0.2160 1.5455 0.6152
0.1605 1.5530 0.6134
0.1047 1.5585 0.6117
0.0487 1.5620 0.6100
-0.0073 1.5635 0.6082
-0.0634 1.5630 0.6064
-0.1194 1.5605 0.6047
-0.1753 1.5560 0.6029
-0.2310 1.5495 0.6011
-0.2864 1.5411 0.5994
-0.3415 1.5306 0.5976
-0.3962 1.5182 0.5959
-0.4504 1.5039 0.5941
-0.5041 1.4876 0.5924
-0.5572 1.4694 0.5906
-0.6096 1.4493 0.5889
-0.6612 1.4274 0.5872
-0.7121 1.4037 0.5855
-0.7620 1.3781 0.5839
-0.8111 1.3508 0.5823
-0.8591 1.3217 0.5807
-0.9061 1.2909 0.5791
-2.8367 3.7503 1.7211
-2.9776 3.6584 1.7211
-3.1154 3.5611 1.7211
-3.2498 3.4585 1.7211
-3.3806 3.3507 1.7211
-3.5075 3.2377 1.7211
-3.6305 3.1198 1.7211
-3.7491 2.9971 1.7211
-3.8633 2.8697 1.7211
-3.9729 2.7378 1.7211
-4.0775 2.6015 1.7211
-4.1771 2.4611 1.7211
-4.2715 2.3167 1.7211
-4.3604 2.1685 1.7211
-4.4438 2.0167 1.7211
-4.5213 1.8617 1.7211
-4.5930 1.7035 1.7211
-4.6586 1.5424 1.7211
-4.7180 1.3787 1.7211
-4.7711 1.2126 1.7211
-4.6836 1.0153 1.6732
-4.5961 0.8271 1.6283
-4.5980 0.6604 1.6178
-4.6232 0.4977 1.6178
-4.6421 0.3341 1.6178
-4.6546 0.1697 1.6178
-4.6607 0.0049 1.6178
-4.6604 -0.1601 1.6178
-4.6536 -0.3250 1.6178
-4.6403 -0.4896 1.6178
-4.6207 -0.6535 1.6178
-4.5946 -0.8166 1.6178
-4.5622 -0.9785 1.6178
-4.5235 -1.1390 1.6178
-4.4785 -1.2978 1.6178
-4.4274 -1.4547 1.6178
-4.3702 -1.6094 1.6178
-4.3071 -1.7616 1.6178
-4.2382 -1.9112 1.6178
-4.1635 -2.0578 1.6178
-3.8593 -2.3464 1.6933
-3.8303 -2.5187 1.7211
-3.7332 -2.6486 1.7211
-3.6312 -2.7746 1.7211
-3.5246 -2.8964 1.7211
-3.4136 -3.0139 1.7211
-3.2984 -3.1269 1.7211
-3.1791 -3.2352 1.7211
-3.0559 -3.3387 1.7211
-2.9292 -3.4373 1.7211
-2.7990 -3.5308 1.7211
-2.6657 -3.6192 1.7211
-2.5293 -3.7023 1.7211
-2.3903 -3.7801 1.7211
-2.2487 -3.8524 1.7211
-2.1048 -3.9192 1.7211
-1.9588 -3.9804 1.7211
-1.8110 -4.0361 1.7211
-1.6616 -4.0861 1.7211
-1.5108 -4.1304 1.7211
-1.3588 -4.1689 1.7211
-1.2060 -4.2018 1.7211
-1.0524 -4.2290 1.7211
-0.8983 -4.2504 1.7211
-0.7439 -4.2662 1.7211
-0.5895 -4.2763 1.7211
-0.4353 -4.2808 1.7211
-0.2814 -4.2796 1.7211
-0.1280 -4.2730 1.7211
0.0245 -4.2608 1.7211
0.1761 -4.2432 1.7211
0.3266 -4.2203 1.7211
0.4757 -4.1920 1.7211
0.6233 -4.1586 1.7211
0.7692 -4.1201 1.7211
0.9132 -4.0765 1.7211
1.0552 -4.0280 1.7211
1.1950 -3.9747 1.7211
1.3324 -3.9167 1.7211
1.4673 -3.8540 1.7211
1.5997 -3.7869 1.7211
1.7292 -3.7154 1.7211
1.8558 -3.6396 1.7211
1.9794 -3.5597 1.7211
2.0998 -3.4758 1.7211
2.2169 -3.3880 1.7211
2.3307 -3.2964 1.7211
2.4409 -3.2013 1.7211
2.5476 -3.1026 1.7211
2.6505 -3.0006 1.7211
2.7497 -2.8954 1.7211
2.8450 -2.7872 1.7211
2.9364 -2.6760 1.7211
3.0237 -2.5620 1.7211
3.1069 -2.4454 1.7211
3.1860 -2.3262 1.7211
3.2609 -2.2047 1.7211
3.3315 -2.0810 1.7211
3.3977 -1.9552 1.7211
3.4596 -1.8275 1.7211
3.5170 -1.6980 1.7211
3.5700 -1.5668 1.7211
3.6185 -1.4342 1.7211
3.6624 -1.3001 1.7211
3.7018 -1.1649 1.7211
3.7366 -1.0286 1.7211
3.7668 -0.8914 1.7211
3.7924 -0.7534 1.7211
3.8134 -0.6147 1.7211
3.8297 -0.4755 1.7211
3.8413 -0.3360 1.7211
3.8483 -0.1963 1.7211
3.8507 -0.0565 1.7211
3.8484 0.0833 1.7211
3.8415 0.2228 1.7211
3.8299 0.3620 1.7211
3.8138 0.5007 1.7211
3.7930 0.6388 1.7211
3.7677 0.7761 1.7211
3.7378 0.9125 1.7211
3.7034 1.0479 1.7211
3.6645 1.1822 1.7211
3.6211 1.3151 1.7211
3.5733 1.4465 1.7211
3.5212 1.5764 1.7211
3.4647 1.7046 1.7211
3.4039 1.8309 1.7211
3.3389 1.9553 1.7211
3.2697 2.0775 1.7211
3.1964 2.1975 1.7211
3.1190 2.3151 1.7211
3.0376 2.4302 1.7211
2.9523 2.5427 1.7211
2.8632 2.6525 1.7211
2.7703 2.7593 1.7211
2.6736 2.8631 1.7211
2.5734 2.9638 1.7211
2.4696 3.0613 1.7211
0.8708 1.1631 0.6344
0.8285 1.1942 0.6332
0.7851 1.2237 0.6319
0.7406 1.2517 0.6306
0.6952 1.2781 0.6293
0.6489 1.3028 0.6279
0.6017 1.3259 0.6265
0.5538 1.3472 0.6251
0.5051 1.3669 0.6236
0.4557 1.3848 0.6221
0.4058 1.4009 0.6206
0.3552 1.4152 0.6191
0.3043 1.4278 0.6175
0.2529 1.4385 0.6159
0.2011 1.4473 0.6144
0.1491 1.4543 0.6127
0.0968 1.4595 0.6111
0.0444 1.4627 0.6095
-0.0081 1.4641 0.6078
-0.0606 1.4637 0.6062
-0.1130 1.4613 0.6045
-0.1654 1.4571 0.6029
-0.2175 1.4510 0.6012
-0.2695 1.4431 0.5996
-0.3211 1.4333 0.5979
-0.3723 1.4217 0.5963
-0.4231 1.4082 0.5946
-0.4733 1.3930 0.5930
-0.5230 1.3760 0.5914
-0.5721 1.3572 0.5898
-0.6205 1.3366 0.5882
-0.6681 1.3143 0.5866
-0.7149 1.2904 0.5851
-0.7608 1.2648 0.5835
-0.8058 1.2376 0.5820
-0.8497 1.2087 0.5806
-0.8927 1.1783 0.5791
-2.7840 3.4155 1.7211
-2.9121 3.3240 1.7211
-3.0371 3.2276 1.7211
-3.1586 3.1264 1.7211
-3.2765 3.0205 1.7211
-3.3907 2.9100 1.7211
-3.5009 2.7951 1.7211
-3.6068 2.6758 1.7211
-3.7084 2.5524 1.7211
-3.8055 2.4250 1.7211
-3.8978 2.2937 1.7211
-3.9852 2.1588 1.7211
-4.0676 2.0204 1.7211
-4.1447 1.8787 1.7211
-4.2165 1.7340 1.7211
-4.2828 1.5864 1.7211
-4.3434 1.4362 1.7211
-4.3983 1.2836 1.7211
-4.4474 1.1288 1.7211
-4.4905 0.9720 1.7211
-4.5275 0.8135 1.7211
-4.4756 0.6417 1.6898
-4.3805 0.4707 1.6449
-4.3310 0.3109 1.6198
-4.3370 0.1575 1.6178
-4.3425 0.0040 1.6178
-4.3421 -0.1496 1.6178
-4.3356 -0.3031 1.6178
-4.3232 -0.4563 1.6178
-4.3049 -0.6089 1.6178
-4.2806 -0.7607 1.6178
-4.2505 -0.9114 1.6178
-4.2145 -1.0609 1.6178
-4.1728 -1.2087 1.6178
-4.1253 -1.3548 1.6178
-4.0723 -1.4989 1.6178
-4.0137 -1.6407 1.6178
-3.9497 -1.7801 1.6178
-3.8804 -1.9167 1.6178
-3.6697 -2.2295 1.7211
-3.5838 -2.3548 1.7211
-3.4933 -2.4765 1.7211
-3.3983 -2.5945 1.7211
-3.2990 -2.7086 1.7211
-3.1955 -2.8188 1.7211
-3.0881 -2.9247 1.7211
-2.9768 -3.0264 1.7211
-2.8620 -3.1236 1.7211
-2.7438 -3.2162 1.7211
-2.6224 -3.3041 1.7211
-2.4979 -3.3872 1.7211
-2.3707 -3.4655 1.7211
-2.2408 -3.5387 1.7211
-2.1086 -3.6070 1.7211
-1.9742 -3.6701 1.7211
-1.8378 -3.7280 1.7211
-1.6996 -3.7807 1.7211
-1.5599 -3.8281 1.7211
-1.4189 -3.8702 1.7211
-1.2767 -3.9070 1.7211
-1.1337 -3.9384 1.7211
-0.9899 -3.9646 1.7211
-0.8456 -3.9853 1.7211
-0.7010 -4.0008 1.7211
-0.5563 -4.0110 1.7211
-0.4117 -4.0158 1.7211
-0.2674 -4.0155 1.7211
-0.1235 -4.0099 1.7211
0.0197 -3.9992 1.7211
0.1620 -3.9834 1.7211
0.3032 -3.9625 1.7211
0.4433 -3.9367 1.7211
0.5820 -3.9060 1.7211
0.7191 -3.8705 1.7211
0.8546 -3.8302 1.7211
0.9881 -3.7853 1.7211
1.1197 -3.7358 1.7211
1.2491 -3.6819 1.7211
1.3761 -3.6236 1.7211
1.5008 -3.5610 1.7211
1.6228 -3.4943 1.7211
1.7421 -3.4236 1.7211
1.8587 -3.3490 1.7211
1.9722 -3.2705 1.7211
2.0828 -3.1884 1.7211
2.1901 -3.1027 1.7211
2.2942 -3.0136 1.7211
2.3949 -2.9211 1.7211
2.4922 -2.8255 1.7211
2.5859 -2.7268 1.7211
2.6760 -2.6252 1.7211
2.7624 -2.5208 1.7211
2.8450 -2.4138 1.7211
2.9237 -2.3042 1.7211
2.9985 -2.1922 1.7211
3.0694 -2.0779 1.7211
3.1362 -1.9615 1.7211
3.1990 -1.8432 1.7211
3.2576 -1.7230 1.7211
3.3120 -1.6010 1.7211
3.3623 -1.4775 1.7211
3.4082 -1.3526 1.7211
3.4499 -1.2263 1.7211
3.4873 -1.0989 1.7211
3.5204 -0.9704 1.7211
3.5490 -0.8411 1.7211
3.5734 -0.7109 1.7211
3.5933 -0.5802 1.7211
3.6088 -0.4490 1.7211
3.6200 -0.3174 1.7211
3.6267 -0.1856 1.7211
3.6290 -0.0538 1.7211
3.6269 0.0781 1.7211
3.6205 0.2097 1.7211
3.6096 0.3410 1.7211
3.5944 0.4718 1.7211
3.5748 0.6021 1.7211
3.5509 0.7316 1.7211
3.5227 0.8603 1.7211
3.4901 0.9880 1.7211
3.4534 1.1146 1.7211
3.4124 1.2399 1.7211
3.3672 1.3639 1.7211
3.3179 1.4863 1.7211
3.2645 1.6072 1.7211
3.2070 1.7262 1.7211
3.1455 1.8434 1.7211
3.0801 1.9585 1.7211
3.0108 2.0716 1.7211
2.9376 2.1823 1.7211
2.8607 2.2907 1.7211
2.7801 2.3966 1.7211
2.6958 2.4998 1.7211
2.6080 2.6003 1.7211
2.5167 2.6979 1.7211
2.4220 2.7926 1.7211
0.8555 1.0617 0.6336
0.8168 1.0923 0.6325
0.7770 1.1215 0.6313
0.7363 1.1493 0.6301
0.6945 1.1756 0.6289
0.6519 1.2003 0.6276
0.6084 1.2236 0.6264
0.5641 1.2452 0.6250
0.5190 1.2653 0.6237
0.4733 1.2838 0.6223
0.4269 1.3006 0.6209
0.3800 1.3157 0.6195
0.3325 1.3292 0.6181
0.2846 1.3410 0.6166
0.2364 1.3510 0.6151
0.1877 1.3593 0.6136
0.1389 1.3659 0.6121
0.0898 1.3707 0.6106
0.0406 1.3738 0.6091
-0.0087 1.3751 0.6075
-0.0581 1.3747 0.6060
-0.1073 1.3725 0.6044
-0.1565 1.3685 0.6029
-0.2055 1.3628 0.6013
-0.2543 1.3553 0.5997
-0.3027 1.3461 0.5982
-0.3509 1.3352 0.5966
-0.3986 1.3226 0.5951
-0.4458 1.3082 0.5936
-0.4925 1.2922 0.5921
-0.5385 1.2746 0.5906
-0.5840 1.2553 0.5891
-0.6287 1.2343 0.5876
-0.6726 1.2118 0.5861
-0.7157 1.1878 0.5847
-0.7580 1.1622 0.5833
-0.7993 1.1351 0.5819
-0.8396 1.1066 0.5805
-0.8789 1.0766 0.5792
-0.9170 1.0452 0.5779
-2.8476 3.0221 1.7211
-2.9610 2.9269 1.7211
-3.0710 2.8273 1.7211
-3.1774 2.7234 1.7211
-3.2801 2.6155 1.7211
-3.3788 2.5035 1.7211
-3.4734 2.3876 1.7211
-3.5637 2.2681 1.7211
-3.6496 2.1450 1.7211
-3.7310 2.0186 1.7211
-3.8076 1.8889 1.7211
-3.8793 1.7563 1.7211
-3.9460 1.6208 1.7211
-4.0076 1.4826 1.7211
-4.0639 1.3421 1.7211
-4.1149 1.1993 1.7211
-4.1604 1.0545 1.7211
-4.2003 0.9079 1.7211
-4.2347 0.7597 1.7211
-4.2633 0.6102 1.7211
-4.2861 0.4596 1.7211
-4.3001 0.3079 1.7198
-4.2560 0.1539 1.6978
-4.2130 0.0034 1.6785
-4.1708 -0.1441 1.6619
-4.1299 -0.2890 1.6481
-4.0964 -0.4325 1.6394
-4.0620 -0.5746 1.6326
-4.0267 -0.7155 1.6276
-3.9905 -0.8555 1.6244
-3.9533 -0.9948 1.6229
-3.9150 -1.1336 1.6232
-3.8756 -1.2722 1.6253
-3.8504 -1.4165 1.6357
-3.8428 -1.5700 1.6562
-3.8405 -1.7298 1.6819
-3.8454 -1.8982 1.7140
-3.4438 -2.0907 1.7211
-3.3635 -2.2083 1.7211
-3.2789 -2.3226 1.7211
-3.1901 -2.4334 1.7211
-3.0972 -2.5407 1.7211
-3.0004 -2.6442 1.7211
-2.9000 -2.7439 1.7211
-2.7959 -2.8395 1.7211
-2.6885 -2.9310 1.7211
-2.5778 -3.0182 1.7211
-2.4642 -3.1011 1.7211
-2.3477 -3.1795 1.7211
-2.2285 -3.2533 1.7211
-2.1069 -3.3225 1.7211
-1.9830 -3.3870 1.7211
-1.8571 -3.4467 1.7211
-1.7292 -3.5015 1.7211
-1.5997 -3.5515 1.7211
-1.4687 -3.5966 1.7211
-1.3364 -3.6366 1.7211
-1.2030 -3.6718 1.7211
-1.0687 -3.7019 1.7211
-0.9337 -3.7270 1.7211
-0.7982 -3.7471 1.7211
-0.6624 -3.7622 1.7211
-0.5264 -3.7723 1.7211
-0.3904 -3.7775 1.7211
-0.2547 -3.7777 1.7211
-0.1195 -3.7731 1.7211
0.0152 -3.7636 1.7211
0.1492 -3.7493 1.7211
0.2822 -3.7303 1.7211
0.4141 -3.7065 1.7211
0.5448 -3.6782 1.7211
0.6740 -3.6453 1.7211
0.8017 -3.6079 1.7211
0.9276 -3.5662 1.7211
1.0517 -3.5201 1.7211
1.1738 -3.4698 1.7211
1.2937 -3.4154 1.7211
1.4114 -3.3569 1.7211
1.5266 -3.2945 1.7211
1.6394 -3.2283 1.7211
1.7495 -3.1584 1.7211
1.8568 -3.0848 1.7211
1.9613 -3.0078 1.7211
2.0629 -2.9273 1.7211
2.1613 -2.8436 1.7211
2.2566 -2.7568 1.7211
2.3487 -2.6669 1.7211
2.4374 -2.5740 1.7211
2.5228 -2.4784 1.7211
2.6046 -2.3801 1.7211
2.6829 -2.2793 1.7211
2.7575 -2.1761 1.7211
2.8284 -2.0705 1.7211
2.8956 -1.9628 1.7211
2.9590 -1.8531 1.7211
3.0186 -1.7415 1.7211
3.0742 -1.6280 1.7211
3.1259 -1.5130 1.7211
3.1736 -1.3964 1.7211
3.2172 -1.2784 1.7211
3.2569 -1.1592 1.7211
3.2924 -1.0389 1.7211
3.3238 -0.9175 1.7211
3.3511 -0.7953 1.7211
3.3743 -0.6724 1.7211
3.3932 -0.5489 1.7211
3.4081 -0.4248 1.7211
3.4187 -0.3005 1.7211
3.4252 -0.1759 1.7211
3.4275 -0.0513 1.7211
3.4256 0.0733 1.7211
3.4195 0.1977 1.7211
3.4093 0.3219 1.7211
3.3949 0.4456 1.7211
3.3764 0.5687 1.7211
3.3538 0.6912 1.7211
3.3270 0.8128 1.7211
