ply
format ascii 1.0
element vertex 2186
property float32 x
property float32 y
property float32 z
end_header
7.1599 -0.4159 1.6119
7.1797 -0.1595 1.6119
7.1900 0.0978 1.6119
7.1905 0.3556 1.6119
7.1814 0.6136 1.6119
7.1626 0.8712 1.6119
7.1341 1.1283 1.6119
7.0959 1.3843 1.6119
7.0480 1.6388 1.6119
6.9905 1.8916 1.6119
4.1850 1.2949 0.9743
3.9724 1.3868 0.9352
4.0257 1.5692 0.9598
6.6659 2.8772 1.6119
6.5616 3.1154 1.6119
6.4483 3.3495 1.6119
6.3262 3.5792 1.6119
6.1954 3.8041 1.6119
6.0562 4.0240 1.6120
5.9087 4.2385 1.6120
5.7531 4.4472 1.6120
5.5898 4.6499 1.6120
5.4189 4.8462 1.6120
5.2408 5.0358 1.6120
5.0556 5.2185 1.6120
4.8637 5.3940 1.6120
4.6653 5.5620 1.6120
4.7461 6.0882 1.7151
4.5223 6.2503 1.7151
4.2927 6.4037 1.7151
4.0576 6.5483 1.7151
3.8174 6.6837 1.7151
3.5725 6.8100 1.7151
3.3231 6.9267 1.7151
3.0698 7.0339 1.7151
2.8129 7.1315 1.7151
0.8512 2.4071 0.5719
0.7644 2.4359 0.5725
0.6766 2.4616 0.5733
0.5880 2.4841 0.5740
0.4987 2.5035 0.5748
0.4087 2.5196 0.5756
0.3181 2.5326 0.5765
0.2272 2.5423 0.5773
0.1360 2.5487 0.5783
0.0446 2.5519 0.5792
-0.0469 2.5519 0.5802
-0.1383 2.5485 0.5812
-0.2295 2.5420 0.5822
-0.3205 2.5321 0.5833
-0.4110 2.5191 0.5844
-0.5011 2.5028 0.5855
-0.5905 2.4833 0.5866
-0.6792 2.4606 0.5878
-0.7670 2.4348 0.5890
-0.8538 2.4058 0.5902
-2.7251 6.8844 1.7151
-2.9643 6.7686 1.7151
-3.1987 6.6445 1.7151
-3.4280 6.5122 1.7151
-3.5446 6.1847 1.6647
-3.6492 5.8685 1.6171
-3.8374 5.7040 1.6120
-4.0314 5.5513 1.6120
-4.2194 5.3920 1.6120
-4.4012 5.2264 1.6120
-4.5767 5.0547 1.6120
-4.7457 4.8773 1.6120
-4.9079 4.6944 1.6120
-5.0632 4.5061 1.6120
-5.2115 4.3128 1.6120
-5.3527 4.1148 1.6120
-5.4864 3.9124 1.6120
-5.6128 3.7057 1.6120
-5.7316 3.4951 1.6120
-4.6646 2.6193 1.2870
-4.7123 2.4276 1.2775
-4.7611 2.2400 1.2704
-4.8110 2.0557 1.2653
-4.8643 1.8746 1.2629
-4.9179 1.6949 1.2623
-4.9713 1.5156 1.2632
-5.0259 1.3368 1.2660
-5.0844 1.1583 1.2714
-5.1453 0.9790 1.2788
-5.2087 0.7981 1.2885
-6.5394 0.7624 1.6120
-6.5540 0.5260 1.6120
-6.5604 0.2895 1.6120
-6.5587 0.0532 1.6120
-6.5488 -0.1826 1.6120
4.4793 4.9721 1.6443
4.4817 5.3477 1.7151
4.2853 5.5019 1.7151
4.0834 5.6485 1.7151
3.8762 5.7873 1.7151
3.6640 5.9182 1.7151
3.4472 6.0409 1.7151
3.2262 6.1553 1.7151
3.0011 6.2613 1.7151
2.7725 6.3586 1.7151
0.8504 2.1583 0.5741
0.7726 2.1872 0.5747
0.6938 2.2133 0.5753
0.6140 2.2365 0.5760
0.5335 2.2570 0.5766
0.4524 2.2745 0.5774
0.3706 2.2891 0.5781
0.2884 2.3008 0.5789
0.2058 2.3096 0.5797
0.1229 2.3154 0.5805
0.0399 2.3183 0.5814
-0.0432 2.3182 0.5823
-0.1262 2.3151 0.5832
-0.2090 2.3090 0.5841
-0.2917 2.3001 0.5851
-0.3739 2.2881 0.5861
-0.4557 2.2733 0.5871
-0.5369 2.2555 0.5881
-0.6174 2.2348 0.5892
-0.6971 2.2113 0.5903
-0.7760 2.1849 0.5913
-0.8538 2.1558 0.5924
-2.6891 6.1370 1.7151
-2.9021 6.0254 1.7151
-3.1106 5.9064 1.7151
-3.3143 5.7801 1.7151
-3.5129 5.6469 1.7151
-3.7063 5.5068 1.7151
-3.8213 5.2599 1.6830
-3.9033 4.9860 1.6422
-3.9972 4.7447 1.6120
-4.1572 4.5895 1.6120
-4.3113 4.4291 1.6120
-4.4594 4.2636 1.6120
-4.6012 4.0932 1.6120
-4.7367 3.9182 1.6120
-4.8656 3.7388 1.6120
-4.9880 3.5553 1.6120
-5.1036 3.3679 1.6120
-5.2123 3.1769 1.6120
-5.3141 2.9825 1.6120
-5.4089 2.7849 1.6120
-4.9177 2.3123 1.4423
-5.5770 2.3814 1.6120
-5.6502 2.1759 1.6120
-5.7160 1.9683 1.6120
-5.7746 1.7589 1.6120
-5.8257 1.5478 1.6120
-5.2507 1.1947 1.4421
-5.9056 1.1219 1.6120
-5.9343 0.9075 1.6120
-5.9556 0.6926 1.6120
-5.9695 0.4773 1.6120
-5.9758 0.2618 1.6120
-5.9747 0.0466 1.6120
-5.9662 -0.1683 1.6120
-5.9503 -0.3826 1.6120
-5.9271 -0.5959 1.6120
-5.8965 -0.8082 1.6120
-5.8588 -1.0191 1.6120
-5.8138 -1.2284 1.6120
-5.8224 -1.4510 1.6290
-5.8932 -1.6963 1.6659
-5.9693 -1.9535 1.7073
-5.9191 -2.1760 1.7151
-5.8342 -2.3866 1.7151
-5.7421 -2.5941 1.7151
-5.6430 -2.7983 1.7151
-5.5371 -2.9988 1.7151
-5.4243 -3.1956 1.7151
-5.3049 -3.3884 1.7151
-5.1790 -3.5769 1.7151
-5.0467 -3.7611 1.7151
-4.9082 -3.9405 1.7151
-4.7636 -4.1152 1.7151
-4.6131 -4.2848 1.7151
-4.4569 -4.4492 1.7151
-4.2951 -4.6083 1.7151
-4.1278 -4.7617 1.7151
-3.9554 -4.9093 1.7151
-3.7779 -5.0511 1.7151
-3.5956 -5.1867 1.7151
-3.4086 -5.3161 1.7151
-3.2171 -5.4390 1.7151
-3.0214 -5.5554 1.7151
-2.8217 -5.6651 1.7151
-2.6182 -5.7679 1.7151
-2.4111 -5.8638 1.7151
-2.2006 -5.9525 1.7151
-1.9869 -6.0340 1.7151
-1.7704 -6.1082 1.7151
-1.5512 -6.1749 1.7151
-1.3296 -6.2341 1.7151
-1.1057 -6.2856 1.7151
-0.8800 -6.3294 1.7151
-0.6526 -6.3654 1.7151
-0.3693 -5.5717 1.4946
-0.1694 -5.6038 1.4985
0.0370 -6.4259 1.7151
0.2685 -6.4301 1.7151
0.5003 -6.4261 1.7151
0.7321 -6.4141 1.7151
0.9638 -6.3939 1.7151
1.1949 -6.3656 1.7151
1.4253 -6.3291 1.7151
1.6547 -6.2845 1.7151
1.8827 -6.2317 1.7151
2.1091 -6.1709 1.7151
2.3335 -6.1020 1.7151
2.5558 -6.0250 1.7151
2.7756 -5.9401 1.7151
2.9926 -5.8473 1.7151
3.2065 -5.7467 1.7151
3.4171 -5.6383 1.7151
3.6241 -5.5223 1.7151
3.8271 -5.3988 1.7151
4.0260 -5.2678 1.7151
4.2203 -5.1296 1.7151
4.4099 -4.9842 1.7151
4.5945 -4.8318 1.7151
4.7738 -4.6726 1.7151
4.9476 -4.5067 1.7151
5.1155 -4.3344 1.7151
5.2773 -4.1558 1.7151
5.1063 -3.7324 1.6120
5.2462 -3.5534 1.6120
5.3798 -3.3690 1.6120
5.5068 -3.1795 1.6120
5.6269 -2.9853 1.6120
5.7401 -2.7864 1.6120
5.3734 -2.3745 1.4816
5.5205 -2.2065 1.4969
5.9790 -2.1447 1.5968
5.5297 -1.7626 1.4567
6.1942 -1.7326 1.6119
6.2616 -1.5119 1.6119
6.3210 -1.2886 1.6119
6.3721 -1.0629 1.6119
6.4149 -0.8352 1.6119
6.4492 -0.6057 1.6119
6.4750 -0.3749 1.6119
6.4921 -0.1430 1.6119
6.5006 0.0896 1.6119
6.5004 0.3226 1.6119
6.4915 0.5557 1.6119
6.4738 0.7884 1.6119
6.4475 1.0206 1.6119
6.4124 1.2518 1.6119
6.3686 1.4817 1.6119
6.3162 1.7099 1.6119
4.1769 1.2928 1.0763
3.9677 1.3855 1.0339
4.0207 1.5676 1.0611
6.0216 2.5996 1.6119
5.9271 2.8145 1.6119
5.8246 3.0258 1.6120
5.7142 3.2332 1.6120
5.5960 3.4363 1.6120
5.4702 3.6348 1.6120
5.3369 3.8284 1.6120
5.1965 4.0169 1.6120
5.0491 4.1999 1.6120
4.8949 4.3772 1.6120
4.7341 4.5485 1.6120
4.5670 4.7136 1.6120
4.4777 4.9653 1.6428
4.4844 5.3455 1.7151
4.2881 5.4998 1.7151
4.0862 5.6465 1.7151
3.8791 5.7855 1.7151
3.6670 5.9164 1.7151
3.4503 6.0393 1.7151
3.2293 6.1538 1.7151
3.0043 6.2599 1.7151
2.7757 6.3573 1.7151
0.8515 2.1578 0.5741
0.7737 2.1868 0.5747
0.6949 2.2129 0.5753
0.6152 2.2362 0.5760
0.5347 2.2567 0.5766
0.4535 2.2743 0.5773
0.3717 2.2889 0.5781
0.2895 2.3007 0.5789
0.2069 2.3095 0.5797
0.1241 2.3153 0.5805
0.0411 2.3182 0.5814
-0.0420 2.3182 0.5823
-0.1250 2.3151 0.5832
-0.2079 2.3092 0.5841
-0.2905 2.3002 0.5851
-0.3727 2.2883 0.5861
-0.4545 2.2735 0.5871
-0.5357 2.2558 0.5881
-0.6163 2.2351 0.5892
-0.6960 2.2116 0.5902
-0.7749 2.1853 0.5913
-0.8528 2.1562 0.5924
-2.6861 6.1384 1.7151
-2.8992 6.0270 1.7151
-3.1077 5.9081 1.7151
-3.3115 5.7820 1.7151
-3.5102 5.6488 1.7151
-3.7037 5.5088 1.7151
-3.8202 5.2638 1.6836
-3.9022 4.9897 1.6428
-3.9949 4.7468 1.6120
-4.1550 4.5917 1.6120
-4.3092 4.4314 1.6120
-4.4573 4.2659 1.6120
-4.5993 4.0956 1.6120
-4.7348 3.9207 1.6120
-4.8639 3.7413 1.6120
-4.9863 3.5579 1.6120
-5.1020 3.3706 1.6120
-5.2109 3.1796 1.6120
-5.3128 2.9852 1.6120
-5.4076 2.7877 1.6120
-4.9169 2.3149 1.4423
-5.5759 2.3842 1.6120
-5.6492 2.1788 1.6120
-5.7152 1.9712 1.6120
-5.7738 1.7618 1.6120
-5.8250 1.5508 1.6120
-5.2499 1.1973 1.4420
-5.9051 1.1249 1.6120
-5.9340 0.9105 1.6120
-5.9554 0.6956 1.6120
-5.9693 0.4803 1.6120
-5.9758 0.2648 1.6120
-5.9748 0.0496 1.6120
-5.9664 -0.1653 1.6120
4.2564 4.7241 1.7151
4.0831 4.8714 1.7151
3.9044 5.0120 1.7151
3.7207 5.1458 1.7151
3.5322 5.2725 1.7151
3.3391 5.3921 1.7151
3.1419 5.5042 1.7151
2.9407 5.6088 1.7151
2.7359 5.7057 1.7151
0.8490 1.9464 0.5761
0.7788 1.9754 0.5766
0.7075 2.0018 0.5771
0.6354 2.0257 0.5777
0.5624 2.0470 0.5782
0.4888 2.0657 0.5789
0.4145 2.0818 0.5795
0.3397 2.0951 0.5802
0.2644 2.1058 0.5809
0.1888 2.1139 0.5816
0.1130 2.1192 0.5824
0.0370 2.1218 0.5832
-0.0390 2.1217 0.5840
-0.1149 2.1188 0.5849
-0.1908 2.1133 0.5857
-0.2664 2.1051 0.5866
-0.3416 2.0941 0.5875
-0.4164 2.0805 0.5884
-0.4907 2.0642 0.5894
-0.5644 2.0453 0.5903
-0.6373 2.0237 0.5913
-0.7095 1.9996 0.5923
-0.7807 1.9729 0.5933
-0.8510 1.9436 0.5943
-2.6508 5.5077 1.7151
-2.8417 5.3998 1.7151
-3.0283 5.2852 1.7151
-3.2104 5.1642 1.7151
-3.3878 5.0369 1.7151
-3.5602 4.9035 1.7151
-3.7274 4.7643 1.7151
-3.8893 4.6194 1.7151
-4.0456 4.4691 1.7151
-4.1261 4.2414 1.6864
-4.1945 4.0128 1.6572
-4.2604 3.7924 1.6311
-4.3352 3.5883 1.6120
-4.4539 3.4245 1.6120
-4.5666 3.2570 1.6120
-4.6869 3.0949 1.6168
-4.7733 2.9112 1.6120
-4.8672 2.7334 1.6120
-4.9547 2.5528 1.6120
-4.9172 2.3137 1.5741
-5.1100 2.1836 1.6120
-5.1777 1.9955 1.6120
-5.2387 1.8055 1.6120
-5.2930 1.6136 1.6120
-5.3404 1.4203 1.6120
-5.2503 1.1959 1.5728
-5.4149 1.0300 1.6120
-5.4418 0.8334 1.6120
-5.4619 0.6363 1.6120
-5.4796 0.4392 1.6134
-5.4814 0.2412 1.6120
-5.4809 0.0437 1.6120
-5.4735 -0.1535 1.6120
-5.4988 -0.3526 1.6237
-5.5545 -0.5576 1.6464
-5.6175 -0.7691 1.6736
-5.6826 -0.9877 1.7038
-5.6766 -1.1987 1.7151
-5.6260 -1.4014 1.7151
-5.5685 -1.6022 1.7151
-5.5042 -1.8007 1.7151
-5.4331 -1.9968 1.7151
-5.3553 -2.1902 1.7151
-5.2709 -2.3808 1.7151
-5.1801 -2.5683 1.7151
-5.0829 -2.7526 1.7151
-4.9794 -2.9333 1.7151
-4.8699 -3.1104 1.7151
-4.7543 -3.2835 1.7151
-4.6328 -3.4526 1.7151
-4.5056 -3.6174 1.7151
-4.3728 -3.7778 1.7151
-4.2345 -3.9335 1.7151
-4.0910 -4.0844 1.7151
-3.9423 -4.2303 1.7151
-3.7887 -4.3710 1.7151
-3.6302 -4.5065 1.7151
-3.4671 -4.6364 1.7151
-3.2996 -4.7607 1.7151
-3.1277 -4.8793 1.7151
-2.9518 -4.9919 1.7151
-2.7720 -5.0984 1.7151
-2.5886 -5.1988 1.7151
-2.4016 -5.2928 1.7151
-2.2113 -5.3804 1.7151
-2.0180 -5.4615 1.7151
-1.8218 -5.5358 1.7151
-1.6229 -5.6034 1.7151
-1.4217 -5.6642 1.7151
-1.2182 -5.7179 1.7151
-1.0128 -5.7647 1.7151
-0.8057 -5.8043 1.7151
-0.5971 -5.8367 1.7151
-0.3872 -5.8619 1.7151
-0.1763 -5.8797 1.7151
0.0354 -5.8902 1.7151
0.2476 -5.8933 1.7151
0.4600 -5.8890 1.7151
0.6724 -5.8773 1.7151
0.8846 -5.8580 1.7151
1.0963 -5.8313 1.7151
1.3072 -5.7971 1.7151
1.5172 -5.7555 1.7151
1.7258 -5.7064 1.7151
1.9328 -5.6499 1.7151
2.1381 -5.5860 1.7151
2.3413 -5.5148 1.7151
2.5421 -5.4362 1.7151
2.7404 -5.3505 1.7151
2.9357 -5.2576 1.7151
3.1280 -5.1577 1.7151
3.3169 -5.0508 1.7151
3.5021 -4.9371 1.7151
3.6834 -4.8166 1.7151
3.8606 -4.6894 1.7151
4.0334 -4.5558 1.7151
4.2015 -4.4158 1.7151
4.3648 -4.2696 1.7151
4.5229 -4.1174 1.7151
4.6756 -3.9593 1.7151
4.8228 -3.7956 1.7151
4.9582 -3.6220 1.7131
4.7928 -3.2442 1.6120
4.9141 -3.0754 1.6120
5.0293 -2.9020 1.6120
5.1382 -2.7242 1.6119
5.2408 -2.5423 1.6119
5.3368 -2.3566 1.6119
5.4260 -2.1671 1.6119
5.5083 -1.9743 1.6119
5.5756 -1.7758 1.6096
5.6517 -1.5794 1.6119
5.7125 -1.3779 1.6119
5.7660 -1.1741 1.6119
5.8120 -0.9681 1.6119
5.8503 -0.7604 1.6119
5.8810 -0.5511 1.6119
5.9039 -0.3407 1.6119
5.9189 -0.1293 1.6119
5.9261 0.0827 1.6119
5.9253 0.2951 1.6119
5.9167 0.5074 1.6119
5.9001 0.7195 1.6119
5.8756 0.9309 1.6119
5.8432 1.1415 1.6119
5.8030 1.3508 1.6119
5.7549 1.5586 1.6119
4.1686 1.2907 1.1791
3.9629 1.3842 1.1335
4.0157 1.5660 1.1634
5.4854 2.3686 1.6120
5.3992 2.5642 1.6120
5.3057 2.7566 1.6120
5.2050 2.9453 1.6120
5.0973 3.1302 1.6120
4.9827 3.3109 1.6120
4.8613 3.4872 1.6120
4.7335 3.6589 1.6120
4.5992 3.8256 1.6120
4.4588 3.9871 1.6120
4.3125 4.1432 1.6120
4.3222 4.4605 1.6747
4.2588 4.7220 1.7151
4.0856 4.8694 1.7151
3.9070 5.0101 1.7151
3.7233 5.1440 1.7151
3.5348 5.2708 1.7151
3.3418 5.3904 1.7151
3.1446 5.5027 1.7151
2.9435 5.6074 1.7151
2.7387 5.7044 1.7151
0.8500 1.9460 0.5761
0.7798 1.9750 0.5766
0.7085 2.0015 0.5771
0.6364 2.0254 0.5776
0.5634 2.0468 0.5782
0.4898 2.0655 0.5789
0.4155 2.0816 0.5795
0.3407 2.0950 0.5802
0.2655 2.1057 0.5809
0.1899 2.1138 0.5816
0.1141 2.1191 0.5824
0.0381 2.1218 0.5832
-0.0379 2.1217 0.5840
-0.1139 2.1189 0.5848
-0.1897 2.1134 0.5857
-0.2653 2.1052 0.5866
-0.3406 2.0943 0.5875
-0.4154 2.0807 0.5884
-0.4897 2.0644 0.5894
-0.5634 2.0456 0.5903
-0.6363 2.0240 0.5913
-0.7085 1.9999 0.5923
-0.7797 1.9733 0.5933
-0.8500 1.9440 0.5943
-2.6481 5.5092 1.7151
-2.8391 5.4013 1.7151
-3.0258 5.2868 1.7151
-3.2079 5.1659 1.7151
-3.3853 5.0387 1.7151
-3.5578 4.9054 1.7151
-3.7251 4.7663 1.7151
-3.8870 4.6215 1.7151
-4.0435 4.4712 1.7151
-4.1251 4.2446 1.6869
-4.1935 4.0159 1.6576
-4.2594 3.7953 1.6314
-4.3335 3.5905 1.6120
-4.4523 3.4268 1.6120
-4.5650 3.2593 1.6120
-4.6860 3.0977 1.6170
-4.7720 2.9136 1.6120
-4.8660 2.7359 1.6120
-4.9535 2.5553 1.6120
-4.9165 2.3163 1.5742
-5.1090 2.1862 1.6120
-5.1768 1.9981 1.6120
-5.2379 1.8081 1.6120
-5.2923 1.6163 1.6120
-5.3398 1.4230 1.6120
-5.2495 1.1985 1.5728
-5.4145 1.0327 1.6120
-5.4415 0.8362 1.6120
-5.4616 0.6391 1.6120
-5.4789 0.4419 1.6132
-5.4813 0.2440 1.6120
-5.4809 0.0465 1.6120
-5.4736 -0.1507 1.6120
3.9048 4.3333 1.7151
3.7460 4.4685 1.7151
3.5822 4.5976 1.7151
3.4139 4.7205 1.7151
3.2411 4.8369 1.7151
3.0642 4.9468 1.7151
2.8834 5.0499 1.7151
0.9086 1.7324 0.5774
0.8460 1.7637 0.5778
0.7823 1.7926 0.5782
0.7176 1.8193 0.5786
0.6520 1.8437 0.5791
0.5855 1.8657 0.5796
0.5184 1.8853 0.5802
0.4505 1.9025 0.5808
0.3821 1.9173 0.5814
0.3132 1.9296 0.5820
0.2440 1.9394 0.5826
0.1744 1.9468 0.5833
0.1045 1.9517 0.5840
0.0346 1.9541 0.5847
-0.0354 1.9540 0.5855
-0.1054 1.9514 0.5863
-0.1752 1.9462 0.5871
-0.2448 1.9386 0.5879
-0.3140 1.9285 0.5887
-0.3829 1.9160 0.5896
-0.4513 1.9010 0.5904
-0.5192 1.8835 0.5913
-0.5863 1.8637 0.5922
-0.6527 1.8414 0.5931
-0.7183 1.8168 0.5941
-0.7830 1.7899 0.5950
-0.8467 1.7606 0.5959
-2.6127 4.9684 1.7151
-2.7848 4.8636 1.7151
-2.9527 4.7528 1.7151
-3.1163 4.6363 1.7151
-3.2753 4.5142 1.7151
-3.4297 4.3866 1.7151
-3.5791 4.2538 1.7151
-3.7236 4.1159 1.7151
-3.8628 3.9732 1.7151
-3.9966 3.8258 1.7151
-4.1249 3.6740 1.7151
-4.2476 3.5179 1.7151
-4.3644 3.3578 1.7151
-4.4444 3.1718 1.7032
-4.5028 2.9752 1.6861
-4.5600 2.7829 1.6714
-4.6161 2.5941 1.6591
-4.6713 2.4084 1.6491
-4.7257 2.2251 1.6413
-4.7795 2.0439 1.6357
-4.8330 1.8641 1.6322
-4.8866 1.6855 1.6309
-4.9394 1.5072 1.6315
-4.9923 1.3290 1.6341
-5.0455 1.1505 1.6389
-5.0990 0.9711 1.6458
-5.1528 0.7903 1.6548
-5.2072 0.6078 1.6660
-5.2623 0.4229 1.6794
-5.3183 0.2351 1.6952
-5.3753 0.0439 1.7134
-5.3738 -0.1497 1.7151
-5.3603 -0.3428 1.7151
-5.3400 -0.5352 1.7151
-5.3132 -0.7266 1.7151
-5.2797 -0.9169 1.7151
-5.2397 -1.1057 1.7151
-5.1933 -1.2930 1.7151
-5.1404 -1.4784 1.7151
-5.0812 -1.6618 1.7151
-5.0157 -1.8429 1.7151
-4.9440 -2.0216 1.7151
-4.8662 -2.1977 1.7151
-4.7825 -2.3709 1.7151
-4.6928 -2.5411 1.7151
-4.5973 -2.7080 1.7151
-4.4962 -2.8716 1.7151
-4.3894 -3.0315 1.7151
-4.2773 -3.1877 1.7151
-4.1598 -3.3398 1.7151
-4.0371 -3.4879 1.7151
-3.9094 -3.6317 1.7151
-3.7767 -3.7710 1.7151
-3.6394 -3.9056 1.7151
-3.4974 -4.0355 1.7151
-3.3509 -4.1605 1.7151
-3.2002 -4.2804 1.7151
-3.0454 -4.3950 1.7151
-2.8866 -4.5043 1.7151
-2.7241 -4.6080 1.7151
-2.5580 -4.7062 1.7151
-2.3884 -4.7986 1.7151
-2.2157 -4.8851 1.7151
-2.0399 -4.9657 1.7151
-1.8613 -5.0402 1.7151
-1.6801 -5.1085 1.7151
-1.4965 -5.1705 1.7151
-1.3107 -5.2262 1.7151
-1.1228 -5.2754 1.7151
-0.9332 -5.3181 1.7151
-0.7420 -5.3542 1.7151
-0.5495 -5.3836 1.7151
-0.3558 -5.4063 1.7151
-0.1612 -5.4223 1.7151
0.0340 -5.4315 1.7151
0.2297 -5.4338 1.7151
0.4255 -5.4292 1.7151
0.6213 -5.4178 1.7151
0.8169 -5.3995 1.7151
1.0120 -5.3743 1.7151
1.2063 -5.3422 1.7151
1.3996 -5.3032 1.7151
1.5916 -5.2573 1.7151
1.7822 -5.2047 1.7151
1.9711 -5.1452 1.7151
2.1580 -5.0789 1.7151
2.3428 -5.0060 1.7151
2.5251 -4.9264 1.7151
2.7046 -4.8403 1.7151
2.8813 -4.7477 1.7151
3.0548 -4.6486 1.7151
3.2249 -4.5433 1.7151
3.3914 -4.4318 1.7151
3.5540 -4.3143 1.7151
3.7125 -4.1908 1.7151
3.8667 -4.0614 1.7151
4.0164 -3.9265 1.7151
4.1613 -3.7859 1.7151
4.3013 -3.6401 1.7151
4.4360 -3.4890 1.7151
4.5654 -3.3330 1.7151
4.6191 -3.1246 1.6894
4.5181 -2.8257 1.6119
4.6235 -2.6660 1.6119
4.7230 -2.5024 1.6119
4.8167 -2.3350 1.6119
4.9043 -2.1640 1.6119
4.9857 -1.9898 1.6119
5.0608 -1.8124 1.6119
5.1294 -1.6322 1.6119
5.1915 -1.4494 1.6119
5.2468 -1.2643 1.6119
5.2954 -1.0770 1.6119
5.3371 -0.8878 1.6119
5.3718 -0.6970 1.6119
5.3994 -0.5049 1.6120
5.4199 -0.3117 1.6120
5.4332 -0.1176 1.6119
5.4394 0.0769 1.6119
5.4383 0.2717 1.6119
5.4299 0.4666 1.6119
5.4144 0.6611 1.6119
5.3915 0.8550 1.6120
5.3615 1.0481 1.6120
5.3242 1.2401 1.6120
5.2798 1.4306 1.6120
4.1603 1.2886 1.2827
3.9581 1.3830 1.2341
4.0107 1.5644 1.2666
5.0319 2.1731 1.6120
4.9527 2.3525 1.6120
4.8668 2.5289 1.6120
4.7744 2.7019 1.6120
4.6755 2.8714 1.6120
4.5704 3.0371 1.6120
4.4591 3.1987 1.6120
4.3418 3.3561 1.6120
4.2188 3.5090 1.6120
4.1036 3.6692 1.6174
4.1934 4.0284 1.7088
4.0606 4.1902 1.7151
3.9070 4.3313 1.7151
3.7482 4.4666 1.7151
3.5845 4.5959 1.7151
3.4162 4.7188 1.7151
3.2435 4.8354 1.7151
3.0667 4.9453 1.7151
2.8860 5.0485 1.7151
0.9095 1.7320 0.5774
0.8469 1.7632 0.5778
0.7832 1.7923 0.5782
0.7185 1.8190 0.5786
0.6529 1.8434 0.5791
0.5865 1.8654 0.5796
0.5193 1.8850 0.5802
0.4515 1.9023 0.5807
0.3831 1.9171 0.5813
0.3142 1.9294 0.5820
0.2449 1.9393 0.5826
0.1753 1.9467 0.5833
0.1055 1.9516 0.5840
0.0356 1.9541 0.5847
-0.0344 1.9540 0.5855
-0.1044 1.9514 0.5863
-0.1742 1.9463 0.5871
-0.2438 1.9388 0.5879
-0.3131 1.9287 0.5887
-0.3820 1.9162 0.5896
-0.4504 1.9012 0.5904
-0.5182 1.8838 0.5913
-0.5854 1.8640 0.5922
-0.6518 1.8418 0.5931
-0.7174 1.8172 0.5940
-0.7821 1.7903 0.5950
-0.8458 1.7610 0.5959
-2.6103 4.9698 1.7151
-2.7824 4.8651 1.7151
-2.9504 4.7544 1.7151
-3.1140 4.6380 1.7151
-3.2731 4.5159 1.7151
-3.4276 4.3884 1.7151
-3.5771 4.2557 1.7151
-3.7216 4.1178 1.7151
-3.8609 3.9752 1.7151
-3.9948 3.8279 1.7151
-4.1232 3.6761 1.7151
-4.2459 3.5201 1.7151
-4.3629 3.3601 1.7151
-4.4436 3.1746 1.7035
-4.5020 2.9779 1.6863
-4.5592 2.7855 1.6716
-4.6153 2.5967 1.6593
-4.6705 2.4109 1.6493
-4.7249 2.2277 1.6414
-4.7788 2.0464 1.6358
-4.8322 1.8666 1.6322
-4.8859 1.6880 1.6309
-4.9387 1.5097 1.6314
-4.9916 1.3315 1.6341
-5.0448 1.1530 1.6388
-5.0982 0.9736 1.6457
-5.1521 0.7929 1.6547
-5.2065 0.6103 1.6658
-5.2616 0.4255 1.6792
-5.3175 0.2377 1.6950
-5.3745 0.0466 1.7131
-5.3740 -0.1470 1.7151
3.6032 3.9981 1.7151
3.4568 4.1229 1.7151
3.3058 4.2421 1.7151
3.1506 4.3556 1.7151
2.9914 4.4632 1.7151
2.8283 4.5648 1.7151
0.8984 1.5730 0.5789
0.8415 1.6040 0.5793
0.7836 1.6329 0.5796
0.7246 1.6597 0.5800
0.6647 1.6844 0.5804
0.6040 1.7070 0.5809
0.5425 1.7274 0.5814
0.4803 1.7455 0.5819
0.4175 1.7614 0.5824
0.3542 1.7751 0.5829
0.2904 1.7865 0.5835
0.2263 1.7956 0.5841
0.1619 1.8024 0.5848
0.0972 1.8070 0.5854
0.0325 1.8091 0.5861
-0.0323 1.8090 0.5868
-0.0971 1.8066 0.5875
-0.1617 1.8019 0.5882
-0.2261 1.7948 0.5890
-0.2902 1.7855 0.5898
-0.3540 1.7738 0.5905
-0.4173 1.7599 0.5913
-0.4801 1.7438 0.5922
-0.5423 1.7254 0.5930
-0.6037 1.7048 0.5938
-0.6644 1.6820 0.5947
-0.7243 1.6570 0.5956
-0.7832 1.6299 0.5965
-0.8412 1.6007 0.5973
-2.5746 4.4998 1.7151
-2.7302 4.3978 1.7151
-2.8819 4.2905 1.7151
-3.0294 4.1779 1.7151
-3.1725 4.0603 1.7151
-3.3112 3.9379 1.7151
-3.4453 3.8107 1.7151
-3.5745 3.6790 1.7151
-3.6988 3.5429 1.7151
-3.8180 3.4027 1.7151
-3.9320 3.2586 1.7151
-4.0406 3.1106 1.7151
-4.1438 2.9592 1.7151
-4.2415 2.8043 1.7151
-4.3335 2.6464 1.7151
-4.4197 2.4854 1.7151
-4.5001 2.3218 1.7151
-4.5746 2.1556 1.7151
-4.6431 1.9870 1.7151
-4.7056 1.8164 1.7151
-4.7620 1.6439 1.7151
-4.8122 1.4697 1.7151
-4.8563 1.2941 1.7151
-4.8941 1.1172 1.7151
-4.9257 0.9392 1.7151
-4.9510 0.7605 1.7151
-4.9700 0.5812 1.7151
-4.9828 0.4014 1.7151
-4.9892 0.2215 1.7151
-4.9895 0.0417 1.7151
-4.9834 -0.1379 1.7151
-4.9711 -0.3171 1.7151
-4.9526 -0.4956 1.7151
-4.9280 -0.6732 1.7151
-4.8972 -0.8497 1.7151
-4.8603 -1.0250 1.7151
-4.8174 -1.1988 1.7151
-4.7685 -1.3709 1.7151
-4.7137 -1.5411 1.7151
-4.6531 -1.7092 1.7151
-4.5867 -1.8751 1.7151
-4.5146 -2.0385 1.7151
-4.4370 -2.1993 1.7151
-4.3538 -2.3573 1.7151
-4.2652 -2.5122 1.7151
-4.1714 -2.6640 1.7151
-4.0724 -2.8125 1.7151
-3.9683 -2.9574 1.7151
-3.8592 -3.0986 1.7151
-3.7454 -3.2360 1.7151
-3.6268 -3.3694 1.7151
-3.5037 -3.4986 1.7151
-3.3761 -3.6235 1.7151
-3.2443 -3.7440 1.7151
-3.1083 -3.8599 1.7151
-2.9684 -3.9710 1.7151
-2.8246 -4.0772 1.7151
-2.6772 -4.1785 1.7151
-2.5263 -4.2746 1.7151
-2.3720 -4.3655 1.7151
-2.2146 -4.4510 1.7151
-2.0543 -4.5311 1.7151
-1.8911 -4.6056 1.7151
-1.7253 -4.6745 1.7151
-1.5572 -4.7375 1.7151
-1.3867 -4.7948 1.7151
-1.2143 -4.8461 1.7151
-1.0400 -4.8914 1.7151
-0.8641 -4.9306 1.7151
-0.6867 -4.9637 1.7151
-0.5082 -4.9906 1.7151
-0.3286 -5.0113 1.7151
-0.1482 -5.0257 1.7151
0.0328 -5.0338 1.7151
0.2141 -5.0355 1.7151
0.3957 -5.0308 1.7151
0.5771 -5.0198 1.7151
0.7582 -5.0024 1.7151
0.9389 -4.9785 1.7151
1.1188 -4.9483 1.7151
1.2978 -4.9117 1.7151
1.4756 -4.8687 1.7151
1.6519 -4.8194 1.7151
1.8267 -4.7638 1.7151
1.9996 -4.7020 1.7151
2.1704 -4.6339 1.7151
2.3389 -4.5598 1.7151
2.5049 -4.4796 1.7151
2.6682 -4.3933 1.7151
2.8285 -4.3012 1.7151
2.9856 -4.2033 1.7151
3.1393 -4.0997 1.7151
3.2894 -3.9905 1.7151
3.4356 -3.8758 1.7151
3.5779 -3.7557 1.7151
3.7159 -3.6304 1.7151
3.8495 -3.5001 1.7151
3.9785 -3.3649 1.7151
4.1027 -3.2248 1.7151
4.2218 -3.0802 1.7151
4.3359 -2.9312 1.7151
4.3367 -2.7105 1.6735
4.2740 -2.4629 1.6119
4.3656 -2.3114 1.6119
4.4517 -2.1565 1.6119
4.5321 -1.9983 1.6119
4.6070 -1.8372 1.6119
4.6759 -1.6732 1.6119
4.7389 -1.5066 1.6119
4.7957 -1.3377 1.6119
4.8464 -1.1666 1.6119
4.8908 -0.9935 1.6119
4.9289 -0.8188 1.6119
4.9605 -0.6426 1.6120
4.9856 -0.4651 1.6120
5.0042 -0.2868 1.6120
5.0161 -0.1077 1.6120
5.0214 0.0719 1.6120
5.0201 0.2517 1.6120
5.0121 0.4315 1.6120
4.9974 0.6109 1.6120
4.9761 0.7898 1.6120
4.9481 0.9680 1.6120
4.9135 1.1450 1.6120
4.8723 1.3208 1.6120
4.1519 1.2865 1.3872
3.9532 1.3817 1.3358
4.0056 1.5628 1.3710
4.6428 2.0055 1.6120
4.5697 2.1709 1.6120
4.4904 2.3335 1.6120
4.4050 2.4931 1.6120
4.3138 2.6494 1.6120
4.2168 2.8022 1.6120
4.1141 2.9513 1.6120
4.0060 3.0964 1.6120
3.9917 3.3200 1.6531
4.0151 3.5899 1.7151
3.8836 3.7304 1.7151
3.7468 3.8660 1.7151
3.6052 3.9963 1.7151
3.4588 4.1212 1.7151
3.3080 4.2405 1.7151
3.1528 4.3541 1.7151
2.9936 4.4618 1.7151
2.8306 4.5634 1.7151
0.8992 1.5726 0.5789
0.8423 1.6036 0.5793
0.7844 1.6325 0.5796
0.7254 1.6594 0.5800
0.6655 1.6841 0.5804
0.6048 1.7067 0.5809
0.5433 1.7271 0.5813
0.4812 1.7453 0.5818
0.4184 1.7612 0.5824
0.3551 1.7749 0.5829
0.2913 1.7864 0.5835
0.2272 1.7955 0.5841
0.1628 1.8024 0.5847
0.0981 1.8069 0.5854
0.0334 1.8091 0.5861
-0.0314 1.8091 0.5868
-0.0962 1.8067 0.5875
-0.1608 1.8019 0.5882
-0.2252 1.7949 0.5890
-0.2893 1.7856 0.5897
-0.3531 1.7740 0.5905
-0.4164 1.7601 0.5913
-0.4792 1.7440 0.5922
-0.5414 1.7256 0.5930
-0.6029 1.7051 0.5938
-0.6636 1.6823 0.5947
-0.7235 1.6574 0.5956
-0.7824 1.6303 0.5964
-0.8404 1.6012 0.5973
-2.5724 4.5011 1.7151
-2.7281 4.3993 1.7151
-2.8798 4.2920 1.7151
-3.0273 4.1795 1.7151
-3.1706 4.0620 1.7151
-3.3093 3.9396 1.7151
-3.4434 3.8125 1.7151
-3.5727 3.6808 1.7151
-3.6971 3.5448 1.7151
-3.8164 3.4047 1.7151
-3.9304 3.2606 1.7151
-4.0392 3.1127 1.7151
-4.1424 2.9613 1.7151
-4.2402 2.8065 1.7151
-4.3322 2.6486 1.7151
-4.4186 2.4877 1.7151
-4.4990 2.3241 1.7151
-4.5736 2.1579 1.7151
-4.6422 1.9894 1.7151
-4.7048 1.8188 1.7151
-4.7612 1.6463 1.7151
-4.8116 1.4721 1.7151
-4.8557 1.2965 1.7151
-4.8936 1.1196 1.7151
-4.9253 0.9417 1.7151
-4.9507 0.7630 1.7151
-4.9698 0.5837 1.7151
-4.9826 0.4039 1.7151
-4.9892 0.2240 1.7151
-4.9895 0.0442 1.7151
-4.9835 -0.1354 1.7151
3.3414 3.7071 1.7151
3.2057 3.8229 1.7151
3.0659 3.9336 1.7151
2.9221 4.0389 1.7151
2.7746 4.1388 1.7151
0.8877 1.4323 0.5803
0.8358 1.4630 0.5806
0.7829 1.4918 0.5809
0.7290 1.5187 0.5812
0.6742 1.5436 0.5816
0.6185 1.5666 0.5820
0.5620 1.5876 0.5824
0.5049 1.6065 0.5829
0.4470 1.6234 0.5833
0.3887 1.6382 0.5838
0.3298 1.6509 0.5843
0.2705 1.6615 0.5849
0.2108 1.6700 0.5854
0.1509 1.6763 0.5860
0.0908 1.6805 0.5866
0.0306 1.6825 0.5872
-0.0296 1.6824 0.5879
-0.0898 1.6802 0.5886
-0.1499 1.6757 0.5892
-0.2098 1.6692 0.5899
-0.2694 1.6605 0.5907
-0.3287 1.6497 0.5914
-0.3876 1.6367 0.5921
-0.4459 1.6217 0.5929
-0.5037 1.6046 0.5937
-0.5609 1.5854 0.5945
-0.6173 1.5642 0.5953
-0.6730 1.5410 0.5961
-0.7278 1.5158 0.5969
-0.7816 1.4886 0.5977
-0.8345 1.4596 0.5985
-0.8863 1.4286 0.5994
-2.6773 3.9886 1.7151
-2.8146 3.8844 1.7151
-2.9480 3.7754 1.7151
-3.0772 3.6619 1.7151
-3.2021 3.5440 1.7151
-3.3226 3.4219 1.7151
-3.4385 3.2957 1.7151
-3.5497 3.1656 1.7151
-3.6561 3.0318 1.7151
-3.7575 2.8945 1.7151
-3.8538 2.7538 1.7151
-3.9450 2.6100 1.7151
-4.0309 2.4633 1.7151
-4.1115 2.3137 1.7151
-4.1867 2.1616 1.7151
-4.2564 2.0071 1.7151
-4.3205 1.8504 1.7151
-4.3790 1.6917 1.7151
-4.4318 1.5312 1.7151
-4.4789 1.3692 1.7151
-4.5203 1.2057 1.7151
-4.5558 1.0411 1.7151
-4.5855 0.8755 1.7151
-4.6094 0.7091 1.7151
-4.6274 0.5421 1.7151
-4.6396 0.3748 1.7151
-4.6459 0.2072 1.7151
-4.6464 0.0397 1.7151
-4.6410 -0.1276 1.7151
-4.6298 -0.2945 1.7151
-4.6128 -0.4608 1.7151
-4.5900 -0.6263 1.7151
-4.5615 -0.7908 1.7151
-4.5273 -0.9541 1.7151
-4.4875 -1.1161 1.7151
-4.4421 -1.2765 1.7151
-4.3911 -1.4351 1.7151
-4.3348 -1.5918 1.7151
-4.2730 -1.7465 1.7151
-4.2059 -1.8988 1.7151
-4.1336 -2.0487 1.7151
-4.0562 -2.1959 1.7151
-3.9737 -2.3403 1.7151
-3.8863 -2.4818 1.7151
-3.7940 -2.6202 1.7151
-3.6970 -2.7552 1.7151
-3.5954 -2.8869 1.7151
-3.4892 -3.0149 1.7151
-3.3787 -3.1392 1.7151
-3.2639 -3.2596 1.7151
-3.1450 -3.3759 1.7151
-3.0221 -3.4881 1.7151
-2.8953 -3.5960 1.7151
-2.7649 -3.6995 1.7151
-2.6308 -3.7984 1.7151
-2.4934 -3.8926 1.7151
-2.3527 -3.9820 1.7151
-2.2089 -4.0666 1.7151
-2.0621 -4.1461 1.7151
-1.9127 -4.2205 1.7151
-1.7606 -4.2897 1.7151
-1.6061 -4.3536 1.7151
-1.4493 -4.4122 1.7151
-1.2905 -4.4652 1.7151
-1.1298 -4.5128 1.7151
-0.9674 -4.5547 1.7151
-0.8035 -4.5910 1.7151
-0.6383 -4.6215 1.7151
-0.4720 -4.6462 1.7151
-0.3047 -4.6652 1.7151
-0.1368 -4.6782 1.7151
0.0317 -4.6854 1.7151
0.2006 -4.6867 1.7151
0.3695 -4.6820 1.7151
0.5383 -4.6713 1.7151
0.7069 -4.6547 1.7151
0.8749 -4.6321 1.7151
1.0423 -4.6036 1.7151
1.2087 -4.5691 1.7151
1.3740 -4.5288 1.7151
1.5380 -4.4825 1.7151
1.7004 -4.4304 1.7151
1.8611 -4.3724 1.7151
2.0198 -4.3088 1.7151
2.1763 -4.2394 1.7151
2.3304 -4.1644 1.7151
2.4820 -4.0838 1.7151
2.6308 -3.9978 1.7151
2.7765 -3.9064 1.7151
2.9191 -3.8097 1.7151
3.0584 -3.7078 1.7151
3.1940 -3.6009 1.7151
3.3259 -3.4890 1.7151
3.4538 -3.3722 1.7151
3.5776 -3.2508 1.7151
3.6971 -3.1249 1.7151
3.8121 -2.9945 1.7151
3.9224 -2.8599 1.7151
4.0279 -2.7212 1.7151
4.1284 -2.5787 1.7151
4.0973 -2.3595 1.6637
4.0543 -2.1451 1.6119
4.1339 -2.0011 1.6119
4.2083 -1.8541 1.6119
4.2774 -1.7044 1.6119
4.3410 -1.5521 1.6119
4.3991 -1.3974 1.6119
4.4515 -1.2405 1.6119
4.4982 -1.0816 1.6119
4.5390 -0.9209 1.6120
4.5740 -0.7587 1.6120
4.6030 -0.5952 1.6120
4.6260 -0.4306 1.6120
4.6429 -0.2651 1.6120
4.6536 -0.0990 1.6120
4.6583 0.0676 1.6120
4.6568 0.2343 1.6120
4.6491 0.4010 1.6120
4.6352 0.5674 1.6120
4.6152 0.7333 1.6120
4.5891 0.8984 1.6120
4.5568 1.0625 1.6120
4.5184 1.2254 1.6120
4.1434 1.2843 1.4929
3.9482 1.3803 1.4387
4.0004 1.5612 1.4766
4.3052 1.8600 1.6120
4.2372 2.0133 1.6120
4.1637 2.1640 1.6120
4.0845 2.3119 1.6120
3.9999 2.4567 1.6120
3.9099 2.5984 1.6120
3.8444 2.7578 1.6246
3.8950 3.0106 1.6904
3.8401 3.1938 1.7151
3.7231 3.3286 1.7151
3.6012 3.4589 1.7151
3.4745 3.5846 1.7151
3.3433 3.7055 1.7151
3.2077 3.8213 1.7151
3.0679 3.9321 1.7151
2.9241 4.0375 1.7151
2.7766 4.1374 1.7151
0.8884 1.4319 0.5803
0.8366 1.4626 0.5806
0.7837 1.4914 0.5809
0.7298 1.5183 0.5812
0.6750 1.5433 0.5816
0.6193 1.5663 0.5820
0.5628 1.5873 0.5824
0.5057 1.6062 0.5828
0.4479 1.6232 0.5833
0.3895 1.6380 0.5838
0.3306 1.6507 0.5843
0.2713 1.6614 0.5849
0.2117 1.6699 0.5854
0.1518 1.6762 0.5860
0.0917 1.6804 0.5866
0.0315 1.6825 0.5872
-0.0288 1.6824 0.5879
-0.0890 1.6802 0.5886
-0.1491 1.6758 0.5892
-0.2090 1.6693 0.5899
-0.2686 1.6606 0.5907
-0.3279 1.6498 0.5914
-0.3868 1.6369 0.5921
-0.4451 1.6219 0.5929
-0.5029 1.6048 0.5937
-0.5601 1.5857 0.5945
-0.6166 1.5645 0.5953
-0.6722 1.5413 0.5961
-0.7270 1.5161 0.5969
-0.7809 1.4890 0.5977
-0.8338 1.4600 0.5985
-0.8856 1.4291 0.5994
-2.6753 3.9900 1.7151
-2.8127 3.8859 1.7151
-2.9462 3.7770 1.7151
-3.0754 3.6636 1.7151
-3.2004 3.5457 1.7151
-3.3210 3.4236 1.7151
-3.4369 3.2975 1.7151
-3.5482 3.1674 1.7151
-3.6546 3.0337 1.7151
-3.7561 2.8964 1.7151
-3.8525 2.7558 1.7151
-3.9438 2.6120 1.7151
-4.0298 2.4653 1.7151
-4.1105 2.3158 1.7151
-4.1857 2.1637 1.7151
-4.2555 2.0092 1.7151
-4.3197 1.8526 1.7151
-4.3782 1.6939 1.7151
-4.4312 1.5335 1.7151
-4.4783 1.3715 1.7151
-4.5197 1.2080 1.7151
-4.5554 1.0434 1.7151
-4.5852 0.8778 1.7151
-4.6091 0.7114 1.7151
-4.6272 0.5445 1.7151
-4.6395 0.3771 1.7151
-4.6459 0.2096 1.7151
-4.6464 0.0420 1.7151
-4.6411 -0.1253 1.7151
3.1118 3.4519 1.7151
2.9856 3.5598 1.7151
2.8555 3.6629 1.7151
2.7217 3.7611 1.7151
0.8764 1.3069 0.5816
0.8290 1.3373 0.5818
0.7806 1.3659 0.5821
0.7312 1.3928 0.5824
0.6809 1.4179 0.5827
0.6297 1.4412 0.5830
0.5778 1.4626 0.5834
0.5251 1.4822 0.5838
0.4717 1.4999 0.5842
0.4177 1.5156 0.5846
0.3632 1.5295 0.5851
0.3082 1.5413 0.5856
0.2529 1.5512 0.5861
0.1972 1.5591 0.5866
0.1413 1.5650 0.5871
0.0852 1.5689 0.5877
0.0290 1.5708 0.5883
-0.0272 1.5707 0.5889
-0.0834 1.5686 0.5895
-0.1395 1.5645 0.5901
-0.1954 1.5584 0.5908
-0.2511 1.5502 0.5915
-0.3064 1.5401 0.5922
-0.3614 1.5280 0.5929
-0.4158 1.5140 0.5936
-0.4698 1.4980 0.5943
-0.5231 1.4801 0.5950
-0.5758 1.4603 0.5958
-0.6277 1.4386 0.5965
-0.6789 1.4151 0.5973
-0.7291 1.3897 0.5981
-0.7785 1.3626 0.5988
-0.8268 1.3337 0.5996
-0.8741 1.3031 0.6004
-2.6253 3.6256 1.7151
-2.7500 3.5243 1.7151
-2.8709 3.4186 1.7151
-2.9877 3.3089 1.7151
-3.1004 3.1951 1.7151
-3.2089 3.0776 1.7151
-3.3130 2.9564 1.7151
-3.4125 2.8317 1.7151
-3.5075 2.7037 1.7151
-3.5978 2.5725 1.7151
-3.6832 2.4384 1.7151
-3.7638 2.3015 1.7151
-3.8393 2.1620 1.7151
-3.9099 2.0201 1.7151
-3.9752 1.8759 1.7151
-4.0354 1.7296 1.7151
-4.0904 1.5815 1.7151
-4.1400 1.4317 1.7151
-4.1843 1.2803 1.7151
-4.2232 1.1276 1.7151
-4.2567 0.9739 1.7151
-4.2847 0.8191 1.7151
-4.3073 0.6636 1.7151
-4.3244 0.5076 1.7151
-4.3360 0.3512 1.7151
-4.3421 0.1946 1.7151
-4.3427 0.0380 1.7151
-4.3379 -0.1185 1.7151
-4.3276 -0.2745 1.7151
-4.3119 -0.4300 1.7151
-4.2908 -0.5848 1.7151
-4.2643 -0.7386 1.7151
-4.2325 -0.8914 1.7151
-4.1953 -1.0429 1.7151
-4.1530 -1.1929 1.7151
-4.1055 -1.3413 1.7151
-4.0529 -1.4879 1.7151
-3.9952 -1.6325 1.7151
-3.9325 -1.7750 1.7151
-3.8650 -1.9152 1.7151
-3.7926 -2.0530 1.7151
-3.7155 -2.1881 1.7151
-3.6337 -2.3204 1.7151
-3.5474 -2.4498 1.7151
-3.4567 -2.5762 1.7151
-3.3616 -2.6993 1.7151
-3.2624 -2.8190 1.7151
-3.1590 -2.9352 1.7151
-3.0516 -3.0478 1.7151
-2.9403 -3.1566 1.7151
-2.8253 -3.2614 1.7151
-2.7067 -3.3623 1.7151
-2.5846 -3.4590 1.7151
-2.4592 -3.5514 1.7151
-2.3306 -3.6394 1.7151
-2.1990 -3.7229 1.7151
-2.0644 -3.8019 1.7151
-1.9271 -3.8761 1.7151
-1.7873 -3.9455 1.7151
-1.6450 -4.0101 1.7151
-1.5005 -4.0697 1.7151
-1.3539 -4.1242 1.7151
-1.2053 -4.1736 1.7151
-1.0550 -4.2179 1.7151
-0.9032 -4.2568 1.7151
-0.7499 -4.2905 1.7151
-0.5955 -4.3188 1.7151
-0.4400 -4.3417 1.7151
-0.2836 -4.3591 1.7151
-0.1267 -4.3710 1.7151
0.0308 -4.3774 1.7151
0.1885 -4.3783 1.7151
0.3464 -4.3736 1.7151
0.5041 -4.3633 1.7151
0.6615 -4.3475 1.7151
0.8185 -4.3261 1.7151
0.9747 -4.2991 1.7151
1.1301 -4.2666 1.7151
1.2844 -4.2286 1.7151
1.4374 -4.1850 1.7151
1.5889 -4.1360 1.7151
1.7388 -4.0816 1.7151
1.8868 -4.0218 1.7151
2.0328 -3.9567 1.7151
2.1765 -3.8864 1.7151
2.3178 -3.8109 1.7151
2.4564 -3.7303 1.7151
2.5923 -3.6446 1.7151
2.7251 -3.5541 1.7151
2.8548 -3.4587 1.7151
2.9811 -3.3587 1.7151
3.1039 -3.2540 1.7151
3.2229 -3.1448 1.7151
3.3381 -3.0313 1.7151
3.4493 -2.9136 1.7151
3.5562 -2.7917 1.7151
3.6588 -2.6660 1.7151
3.7569 -2.5365 1.7151
3.8503 -2.4033 1.7151
3.9389 -2.2667 1.7151
3.9687 -2.0983 1.6921
3.9215 -1.8969 1.6399
3.9235 -1.7274 1.6119
3.9876 -1.5877 1.6119
4.0466 -1.4456 1.6119
4.1004 -1.3013 1.6119
4.1490 -1.1550 1.6119
4.1922 -1.0069 1.6120
4.2300 -0.8572 1.6120
4.2623 -0.7060 1.6120
4.2890 -0.5537 1.6120
4.3102 -0.4003 1.6120
4.3256 -0.2461 1.6120
4.3354 -0.0913 1.6120
4.3395 0.0638 1.6120
4.3379 0.2190 1.6120
4.3305 0.3743 1.6120
4.3174 0.5292 1.6120
4.2986 0.6836 1.6120
4.2741 0.8373 1.6120
4.2439 0.9901 1.6120
4.2080 1.1417 1.6120
4.1348 1.2822 1.5997
3.9432 1.3790 1.5430
3.9952 1.5595 1.5836
4.0090 1.7324 1.6120
3.9457 1.8751 1.6120
3.8772 2.0153 1.6120
3.8034 2.1530 1.6120
3.7246 2.2878 1.6120
3.7447 2.4886 1.6580
3.7794 2.7112 1.7151
3.6801 2.8444 1.7151
3.5759 2.9739 1.7151
3.4670 3.0994 1.7151
3.3535 3.2208 1.7151
3.2357 3.3378 1.7151
3.1136 3.4504 1.7151
2.9874 3.5584 1.7151
2.8573 3.6615 1.7151
2.7236 3.7597 1.7151
0.8770 1.3065 0.5816
0.8297 1.3369 0.5818
0.7813 1.3655 0.5821
0.7319 1.3925 0.5824
0.6816 1.4176 0.5827
0.6305 1.4409 0.5830
0.5785 1.4624 0.5834
0.5258 1.4820 0.5838
0.4724 1.4997 0.5842
0.4185 1.5154 0.5846
0.3640 1.5293 0.5851
0.3090 1.5412 0.5855
0.2537 1.5511 0.5861
0.1980 1.5590 0.5866
0.1421 1.5650 0.5871
0.0860 1.5689 0.5877
0.0298 1.5708 0.5883
-0.0264 1.5707 0.5889
-0.0826 1.5687 0.5895
-0.1387 1.5646 0.5901
-0.1947 1.5585 0.5908
-0.2503 1.5504 0.5915
-0.3057 1.5403 0.5921
-0.3606 1.5282 0.5928
-0.4151 1.5142 0.5936
-0.4690 1.4982 0.5943
-0.5224 1.4803 0.5950
-0.5751 1.4606 0.5958
-0.6270 1.4389 0.5965
-0.6782 1.4154 0.5973
-0.7284 1.3901 0.5980
-0.7778 1.3630 0.5988
-0.8261 1.3341 0.5996
-0.8734 1.3036 0.6004
-2.6236 3.6270 1.7151
-2.7483 3.5257 1.7151
-2.8692 3.4201 1.7151
-2.9861 3.3104 1.7151
-3.0989 3.1967 1.7151
-3.2074 3.0792 1.7151
-3.3115 2.9581 1.7151
-3.4112 2.8334 1.7151
-3.5062 2.7055 1.7151
-3.5965 2.5744 1.7151
-3.6821 2.4403 1.7151
-3.7627 2.3035 1.7151
-3.8383 2.1640 1.7151
-3.9089 2.0221 1.7151
-3.9744 1.8779 1.7151
-4.0346 1.7317 1.7151
-4.0896 1.5836 1.7151
-4.1394 1.4337 1.7151
-4.1837 1.2824 1.7151
-4.2227 1.1298 1.7151
-4.2562 0.9760 1.7151
-4.2844 0.8213 1.7151
-4.3070 0.6658 1.7151
-4.3242 0.5098 1.7151
-4.3358 0.3534 1.7151
-4.3420 0.1968 1.7151
-4.3428 0.0401 1.7151
-4.3380 -0.1163 1.7151
2.9087 3.2261 1.7151
2.7908 3.3270 1.7151
0.9067 1.1628 0.5826
0.8645 1.1943 0.5827
0.8212 1.2243 0.5829
0.7768 1.2528 0.5831
0.7315 1.2796 0.5834
0.6853 1.3048 0.5837
0.6381 1.3283 0.5839
0.5902 1.3501 0.5843
0.5415 1.3702 0.5846
0.4921 1.3885 0.5850
0.4422 1.4051 0.5854
0.3916 1.4198 0.5858
0.3406 1.4328 0.5862
0.2891 1.4439 0.5866
0.2372 1.4531 0.5871
0.1851 1.4605 0.5876
0.1327 1.4661 0.5881
0.0802 1.4697 0.5886
0.0276 1.4715 0.5892
-0.0251 1.4714 0.5898
-0.0777 1.4694 0.5903
-0.1303 1.4655 0.5909
-0.1826 1.4598 0.5916
-0.2348 1.4522 0.5922
-0.2866 1.4427 0.5928
-0.3380 1.4314 0.5935
-0.3891 1.4182 0.5941
-0.4396 1.4032 0.5948
-0.4895 1.3864 0.5955
-0.5389 1.3679 0.5962
-0.5875 1.3476 0.5969
-0.6354 1.3255 0.5976
-0.6825 1.3018 0.5983
-0.7287 1.2764 0.5991
-0.7739 1.2493 0.5998
-0.8182 1.2207 0.6005
-0.8614 1.1904 0.6013
-2.5740 3.3009 1.7151
-2.6874 3.2023 1.7151
-2.7970 3.0997 1.7151
-2.9028 2.9934 1.7151
-3.0046 2.8835 1.7151
-3.1023 2.7702 1.7151
-3.1958 2.6536 1.7151
-3.2850 2.5339 1.7151
-3.3698 2.4112 1.7151
-3.4501 2.2857 1.7151
-3.5258 2.1575 1.7151
-3.5969 2.0269 1.7151
-3.6632 1.8940 1.7151
-3.7248 1.7590 1.7151
-3.7814 1.6220 1.7151
-3.8332 1.4833 1.7151
-3.8799 1.3429 1.7151
-3.9217 1.2011 1.7151
-3.9584 1.0580 1.7151
-3.9900 0.9139 1.7151
-4.0165 0.7689 1.7151
-4.0379 0.6231 1.7151
-4.0541 0.4768 1.7151
-4.0652 0.3301 1.7151
-4.0711 0.1833 1.7151
-4.0719 0.0364 1.7151
-4.0675 -0.1103 1.7151
-4.0580 -0.2567 1.7151
-4.0434 -0.4026 1.7151
-4.0238 -0.5478 1.7151
-3.9990 -0.6921 1.7151
-3.9693 -0.8354 1.7151
-3.9346 -0.9775 1.7151
-3.8950 -1.1183 1.7151
-3.8505 -1.2576 1.7151
-3.8012 -1.3951 1.7151
-3.7472 -1.5308 1.7151
-3.6884 -1.6646 1.7151
-3.6251 -1.7961 1.7151
-3.5572 -1.9254 1.7151
-3.4849 -2.0522 1.7151
-3.4082 -2.1763 1.7151
-3.3273 -2.2978 1.7151
-3.2422 -2.4163 1.7151
-3.1530 -2.5318 1.7151
-3.0598 -2.6441 1.7151
-2.9628 -2.7531 1.7151
-2.8620 -2.8587 1.7151
-2.7576 -2.9608 1.7151
-2.6496 -3.0591 1.7151
-2.5383 -3.1537 1.7151
-2.4237 -3.2443 1.7151
-2.3060 -3.3309 1.7151
-2.1853 -3.4134 1.7151
-2.0618 -3.4917 1.7151
-1.9355 -3.5656 1.7151
-1.8067 -3.6351 1.7151
-1.6754 -3.7002 1.7151
-1.5419 -3.7606 1.7151
-1.4063 -3.8163 1.7151
-1.2687 -3.8673 1.7151
-1.1293 -3.9135 1.7151
-0.9883 -3.9548 1.7151
-0.8459 -3.9912 1.7151
-0.7021 -4.0225 1.7151
-0.5573 -4.0489 1.7151
-0.4114 -4.0701 1.7151
-0.2648 -4.0862 1.7151
-0.1176 -4.0972 1.7151
0.0300 -4.1029 1.7151
0.1778 -4.1035 1.7151
0.3258 -4.0989 1.7151
0.4736 -4.0890 1.7151
0.6211 -4.0739 1.7151
0.7682 -4.0535 1.7151
0.9145 -4.0280 1.7151
1.0601 -3.9972 1.7151
1.2045 -3.9613 1.7151
1.3478 -3.9202 1.7151
1.4897 -3.8741 1.7151
1.6300 -3.8228 1.7151
1.7685 -3.7665 1.7151
1.9051 -3.7053 1.7151
2.0396 -3.6391 1.7151
2.1717 -3.5681 1.7151
2.3014 -3.4924 1.7151
2.4285 -3.4119 1.7151
2.5527 -3.3269 1.7151
2.6739 -3.2374 1.7151
2.7919 -3.1434 1.7151
2.9066 -3.0452 1.7151
3.0179 -2.9428 1.7151
3.1255 -2.8363 1.7151
3.2292 -2.7259 1.7151
3.3291 -2.6117 1.7151
3.4248 -2.4939 1.7151
3.5164 -2.3725 1.7151
3.6035 -2.2477 1.7151
3.6862 -2.1198 1.7151
3.7642 -1.9888 1.7151
3.8375 -1.8549 1.7151
3.8480 -1.6928 1.6897
3.8051 -1.5138 1.6441
3.7856 -1.3512 1.6119
3.8356 -1.2162 1.6120
3.8932 -1.0827 1.6171
3.9210 -0.9407 1.6120
3.9561 -0.8007 1.6120
3.9860 -0.6593 1.6120
4.0108 -0.5168 1.6120
4.0304 -0.3734 1.6120
4.0446 -0.2293 1.6120
4.0536 -0.0846 1.6120
4.0572 0.0604 1.6120
4.0555 0.2055 1.6120
4.0484 0.3506 1.6120
4.0360 0.4954 1.6120
4.0183 0.6397 1.6120
3.9952 0.7833 1.6120
3.9669 0.9260 1.6120
3.9332 1.0677 1.6120
3.8944 1.2081 1.6120
3.8503 1.3469 1.6120
3.8012 1.4842 1.6120
3.7469 1.6195 1.6120
3.6877 1.7528 1.6120
3.6244 1.8842 1.6124
3.6329 2.0567 1.6475
3.6740 2.2569 1.7014
3.6203 2.4061 1.7151
3.5322 2.5339 1.7151
3.4394 2.6584 1.7151
3.3421 2.7794 1.7151
3.2404 2.8967 1.7151
3.1344 3.0101 1.7151
3.0243 3.1195 1.7151
2.9103 3.2247 1.7151
2.7924 3.3256 1.7151
0.9072 1.1624 0.5826
0.8651 1.1939 0.5827
0.8218 1.2239 0.5829
0.7775 1.2524 0.5831
0.7321 1.2792 0.5834
0.6859 1.3044 0.5837
0.6388 1.3280 0.5839
0.5909 1.3498 0.5843
0.5422 1.3699 0.5846
0.4928 1.3883 0.5850
0.4429 1.4048 0.5853
0.3923 1.4196 0.5858
0.3413 1.4326 0.5862
0.2898 1.4437 0.5866
0.2380 1.4530 0.5871
0.1858 1.4604 0.5876
0.1335 1.4660 0.5881
0.0809 1.4697 0.5886
0.0283 1.4715 0.5892
-0.0244 1.4714 0.5898
-0.0770 1.4694 0.5903
-0.1295 1.4656 0.5909
-0.1819 1.4599 0.5915
-0.2340 1.4523 0.5922
-0.2859 1.4428 0.5928
-0.3373 1.4315 0.5935
-0.3884 1.4184 0.5941
-0.4389 1.4034 0.5948
-0.4888 1.3867 0.5955
-0.5382 1.3682 0.5962
-0.5868 1.3479 0.5969
-0.6347 1.3258 0.5976
-0.6818 1.3021 0.5983
-0.7280 1.2767 0.5991
-0.7733 1.2497 0.5998
-0.8176 1.2211 0.6005
-0.8608 1.1909 0.6013
-2.5724 3.3023 1.7151
-2.6858 3.2037 1.7151
-2.7955 3.1012 1.7151
-2.9013 2.9949 1.7151
-3.0032 2.8851 1.7151
-3.1010 2.7718 1.7151
-3.1945 2.6552 1.7151
-3.2838 2.5355 1.7151
-3.3687 2.4129 1.7151
-3.4490 2.2874 1.7151
-3.5248 2.1593 1.7151
-3.5960 2.0288 1.7151
-3.6623 1.8959 1.7151
-3.7239 1.7609 1.7151
-3.7807 1.6240 1.7151
-3.8325 1.4852 1.7151
-3.8793 1.3449 1.7151
-3.9211 1.2031 1.7151
-3.9579 1.0600 1.7151
-3.9896 0.9159 1.7151
-4.0161 0.7709 1.7151
-4.0376 0.6251 1.7151
-4.0539 0.4789 1.7151
-4.0650 0.3322 1.7151
-4.0710 0.1853 1.7151
-4.0719 0.0384 1.7151
-4.0676 -0.1083 1.7151
2.7274 3.0247 1.7151
0.8906 1.0615 0.5837
0.8520 1.0925 0.5838
0.8124 1.1221 0.5840
0.7717 1.1503 0.5841
0.7301 1.1770 0.5843
0.6875 1.2022 0.5846
0.6440 1.2259 0.5848
0.5998 1.2480 0.5851
0.5548 1.2685 0.5854
0.5090 1.2873 0.5857
0.4627 1.3045 0.5860
0.4157 1.3201 0.5864
0.3682 1.3340 0.5868
0.3203 1.3461 0.5872
0.2719 1.3565 0.5876
0.2232 1.3652 0.5881
0.1742 1.3722 0.5885
0.1251 1.3774 0.5890
0.0757 1.3808 0.5895
0.0263 1.3825 0.5900
-0.0232 1.3824 0.5905
-0.0727 1.3805 0.5911
-0.1220 1.3769 0.5917
-0.1712 1.3715 0.5922
-0.2201 1.3643 0.5928
-0.2688 1.3554 0.5934
-0.3171 1.3447 0.5940
-0.3651 1.3324 0.5947
-0.4125 1.3183 0.5953
-0.4594 1.3025 0.5960
-0.5058 1.2851 0.5966
-0.5515 1.2660 0.5973
-0.5964 1.2453 0.5979
-0.6406 1.2230 0.5986
-0.6840 1.1991 0.5993
-0.7265 1.1737 0.6000
-0.7681 1.1468 0.6007
-0.8087 1.1184 0.6014
-0.8482 1.0885 0.6021
-0.8867 1.0573 0.6028
-2.6261 2.9123 1.7151
-2.7257 2.8126 1.7151
-2.8215 2.7096 1.7151
-2.9135 2.6033 1.7151
-3.0015 2.4939 1.7151
-3.0855 2.3816 1.7151
-3.1654 2.2664 1.7151
-3.2411 2.1486 1.7151
-3.3124 2.0284 1.7151
-3.3794 1.9057 1.7151
-3.4420 1.7810 1.7151
-3.5000 1.6541 1.7151
-3.5534 1.5255 1.7151
-3.6023 1.3951 1.7151
-3.6464 1.2632 1.7151
-3.6859 1.1300 1.7151
-3.7206 0.9955 1.7151
-3.7505 0.8601 1.7151
-3.7756 0.7237 1.7151
-3.7959 0.5867 1.7151
-3.8113 0.4491 1.7151
-3.8219 0.3112 1.7151
-3.8276 0.1731 1.7151
-3.8285 0.0350 1.7151
-3.8245 -0.1030 1.7151
-3.8158 -0.2407 1.7151
-3.8022 -0.3779 1.7151
-3.7838 -0.5145 1.7151
-3.7606 -0.6503 1.7151
-3.7328 -0.7851 1.7151
-3.7002 -0.9188 1.7151
-3.6630 -1.0512 1.7151
-3.6213 -1.1823 1.7151
-3.5750 -1.3117 1.7151
-3.5242 -1.4394 1.7151
-3.4690 -1.5652 1.7151
-3.4094 -1.6890 1.7151
-3.3456 -1.8106 1.7151
-3.2776 -1.9299 1.7151
-3.2055 -2.0468 1.7151
-3.1293 -2.1610 1.7151
-3.0493 -2.2725 1.7151
-2.9653 -2.3812 1.7151
-2.8777 -2.4869 1.7151
-2.7864 -2.5894 1.7151
-2.6915 -2.6887 1.7151
-2.5933 -2.7847 1.7151
-2.4917 -2.8772 1.7151
-2.3869 -2.9661 1.7151
-2.2791 -3.0513 1.7151
-2.1683 -3.1327 1.7151
-2.0547 -3.2103 1.7151
-1.9384 -3.2838 1.7151
-1.8196 -3.3533 1.7151
-1.6984 -3.4186 1.7151
-1.5749 -3.4796 1.7151
-1.4492 -3.5364 1.7151
-1.3216 -3.5887 1.7151
-1.1922 -3.6365 1.7151
-1.0611 -3.6798 1.7151
-0.9284 -3.7185 1.7151
-0.7944 -3.7525 1.7151
-0.6592 -3.7818 1.7151
-0.5230 -3.8064 1.7151
-0.3858 -3.8262 1.7151
-0.2480 -3.8412 1.7151
-0.1096 -3.8513 1.7151
0.0292 -3.8565 1.7151
0.1682 -3.8568 1.7151
0.3073 -3.8523 1.7151
0.4462 -3.8428 1.7151
0.5849 -3.8283 1.7151
0.7230 -3.8090 1.7151
0.8605 -3.7848 1.7151
0.9972 -3.7556 1.7151
1.1330 -3.7216 1.7151
1.2675 -3.6828 1.7151
1.4007 -3.6392 1.7151
1.5325 -3.5908 1.7151
1.6625 -3.5377 1.7151
1.7907 -3.4799 1.7151
1.9169 -3.4175 1.7151
2.0409 -3.3506 1.7151
2.1626 -3.2792 1.7151
2.2817 -3.2035 1.7151
2.3982 -3.1234 1.7151
2.5118 -3.0391 1.7151
2.6225 -2.9507 1.7151
2.7300 -2.8583 1.7151
2.8343 -2.7619 1.7151
2.9351 -2.6618 1.7151
3.0323 -2.5580 1.7151
3.1258 -2.4506 1.7151
3.2155 -2.3399 1.7151
3.3012 -2.2258 1.7151
3.3828 -2.1086 1.7151
3.4601 -1.9884 1.7151
3.5331 -1.8653 1.7151
3.6017 -1.7396 1.7151
3.6657 -1.6113 1.7151
3.7250 -1.4807 1.7151
3.7411 -1.3341 1.6976
3.6966 -1.1710 1.6557
3.6705 -1.0198 1.6250
3.6787 -0.8816 1.6120
3.7114 -0.7502 1.6120
3.7557 -0.6203 1.6191
3.7624 -0.4839 1.6120
3.7805 -0.3494 1.6120
3.7937 -0.2142 1.6120
3.8019 -0.0786 1.6120
3.8052 0.0574 1.6120
3.8034 0.1935 1.6120
3.7967 0.3294 1.6120
3.7849 0.4652 1.6120
3.7681 0.6004 1.6120
3.7464 0.7351 1.6120
3.7197 0.8688 1.6120
3.6881 1.0016 1.6120
3.6515 1.1332 1.6120
3.6102 1.2633 1.6120
3.5640 1.3919 1.6120
3.5494 1.5344 1.6287
3.5584 1.6916 1.6591
3.5883 1.8657 1.7026
3.5459 2.0076 1.7151
3.4724 2.1332 1.7151
3.3943 2.2560 1.7151
3.3118 2.3758 1.7151
3.2248 2.4925 1.7151
3.1336 2.6059 1.7151
3.0383 2.7158 1.7151
2.9390 2.8221 1.7151
2.8358 2.9247 1.7151
2.7289 3.0234 1.7151
0.8911 1.0611 0.5837
0.8526 1.0921 0.5838
0.8129 1.1217 0.5839
0.7723 1.1499 0.5841
0.7307 1.1767 0.5843
0.6881 1.2019 0.5846
0.6447 1.2256 0.5848
0.6004 1.2477 0.5851
0.5554 1.2682 0.5854
0.5097 1.2871 0.5857
0.4633 1.3043 0.5860
0.4164 1.3199 0.5864
0.3689 1.3338 0.5868
0.3209 1.3459 0.5872
0.2726 1.3564 0.5876
0.2239 1.3651 0.5881
0.1749 1.3721 0.5885
0.1257 1.3773 0.5890
0.0764 1.3808 0.5895
0.0269 1.3825 0.5900
-0.0225 1.3824 0.5905
-0.0720 1.3805 0.5911
-0.1213 1.3769 0.5917
-0.1705 1.3715 0.5922
-0.2195 1.3644 0.5928
-0.2681 1.3555 0.5934
-0.3165 1.3449 0.5940
-0.3644 1.3326 0.5947
-0.4119 1.3185 0.5953
-0.4588 1.3028 0.5959
-0.5051 1.2853 0.5966
-0.5508 1.2663 0.5973
-0.5958 1.2456 0.5979
-0.6400 1.2233 0.5986
-0.6834 1.1995 0.5993
-0.7259 1.1741 0.6000
-0.7675 1.1471 0.6007
-0.8081 1.1188 0.6014
-0.8477 1.0889 0.6021
-0.8861 1.0577 0.6027
-2.6247 2.9136 1.7151
-2.7243 2.8140 1.7151
-2.8202 2.7110 1.7151
-2.9122 2.6048 1.7151
-3.0003 2.4955 1.7151
-3.0844 2.3832 1.7151
-3.1643 2.2681 1.7151
-3.2400 2.1503 1.7151
-3.3115 2.0301 1.7151
-3.3785 1.9075 1.7151
-3.4411 1.7827 1.7151
-3.4992 1.6559 1.7151
-3.5527 1.5273 1.7151
-3.6016 1.3969 1.7151
-3.6459 1.2651 1.7151
-3.6854 1.1318 1.7151
-3.7201 0.9974 1.7151
-3.7501 0.8620 1.7151
-3.7753 0.7256 1.7151
-3.7956 0.5886 1.7151
-3.8111 0.4511 1.7151
-3.8218 0.3132 1.7151
-3.8276 0.1751 1.7151
-3.8285 0.0369 1.7151
-3.8246 -0.1011 1.7151
0.8743 0.9694 0.5847
0.8390 0.9999 0.5848
0.8027 1.0291 0.5849
0.7654 1.0570 0.5850
0.7271 1.0835 0.5852
0.6879 1.1087 0.5854
0.6478 1.1324 0.5856
0.6069 1.1547 0.5859
0.5652 1.1755 0.5861
0.5228 1.1948 0.5864
0.4797 1.2126 0.5867
0.4361 1.2288 0.5870
0.3918 1.2434 0.5874
0.3471 1.2565 0.5877
0.3020 1.2679 0.5881
0.2564 1.2778 0.5885
0.2106 1.2859 0.5889
0.1645 1.2925 0.5894
0.1181 1.2974 0.5898
0.0716 1.3006 0.5903
0.0251 1.3022 0.5908
-0.0215 1.3021 0.5913
-0.0681 1.3003 0.5918
-0.1145 1.2969 0.5923
-0.1608 1.2918 0.5928
-0.2069 1.2850 0.5934
-0.2528 1.2766 0.5940
-0.2983 1.2666 0.5945
-0.3434 1.2550 0.5951
-0.3881 1.2417 0.5957
-0.4323 1.2268 0.5963
-0.4759 1.2104 0.5970
-0.5189 1.1924 0.5976
-0.5613 1.1729 0.5982
-0.6029 1.1519 0.5989
-0.6437 1.1294 0.5995
-0.6838 1.1055 0.6001
-0.7229 1.0801 0.6008
-0.7611 1.0534 0.6014
-0.7984 1.0252 0.6021
-0.8346 0.9958 0.6028
-0.8697 0.9651 0.6034
-2.5659 2.6495 1.7151
-2.6563 2.5526 1.7151
-2.7430 2.4527 1.7151
-2.8261 2.3498 1.7151
-2.9054 2.2441 1.7151
-2.9809 2.1358 1.7151
-3.0523 2.0249 1.7151
-3.1197 1.9117 1.7151
-3.1830 1.7963 1.7151
-3.2421 1.6788 1.7151
-3.2970 1.5594 1.7151
-3.3475 1.4382 1.7151
-3.3937 1.3155 1.7151
-3.4355 1.1912 1.7151
-3.4728 1.0657 1.7151
-3.5057 0.9390 1.7151
-3.5340 0.8114 1.7151
-3.5579 0.6829 1.7151
-3.5771 0.5538 1.7151
-3.5918 0.4241 1.7151
-3.6019 0.2941 1.7151
-3.6075 0.1640 1.7151
-3.6084 0.0337 1.7151
-3.6048 -0.0964 1.7151
-3.5967 -0.2262 1.7151
-3.5840 -0.3556 1.7151
-3.5667 -0.4844 1.7151
-3.5450 -0.6124 1.7151
-3.5188 -0.7396 1.7151
-3.4882 -0.8657 1.7151
-3.4532 -0.9906 1.7151
-3.4139 -1.1142 1.7151
-3.3703 -1.2362 1.7151
-3.3224 -1.3567 1.7151
-3.2704 -1.4754 1.7151
-3.2143 -1.5921 1.7151
-3.1542 -1.7068 1.7151
-3.0900 -1.8193 1.7151
-3.0220 -1.9295 1.7151
-2.9502 -2.0373 1.7151
-2.8747 -2.1425 1.7151
-2.7956 -2.2449 1.7151
-2.7129 -2.3446 1.7151
-2.6267 -2.4413 1.7151
-2.5373 -2.5349 1.7151
-2.4446 -2.6254 1.7151
-2.3488 -2.7126 1.7151
-2.2499 -2.7964 1.7151
-2.1482 -2.8767 1.7151
-2.0437 -2.9534 1.7151
-1.9365 -3.0265 1.7151
-1.8269 -3.0958 1.7151
-1.7148 -3.1612 1.7151
-1.6004 -3.2227 1.7151
-1.4839 -3.2802 1.7151
-1.3654 -3.3335 1.7151
-1.2451 -3.3828 1.7151
-1.1230 -3.4278 1.7151
-0.9993 -3.4684 1.7151
-0.8743 -3.5048 1.7151
-0.7479 -3.5368 1.7151
-0.6204 -3.5643 1.7151
-0.4919 -3.5873 1.7151
-0.3627 -3.6058 1.7151
-0.2327 -3.6197 1.7151
-0.1023 -3.6291 1.7151
0.0286 -3.6338 1.7151
0.1596 -3.6340 1.7151
0.2906 -3.6295 1.7151
0.4215 -3.6203 1.7151
0.5521 -3.6065 1.7151
0.6822 -3.5881 1.7151
0.8118 -3.5651 1.7151
0.9405 -3.5375 1.7151
1.0683 -3.5052 1.7151
1.1950 -3.4685 1.7151
1.3204 -3.4272 1.7151
1.4444 -3.3814 1.7151
1.5668 -3.3312 1.7151
1.6875 -3.2766 1.7151
1.8062 -3.2176 1.7151
1.9229 -3.1544 1.7151
2.0373 -3.0870 1.7151
2.1494 -3.0155 1.7151
2.2589 -2.9399 1.7151
2.3658 -2.8604 1.7151
2.4698 -2.7770 1.7151
2.5709 -2.6898 1.7151
2.6689 -2.5990 1.7151
2.7636 -2.5046 1.7151
2.8549 -2.4067 1.7151
2.9428 -2.3055 1.7151
3.0270 -2.2011 1.7151
3.1074 -2.0937 1.7151
3.1840 -1.9833 1.7151
3.2566 -1.8701 1.7151
3.3251 -1.7542 1.7151
3.3894 -1.6358 1.7151
3.4494 -1.5150 1.7151
3.5050 -1.3921 1.7151
3.5562 -1.2671 1.7151
3.6028 -1.1402 1.7151
3.6447 -1.0115 1.7151
3.6008 -0.8619 1.6773
3.5677 -0.7202 1.6473
3.5429 -0.5842 1.6237
3.5389 -0.4543 1.6120
3.5558 -0.3278 1.6120
3.5681 -0.2007 1.6120
3.5757 -0.0732 1.6120
3.5786 0.0547 1.6120
3.5768 0.1826 1.6120
3.5703 0.3104 1.6120
3.5592 0.4380 1.6120
3.5433 0.5652 1.6120
3.5227 0.6917 1.6120
3.4976 0.8175 1.6120
3.4892 0.9481 1.6220
3.4801 1.0804 1.6340
3.4766 1.2170 1.6511
3.4968 1.3660 1.6822
3.5143 1.5196 1.7151
3.4587 1.6444 1.7151
3.3985 1.7672 1.7151
3.3338 1.8877 1.7151
