ply
format ascii 1.0
element vertex 2124
property float32 x
property float32 y
property float32 z
end_header
-7.8500 -32.0899 0.8286
0.6074 -48.7978 1.2053
2.2632 -46.6283 1.1512
3.7275 -43.9814 1.0871
4.7470 -39.1706 0.9707
4.9211 -31.1567 0.7752
5.0371 -25.8149 0.6459
5.1202 -21.9910 0.5542
5.1827 -19.1121 0.4858
5.2316 -16.8611 0.4331
5.2709 -15.0486 0.3911
5.3034 -13.5543 0.3571
5.3307 -12.2982 0.3290
5.3540 -11.2248 0.3054
5.9598 16.6680 0.9485
6.0090 18.9325 1.0659
6.0719 21.8313 1.2177
6.1183 25.5300 1.4126
5.8428 28.9493 1.5911
4.7897 29.1073 1.5911
3.7332 29.2292 1.5911
2.6742 29.3154 1.5911
1.7187 31.2682 1.6941
0.5897 31.2835 1.6941
-0.5381 31.2607 1.6941
-1.6637 31.1998 1.6941
-2.7858 31.1011 1.6941
-3.9033 30.9648 1.6941
-5.0151 30.7911 1.6941
-5.7475 28.7192 1.5911
-6.7773 28.4856 1.5910
-7.7984 28.2173 1.5910
-8.8098 27.9150 1.5909
-6.3180 17.7611 1.0245
-6.9649 17.5486 1.0260
-6.4682 14.7253 0.8739
-7.0006 14.4943 0.8743
-10.1565 19.2259 1.1807
-10.2542 17.8238 1.1161
-6.9225 11.0876 0.7091
-7.5906 11.2347 0.7350
-6.9719 9.5571 0.6409
-7.3226 9.3131 0.6413
-13.9875 16.5267 1.1710
-6.9731 7.6608 0.5597
-15.2633 15.5998 1.1781
-15.2864 14.5360 1.1374
-15.3080 13.5398 1.1006
-15.3284 12.6027 1.0673
-15.3476 11.7173 1.0372
-15.3659 10.8773 1.0098
-15.3832 10.0773 0.9849
-15.4012 9.3133 0.9625
-15.4730 8.6107 0.9454
-18.4356 9.4055 1.1031
-20.2900 9.4458 1.1907
-22.8739 9.6613 1.3187
-18.7148 7.1210 1.0614
-21.0539 7.1533 1.1763
-18.3309 5.4995 1.0104
-23.1335 6.0404 1.2597
-23.3856 5.2136 1.2597
-12.0352 2.2310 0.6422
-15.8255 2.3471 0.8375
-22.0203 2.4583 1.1572
-25.6835 1.9330 1.3421
-25.7037 1.0046 1.3373
-25.6901 0.0773 1.3324
-15.7304 -0.5201 0.8143
-15.8314 -1.0958 0.8190
-15.8439 -1.6723 0.8202
-15.8565 -2.2542 0.8225
-15.7805 -2.8271 0.8212
-15.7934 -3.4212 0.8257
-15.8066 -4.0257 0.8313
-15.7255 -4.6146 0.8331
-15.7282 -5.2382 0.8405
-15.8004 -5.9030 0.8530
-15.8622 -6.5870 0.8664
-15.8772 -7.2749 0.8787
-15.9821 -8.0322 0.8976
-15.9982 -8.7764 0.9133
-15.9255 -9.4989 0.9257
-18.0770 -11.6856 1.0719
-16.7744 -11.7218 1.0164
-15.9683 -12.0379 0.9908
-15.9853 -12.9802 1.0177
-18.1899 -15.8918 1.1908
-16.9119 -15.8858 1.1411
-15.7595 -15.9108 1.0987
-14.6834 -15.9342 1.0606
-13.6737 -15.9561 1.0262
-12.7219 -15.9768 0.9951
-11.8211 -15.9963 0.9670
-14.8097 -21.6303 1.2716
-14.8495 -23.4597 1.3440
-14.8943 -25.5218 1.4275
-14.9453 -27.8707 1.5246
-14.6297 -29.8150 1.5980
-7.5063 -16.8035 0.8839
-6.9720 -17.2516 0.8920
-7.3002 -20.1227 1.0244
-6.9987 -21.7016 1.0894
-7.5285 -26.5893 1.3182
-7.3440 -30.0270 1.4724
-6.9841 -33.7900 1.6412
-5.9557 -35.1647 1.6941
-4.6902 -35.4006 1.6941
-3.4153 -35.5878 1.6941
-2.1327 -35.7259 1.6941
-0.8446 -35.8145 1.6941
0.4472 -35.8533 1.6941
1.6345 -33.6611 1.5911
2.8486 -33.6036 1.5911
4.0602 -33.4989 1.5911
5.0371 -25.8137 1.2390
5.1202 -21.9903 1.0633
5.1827 -19.1118 0.9324
5.2316 -16.8610 0.8312
5.2709 -15.0487 0.7507
5.3034 -13.5545 0.6853
5.3307 -12.2984 0.6313
5.3540 -11.2251 0.5859
5.9129 16.5341 1.3380
5.5842 20.0740 1.5909
4.8523 20.2434 1.5909
4.1156 20.3873 1.5909
3.3751 20.5055 1.5909
2.6315 20.5981 1.5909
2.0082 22.0060 1.6941
1.2126 22.0497 1.6941
0.4166 22.0659 1.6941
-0.3791 22.0547 1.6941
-1.1735 22.0162 1.6941
-1.9657 21.9504 1.6941
-2.7549 21.8574 1.6941
-3.5402 21.7374 1.6941
-4.3206 21.5905 1.6941
-5.0954 21.4169 1.6941
-5.7879 20.9427 1.6723
-6.2214 19.7132 1.5911
-6.3983 17.9867 1.4694
-6.5277 16.4467 1.3618
-6.7236 15.3064 1.2865
-6.8446 14.1709 1.2108
-6.6036 12.5000 1.0874
-6.4524 11.2150 0.9949
-6.6936 10.7205 0.9715
-6.4260 9.5105 0.8819
-6.6040 9.0523 0.8605
-6.9815 8.8787 0.8669
-11.7809 13.9186 1.3987
-6.9726 7.6598 0.7940
-11.7384 11.9963 1.2856
-11.4147 10.8535 1.2055
-13.2055 11.6792 1.3481
-13.2022 10.8536 1.3058
-12.5881 9.6096 1.2088
-13.6958 9.6941 1.2795
-13.6095 8.9144 1.2393
-13.9979 8.4637 1.2447
-15.2806 8.5026 1.3291
-15.3610 7.8358 1.3090
-15.5414 7.2340 1.2997
-15.7079 6.6334 1.2911
-15.8606 6.0338 1.2832
-15.9999 5.4350 1.2761
-16.1267 4.8370 1.2696
-16.2407 4.2394 1.2639
-16.3486 3.6435 1.2594
-12.0406 2.2311 0.9193
-15.0730 2.2343 1.1422
-19.0434 2.1245 1.4341
-14.9479 1.1239 1.1201
-15.1628 0.5915 1.1320
-15.0519 0.0441 1.1210
-15.7304 -0.5213 1.1702
-15.7428 -1.0909 1.1713
-15.0247 -1.5871 1.1194
-14.9278 -2.1234 1.1153
-15.1222 -2.7104 1.1343
-14.8072 -3.2088 1.1167
-14.5694 -3.7118 1.1062
-7.4110 -2.1754 0.5672
-15.0871 -5.0260 1.1658
-14.9233 -5.5767 1.1658
-14.7390 -6.1220 1.1658
-15.1282 -6.9332 1.2134
-14.9563 -7.5182 1.2184
-14.5894 -8.0051 1.2091
-14.4621 -8.6276 1.2214
-14.2432 -9.2089 1.2280
-14.7943 -10.3399 1.3045
-15.0643 -11.3582 1.3612
-14.7794 -12.0028 1.3713
-14.5054 -12.6748 1.3851
-14.2458 -13.3835 1.4031
-13.9962 -14.1327 1.4255
-14.3226 -15.5449 1.5124
-13.6718 -15.9562 1.5010
-12.7202 -15.9768 1.4566
-11.8195 -15.9964 1.4164
-12.7654 -18.6470 1.6070
-12.1025 -19.1227 1.6070
-11.4216 -19.5740 1.6070
-10.6172 -19.8024 1.5911
-9.9098 -20.1988 1.5911
-7.4856 -16.7595 1.2964
-7.2969 -18.0584 1.3739
-7.1180 -19.6236 1.4708
-6.9378 -21.5164 1.5911
-6.5640 -23.1867 1.6941
-5.7299 -23.4320 1.6941
-4.8864 -23.6461 1.6941
-4.0347 -23.8284 1.6941
-3.1761 -23.9786 1.6941
-0.7917 -8.2525 0.5802
-0.4942 -8.2829 0.5803
-0.5708 -24.2338 1.6941
0.3031 -24.2532 1.6941
1.1776 -24.2395 1.6941
1.9263 -22.7182 1.5909
2.7448 -22.6432 1.5909
3.5603 -22.5371 1.5909
4.3713 -22.4002 1.5909
5.1768 -22.2326 1.5909
5.1296 -18.9158 1.3657
5.2316 -16.8610 1.2301
5.2709 -15.0487 1.1110
5.3034 -13.5547 1.0143
5.3307 -12.2986 0.9342
5.3540 -11.2254 0.8669
5.4178 15.1474 1.5909
4.8642 15.3206 1.5909
4.3054 15.4743 1.5909
3.7419 15.6082 1.5909
3.1745 15.7223 1.5909
2.6039 15.8164 1.5909
2.1625 16.9219 1.6941
1.5500 16.9795 1.6941
0.9363 17.0157 1.6941
0.3220 17.0306 1.6941
-0.2922 17.0240 1.6941
-0.9055 16.9961 1.6941
-1.5173 16.9469 1.6941
-2.1268 16.8765 1.6941
-2.7334 16.7849 1.6941
-3.3363 16.6724 1.6941
-3.9347 16.5390 1.6941
-4.5282 16.3849 1.6941
-5.1158 16.2103 1.6941
-5.6971 16.0154 1.6941
-5.9276 14.9346 1.6013
-6.3573 14.4721 1.5751
-6.4143 13.2797 1.4694
-6.6081 12.5082 1.4092
-6.6989 11.6431 1.3378
-6.8204 10.9231 1.2821
-6.3502 9.3979 1.1289
-6.9243 9.4908 1.1688
-9.8897 12.5765 1.5911
-10.4484 12.3436 1.6075
-6.9128 7.5936 1.0202
-11.3194 11.5673 1.6070
-10.8449 10.3109 1.4849
-10.7031 9.4652 1.4169
-11.0903 9.1166 1.4227
-11.6236 8.8724 1.4480
-11.8800 8.4080 1.4401
-13.3364 8.7345 1.5762
-12.9735 7.8434 1.4976
-13.1463 7.3140 1.4848
-13.2988 6.7829 1.4720
-13.4393 6.2546 1.4603
-13.5685 5.7290 1.4495
-13.6867 5.2058 1.4396
-13.7939 4.6846 1.4307
-13.8904 4.1652 1.4226
-13.9764 3.6474 1.4154
-14.4286 3.2146 1.4469
-12.0461 2.2312 1.1977
-13.4034 1.9858 1.3231
-7.3331 0.8176 0.7196
-7.4420 0.5590 0.7270
-6.9877 0.2720 0.6803
-7.0312 0.0201 0.6832
-12.4344 -0.4130 1.2072
-12.4242 -0.8619 1.2069
-13.6261 -1.4404 1.3261
-12.3841 -1.7626 1.2090
-12.3561 -2.2157 1.2116
-13.5175 -2.9305 1.3332
-7.1873 -1.8317 0.7139
-7.1353 -2.0951 0.7148
-7.2855 -2.4277 0.7372
-7.0756 -2.6448 0.7241
-13.5936 -5.6476 1.4092
-13.4411 -6.1613 1.4135
-13.4638 -6.7693 1.4387
-12.4551 -6.8353 1.3545
-12.2909 -7.3337 1.3627
-11.1767 -7.2275 1.2655
-11.7223 -8.1942 1.3581
-10.7995 -8.1440 1.2826
-10.7554 -8.7362 1.3123
-10.7179 -9.3667 1.3463
-10.4951 -9.8613 1.3603
-11.6036 -11.7185 1.5558
-11.2375 -12.1983 1.5628
-10.8579 -12.6739 1.5706
-10.4731 -13.1563 1.5807
-10.0693 -13.6296 1.5911
-9.5824 -13.9995 1.5911
-9.0817 -14.3516 1.5911
-8.5678 -14.6853 1.5911
-8.0413 -15.0001 1.5911
-7.5030 -15.2955 1.5911
-6.9537 -15.5710 1.5911
-6.5976 -16.3302 1.6417
-6.2021 -17.1014 1.6941
-5.5866 -17.3286 1.6941
-4.9626 -17.5330 1.6941
-4.3309 -17.7141 1.6941
-3.6924 -17.8717 1.6941
-3.0481 -18.0055 1.6941
-2.3988 -18.1152 1.6941
-0.7578 -7.9015 0.7355
-0.4716 -7.9075 0.7336
-0.4305 -18.2984 1.6941
0.2293 -18.3103 1.6941
0.8893 -18.2976 1.6941
1.4542 -17.1473 1.5909
2.0718 -17.0890 1.5909
2.0000 -12.6594 1.1842
3.2987 -16.9031 1.5909
3.9063 -16.7759 1.5909
4.5087 -16.6259 1.5909
5.1052 -16.4535 1.5909
5.2665 -13.4607 1.3349
5.3307 -12.2989 1.2381
5.3540 -11.2257 1.1489
4.4036 12.3097 1.5909
3.9542 12.4523 1.5909
3.5005 12.5790 1.5909
3.0428 12.6895 1.5909
2.5818 12.7839 1.5909
2.1180 12.8620 1.5909
1.7592 13.7625 1.6941
1.2612 13.8108 1.6941
0.7621 13.8415 1.6941
0.2623 13.8548 1.6941
-0.2374 13.8505 1.6941
-0.7365 13.8287 1.6941
-1.2344 13.7895 1.6941
-1.7305 13.7329 1.6941
-2.2242 13.6590 1.6941
-2.7149 13.5679 1.6941
-3.2020 13.4596 1.6941
-3.6851 13.3345 1.6941
-4.1634 13.1924 1.6941
-4.6365 13.0338 1.6941
-5.1037 12.8587 1.6941
-5.5646 12.6673 1.6941
-5.9741 12.3681 1.6817
-6.0716 11.4922 1.5911
-6.4289 11.1734 1.5777
-6.4474 10.3252 1.4895
-6.8489 10.1354 1.4963
-6.8975 9.4536 1.4311
-8.0456 10.2308 1.5911
-8.4126 9.9379 1.5911
-6.9041 7.5835 1.2527
-9.1150 9.3140 1.5911
-9.4497 8.9837 1.5911
-9.7727 8.6417 1.5911
-10.2038 8.3871 1.6100
-10.3061 7.8660 1.5794
-10.5840 7.4900 1.5786
-10.8610 7.1125 1.5795
-11.1266 6.7260 1.5807
-11.3527 6.3153 1.5783
-11.5650 5.8977 1.5760
-11.7387 5.4623 1.5706
-11.8931 5.0207 1.5647
-12.0342 4.5764 1.5592
-12.1625 4.1297 1.5542
-12.2920 3.6850 1.5514
-12.8175 3.3440 1.5999
-12.9051 2.8742 1.5954
-12.0516 2.2314 1.4776
-11.0636 1.6383 1.3470
-6.7933 0.7569 0.8224
-6.6493 0.4989 0.8015
-6.6918 0.2600 0.8041
-6.8545 0.0190 0.8222
-11.3990 -0.3796 1.3666
-10.9859 -0.7630 1.3181
-11.2232 -1.1873 1.3494
-10.8940 -1.5514 1.3142
-10.6334 -1.9077 1.2889
-11.1508 -2.4184 1.3598
-11.1041 -2.8309 1.3641
-6.8497 -2.0119 0.8489
-6.7471 -2.2490 0.8447
-7.0222 -2.6255 0.8895
-10.3758 -4.3117 1.3316
-11.5282 -5.2856 1.5013
-11.4127 -5.7392 1.5105
-11.2854 -6.1946 1.5206
-11.6956 -6.9797 1.6070
-11.1757 -7.2281 1.5686
-11.1867 -7.8211 1.6070
-10.7974 -8.1437 1.5905
-10.6340 -8.6390 1.6096
-10.2079 -8.9223 1.5911
-9.8899 -9.2940 1.5911
-9.5582 -9.6542 1.5911
-9.2133 -10.0024 1.5911
-8.8555 -10.3381 1.5911
-8.4853 -10.6607 1.5911
-8.1032 -10.9699 1.5911
-7.7097 -11.2651 1.5911
-7.3052 -11.5459 1.5911
-6.8904 -11.8119 1.5911
-6.5156 -12.1559 1.6034
-6.4225 -13.0946 1.6941
-5.9511 -13.3279 1.6941
-5.4711 -13.5439 1.6941
-4.9831 -13.7422 1.6941
-4.4877 -13.9224 1.6941
-3.9858 -14.0844 1.6941
-3.4778 -14.2277 1.6941
-2.9646 -14.3522 1.6941
-2.4469 -14.4577 1.6941
-1.9254 -14.5440 1.6941
-0.7575 -7.9016 0.9162
-0.4713 -7.9075 0.9139
-0.3451 -14.6864 1.6941
0.1844 -14.6946 1.6941
0.7140 -14.6832 1.6941
1.2429 -14.6522 1.6941
1.6626 -13.7116 1.5909
1.9894 -12.5913 1.4680
2.6467 -13.5612 1.5909
3.1340 -13.4587 1.5909
3.6172 -13.3382 1.5909
4.0956 -13.1997 1.5909
4.5686 -13.0436 1.5909
5.0354 -12.8700 1.5909
4.0246 -9.2856 1.1651
4.0608 -8.5146 1.0862
3.7061 10.3584 1.5909
3.3283 10.4795 1.5909
2.9467 10.5871 1.5909
2.5617 10.6812 1.5909
2.1738 10.7615 1.5909
1.8993 11.5309 1.6941
1.4816 11.5872 1.6941
1.0623 11.6286 1.6941
0.6420 11.6553 1.6941
0.2212 11.6671 1.6941
-0.1996 11.6641 1.6941
-0.6200 11.6463 1.6941
-1.0394 11.6138 1.6941
-1.4573 11.5665 1.6941
-1.8732 11.5046 1.6941
-2.2866 11.4281 1.6941
-2.6970 11.3371 1.6941
-3.1039 11.2318 1.6941
-3.5069 11.1122 1.6941
-3.9054 10.9786 1.6941
-4.2990 10.8310 1.6941
-4.6871 10.6697 1.6941
-5.0694 10.4948 1.6941
-5.4454 10.3065 1.6941
-5.8145 10.1052 1.6941
-6.0329 9.6611 1.6548
-6.1333 9.0759 1.5911
-6.4583 8.8512 1.5911
-6.7212 8.5462 1.5783
-7.0840 8.3678 1.5911
-6.8954 7.5734 1.4858
-7.6744 7.8413 1.5911
-7.9556 7.5627 1.5911
-8.2268 7.2741 1.5911
-8.4879 6.9760 1.5911
-8.7384 6.6688 1.5911
-8.9780 6.3527 1.5911
-9.2064 6.0282 1.5911
-9.4233 5.6957 1.5911
-9.6285 5.3554 1.5911
-9.8216 5.0079 1.5911
-10.0024 4.6536 1.5911
-10.2635 4.3320 1.6056
-10.2706 3.9049 1.5825
-10.5797 3.5915 1.6079
-10.7044 3.2083 1.6070
-6.9009 1.7999 1.0248
-7.0236 1.5637 1.0332
-7.0482 1.3044 1.0284
-6.9075 1.0224 1.0010
-6.6948 0.7454 0.9648
-6.5562 0.4914 0.9409
-6.5944 0.2557 0.9436
-6.7148 0.0181 0.9593
-7.0934 -0.2368 1.0130
-7.2116 -0.5015 1.0309
-11.2164 -1.1876 1.6070
-10.8936 -1.5523 1.5663
-10.6328 -1.9085 1.5363
-11.0533 -2.3982 1.6070
-7.0044 -1.7864 1.0261
-6.7992 -1.9977 1.0050
-6.6999 -2.2338 1.0006
-6.7563 -2.5267 1.0210
-6.9252 -2.8785 1.0605
-6.8627 -3.1472 1.0666
-7.2433 -3.6432 1.1444
-7.1456 -3.9230 1.1495
-9.6972 -5.7882 1.5911
-9.4911 -6.1396 1.5911
-9.2721 -6.4836 1.5911
-9.0405 -6.8198 1.5911
-8.7967 -7.1475 1.5911
-8.5409 -7.4665 1.5911
-8.2735 -7.7762 1.5911
-7.9947 -8.0762 1.5911
-7.7049 -8.3661 1.5911
-7.4045 -8.6455 1.5911
-7.0939 -8.9139 1.5911
-6.7734 -9.1709 1.5911
-6.4586 -9.4383 1.5948
-6.4648 -10.2191 1.6850
-6.1301 -10.5100 1.6941
-5.7514 -10.7317 1.6941
-5.3646 -10.9394 1.6941
-4.9703 -11.1329 1.6941
-4.5687 -11.3120 1.6941
-4.1607 -11.4762 1.6941
-3.7467 -11.6254 1.6941
-3.3272 -11.7593 1.6941
-2.9029 -11.8778 1.6941
-2.4742 -11.9806 1.6941
-2.0419 -12.0676 1.6941
-1.6065 -12.1386 1.6941
-0.7572 -7.9016 1.0978
-0.4711 -7.9075 1.0952
-0.2876 -12.2547 1.6941
0.1541 -12.2609 1.6941
0.5960 -12.2507 1.6941
1.0372 -12.2242 1.6941
1.4772 -12.1814 1.6941
1.7988 -11.3836 1.5909
2.2080 -11.3130 1.5909
2.6145 -11.2272 1.5909
3.0175 -11.1265 1.5909
3.4165 -11.0109 1.5909
3.8110 -10.8807 1.5909
4.2004 -10.7360 1.5909
4.5841 -10.5769 1.5909
4.4179 -9.2635 1.4165
3.1967 8.9331 1.5909
2.8710 9.0382 1.5909
2.5421 9.1317 1.5909
2.2180 9.2463 1.5966
1.9973 9.8858 1.6941
1.6389 9.9476 1.6941
1.2786 9.9967 1.6941
0.9169 10.0330 1.6941
0.5543 10.0564 1.6941
0.1912 10.0671 1.6941
-0.1720 10.0649 1.6941
-0.5348 10.0499 1.6941
-0.8968 10.0221 1.6941
-1.2574 9.9816 1.6941
-1.6164 9.9284 1.6941
-1.9732 9.8625 1.6941
-2.3275 9.7841 1.6941
-2.6787 9.6933 1.6941
-3.0265 9.5901 1.6941
-3.3705 9.4748 1.6941
-3.7101 9.3473 1.6941
-4.0451 9.2080 1.6941
-4.3750 9.0569 1.6941
-4.6994 8.8943 1.6941
-5.0179 8.7203 1.6941
-5.3301 8.5351 1.6941
-5.6356 8.3390 1.6941
-5.9341 8.1322 1.6941
-6.0750 7.7241 1.6533
-6.1124 7.2197 1.5911
-6.3708 6.9968 1.5911
-6.6212 6.7647 1.5911
-6.8634 6.5239 1.5911
-7.0970 6.2746 1.5911
-7.3217 6.0170 1.5911
-7.5373 5.7516 1.5911
-7.7434 5.4786 1.5911
-7.9398 5.1983 1.5911
-8.1263 4.9111 1.5911
-8.3025 4.6173 1.5911
-8.4683 4.3173 1.5911
-8.6234 4.0114 1.5911
-8.7677 3.7000 1.5911
-8.9009 3.3835 1.5911
-9.0229 3.0623 1.5911
-9.1334 2.7367 1.5911
-6.9221 1.8049 1.1929
-6.9614 1.5494 1.1885
-6.9327 1.2825 1.1741
-6.7876 1.0041 1.1418
-6.5985 0.7341 1.1040
-6.4676 0.4843 1.0777
-6.4963 0.2514 1.0795
-6.5752 0.0172 1.0909
-9.5916 -0.3209 1.5911
-7.1847 -0.5002 1.1931
-9.5586 -1.0128 1.5911
-9.5234 -1.3578 1.5911
-9.4759 -1.7016 1.5911
-9.4160 -2.0438 1.5911
-6.9533 -1.7739 1.1840
-6.7414 -1.9813 1.1584
-6.6453 -2.2163 1.1539
-7.0260 -2.6282 1.2347
-7.0443 -2.9287 1.2546
-6.9792 -3.2013 1.2617
-7.0655 -3.5545 1.2986
-7.1701 -3.9372 1.3420
-8.3337 -4.9752 1.5911
-8.1554 -5.2766 1.5911
-7.9662 -5.5715 1.5911
-7.7663 -5.8595 1.5911
-7.5559 -6.1403 1.5911
-7.3353 -6.4135 1.5911
-7.1048 -6.6787 1.5911
-6.8646 -6.9356 1.5911
-6.6150 -7.1837 1.5911
-6.4138 -7.4897 1.6054
-6.4180 -8.0658 1.6770
-6.1899 -8.3821 1.6941
-5.8877 -8.6054 1.6941
-5.5774 -8.8177 1.6941
-5.2594 -9.0186 1.6941
-4.9340 -9.2079 1.6941
-4.6018 -9.3852 1.6941
-4.2630 -9.5503 1.6941
-3.9183 -9.7030 1.6941
-3.5680 -9.8430 1.6941
-3.2127 -9.9702 1.6941
-2.8528 -10.0843 1.6941
-2.4887 -10.1851 1.6941
-2.1210 -10.2726 1.6941
-1.7503 -10.3464 1.6941
-1.3769 -10.4067 1.6941
-0.7570 -7.9017 1.2806
-0.4708 -7.9076 1.2776
-0.2463 -10.5046 1.6941
0.1324 -10.5094 1.6941
0.5110 -10.5003 1.6941
0.8892 -10.4773 1.6941
1.2663 -10.4403 1.6941
1.5875 -10.0456 1.6381
1.8924 -9.6955 1.5909
2.2407 -9.6219 1.5909
2.5860 -9.5355 1.5909
2.9280 -9.4364 1.5909
3.2660 -9.3248 1.5909
3.5997 -9.2008 1.5909
3.9286 -9.0646 1.5909
4.2522 -8.9164 1.5909
2.8079 7.8453 1.5909
2.5220 7.9381 1.5909
0.8523 3.0610 0.6072
0.7413 3.0898 0.6074
0.6294 3.1146 0.6076
0.5167 3.1353 0.6078
0.4033 3.1520 0.6081
0.2893 3.1647 0.6083
0.1750 3.1733 0.6085
0.0604 3.1778 0.6087
-0.0542 3.1782 0.6089
-0.1689 3.1744 0.6090
-0.2833 3.1666 0.6092
-0.3974 3.1547 0.6094
-0.5110 3.1388 0.6095
-0.6240 3.1188 0.6097
-0.7362 3.0947 0.6098
-0.8474 3.0666 0.6099
-2.6595 8.4270 1.6941
-2.9617 8.3257 1.6941
-3.2602 8.2136 1.6941
-3.5545 8.0911 1.6941
-3.8444 7.9583 1.6941
-4.1294 7.8153 1.6941
-4.4092 7.6622 1.6941
-4.6834 7.4994 1.6941
-4.9518 7.3269 1.6941
-5.2139 7.1449 1.6941
-5.4695 6.9538 1.6941
-5.7182 6.7537 1.6941
-5.9598 6.5449 1.6941
-6.1073 6.2392 1.6705
-6.1223 5.8190 1.6156
-6.2343 5.5114 1.5911
-6.4314 5.2849 1.5911
-6.6204 5.0515 1.5911
-6.8011 4.8114 1.5911
-6.9732 4.5650 1.5911
-7.1366 4.3124 1.5911
-7.2909 4.0542 1.5911
-7.4360 3.7904 1.5911
-7.5717 3.5216 1.5911
-7.6979 3.2480 1.5911
-7.8142 2.9699 1.5911
-7.9207 2.6876 1.5911
-7.1520 2.1425 1.4194
-6.9434 1.8099 1.3633
-6.9866 1.5545 1.3591
-6.9361 1.2826 1.3386
-6.9867 1.0330 1.3394
-8.3436 0.9277 1.5911
-6.9459 0.5196 1.3192
-6.9422 0.2681 1.3150
-7.1150 0.0180 1.3458
-8.4128 -0.2822 1.5911
-7.1577 -0.4989 1.3553
-8.3822 -0.8889 1.5911
-8.3506 -1.1913 1.5911
-7.4116 -1.3316 1.4194
-7.3640 -1.5990 1.4194
-6.9862 -1.7830 1.3571
-6.9911 -2.0553 1.3706
-7.1363 -2.3806 1.4139
-7.0615 -2.6422 1.4161
-7.0666 -2.9386 1.4363
-6.8788 -3.1560 1.4194
-6.7756 -3.4094 1.4215
-6.7725 -3.7196 1.4470
-6.7796 -4.0482 1.4777
-6.7871 -4.3920 1.5118
-6.9763 -4.8800 1.5911
-6.8006 -5.1318 1.5911
-6.6158 -5.3772 1.5911
-6.4220 -5.6159 1.5911
-6.3754 -5.9940 1.6309
-6.3829 -6.4499 1.6901
-6.1649 -6.6959 1.6941
-5.9233 -6.9180 1.6941
-5.6737 -7.1314 1.6941
-5.4163 -7.3356 1.6941
-5.1515 -7.5304 1.6941
-4.8796 -7.7155 1.6941
-4.6010 -7.8907 1.6941
-4.3160 -8.0557 1.6941
-4.0251 -8.2102 1.6941
-3.7285 -8.3541 1.6941
-3.4267 -8.4871 1.6941
-3.1202 -8.6090 1.6941
-2.8093 -8.7197 1.6941
-2.4943 -8.8189 1.6941
-2.1759 -8.9066 1.6941
-1.8543 -8.9826 1.6941
-1.5300 -9.0467 1.6941
-1.2035 -9.0990 1.6941
-0.8752 -9.1393 1.6941
-0.5456 -9.1674 1.6941
-0.2150 -9.1835 1.6941
0.1160 -9.1874 1.6941
0.4469 -9.1792 1.6941
0.7775 -9.1588 1.6941
1.1071 -9.1263 1.6941
1.4353 -9.0817 1.6941
1.6543 -8.4750 1.5909
1.9587 -8.4106 1.5909
2.2605 -8.3350 1.5909
2.5593 -8.2484 1.5909
2.8548 -8.1508 1.5909
3.1465 -8.0425 1.5909
3.4340 -7.9235 1.5909
3.7169 -7.7940 1.5909
2.5011 6.9871 1.5909
0.8564 2.6952 0.6065
0.7587 2.7243 0.6067
0.6599 2.7499 0.6069
0.5603 2.7719 0.6071
0.4599 2.7904 0.6073
0.3590 2.8052 0.6075
0.2576 2.8165 0.6077
0.1558 2.8241 0.6078
0.0539 2.8281 0.6080
-0.0482 2.8284 0.6082
-0.1502 2.8251 0.6084
-0.2520 2.8181 0.6085
-0.3536 2.8074 0.6087
-0.4547 2.7932 0.6088
-0.5552 2.7753 0.6089
-0.6551 2.7539 0.6090
-0.7541 2.7288 0.6092
-0.8522 2.7003 0.6093
-2.6389 7.4182 1.6941
-2.9049 7.3183 1.6941
-3.1671 7.2091 1.6941
-3.4254 7.0907 1.6941
-3.6793 6.9632 1.6941
-3.9286 6.8267 1.6941
-4.1729 6.6815 1.6941
-4.4119 6.5277 1.6941
-4.6453 6.3654 1.6941
-4.8729 6.1950 1.6941
-5.0944 6.0165 1.6941
-5.3094 5.8303 1.6941
-5.5178 5.6365 1.6941
-5.7192 5.4354 1.6941
-5.9133 5.2272 1.6941
-6.1001 5.0122 1.6941
-6.1410 4.6852 1.6569
-6.1540 4.3531 1.6163
-6.2107 4.0653 1.5911
-6.3559 3.8402 1.5911
-6.4930 3.6100 1.5911
-6.6219 3.3749 1.5911
-6.7424 3.1354 1.5911
-6.8543 2.8915 1.5911
-6.9576 2.6437 1.5911
-7.0519 2.3923 1.5911
-6.6484 1.9911 1.4821
-6.6540 1.7340 1.4676
-6.6595 1.4812 1.4553
-6.6649 1.2320 1.4450
-6.6702 0.9857 1.4367
-6.6756 0.7417 1.4304
-6.6836 0.4994 1.4265
-6.6918 0.2579 1.4244
-6.6979 0.0164 1.4238
-6.7020 -0.2253 1.4246
-6.7041 -0.4678 1.4268
-6.7071 -0.7118 1.4311
-6.7125 -0.9582 1.4378
-6.7179 -1.2075 1.4464
-6.7234 -1.4605 1.4571
-6.7290 -1.7179 1.4698
-6.7347 -1.9805 1.4847
-6.7405 -2.2492 1.5020
-6.7465 -2.5250 1.5216
-6.9592 -2.8946 1.5911
-6.8547 -3.1456 1.5911
-6.7412 -3.3928 1.5911
-6.6188 -3.6359 1.5911
-6.4876 -3.8746 1.5911
-6.3477 -4.1084 1.5911
-6.3423 -4.4372 1.6277
-6.3469 -4.7902 1.6711
-6.2590 -5.0880 1.6941
-6.0752 -5.3134 1.6941
-5.8833 -5.5322 1.6941
-5.6834 -5.7440 1.6941
-5.4759 -5.9484 1.6941
-5.2610 -6.1454 1.6941
-5.0389 -6.3344 1.6941
-4.8100 -6.5154 1.6941
-4.5745 -6.6880 1.6941
-4.3328 -6.8519 1.6941
-4.0852 -7.0071 1.6941
-3.8319 -7.1531 1.6941
-3.5734 -7.2900 1.6941
-3.3099 -7.4173 1.6941
-3.0418 -7.5350 1.6941
-2.7696 -7.6428 1.6941
-2.4934 -7.7407 1.6941
-2.2138 -7.8284 1.6941
-1.9310 -7.9059 1.6941
-1.6455 -7.9730 1.6941
-1.3577 -8.0297 1.6941
-1.0679 -8.0758 1.6941
-0.7765 -8.1112 1.6941
-0.4839 -8.1360 1.6941
-0.1906 -8.1500 1.6941
0.1031 -8.1533 1.6941
0.3968 -8.1458 1.6941
0.6901 -8.1275 1.6941
0.9825 -8.0985 1.6941
1.2738 -8.0588 1.6941
1.5633 -8.0085 1.6941
1.7381 -7.4632 1.5909
2.0059 -7.3961 1.5909
2.2711 -7.3192 1.5909
2.5332 -7.2326 1.5909
2.7920 -7.1365 1.5909
3.0471 -7.0310 1.5909
3.2982 -6.9162 1.5909
0.8580 2.3964 0.6059
0.7709 2.4257 0.6061
0.6829 2.4519 0.6063
0.5940 2.4749 0.6065
0.5044 2.4948 0.6067
0.4141 2.5114 0.6068
0.3232 2.5248 0.6070
0.2319 2.5349 0.6072
0.1403 2.5417 0.6073
0.0485 2.5452 0.6075
-0.0433 2.5455 0.6076
-0.1351 2.5425 0.6078
-0.2268 2.5362 0.6079
-0.3182 2.5266 0.6081
-0.4091 2.5137 0.6082
-0.4996 2.4976 0.6083
-0.5895 2.4783 0.6084
-0.6786 2.4557 0.6085
-0.7669 2.4300 0.6086
-0.8542 2.4011 0.6087
-2.6169 6.5927 1.6941
-2.8532 6.4943 1.6941
-3.0858 6.3875 1.6941
-3.3145 6.2726 1.6941
-3.5390 6.1496 1.6941
-3.7591 6.0187 1.6941
-3.9743 5.8800 1.6941
-4.1846 5.7338 1.6941
-4.3895 5.5801 1.6941
-4.5889 5.4192 1.6941
-4.7825 5.2514 1.6941
-4.9701 5.0767 1.6941
-5.1514 4.8954 1.6941
-5.3261 4.7077 1.6941
-5.4941 4.5138 1.6941
-5.6552 4.3141 1.6941
-5.8091 4.1087 1.6941
-5.9556 3.8978 1.6941
-6.0946 3.6819 1.6941
-6.1683 3.4290 1.6785
-6.1745 3.1464 1.6475
-6.1850 2.8757 1.6209
-6.1961 2.6134 1.5974
-6.2642 2.3798 1.5911
-6.3489 2.1533 1.5911
-6.4254 1.9239 1.5911
-6.4937 1.6917 1.5911
-6.5538 1.4571 1.5911
-6.6054 1.2205 1.5911
-6.6485 0.9820 1.5911
-6.6831 0.7420 1.5911
-6.7091 0.5008 1.5911
-6.7265 0.2587 1.5911
-6.7352 0.0160 1.5911
-6.7351 -0.2270 1.5911
-6.7263 -0.4699 1.5911
-6.7088 -0.7125 1.5911
-6.6826 -0.9545 1.5911
-6.6477 -1.1955 1.5911
-6.6041 -1.4352 1.5911
-6.5519 -1.6733 1.5911
-6.4912 -1.9095 1.5911
-6.4219 -2.1435 1.5911
-6.3442 -2.3750 1.5911
-6.3084 -2.6246 1.6039
-6.3086 -2.8957 1.6284
-6.3118 -3.1774 1.6568
-6.3182 -3.4715 1.6893
-6.2104 -3.7098 1.6941
-6.0762 -3.9334 1.6941
-5.9339 -4.1522 1.6941
-5.7836 -4.3658 1.6941
-5.6257 -4.5739 1.6941
-5.4602 -4.7763 1.6941
-5.2874 -4.9726 1.6941
-5.1075 -5.1626 1.6941
-4.9207 -5.3461 1.6941
-4.7273 -5.5228 1.6941
-4.5275 -5.6923 1.6941
-4.3216 -5.8546 1.6941
-4.1098 -6.0094 1.6941
-3.8924 -6.1564 1.6941
-3.6698 -6.2955 1.6941
-3.4421 -6.4264 1.6941
-3.2097 -6.5490 1.6941
-2.9729 -6.6631 1.6941
-2.7320 -6.7685 1.6941
-2.4873 -6.8651 1.6941
-2.2392 -6.9527 1.6941
-1.9880 -7.0313 1.6941
-1.7340 -7.1006 1.6941
-1.4776 -7.1607 1.6941
-1.2190 -7.2113 1.6941
-0.9587 -7.2525 1.6941
-0.6971 -7.2841 1.6941
-0.4343 -7.3062 1.6941
-0.1709 -7.3186 1.6941
0.0928 -7.3214 1.6941
0.3565 -7.3146 1.6941
0.6198 -7.2981 1.6941
0.8824 -7.2719 1.6941
1.1438 -7.2362 1.6941
1.4038 -7.1909 1.6941
1.6510 -7.0889 1.6829
1.8011 -6.6410 1.5909
2.0392 -6.5719 1.5909
2.2746 -6.4942 1.5909
2.5069 -6.4079 1.5909
2.7360 -6.3132 1.5909
2.9614 -6.2102 1.5909
0.7793 2.1764 0.6056
0.7003 2.2031 0.6058
0.6204 2.2269 0.6060
0.5396 2.2478 0.6061
0.4582 2.2658 0.6063
0.3761 2.2809 0.6065
0.2936 2.2930 0.6066
0.2107 2.3022 0.6068
0.1275 2.3084 0.6069
0.0442 2.3116 0.6071
-0.0393 2.3118 0.6072
-0.1227 2.3090 0.6073
-0.2059 2.3033 0.6075
-0.2889 2.2945 0.6076
-0.3715 2.2828 0.6077
-0.4537 2.2682 0.6078
-0.5353 2.2506 0.6079
-0.6162 2.2301 0.6080
-0.6964 2.2067 0.6081
-0.7757 2.1804 0.6082
-0.8539 2.1513 0.6082
-2.5933 5.9026 1.6941
-2.8047 5.8056 1.6941
-3.0126 5.7011 1.6941
-3.2167 5.5892 1.6941
-3.4166 5.4701 1.6941
-3.6123 5.3440 1.6941
-3.8033 5.2110 1.6941
-3.9895 5.0713 1.6941
-4.1707 4.9250 1.6941
-4.3466 4.7723 1.6941
-4.5169 4.6134 1.6941
-4.6816 4.4486 1.6941
-4.8403 4.2779 1.6941
-4.9928 4.1016 1.6941
-5.1390 3.9200 1.6941
-5.2787 3.7332 1.6941
-5.4117 3.5415 1.6941
-5.5379 3.3451 1.6941
-5.6569 3.1443 1.6941
-5.7688 2.9393 1.6941
-5.8733 2.7303 1.6941
-5.9703 2.5177 1.6941
-6.0597 2.3017 1.6941
-6.1414 2.0825 1.6941
-6.2025 1.8566 1.6907
-6.2077 1.6167 1.6744
-6.2128 1.3808 1.6605
-6.2179 1.1484 1.6489
-6.2232 0.9187 1.6397
-6.2297 0.6911 1.6330
-6.2357 0.4649 1.6283
-6.2412 0.2395 1.6256
-6.2462 0.0143 1.6249
-6.2508 -0.2112 1.6262
-6.2550 -0.4375 1.6295
-6.2587 -0.6653 1.6348
-6.2623 -0.8950 1.6422
-6.2673 -1.1276 1.6522
-6.2724 -1.3637 1.6646
-6.2777 -1.6038 1.6793
-6.2740 -1.8462 1.6941
-6.2067 -2.0723 1.6941
-6.1313 -2.2959 1.6941
-6.0478 -2.5168 1.6941
-5.9563 -2.7346 1.6941
-5.8570 -2.9491 1.6941
-5.7500 -3.1599 1.6941
-5.6354 -3.3669 1.6941
-5.5133 -3.5697 1.6941
-5.3838 -3.7680 1.6941
-5.2473 -3.9616 1.6941
-5.1037 -4.1502 1.6941
-4.9533 -4.3336 1.6941
-4.7963 -4.5115 1.6941
-4.6329 -4.6837 1.6941
-4.4633 -4.8499 1.6941
-4.2877 -5.0099 1.6941
-4.1062 -5.1635 1.6941
-3.9193 -5.3105 1.6941
-3.7271 -5.4506 1.6941
-3.5298 -5.5837 1.6941
-3.3277 -5.7096 1.6941
-3.1211 -5.8281 1.6941
-2.9103 -5.9391 1.6941
-2.6955 -6.0423 1.6941
-2.4770 -6.1377 1.6941
-2.2551 -6.2250 1.6941
-2.0300 -6.3043 1.6941
-1.8022 -6.3753 1.6941
-1.5719 -6.4380 1.6941
-1.3393 -6.4923 1.6941
-1.1049 -6.5380 1.6941
-0.8690 -6.5752 1.6941
-0.6317 -6.6037 1.6941
-0.3936 -6.6236 1.6941
-0.1548 -6.6347 1.6941
0.0843 -6.6371 1.6941
0.3233 -6.6308 1.6941
0.5620 -6.6158 1.6941
0.8000 -6.5920 1.6941
1.0370 -6.5596 1.6941
1.2726 -6.5185 1.6941
1.5066 -6.4688 1.6941
1.6736 -6.1705 1.6307
1.8485 -5.9573 1.5909
2.0618 -5.8869 1.5909
2.2725 -5.8087 1.5909
2.4801 -5.7229 1.5909
2.6844 -5.6295 1.5909
0.7132 1.9914 0.6054
0.6409 2.0158 0.6055
0.5677 2.0376 0.6057
0.4939 2.0567 0.6059
0.4193 2.0732 0.6060
0.3443 2.0870 0.6062
0.2687 2.0981 0.6063
0.1929 2.1065 0.6064
0.1167 2.1122 0.6066
0.0405 2.1151 0.6067
-0.0359 2.1153 0.6068
-0.1122 2.1127 0.6069
-0.1884 2.1075 0.6071
-0.2643 2.0994 0.6072
-0.3399 2.0887 0.6073
-0.4151 2.0753 0.6074
-0.4898 2.0592 0.6075
-0.5638 2.0404 0.6075
-0.6371 2.0189 0.6076
-0.7097 1.9949 0.6077
-0.7813 1.9682 0.6078
-0.8519 1.9390 0.6078
-2.5681 5.3155 1.6941
-2.7584 5.2198 1.6941
-2.9452 5.1173 1.6941
-3.1283 5.0083 1.6941
-3.3074 4.8927 1.6941
-3.4823 4.7709 1.6941
-3.6527 4.6429 1.6941
-3.8185 4.5089 1.6941
-3.9795 4.3690 1.6941
-4.1354 4.2235 1.6941
-4.2861 4.0724 1.6941
-4.4313 3.9161 1.6941
-4.5709 3.7546 1.6941
-4.7046 3.5882 1.6941
-4.8324 3.4172 1.6941
-4.9540 3.2416 1.6941
-5.0693 3.0617 1.6941
-5.1782 2.8778 1.6941
-5.2804 2.6900 1.6941
-5.3759 2.4987 1.6941
-5.4646 2.3040 1.6941
-5.5462 2.1062 1.6941
-5.6208 1.9055 1.6941
-5.6881 1.7022 1.6941
-5.7482 1.4966 1.6941
-5.8009 1.2888 1.6941
-5.8461 1.0792 1.6941
-5.8838 0.8681 1.6941
-5.9139 0.6556 1.6941
-5.9364 0.4421 1.6941
-5.9512 0.2279 1.6941
-5.9584 0.0132 1.6941
-5.9578 -0.2018 1.6941
-5.9495 -0.4167 1.6941
-5.9335 -0.6312 1.6941
-5.9098 -0.8451 1.6941
-5.8783 -1.0582 1.6941
-5.8393 -1.2700 1.6941
-5.7926 -1.4804 1.6941
-5.7383 -1.6891 1.6941
-5.6765 -1.8958 1.6941
-5.6073 -2.1003 1.6941
-5.5307 -2.3022 1.6941
-5.4468 -2.5012 1.6941
-5.3558 -2.6973 1.6941
-5.2577 -2.8900 1.6941
-5.1526 -3.0791 1.6941
-5.0408 -3.2643 1.6941
-4.9222 -3.4455 1.6941
-4.7972 -3.6224 1.6941
-4.6657 -3.7947 1.6941
-4.5280 -3.9622 1.6941
-4.3844 -4.1247 1.6941
-4.2348 -4.2819 1.6941
-4.0796 -4.4336 1.6941
-3.9189 -4.5797 1.6941
-3.7529 -4.7199 1.6941
-3.5820 -4.8541 1.6941
-3.4061 -4.9820 1.6941
-3.2257 -5.1035 1.6941
-3.0410 -5.2183 1.6941
-2.8521 -5.3265 1.6941
-2.6593 -5.4277 1.6941
-2.4629 -5.5219 1.6941
-2.2632 -5.6089 1.6941
-2.0604 -5.6885 1.6941
-1.8547 -5.7608 1.6941
-1.6465 -5.8256 1.6941
-1.4360 -5.8827 1.6941
-1.2235 -5.9321 1.6941
-1.0093 -5.9738 1.6941
-0.7937 -6.0076 1.6941
-0.5770 -6.0336 1.6941
-0.3594 -6.0516 1.6941
-0.1412 -6.0617 1.6941
0.0772 -6.0639 1.6941
0.2955 -6.0580 1.6941
0.5136 -6.0442 1.6941
0.7310 -6.0224 1.6941
0.9474 -5.9927 1.6941
1.1627 -5.9552 1.6941
1.3765 -5.9098 1.6941
1.5885 -5.8566 1.6941
1.6970 -5.4691 1.5987
1.8978 -5.4184 1.6028
2.0760 -5.3067 1.5909
2.2657 -5.2283 1.5909
2.4524 -5.1430 1.5909
0.6568 1.8336 0.6052
0.5902 1.8560 0.6053
0.5228 1.8761 0.6055
0.4548 1.8937 0.6056
0.3862 1.9089 0.6057
0.3171 1.9216 0.6059
0.2475 1.9318 0.6060
0.1777 1.9395 0.6061
0.1076 1.9447 0.6063
0.0373 1.9474 0.6064
-0.0330 1.9476 0.6065
-0.1032 1.9452 0.6066
-0.1734 1.9403 0.6067
-0.2433 1.9330 0.6068
-0.3129 1.9231 0.6069
-0.3822 1.9107 0.6070
-0.4509 1.8958 0.6071
-0.5191 1.8785 0.6072
-0.5866 1.8587 0.6072
-0.6534 1.8366 0.6073
-0.7193 1.8120 0.6074
-0.7843 1.7851 0.6074
-0.8483 1.7559 0.6075
-2.5412 4.8086 1.6941
-2.7133 4.7141 1.6941
-2.8819 4.6136 1.6941
-3.0469 4.5072 1.6941
-3.2080 4.3949 1.6941
-3.3650 4.2769 1.6941
-3.5177 4.1533 1.6941
-3.6659 4.0244 1.6941
-3.8095 3.8903 1.6941
-3.9482 3.7511 1.6941
-4.0819 3.6070 1.6941
-4.2104 3.4582 1.6941
-4.3336 3.3049 1.6941
-4.4512 3.1472 1.6941
-4.5631 2.9854 1.6941
-4.6692 2.8197 1.6941
-4.7694 2.6502 1.6941
-4.8634 2.4772 1.6941
-4.9512 2.3009 1.6941
-5.0327 2.1215 1.6941
-5.1078 1.9393 1.6941
-5.1763 1.7544 1.6941
-5.2382 1.5672 1.6941
-5.2933 1.3777 1.6941
-5.3417 1.1864 1.6941
-5.3832 0.9933 1.6941
-5.4177 0.7989 1.6941
-5.4453 0.6032 1.6941
-5.4658 0.4066 1.6941
-5.4793 0.2094 1.6941
-5.4857 0.0117 1.6941
-5.4849 -0.1862 1.6941
-5.4771 -0.3841 1.6941
-5.4622 -0.5816 1.6941
-5.4401 -0.7785 1.6941
-5.4110 -0.9745 1.6941
-5.3748 -1.1695 1.6941
-5.3316 -1.3632 1.6941
-5.2815 -1.5552 1.6941
-5.2244 -1.7454 1.6941
-5.1605 -1.9335 1.6941
-5.0898 -2.1192 1.6941
-5.0125 -2.3023 1.6941
-4.9285 -2.4826 1.6941
-4.8381 -2.6599 1.6941
-4.7412 -2.8338 1.6941
-4.6381 -3.0042 1.6941
-4.5289 -3.1708 1.6941
-4.4137 -3.3334 1.6941
-4.2926 -3.4918 1.6941
-4.1658 -3.6458 1.6941
-4.0334 -3.7951 1.6941
-3.8957 -3.9396 1.6941
-3.7528 -4.0791 1.6941
-3.6049 -4.2134 1.6941
-3.4521 -4.3422 1.6941
-3.2947 -4.4655 1.6941
-3.1329 -4.5830 1.6941
-2.9669 -4.6946 1.6941
-2.7968 -4.8001 1.6941
-2.6230 -4.8994 1.6941
-2.4457 -4.9924 1.6941
-2.2650 -5.0789 1.6941
-2.0812 -5.1588 1.6941
-1.8947 -5.2319 1.6941
-1.7055 -5.2983 1.6941
-1.5140 -5.3577 1.6941
-1.3204 -5.4101 1.6941
-1.1250 -5.4555 1.6941
-0.9280 -5.4937 1.6941
-0.7297 -5.5247 1.6941
-0.5304 -5.5485 1.6941
-0.3303 -5.5650 1.6941
-0.1297 -5.5742 1.6941
0.0711 -5.5761 1.6941
0.2719 -5.5707 1.6941
0.4724 -5.5579 1.6941
0.6722 -5.5379 1.6941
0.8713 -5.5105 1.6941
1.0692 -5.4760 1.6941
1.2658 -5.4342 1.6941
1.4606 -5.3853 1.6941
1.6536 -5.3293 1.6941
1.7320 -4.9453 1.5909
1.9118 -4.8870 1.5933
2.0833 -4.8076 1.5909
2.2550 -4.7292 1.5909
0.6080 1.6972 0.6050
0.5464 1.7179 0.6051
0.4840 1.7365 0.6053
0.4211 1.7528 0.6054
0.3575 1.7669 0.6055
0.2935 1.7786 0.6057
0.2292 1.7881 0.6058
0.1645 1.7952 0.6059
0.0996 1.8000 0.6060
0.0346 1.8025 0.6061
-0.0305 1.8026 0.6062
-0.0955 1.8004 0.6063
-0.1604 1.7959 0.6064
-0.2252 1.7891 0.6065
-0.2896 1.7799 0.6066
-0.3537 1.7684 0.6067
-0.4173 1.7547 0.6068
-0.4804 1.7386 0.6068
-0.5429 1.7203 0.6069
-0.6047 1.6998 0.6070
-0.6657 1.6770 0.6070
-0.7259 1.6521 0.6071
-0.7851 1.6250 0.6071
-0.8434 1.5959 0.6072
-2.5126 4.3653 1.6941
-2.6688 4.2722 1.6941
-2.8215 4.1736 1.6941
-2.9707 4.0695 1.6941
-3.1161 3.9602 1.6941
-3.2575 3.8458 1.6941
-3.3947 3.7264 1.6941
-3.5276 3.6021 1.6941
-3.6560 3.4732 1.6941
-3.7798 3.3397 1.6941
-3.8987 3.2018 1.6941
-4.0126 3.0598 1.6941
-4.1215 2.9138 1.6941
-4.2250 2.7639 1.6941
-4.3232 2.6104 1.6941
-4.4158 2.4534 1.6941
-4.5028 2.2932 1.6941
-4.5840 2.1299 1.6941
-4.6594 1.9638 1.6941
-4.7288 1.7950 1.6941
-4.7921 1.6238 1.6941
-4.8492 1.4504 1.6941
-4.9002 1.2750 1.6941
-4.9448 1.0978 1.6941
-4.9831 0.9191 1.6941
-5.0149 0.7391 1.6941
-5.0403 0.5580 1.6941
-5.0591 0.3760 1.6941
-5.0714 0.1934 1.6941
-5.0772 0.0103 1.6941
-5.0764 -0.1728 1.6941
-5.0690 -0.3559 1.6941
-5.0550 -0.5387 1.6941
-5.0344 -0.7209 1.6941
-5.0073 -0.9023 1.6941
-4.9737 -1.0827 1.6941
-4.9336 -1.2619 1.6941
-4.8870 -1.4395 1.6941
-4.8341 -1.6154 1.6941
-4.7748 -1.7894 1.6941
-4.7092 -1.9612 1.6941
-4.6375 -2.1306 1.6941
-4.5597 -2.2973 1.6941
-4.4759 -2.4612 1.6941
-4.3861 -2.6221 1.6941
-4.2906 -2.7796 1.6941
-4.1894 -2.9337 1.6941
-4.0827 -3.0840 1.6941
-3.9706 -3.2304 1.6941
-3.8532 -3.3728 1.6941
-3.7306 -3.5108 1.6941
-3.6031 -3.6444 1.6941
-3.4709 -3.7733 1.6941
-3.3339 -3.8973 1.6941
-3.1926 -4.0164 1.6941
-3.0469 -4.1303 1.6941
-2.8972 -4.2389 1.6941
-2.7436 -4.3420 1.6941
-2.5863 -4.4394 1.6941
-2.4255 -4.5312 1.6941
-2.2614 -4.6170 1.6941
-2.0943 -4.6969 1.6941
-1.9243 -4.7707 1.6941
-1.7518 -4.8382 1.6941
-1.5768 -4.8995 1.6941
-1.3997 -4.9543 1.6941
-1.2207 -5.0027 1.6941
-1.0400 -5.0446 1.6941
-0.8579 -5.0798 1.6941
-0.6745 -5.1084 1.6941
-0.4902 -5.1304 1.6941
-0.3052 -5.1456 1.6941
-0.1198 -5.1540 1.6941
0.0659 -5.1557 1.6941
0.2515 -5.1506 1.6941
0.4368 -5.1388 1.6941
0.6216 -5.1202 1.6941
0.8056 -5.0949 1.6941
0.9886 -5.0629 1.6941
1.1703 -5.0243 1.6941
1.3505 -4.9791 1.6941
1.5289 -4.9273 1.6941
1.6996 -4.8526 1.6884
1.7649 -4.5116 1.5909
1.9262 -4.4450 1.5909
2.0849 -4.3725 1.5909
0.5654 1.5780 0.6048
0.5081 1.5973 0.6050
0.4501 1.6145 0.6051
0.3916 1.6297 0.6052
0.3325 1.6428 0.6053
0.2730 1.6537 0.6055
0.2131 1.6625 0.6056
0.1530 1.6691 0.6057
0.0927 1.6736 0.6058
0.0322 1.6759 0.6059
-0.0283 1.6760 0.6060
-0.0888 1.6740 0.6061
-0.1491 1.6697 0.6062
-0.2093 1.6634 0.6063
-0.2692 1.6548 0.6063
-0.3288 1.6442 0.6064
-0.3880 1.6313 0.6065
-0.4466 1.6164 0.6066
-0.5047 1.5994 0.6066
-0.5622 1.5803 0.6067
-0.6189 1.5591 0.6067
-0.6749 1.5359 0.6068
-0.7299 1.5108 0.6068
-0.7841 1.4836 0.6069
-0.8372 1.4545 0.6069
-0.8893 1.4235 0.6069
-2.6245 3.8819 1.6941
-2.7632 3.7851 1.6941
-2.8984 3.6834 1.6941
-3.0299 3.5769 1.6941
-3.1575 3.4658 1.6941
-3.2811 3.3501 1.6941
-3.4005 3.2302 1.6941
-3.5156 3.1060 1.6941
-3.6261 2.9777 1.6941
-3.7321 2.8456 1.6941
-3.8332 2.7097 1.6941
-3.9295 2.5702 1.6941
-4.0207 2.4274 1.6941
-4.1068 2.2814 1.6941
-4.1876 2.1323 1.6941
-4.2631 1.9804 1.6941
-4.3331 1.8259 1.6941
-4.3975 1.6689 1.6941
-4.4563 1.5097 1.6941
-4.5093 1.3484 1.6941
-4.5566 1.1852 1.6941
-4.5980 1.0205 1.6941
-4.6335 0.8542 1.6941
-4.6630 0.6868 1.6941
-4.6864 0.5184 1.6941
-4.7038 0.3492 1.6941
-4.7152 0.1794 1.6941
-4.7204 0.0092 1.6941
-4.7195 -0.1611 1.6941
-4.7125 -0.3313 1.6941
-4.6994 -0.5012 1.6941
-4.6802 -0.6706 1.6941
-4.6548 -0.8392 1.6941
-4.6234 -1.0069 1.6941
-4.5860 -1.1734 1.6941
-4.5426 -1.3385 1.6941
-4.4933 -1.5020 1.6941
-4.4380 -1.6637 1.6941
-4.3770 -1.8233 1.6941
-4.3102 -1.9807 1.6941
-4.2377 -2.1356 1.6941
-4.1597 -2.2879 1.6941
-4.0762 -2.4373 1.6941
-3.9873 -2.5836 1.6941
-3.8932 -2.7267 1.6941
-3.7939 -2.8664 1.6941
-3.6896 -3.0024 1.6941
-3.5804 -3.1345 1.6941
-3.4665 -3.2627 1.6941
-3.3479 -3.3868 1.6941
-3.2249 -3.5064 1.6941
-3.0976 -3.6216 1.6941
-2.9662 -3.7322 1.6941
-2.8308 -3.8379 1.6941
-2.6916 -3.9387 1.6941
-2.5488 -4.0344 1.6941
-2.4026 -4.1249 1.6941
-2.2532 -4.2100 1.6941
-2.1007 -4.2897 1.6941
-1.9454 -4.3638 1.6941
-1.7875 -4.4323 1.6941
-1.6272 -4.4949 1.6941
-1.4646 -4.5517 1.6941
-1.3001 -4.6026 1.6941
-1.1338 -4.6475 1.6941
-0.9659 -4.6863 1.6941
-0.7967 -4.7190 1.6941
-0.6264 -4.7455 1.6941
-0.4552 -4.7658 1.6941
-0.2834 -4.7799 1.6941
-0.1111 -4.7877 1.6941
0.0613 -4.7892 1.6941
0.2337 -4.7845 1.6941
0.4059 -4.7735 1.6941
0.5775 -4.7562 1.6941
0.7484 -4.7326 1.6941
0.9184 -4.7029 1.6941
1.0871 -4.6670 1.6941
1.2545 -4.6250 1.6941
1.4202 -4.5769 1.6941
1.5840 -4.5228 1.6941
1.7100 -4.3713 1.6594
1.7892 -4.1289 1.5909
1.9366 -4.0617 1.5909
0.5278 1.4728 0.6047
0.4743 1.4908 0.6048
0.4202 1.5070 0.6049
0.3656 1.5211 0.6051
0.3104 1.5333 0.6052
0.2549 1.5435 0.6053
0.1990 1.5517 0.6054
0.1429 1.5579 0.6055
0.0865 1.5620 0.6056
0.0301 1.5642 0.6057
-0.0264 1.5643 0.6058
-0.0828 1.5624 0.6059
-0.1392 1.5585 0.6059
-0.1953 1.5525 0.6060
-0.2513 1.5445 0.6061
-0.3069 1.5345 0.6062
-0.3621 1.5226 0.6062
-0.4168 1.5086 0.6063
-0.4711 1.4927 0.6064
-0.5247 1.4749 0.6064
-0.5776 1.4551 0.6065
-0.6299 1.4335 0.6065
-0.6813 1.4100 0.6066
-0.7318 1.3846 0.6066
-0.7814 1.3575 0.6066
-0.8300 1.3285 0.6066
-0.8775 1.2979 0.6067
-2.5801 3.5340 1.6941
-2.7063 3.4390 1.6941
-2.8290 3.3395 1.6941
-2.9482 3.2358 1.6941
-3.0635 3.1278 1.6941
-3.1750 3.0157 1.6941
-3.2824 2.8997 1.6941
-3.3856 2.7799 1.6941
-3.4844 2.6565 1.6941
-3.5789 2.5296 1.6941
-3.6687 2.3993 1.6941
-3.7538 2.2660 1.6941
-3.8341 2.1296 1.6941
-3.9095 1.9904 1.6941
-3.9799 1.8485 1.6941
-4.0452 1.7042 1.6941
-4.1052 1.5576 1.6941
-4.1600 1.4090 1.6941
-4.2095 1.2584 1.6941
-4.2535 1.1060 1.6941
-4.2921 0.9522 1.6941
-4.3251 0.7970 1.6941
-4.3525 0.6407 1.6941
-4.3743 0.4835 1.6941
-4.3905 0.3255 1.6941
-4.4010 0.1670 1.6941
-4.4058 0.0082 1.6941
-4.4048 -0.1507 1.6941
-4.3982 -0.3096 1.6941
-4.3858 -0.4681 1.6941
-4.3678 -0.6262 1.6941
-4.3440 -0.7836 1.6941
-4.3146 -0.9401 1.6941
-4.2796 -1.0954 1.6941
-4.2390 -1.2495 1.6941
-4.1928 -1.4020 1.6941
-4.1412 -1.5528 1.6941
-4.0841 -1.7018 1.6941
-4.0217 -1.8486 1.6941
-3.9540 -1.9931 1.6941
-3.8811 -2.1351 1.6941
-3.8031 -2.2745 1.6941
-3.7201 -2.4109 1.6941
-3.6322 -2.5444 1.6941
-3.5394 -2.6746 1.6941
-3.4421 -2.8014 1.6941
-3.3401 -2.9247 1.6941
-3.2337 -3.0442 1.6941
-3.1231 -3.1598 1.6941
-3.0083 -3.2714 1.6941
-2.8894 -3.3788 1.6941
-2.7668 -3.4818 1.6941
-2.6404 -3.5804 1.6941
-2.5106 -3.6743 1.6941
-2.3773 -3.7635 1.6941
-2.2409 -3.8479 1.6941
-2.1015 -3.9272 1.6941
-1.9593 -4.0015 1.6941
-1.8144 -4.0705 1.6941
-1.6671 -4.1343 1.6941
-1.5175 -4.1927 1.6941
-1.3659 -4.2456 1.6941
-1.2124 -4.2930 1.6941
-1.0573 -4.3348 1.6941
-0.9007 -4.3709 1.6941
-0.7429 -4.4014 1.6941
-0.5840 -4.4260 1.6941
-0.4244 -4.4449 1.6941
-0.2641 -4.4580 1.6941
-0.1035 -4.4652 1.6941
0.0573 -4.4666 1.6941
0.2181 -4.4622 1.6941
0.3786 -4.4519 1.6941
0.5387 -4.4357 1.6941
0.6981 -4.4138 1.6941
0.8566 -4.3860 1.6941
1.0139 -4.3525 1.6941
1.1700 -4.3133 1.6941
1.3245 -4.2685 1.6941
1.4773 -4.2180 1.6941
1.6282 -4.1621 1.6941
1.7192 -3.9677 1.6392
1.8060 -3.7880 1.5909
0.4944 1.3793 0.6046
0.4443 1.3962 0.6047
0.3936 1.4113 0.6048
0.3424 1.4245 0.6049
0.2908 1.4359 0.6050
0.2388 1.4455 0.6051
0.1864 1.4532 0.6052
0.1339 1.4589 0.6053
0.0811 1.4628 0.6054
0.0282 1.4648 0.6055
-0.0247 1.4650 0.6056
-0.0775 1.4632 0.6057
-0.1303 1.4595 0.6057
-0.1829 1.4539 0.6058
-0.2353 1.4464 0.6059
-0.2874 1.4371 0.6060
-0.3391 1.4258 0.6060
-0.3904 1.4128 0.6061
-0.4411 1.3979 0.6061
-0.4914 1.3812 0.6062
-0.5409 1.3626 0.6062
-0.5898 1.3424 0.6063
-0.6380 1.3203 0.6063
-0.6853 1.2966 0.6063
-0.7317 1.2711 0.6064
-0.7772 1.2440 0.6064
-0.8218 1.2153 0.6064
-0.8652 1.1850 0.6064
-2.5353 3.2215 1.6941
-2.6503 3.1283 1.6941
-2.7619 3.0310 1.6941
-2.8699 2.9298 1.6941
-2.9743 2.8248 1.6941
-3.0749 2.7161 1.6941
-3.1715 2.6039 1.6941
-3.2641 2.4882 1.6941
-3.3525 2.3693 1.6941
-3.4366 2.2473 1.6941
-3.5163 2.1223 1.6941
-3.5915 1.9945 1.6941
-3.6620 1.8641 1.6941
-3.7279 1.7312 1.6941
-3.7890 1.5960 1.6941
-3.8452 1.4586 1.6941
-3.8965 1.3194 1.6941
-3.9427 1.1783 1.6941
-3.9839 1.0356 1.6941
-4.0199 0.8915 1.6941
-4.0508 0.7461 1.6941
-4.0764 0.5997 1.6941
-4.0967 0.4524 1.6941
-4.1118 0.3045 1.6941
-4.1215 0.1561 1.6941
-4.1259 0.0073 1.6941
-4.1250 -0.1415 1.6941
-4.1187 -0.2903 1.6941
-4.1070 -0.4388 1.6941
-4.0900 -0.5868 1.6941
-4.0677 -0.7341 1.6941
-4.0401 -0.8806 1.6941
-4.0072 -1.0261 1.6941
-3.9691 -1.1703 1.6941
-3.9258 -1.3131 1.6941
-3.8773 -1.4543 1.6941
-3.8238 -1.5937 1.6941
-3.7653 -1.7311 1.6941
-3.7018 -1.8664 1.6941
-3.6335 -1.9993 1.6941
-3.5604 -2.1297 1.6941
-3.4826 -2.2575 1.6941
-3.4002 -2.3823 1.6941
-3.3133 -2.5042 1.6941
-3.2221 -2.6229 1.6941
-3.1266 -2.7382 1.6941
-3.0270 -2.8500 1.6941
-2.9233 -2.9582 1.6941
-2.8158 -3.0626 1.6941
-2.7045 -3.1631 1.6941
-2.5897 -3.2595 1.6941
-2.4713 -3.3517 1.6941
-2.3497 -3.4395 1.6941
-2.2250 -3.5229 1.6941
-2.0973 -3.6018 1.6941
-1.9668 -3.6760 1.6941
-1.8336 -3.7454 1.6941
-1.6980 -3.8100 1.6941
-1.5601 -3.8697 1.6941
-1.4201 -3.9242 1.6941
-1.2782 -3.9737 1.6941
-1.1345 -4.0180 1.6941
-0.9893 -4.0571 1.6941
-0.8428 -4.0909 1.6941
-0.6951 -4.1193 1.6941
-0.5464 -4.1424 1.6941
-0.3970 -4.1600 1.6941
-0.2471 -4.1722 1.6941
-0.0967 -4.1789 1.6941
0.0538 -4.1802 1.6941
0.2042 -4.1760 1.6941
0.3544 -4.1664 1.6941
0.5042 -4.1512 1.6941
0.6534 -4.1307 1.6941
0.8017 -4.1047 1.6941
0.9489 -4.0733 1.6941
1.0950 -4.0367 1.6941
1.2396 -3.9947 1.6941
1.3825 -3.9475 1.6941
1.5237 -3.8951 1.6941
1.6629 -3.8376 1.6941
1.7295 -3.6276 1.6279
0.4645 1.2955 0.6045
0.4174 1.3113 0.6046
0.3698 1.3255 0.6047
0.3217 1.3380 0.6048
0.2732 1.3487 0.6049
0.2243 1.3576 0.6050
0.1752 1.3649 0.6051
0.1258 1.3703 0.6052
0.0762 1.3740 0.6052
0.0266 1.3758 0.6053
-0.0231 1.3759 0.6054
-0.0728 1.3742 0.6055
-0.1223 1.3708 0.6056
-0.1718 1.3655 0.6056
-0.2210 1.3585 0.6057
-0.2699 1.3497 0.6058
-0.3184 1.3392 0.6058
-0.3666 1.3269 0.6059
-0.4143 1.3129 0.6059
-0.4615 1.2972 0.6060
-0.5081 1.2798 0.6060
-0.5540 1.2607 0.6061
-0.5992 1.2400 0.6061
-0.6436 1.2177 0.6061
-0.6873 1.1938 0.6062
-0.7300 1.1683 0.6062
-0.7718 1.1414 0.6062
-0.8126 1.1129 0.6062
-0.8523 1.0830 0.6062
-0.8910 1.0516 0.6062
-2.5948 2.8475 1.6941
-2.6963 2.7524 1.6941
-2.7944 2.6537 1.6941
-2.8888 2.5515 1.6941
-2.9796 2.4460 1.6941
-3.0665 2.3373 1.6941
-3.1496 2.2256 1.6941
-3.2285 2.1109 1.6941
-3.3034 1.9935 1.6941
-3.3740 1.8734 1.6941
-3.4402 1.7509 1.6941
-3.5020 1.6260 1.6941
-3.5594 1.4990 1.6941
-3.6121 1.3699 1.6941
-3.6602 1.2391 1.6941
-3.7036 1.1065 1.6941
-3.7422 0.9724 1.6941
-3.7760 0.8371 1.6941
-3.8049 0.7005 1.6941
-3.8289 0.5630 1.6941
-3.8480 0.4246 1.6941
-3.8621 0.2857 1.6941
-3.8711 0.1462 1.6941
-3.8752 0.0065 1.6941
-3.8742 -0.1333 1.6941
-3.8682 -0.2730 1.6941
-3.8572 -0.4125 1.6941
-3.8412 -0.5515 1.6941
-3.8201 -0.6898 1.6941
-3.7941 -0.8274 1.6941
-3.7632 -0.9640 1.6941
-3.7273 -1.0994 1.6941
-3.6865 -1.2335 1.6941
-3.6410 -1.3661 1.6941
-3.5907 -1.4969 1.6941
-3.5356 -1.6260 1.6941
-3.4760 -1.7530 1.6941
-3.4117 -1.8777 1.6941
-3.3430 -2.0002 1.6941
-3.2699 -2.1201 1.6941
-3.1925 -2.2373 1.6941
-3.1109 -2.3516 1.6941
-3.0252 -2.4630 1.6941
-2.9354 -2.5713 1.6941
-2.8419 -2.6762 1.6941
-2.7445 -2.7777 1.6941
-2.6435 -2.8757 1.6941
-2.5390 -2.9700 1.6941
-2.4311 -3.0604 1.6941
-2.3200 -3.1469 1.6941
-2.2058 -3.2293 1.6941
-2.0887 -3.3076 1.6941
-1.9687 -3.3816 1.6941
-1.8462 -3.4512 1.6941
-1.7212 -3.5163 1.6941
-1.5938 -3.5769 1.6941
-1.4643 -3.6328 1.6941
-1.3329 -3.6840 1.6941
-1.1997 -3.7304 1.6941
-1.0648 -3.7720 1.6941
-0.9285 -3.8086 1.6941
-0.7910 -3.8403 1.6941
-0.6523 -3.8669 1.6941
-0.5128 -3.8885 1.6941
-0.3725 -3.9051 1.6941
-0.2318 -3.9165 1.6941
-0.0907 -3.9228 1.6941
0.0506 -3.9240 1.6941
0.1918 -3.9200 1.6941
0.3328 -3.9109 1.6941
0.4734 -3.8967 1.6941
0.6134 -3.8774 1.6941
0.7525 -3.8530 1.6941
0.8908 -3.8235 1.6941
1.0278 -3.7891 1.6941
1.1635 -3.7497 1.6941
1.2977 -3.7054 1.6941
1.4302 -3.6563 1.6941
1.5609 -3.6023 1.6941
1.6894 -3.5437 1.6941
0.4374 1.2199 0.6044
0.3931 1.2348 0.6045
0.3483 1.2482 0.6046
0.3030 1.2599 0.6047
0.2573 1.2700 0.6048
0.2113 1.2784 0.6048
0.1650 1.2852 0.6049
0.1185 1.2903 0.6050
0.0718 1.2938 0.6051
0.0251 1.2955 0.6052
-0.0217 1.2956 0.6053
-0.0685 1.2940 0.6053
-0.1152 1.2907 0.6054
-0.1617 1.2858 0.6055
-0.2080 1.2792 0.6055
-0.2541 1.2709 0.6056
-0.2998 1.2610 0.6057
-0.3452 1.2494 0.6057
-0.3901 1.2362 0.6058
-0.4345 1.2214 0.6058
-0.4784 1.2050 0.6058
-0.5216 1.1871 0.6059
-0.5642 1.1676 0.6059
-0.6060 1.1465 0.6059
-0.6471 1.1240 0.6060
-0.6874 1.1000 0.6060
-0.7267 1.0746 0.6060
-0.7651 1.0478 0.6060
-0.8026 1.0196 0.6060
-0.8390 0.9901 0.6060
-0.8743 0.9593 0.6060
-2.5396 2.5922 1.6941
-2.6320 2.4992 1.6941
-2.7209 2.4030 1.6941
-2.8064 2.3036 1.6941
-2.8883 2.2012 1.6941
-2.9664 2.0959 1.6941
-3.0408 1.9879 1.6941
-3.1112 1.8773 1.6941
-3.1777 1.7642 1.6941
-3.2400 1.6487 1.6941
-3.2982 1.5311 1.6941
-3.3522 1.4114 1.6941
-3.4018 1.2899 1.6941
-3.4471 1.1666 1.6941
-3.4879 1.0417 1.6941
-3.5242 0.9155 1.6941
-3.5560 0.7880 1.6941
-3.5832 0.6594 1.6941
-3.6057 0.5298 1.6941
-3.6236 0.3995 1.6941
-3.6368 0.2687 1.6941
-3.6453 0.1374 1.6941
-3.6490 0.0058 1.6941
-3.6480 -0.1258 1.6941
-3.6423 -0.2574 1.6941
-3.6319 -0.3887 1.6941
-3.6167 -0.5196 1.6941
-3.5969 -0.6499 1.6941
-3.5723 -0.7794 1.6941
-3.5431 -0.9080 1.6941
-3.5093 -1.0355 1.6941
-3.4709 -1.1617 1.6941
-3.4279 -1.2865 1.6941
-3.3805 -1.4097 1.6941
-3.3286 -1.5311 1.6941
-3.2724 -1.6507 1.6941
-3.2118 -1.7681 1.6941
-3.1471 -1.8833 1.6941
-3.0782 -1.9962 1.6941
-3.0053 -2.1065 1.6941
-2.9284 -2.2141 1.6941
-2.8477 -2.3189 1.6941
-2.7632 -2.4208 1.6941
-2.6750 -2.5195 1.6941
-2.5833 -2.6151 1.6941
-2.4882 -2.7072 1.6941
-2.3898 -2.7959 1.6941
-2.2882 -2.8810 1.6941
-2.1836 -2.9624 1.6941
-2.0761 -3.0399 1.6941
-1.9658 -3.1136 1.6941
-1.8529 -3.1832 1.6941
-1.7375 -3.2486 1.6941
-1.6198 -3.3099 1.6941
-1.5000 -3.3669 1.6941
-1.3781 -3.4195 1.6941
-1.2544 -3.4676 1.6941
-1.1290 -3.5112 1.6941
-1.0020 -3.5503 1.6941
-0.8738 -3.5848 1.6941
-0.7443 -3.6145 1.6941
-0.6138 -3.6396 1.6941
-0.4825 -3.6599 1.6941
-0.3505 -3.6754 1.6941
-0.2180 -3.6861 1.6941
-0.0852 -3.6920 1.6941
0.0477 -3.6931 1.6941
0.1806 -3.6894 1.6941
0.3133 -3.6808 1.6941
0.4456 -3.6674 1.6941
0.5773 -3.6492 1.6941
0.7083 -3.6263 1.6941
0.8384 -3.5986 1.6941
0.9674 -3.5661 1.6941
1.0951 -3.5291 1.6941
1.2214 -3.4874 1.6941
1.3461 -3.4411 1.6941
1.4690 -3.3904 1.6941
1.5900 -3.3352 1.6941
0.4129 1.1512 0.6043
0.3711 1.1653 0.6044
0.3287 1.1779 0.6045
0.2860 1.1890 0.6046
0.2429 1.1985 0.6046
0.1995 1.2065 0.6047
0.1558 1.2129 0.6048
0.1119 1.2177 0.6049
0.0678 1.2210 0.6050
0.0237 1.2226 0.6050
-0.0205 1.2227 0.6051
-0.0646 1.2212 0.6052
-0.1087 1.2181 0.6053
-0.1526 1.2134 0.6053
-0.1963 1.2072 0.6054
-0.2398 1.1994 0.6054
-0.2830 1.1900 0.6055
-0.3258 1.1791 0.6055
-0.3682 1.1666 0.6056
-0.4101 1.1526 0.6056
-0.4515 1.1372 0.6057
-0.4923 1.1202 0.6057
-0.5324 1.1018 0.6057
-0.5719 1.0820 0.6058
-0.6107 1.0607 0.6058
-0.6487 1.0381 0.6058
-0.6858 1.0141 0.6058
-0.7221 0.9888 0.6058
-0.7574 0.9622 0.6058
-0.7917 0.9343 0.6058
-0.8251 0.9052 0.6058
-0.8573 0.8750 0.6058
-0.8885 0.8436 0.6058
-2.5685 2.2681 1.6941
-2.6491 2.1743 1.6941
-2.7264 2.0776 1.6941
-2.8002 1.9782 1.6941
-2.8703 1.8762 1.6941
-2.9368 1.7718 1.6941
-2.9995 1.6650 1.6941
-3.0583 1.5560 1.6941
-3.1132 1.4449 1.6941
-3.1641 1.3320 1.6941
-3.2109 1.2172 1.6941
-3.2536 1.1008 1.6941
-3.2921 0.9830 1.6941
-3.3263 0.8638 1.6941
-3.3563 0.7434 1.6941
-3.3819 0.6220 1.6941
-3.4031 0.4998 1.6941
-3.4199 0.3768 1.6941
-3.4323 0.2532 1.6941
-3.4403 0.1293 1.6941
-3.4438 0.0051 1.6941
-3.4428 -0.1191 1.6941
-3.4374 -0.2433 1.6941
-3.4275 -0.3672 1.6941
-3.4131 -0.4907 1.6941
-3.3943 -0.6136 1.6941
-3.3711 -0.7358 1.6941
-3.3435 -0.8572 1.6941
-3.3115 -0.9775 1.6941
-3.2752 -1.0966 1.6941
-3.2346 -1.2143 1.6941
-3.1898 -1.3306 1.6941
-3.1408 -1.4451 1.6941
-3.0877 -1.5579 1.6941
-3.0305 -1.6687 1.6941
-2.9694 -1.7774 1.6941
-2.9043 -1.8838 1.6941
-2.8355 -1.9879 1.6941
-2.7629 -2.0894 1.6941
-2.6867 -2.1883 1.6941
-2.6069 -2.2843 1.6941
-2.5237 -2.3775 1.6941
-2.4372 -2.4675 1.6941
-2.3474 -2.5545 1.6941
-2.2545 -2.6381 1.6941
-2.1586 -2.7184 1.6941
-2.0599 -2.7951 1.6941
-1.9585 -2.8682 1.6941
-1.8544 -2.9376 1.6941
-1.7479 -3.0033 1.6941
-1.6390 -3.0650 1.6941
-1.5280 -3.1227 1.6941
-1.4149 -3.1764 1.6941
-1.2999 -3.2260 1.6941
-1.1832 -3.2714 1.6941
-1.0649 -3.3126 1.6941
-0.9451 -3.3494 1.6941
-0.8241 -3.3818 1.6941
-0.7020 -3.4099 1.6941
-0.5789 -3.4335 1.6941
-0.4550 -3.4526 1.6941
-0.3305 -3.4672 1.6941
-0.2055 -3.4773 1.6941
-0.0803 -3.4829 1.6941
0.0451 -3.4839 1.6941
0.1705 -3.4803 1.6941
0.2956 -3.4722 1.6941
0.4204 -3.4596 1.6941
0.5447 -3.4424 1.6941
0.6682 -3.4208 1.6941
0.7909 -3.3946 1.6941
0.9126 -3.3640 1.6941
1.0330 -3.3291 1.6941
1.1522 -3.2897 1.6941
1.2698 -3.2461 1.6941
1.3857 -3.1982 1.6941
1.4998 -3.1462 1.6941
0.3905 1.0886 0.6042
0.3510 1.1020 0.6043
0.3109 1.1139 0.6044
0.2705 1.1243 0.6045
0.2297 1.1333 0.6045
0.1887 1.1409 0.6046
0.1473 1.1469 0.6047
0.1058 1.1515 0.6048
0.0642 1.1546 0.6049
0.0224 1.1561 0.6049
-0.0193 1.1562 0.6050
-0.0611 1.1548 0.6051
-0.1027 1.1519 0.6051
-0.1443 1.1474 0.6052
-0.1856 1.1415 0.6052
-0.2267 1.1341 0.6053
-0.2675 1.1252 0.6053
-0.3080 1.1149 0.6054
-0.3481 1.1031 0.6054
-0.3878 1.0899 0.6055
-0.4269 1.0753 0.6055
-0.4655 1.0592 0.6055
-0.5035 1.0418 0.6056
