ply
format ascii 1.0
element vertex 2172
property float32 x
property float32 y
property float32 z
end_header
7.1478 -0.8390 0.8454
7.1471 -0.5790 0.8427
7.1464 -0.3206 0.8411
7.1457 -0.0630 0.8406
7.1450 0.1943 0.8411
7.1443 0.4521 0.8428
7.1436 0.7110 0.8457
7.1428 0.9717 0.8496
7.1421 1.2350 0.8547
7.1414 1.5015 0.8610
7.1406 1.7720 0.8685
7.1399 2.0473 0.8773
7.1391 2.3283 0.8874
7.1383 2.6159 0.8990
7.1375 2.9112 0.9120
7.1367 3.2152 0.9266
7.1358 3.5292 0.9429
7.1350 3.8545 0.9611
7.1340 4.1926 0.9813
7.1331 4.5453 1.0036
7.1321 4.9144 1.0283
7.1310 5.3022 1.0556
7.1299 5.7112 1.0858
7.1287 6.1445 1.1193
7.1274 6.6053 1.1564
7.1261 7.0978 1.1976
7.1246 7.6267 1.2434
7.1231 8.1978 1.2946
7.1214 8.8181 1.3519
7.1195 9.4960 1.4164
7.1175 10.2419 1.4893
7.1152 11.0689 1.5721
6.7813 11.4348 1.5891
5.9733 10.9530 1.4921
3.6312 7.2694 0.9724
3.3620 7.3843 0.9714
3.3535 8.1300 1.0534
3.3599 9.0577 1.1578
4.1591 12.5846 1.5891
3.7015 12.7202 1.5891
3.2396 12.8395 1.5891
2.9539 13.7816 1.6922
2.4546 13.8731 1.6922
-4.8565 6.6003 1.1770
-4.8771 6.1513 1.1275
-4.8666 5.7034 1.0768
-4.8452 5.2806 1.0293
-4.8442 4.9120 0.9907
-4.8681 4.5930 0.9611
-5.0115 4.3981 0.9574
-8.5760 6.9962 1.5890
-8.8236 6.6836 1.5890
-8.9565 6.2898 1.5708
-8.9552 5.8189 1.5326
-8.9539 5.3697 1.4980
-8.9528 4.9396 1.4668
-8.9516 4.5264 1.4387
-8.9505 4.1281 1.4133
-8.9495 3.7429 1.3906
-8.9485 3.3692 1.3704
-8.9475 3.0057 1.3524
-8.9465 2.6508 1.3366
-8.9455 2.3036 1.3228
-8.9446 1.9628 1.3109
-8.9437 1.6275 1.3009
-8.9428 1.2965 1.2927
-8.9419 0.9691 1.2862
-8.9410 0.6443 1.2814
-8.9401 0.3213 1.2783
-8.9392 -0.0008 1.2769
-8.9384 -0.3229 1.2771
-8.9375 -0.6458 1.2789
-8.9366 -0.9703 1.2825
-8.9357 -1.2972 1.2876
-8.9348 -1.6275 1.2946
-8.9339 -1.9621 1.3032
-8.9330 -2.3020 1.3138
-8.9320 -2.6482 1.3262
-8.9310 -3.0018 1.3406
-8.9301 -3.3639 1.3571
-8.9290 -3.7360 1.3759
-8.9280 -4.1193 1.3970
-8.9269 -4.5155 1.4207
-8.9258 -4.9263 1.4471
-8.9246 -5.3537 1.4765
-8.9234 -5.7998 1.5092
-8.9221 -6.2672 1.5454
-8.9208 -6.7587 1.5855
-8.6949 -7.0944 1.5890
-4.9845 -4.3752 0.9387
-8.1698 -7.7093 1.5890
-4.8309 -4.8992 0.9728
-4.8164 -5.2498 1.0068
-4.8217 -5.6512 1.0493
-4.8436 -6.1093 1.1007
-4.8336 -6.5693 1.1509
-4.8114 -7.0581 1.2049
-6.0090 -9.5352 1.5890
-5.6644 -9.7498 1.5890
-5.3121 -9.9519 1.5890
-4.9526 -10.1412 1.5890
-4.7659 -10.7213 1.6512
-4.4875 -11.1613 1.6922
-4.0845 -11.3203 1.6922
-3.6759 -11.4647 1.6922
-3.2621 -11.5943 1.6922
-2.8437 -11.7087 1.6922
-2.4213 -11.8079 1.6922
-1.9953 -11.8917 1.6922
-1.5665 -11.9601 1.6922
-1.1354 -12.0128 1.6922
-0.7024 -12.0498 1.6922
-0.2683 -12.0710 1.6922
0.1664 -12.0765 1.6922
0.6012 -12.0661 1.6922
1.0354 -12.0398 1.6922
1.4685 -11.9978 1.6922
1.8999 -11.9400 1.6922
2.3290 -11.8665 1.6922
2.7552 -11.7774 1.6922
3.1779 -11.6728 1.6922
3.3775 -10.8490 1.5891
3.6108 -10.2789 1.5235
4.1505 -10.5811 1.5891
3.3900 -7.8036 1.1894
3.4163 -7.1483 1.1075
3.3849 -6.4728 1.0210
3.4073 -5.9811 0.9621
5.9805 -9.6711 1.5891
6.3249 -9.4499 1.5891
6.6611 -9.2162 1.5891
6.9885 -8.9704 1.5891
7.1689 -8.5486 1.5592
7.1672 -7.9471 1.4957
7.1657 -7.3921 1.4389
7.1643 -6.8771 1.3881
7.1630 -6.3967 1.3425
7.1618 -5.9463 1.3014
7.1606 -5.5223 1.2644
7.1595 -5.1213 1.2310
7.1585 -4.7406 1.2009
7.1575 -4.3777 1.1737
7.1565 -4.0306 1.1492
7.1556 -3.6973 1.1272
7.1547 -3.3763 1.1074
7.1539 -3.0661 1.0898
7.1531 -2.7654 1.0741
7.1523 -2.4731 1.0602
7.1515 -2.1879 1.0480
7.1507 -1.9091 1.0374
7.1500 -1.6356 1.0285
7.1492 -1.3667 1.0209
7.1485 -1.1015 1.0149
7.1478 -0.8392 1.0102
7.1471 -0.5792 1.0068
7.1464 -0.3208 1.0048
7.1457 -0.0633 1.0042
7.1450 0.1940 1.0048
7.1443 0.4518 1.0068
7.1436 0.7107 1.0100
7.1428 0.9714 1.0147
7.1421 1.2347 1.0207
7.1414 1.5012 1.0281
7.1407 1.7717 1.0370
7.1399 2.0470 1.0474
7.1391 2.3280 1.0594
7.1383 2.6156 1.0730
7.1375 2.9109 1.0885
7.1367 3.2149 1.1058
7.1358 3.5288 1.1252
7.1350 3.8541 1.1468
7.1340 4.1922 1.1707
7.1331 4.5448 1.1973
7.1321 4.9139 1.2266
7.1310 5.3017 1.2591
7.1299 5.7107 1.2950
7.1287 6.1439 1.3348
7.1274 6.6047 1.3789
7.1261 7.0971 1.4279
7.1246 7.6261 1.4824
7.1231 8.1972 1.5433
7.0228 8.6953 1.5891
6.7020 8.9383 1.5891
6.3728 9.1695 1.5891
6.0357 9.3887 1.5891
3.6454 6.1464 1.0179
3.3504 6.1429 0.9971
3.3678 6.7416 1.0744
3.3643 7.3887 1.1580
3.3594 8.1435 1.2570
3.8720 10.4372 1.5891
3.4923 10.5656 1.5891
3.2205 11.0659 1.6465
2.8971 11.4805 1.6922
2.4809 11.5731 1.6922
2.0618 11.6507 1.6922
-5.0255 6.8300 1.4135
-5.9224 7.4695 1.5890
-4.8497 5.6836 1.2454
-4.8452 5.2806 1.1945
-4.8633 4.9314 1.1544
-4.8729 4.5975 1.1165
-4.8634 4.2682 1.0783
-4.8442 3.9517 1.0417
-4.8407 3.6667 1.0118
-4.8415 3.3999 0.9856
-4.8600 3.1579 0.9654
-8.1825 4.9069 1.5890
-8.3553 4.6098 1.5890
-8.5175 4.3067 1.5890
-8.6687 3.9979 1.5890
-8.8090 3.6839 1.5890
-8.9485 3.3690 1.5909
-8.9475 3.0054 1.5700
-8.9465 2.6506 1.5517
-8.9455 2.3033 1.5358
-8.9446 1.9626 1.5221
-8.9437 1.6272 1.5105
-8.9428 1.2963 1.5010
-8.9419 0.9689 1.4936
-8.9410 0.6441 1.4881
-8.9401 0.3210 1.4846
-8.9392 -0.0012 1.4830
-8.9384 -0.3232 1.4833
-8.9375 -0.6461 1.4856
-8.9366 -0.9706 1.4897
-8.9357 -1.2976 1.4958
-8.9348 -1.6279 1.5040
-8.9339 -1.9625 1.5141
-8.9330 -2.3024 1.5265
-8.9320 -2.6486 1.5410
-8.9310 -3.0022 1.5579
-8.9301 -3.3644 1.5772
-8.9290 -3.7364 1.5991
-8.7370 -4.0317 1.5890
-8.5898 -4.3455 1.5890
-4.9806 -2.7492 0.9387
-8.2618 -4.9565 1.5890
-4.8533 -3.1548 0.9543
-4.8343 -3.3961 0.9736
-4.8207 -3.6527 0.9962
-4.8200 -3.9331 1.0243
-4.8298 -4.2398 1.0577
-4.8478 -4.5749 1.0965
-4.8461 -4.9150 1.1350
-4.8259 -5.2606 1.1734
-4.8153 -5.6442 1.2189
-5.0571 -6.3791 1.3369
-5.7361 -7.7966 1.5890
-5.4540 -8.0013 1.5890
-5.1644 -8.1958 1.5890
-4.8680 -8.3797 1.5890
-4.7707 -8.9384 1.6606
-4.5322 -9.2813 1.6922
-4.1968 -9.4420 1.6922
-3.8555 -9.5905 1.6922
-3.5091 -9.7266 1.6922
-3.1578 -9.8501 1.6922
-2.8021 -9.9608 1.6922
-2.4426 -10.0586 1.6922
-2.0796 -10.1433 1.6922
-1.7136 -10.2148 1.6922
-1.3452 -10.2730 1.6922
-0.9749 -10.3178 1.6922
-0.6030 -10.3491 1.6922
-0.2301 -10.3669 1.6922
0.1432 -10.3711 1.6922
0.5165 -10.3618 1.6922
0.8894 -10.3389 1.6922
1.2612 -10.3024 1.6922
1.6316 -10.2525 1.6922
1.9999 -10.1890 1.6922
2.3658 -10.1122 1.6922
2.7287 -10.0222 1.6922
3.0881 -9.9189 1.6922
3.2824 -9.3437 1.6130
3.5635 -9.0842 1.5891
3.8886 -8.9510 1.5891
4.2086 -8.8060 1.5891
3.3862 -6.4753 1.1897
3.4131 -5.9912 1.1225
3.3883 -5.4792 1.0488
3.3810 -5.0513 0.9895
5.7185 -7.9120 1.5891
3.5984 -4.6189 0.9531
4.0048 -4.7756 1.0146
6.5376 -7.2491 1.5891
6.7940 -7.0087 1.5891
7.0414 -6.7592 1.5891
7.1630 -6.3968 1.5637
7.1618 -5.9465 1.5159
7.1606 -5.5225 1.4727
7.1595 -5.1215 1.4338
7.1585 -4.7408 1.3987
7.1575 -4.3779 1.3670
7.1565 -4.0307 1.3385
7.1556 -3.6975 1.3128
7.1547 -3.3765 1.2897
7.1539 -3.0663 1.2691
7.1531 -2.7656 1.2508
7.1523 -2.4733 1.2345
7.1515 -2.1881 1.2203
7.1507 -1.9093 1.2080
7.1500 -1.6358 1.1974
7.1492 -1.3669 1.1886
7.1485 -1.1017 1.1815
7.1478 -0.8394 1.1760
7.1471 -0.5795 1.1721
7.1464 -0.3211 1.1697
7.1457 -0.0635 1.1688
7.1450 0.1938 1.1695
7.1443 0.4515 1.1717
7.1436 0.7105 1.1755
7.1428 0.9712 1.1808
7.1421 1.2344 1.1877
7.1414 1.5009 1.1962
7.1407 1.7713 1.2065
7.1399 2.0467 1.2185
7.1391 2.3277 1.2324
7.1383 2.6153 1.2482
7.1375 2.9105 1.2661
7.1367 3.2145 1.2862
7.1358 3.5284 1.3087
7.1350 3.8537 1.3337
7.1340 4.1918 1.3614
7.1331 4.5444 1.3922
7.1321 4.9135 1.4262
7.1310 5.3012 1.4639
7.1299 5.7102 1.5055
7.1287 6.1434 1.5517
7.0666 6.5478 1.5891
6.8234 6.7951 1.5891
6.5715 7.0334 1.5891
6.3114 7.2624 1.5891
6.0433 7.4819 1.5891
5.7676 7.6915 1.5891
3.3654 4.8419 0.9751
3.3529 5.2151 1.0257
3.3812 5.7004 1.0969
3.3649 6.1689 1.1634
3.3489 6.7030 1.2410
3.9749 8.7288 1.5891
3.6566 8.8630 1.5891
3.3339 8.9857 1.5891
3.2022 9.6868 1.6922
2.8503 9.7925 1.6922
2.4950 9.8855 1.6922
2.1367 9.9658 1.6922
1.7759 10.0331 1.6922
-4.9582 6.7386 1.5890
-5.1978 6.5557 1.5890
-5.4306 6.3643 1.5890
-5.0985 5.5566 1.4322
-5.8751 5.9573 1.5890
-4.8721 4.5966 1.2720
-4.8423 4.2496 1.2234
-4.8443 3.9517 1.1870
-4.8585 3.6800 1.1571
-4.8696 3.4196 1.1296
-4.8689 3.1636 1.1021
-4.8581 2.9132 1.0750
-4.8448 2.6729 1.0499
-4.8374 2.4458 1.0284
-4.8368 2.2306 1.0103
-4.8363 2.0224 0.9942
-4.8416 1.8227 0.9809
-4.8513 1.6294 0.9702
-4.8599 1.4397 0.9607
-8.1208 2.0907 1.5890
-4.8833 1.0713 0.9471
-8.2543 1.5015 1.5890
-8.3052 1.2036 1.5890
-8.3454 0.9039 1.5890
-8.3749 0.6030 1.5890
-4.9584 0.1778 0.9387
-8.4015 -0.0014 1.5890
-8.3986 -0.3040 1.5890
-8.3848 -0.6065 1.5890
-8.3602 -0.9083 1.5890
-8.3248 -1.2092 1.5890
-5.0043 -0.9120 0.9605
-8.2217 -1.8065 1.5890
-8.1542 -2.1020 1.5890
-4.8568 -1.4404 0.9556
-4.8479 -1.6299 0.9644
-4.8377 -1.8228 0.9745
-4.8264 -2.0199 0.9859
-4.8246 -2.2266 1.0009
-4.8240 -2.4407 1.0180
-4.8238 -2.6629 1.0371
-4.8351 -2.9010 1.0609
-4.8477 -3.1514 1.0875
-4.8510 -3.4081 1.1146
-4.8457 -3.6719 1.1426
-4.8305 -3.9421 1.1713
-4.8192 -4.2308 1.2043
-4.8207 -4.5498 1.2444
-5.9448 -6.0299 1.5890
-5.7260 -6.2423 1.5890
-5.4996 -6.4468 1.5890
-5.0566 -6.3791 1.5258
-5.0251 -6.8308 1.5890
-4.7879 -7.0248 1.5924
-4.7745 -7.5776 1.6770
-4.5410 -7.8176 1.6922
-4.2581 -7.9787 1.6922
-3.9694 -8.1296 1.6922
-3.6754 -8.2700 1.6922
-3.3765 -8.3997 1.6922
-3.0729 -8.5185 1.6922
-2.7651 -8.6262 1.6922
-2.4535 -8.7229 1.6922
-2.1386 -8.8081 1.6922
-1.8207 -8.8819 1.6922
-1.5002 -8.9442 1.6922
-1.1776 -8.9948 1.6922
-0.8533 -9.0337 1.6922
-0.5277 -9.0608 1.6922
-0.2012 -9.0761 1.6922
0.1256 -9.0795 1.6922
0.4524 -9.0711 1.6922
0.7788 -9.0508 1.6922
1.1043 -9.0186 1.6922
1.4284 -8.9747 1.6922
1.7508 -8.9189 1.6922
2.0710 -8.8515 1.6922
2.3886 -8.7725 1.6922
2.7032 -8.6820 1.6922
3.0143 -8.5801 1.6922
3.2736 -8.3449 1.6678
3.4036 -7.8345 1.5891
3.6837 -7.7075 1.5891
3.5619 -6.8111 1.4298
4.2291 -7.4234 1.5891
3.3821 -5.4691 1.1960
3.4077 -5.0912 1.1395
3.4020 -4.7069 1.0802
3.3790 -4.3373 1.0226
3.3851 -4.0366 0.9799
3.4507 -3.8263 0.9584
5.9463 -6.1343 1.5891
6.1629 -5.9160 1.5891
6.3714 -5.6900 1.5891
6.5715 -5.4565 1.5891
6.7630 -5.2159 1.5891
6.9456 -4.9686 1.5891
7.1190 -4.7148 1.5891
7.1575 -4.3780 1.5617
7.1565 -4.0309 1.5291
7.1556 -3.6977 1.4997
7.1547 -3.3767 1.4733
7.1539 -3.0665 1.4498
7.1531 -2.7658 1.4288
7.1523 -2.4735 1.4102
7.1515 -2.1883 1.3939
7.1507 -1.9095 1.3798
7.1500 -1.6361 1.3677
7.1492 -1.3671 1.3576
7.1485 -1.1019 1.3494
7.1478 -0.8397 1.3431
7.1471 -0.5797 1.3385
7.1464 -0.3213 1.3357
7.1457 -0.0638 1.3347
7.1450 0.1935 1.3354
7.1443 0.4513 1.3379
7.1436 0.7102 1.3421
7.1428 0.9709 1.3481
7.1421 1.2341 1.3559
7.1414 1.5006 1.3656
7.1407 1.7710 1.3773
7.1399 2.0463 1.3909
7.1391 2.3273 1.4067
7.1383 2.6149 1.4247
7.1375 2.9102 1.4451
7.1367 3.2141 1.4679
7.1358 3.5280 1.4935
7.1350 3.8533 1.5219
7.1340 4.1913 1.5535
7.1331 4.5440 1.5885
6.9650 4.7979 1.5891
6.7852 5.0437 1.5891
6.5967 5.2827 1.5891
6.3998 5.5147 1.5891
6.1948 5.7394 1.5891
5.9819 5.9565 1.5891
5.7614 6.1658 1.5891
3.3739 3.8820 0.9689
3.3558 4.1543 1.0064
3.3655 4.4878 1.0575
3.3835 4.8674 1.1180
3.3627 5.2298 1.1730
3.3518 5.6502 1.2398
4.0311 7.3895 1.5891
3.6322 7.2695 1.5347
3.4864 7.6554 1.5891
3.2375 7.8461 1.6040
3.1142 8.3926 1.6922
2.8091 8.4967 1.6922
0.8884 3.0519 0.6012
0.7779 3.0819 0.6014
0.6665 3.1080 0.6016
0.5541 3.1301 0.6018
-4.7004 6.3882 1.6922
-4.8118 6.0688 1.6525
-4.8341 5.6652 1.5890
-5.0352 5.4876 1.5890
-5.2298 5.3029 1.5890
-5.4177 5.1113 1.5890
-5.0189 4.4044 1.4244
-5.7724 4.7087 1.5890
-5.9388 4.4981 1.5890
-4.8648 3.4161 1.2677
-4.8393 3.1442 1.2306
-4.8387 2.9014 1.2029
-4.8445 2.6726 1.1795
-4.8540 2.4541 1.1594
-4.8626 2.2423 1.1412
-4.8659 2.0346 1.1238
-4.8653 1.8315 1.1076
-4.8635 1.6333 1.0928
-4.8558 1.4383 1.0785
-4.8491 1.2483 1.0661
-4.8432 1.0624 1.0555
-4.8382 0.8799 1.0466
-4.8341 0.7004 1.0393
-4.8322 0.5232 1.0339
-4.8317 0.3477 1.0302
-4.8312 0.1731 1.0279
-4.8307 -0.0010 1.0268
-4.8302 -0.1750 1.0271
-4.8298 -0.3495 1.0287
-4.8293 -0.5249 1.0317
-4.8288 -0.7016 1.0360
-4.8313 -0.8807 1.0424
-4.8348 -1.0625 1.0504
-4.8392 -1.2477 1.0601
-4.8444 -1.4370 1.0715
-4.8506 -1.6310 1.0848
-4.8553 -1.8297 1.0996
-4.8547 -2.0320 1.1149
-4.8542 -2.2404 1.1322
-4.8455 -2.4518 1.1497
-4.8352 -2.6695 1.1689
-4.8239 -2.8946 1.1902
-4.8221 -3.1351 1.2165
-4.8266 -3.3913 1.2472
-5.9918 -4.5409 1.5890
-5.8264 -4.7552 1.5890
-5.6533 -4.9636 1.5890
-5.4728 -5.1657 1.5890
-5.2850 -5.3612 1.5890
-5.0903 -5.5498 1.5890
-4.8888 -5.7314 1.5890
-4.7826 -6.0340 1.6235
-4.7569 -6.4668 1.6922
-4.5225 -6.6360 1.6922
-4.2821 -6.7967 1.6922
-4.0359 -6.9486 1.6922
-3.7843 -7.0916 1.6922
-3.5276 -7.2254 1.6922
-3.2662 -7.3499 1.6922
-3.0004 -7.4649 1.6922
-2.7305 -7.5702 1.6922
-2.4569 -7.6658 1.6922
-2.1800 -7.7514 1.6922
-1.9001 -7.8269 1.6922
-1.6175 -7.8922 1.6922
-1.3327 -7.9473 1.6922
-1.0460 -7.9921 1.6922
-0.7579 -8.0264 1.6922
-0.4686 -8.0503 1.6922
-0.1786 -8.0636 1.6922
0.1118 -8.0665 1.6922
0.4021 -8.0588 1.6922
0.6920 -8.0406 1.6922
0.9812 -8.0118 1.6922
1.2691 -7.9726 1.6922
1.5555 -7.9230 1.6922
1.8399 -7.8630 1.6922
2.1219 -7.7927 1.6922
2.4013 -7.7122 1.6922
2.6776 -7.6215 1.6922
2.9505 -7.5209 1.6922
3.2195 -7.4105 1.6922
3.2802 -6.8632 1.5931
3.5166 -6.7244 1.5891
3.7565 -6.5938 1.5891
3.9915 -6.4546 1.5891
3.5578 -5.3155 1.3394
3.3799 -4.6764 1.2082
3.3967 -4.3601 1.1573
3.4078 -4.0638 1.1105
3.3891 -3.7580 1.0597
3.3767 -3.4835 1.0160
3.3813 -3.2459 0.9816
3.4050 -3.0409 0.9561
5.8372 -4.8469 1.5891
6.0073 -4.6333 1.5891
3.6651 -2.6219 0.9440
6.3237 -4.1883 1.5891
6.4696 -3.9574 1.5891
6.6070 -3.7215 1.5891
6.7356 -3.4808 1.5891
6.8555 -3.2356 1.5891
6.9664 -2.9863 1.5891
7.0680 -2.7331 1.5891
7.1523 -2.4737 1.5873
7.1515 -2.1886 1.5689
7.1507 -1.9097 1.5530
7.1500 -1.6363 1.5394
7.1492 -1.3674 1.5280
7.1485 -1.1021 1.5187
7.1478 -0.8399 1.5115
7.1471 -0.5800 1.5064
7.1464 -0.3216 1.5032
7.1457 -0.0640 1.5020
7.1450 0.1933 1.5027
7.1443 0.4510 1.5054
7.1436 0.7099 1.5101
7.1428 0.9706 1.5168
7.1421 1.2338 1.5256
7.1414 1.5003 1.5365
7.1407 1.7707 1.5495
7.1399 2.0460 1.5648
7.1391 2.3270 1.5825
7.0781 2.5925 1.5891
6.9779 2.8447 1.5891
6.8687 3.0930 1.5891
6.7506 3.3372 1.5891
6.6239 3.5769 1.5891
6.4886 3.8118 1.5891
6.3450 4.0415 1.5891
6.1933 4.2659 1.5891
6.0337 4.4846 1.5891
5.8663 4.6974 1.5891
5.6914 4.9039 1.5891
3.3723 3.1242 0.9727
3.3581 3.3435 1.0031
3.3602 3.5957 1.0421
3.3849 3.8943 1.0929
3.3819 4.1863 1.1403
3.3580 4.4774 1.1862
3.3599 4.8331 1.2480
4.0527 6.3024 1.5891
3.6464 6.1464 1.5162
3.5863 6.5736 1.5891
3.3463 6.6965 1.5891
3.2314 7.0946 1.6554
3.0391 7.3645 1.6922
2.7711 7.4671 1.6922
0.8881 2.6860 0.6013
0.7908 2.7163 0.6014
0.6925 2.7430 0.6016
0.5933 2.7662 0.6017
0.4933 2.7858 0.6019
-4.2312 5.7504 1.6922
-4.4356 5.5943 1.6922
-4.6343 5.4310 1.6922
-4.8095 5.2416 1.6861
-4.8123 4.8795 1.6243
-4.8768 4.6009 1.5890
-5.0189 4.4043 1.5824
-5.1961 4.2385 1.5890
-5.3458 4.0489 1.5890
-5.4886 3.8540 1.5890
-5.6245 3.6542 1.5890
-5.7531 3.4497 1.5890
-5.8744 3.2406 1.5890
-5.9881 3.0273 1.5890
-4.8614 2.2417 1.2676
-4.8363 2.0221 1.2410
-4.8357 1.8202 1.2231
-4.8352 1.6237 1.2071
-4.8346 1.4319 1.1931
-4.8393 1.2456 1.1822
-4.8435 1.0623 1.1729
-4.8469 0.8814 1.1650
-4.8496 0.7025 1.1586
-4.8517 0.5252 1.1536
-4.8530 0.3491 1.1499
-4.8537 0.1738 1.1475
-4.8538 -0.0012 1.1465
-4.8531 -0.1760 1.1469
-4.8518 -0.3513 1.1485
-4.8499 -0.5273 1.1515
-4.8472 -0.7044 1.1558
-4.8438 -0.8831 1.1615
-4.8398 -1.0638 1.1687
-4.8349 -1.2468 1.1773
-4.8293 -1.4327 1.1874
-4.8263 -1.6231 1.1999
-4.8257 -1.8188 1.2149
-4.8252 -2.0199 1.2319
-4.8363 -2.2325 1.2541
-6.0239 -3.0484 1.5890
-4.9993 -2.7604 1.3437
-5.7925 -3.4762 1.5890
-5.6653 -3.6836 1.5890
-5.5307 -3.8864 1.5890
-5.3888 -4.0842 1.5890
-5.2399 -4.2769 1.5890
-5.0841 -4.4642 1.5890
-4.9215 -4.6458 1.5890
-4.7913 -4.8608 1.6020
-4.7809 -5.2129 1.6597
-4.6816 -5.4889 1.6922
-4.4823 -5.6556 1.6922
-4.2770 -5.8150 1.6922
-4.0661 -5.9669 1.6922
-3.8498 -6.1112 1.6922
-3.6284 -6.2476 1.6922
-3.4021 -6.3760 1.6922
-3.1712 -6.4961 1.6922
-2.9361 -6.6078 1.6922
-2.6971 -6.7110 1.6922
-2.4544 -6.8055 1.6922
-2.2084 -6.8912 1.6922
-1.9594 -6.9679 1.6922
-1.7077 -7.0357 1.6922
-1.4537 -7.0942 1.6922
-1.1977 -7.1436 1.6922
-0.9400 -7.1836 1.6922
-0.6810 -7.2143 1.6922
-0.4210 -7.2356 1.6922
-0.1603 -7.2475 1.6922
0.1006 -7.2499 1.6922
0.3616 -7.2428 1.6922
0.6221 -7.2263 1.6922
0.8820 -7.2004 1.6922
1.1407 -7.1651 1.6922
1.3980 -7.1203 1.6922
1.6536 -7.0663 1.6922
1.9070 -7.0030 1.6922
2.1581 -6.9306 1.6922
2.4064 -6.8491 1.6922
2.6515 -6.7587 1.6922
2.8933 -6.6593 1.6922
3.1312 -6.5513 1.6922
3.2679 -6.2487 1.6433
3.3757 -5.9253 1.5891
3.5869 -5.8002 1.5891
3.5578 -5.3155 1.4905
3.9949 -5.5273 1.5891
3.5984 -4.6189 1.3644
3.3782 -4.0284 1.2251
3.3848 -3.7532 1.1777
3.4034 -3.5110 1.1395
3.4057 -3.2693 1.1002
3.3863 -3.0242 1.0581
3.3748 -2.8023 1.0224
3.3743 -2.6025 0.9933
3.3888 -2.4244 0.9713
5.6829 -3.7639 1.5891
3.4425 -2.1058 0.9409
5.9375 -3.3446 1.5891
6.0533 -3.1283 1.5891
6.1611 -2.9080 1.5891
6.2608 -2.6840 1.5891
6.3523 -2.4565 1.5891
6.4355 -2.2259 1.5891
6.5103 -1.9925 1.5891
6.5765 -1.7566 1.5891
6.6342 -1.5184 1.5891
6.6832 -1.2784 1.5891
6.7234 -1.0368 1.5891
6.7549 -0.7940 1.5891
6.7775 -0.5502 1.5891
6.7913 -0.3058 1.5891
6.7963 -0.0611 1.5891
6.7924 0.1835 1.5891
6.7796 0.4277 1.5891
6.7581 0.6713 1.5891
6.7277 0.9139 1.5891
6.6887 1.1552 1.5891
6.6409 1.3948 1.5891
6.5845 1.6325 1.5891
6.5196 1.8680 1.5891
6.4463 2.1008 1.5891
6.3646 2.3309 1.5891
6.2747 2.5577 1.5891
6.1767 2.7811 1.5891
6.0707 3.0008 1.5891
5.9569 3.2164 1.5891
5.8355 3.4277 1.5891
5.7065 3.6345 1.5891
3.3820 2.3293 0.9649
3.3626 2.4991 0.9847
3.3598 2.6901 1.0119
3.3630 2.8974 1.0439
3.3829 3.1337 1.0848
3.3875 3.3726 1.1248
3.3723 3.6084 1.1626
3.3566 3.8614 1.2047
3.3793 4.1826 1.2665
4.0473 5.3959 1.5891
3.8493 5.5366 1.5891
3.6463 5.6699 1.5891
3.4388 5.7959 1.5891
3.2441 5.9458 1.5976
3.2064 6.4159 1.6922
2.9725 6.5255 1.6922
2.7348 6.6265 1.6922
0.8861 2.3873 0.6013
0.7995 2.4176 0.6014
0.7119 2.4448 0.6015
0.6234 2.4689 0.6017
0.5341 2.4897 0.6018
0.4440 2.5074 0.6020
-3.8434 5.2234 1.6922
-4.0290 5.0815 1.6922
-4.2095 4.9332 1.6922
-4.3846 4.7785 1.6922
-4.5540 4.6176 1.6922
-4.7177 4.4507 1.6922
-4.8067 4.2181 1.6685
-4.8109 3.9241 1.6197
-4.8557 3.6776 1.5890
-4.9854 3.5006 1.5890
-5.1088 3.3191 1.5890
-5.2256 3.1332 1.5890
-5.3356 2.9433 1.5890
-5.4389 2.7495 1.5890
-5.0131 2.3115 1.4391
-5.6242 2.3514 1.5890
-5.7061 2.1477 1.5890
-5.7807 1.9410 1.5890
-5.8478 1.7318 1.5890
-5.9074 1.5204 1.5890
-5.0098 1.0986 1.3358
-6.0037 1.0915 1.5890
-6.0404 0.8748 1.5890
-4.8618 0.5261 1.2729
-4.8556 0.3491 1.2669
-4.8515 0.1735 1.2631
-4.8495 -0.0013 1.2615
-4.8495 -0.1761 1.2620
-4.8516 -0.3515 1.2648
-4.8559 -0.5282 1.2697
-6.0508 -0.8796 1.5890
-5.0043 -0.9126 1.3216
-5.9748 -1.3135 1.5890
-5.9251 -1.5282 1.5890
-5.8678 -1.7411 1.5890
-5.1168 -1.7210 1.4011
-5.7304 -2.1600 1.5890
-5.6504 -2.3656 1.5890
-5.5631 -2.5682 1.5890
-5.4685 -2.7677 1.5890
-5.3668 -2.9636 1.5890
-5.2581 -3.1558 1.5890
-5.1425 -3.3440 1.5890
-5.0202 -3.5280 1.5890
-4.8913 -3.7075 1.5890
-4.7940 -3.9134 1.6017
-4.7837 -4.2008 1.6473
-4.7570 -4.4909 1.6922
-4.5936 -4.6605 1.6922
-4.4240 -4.8242 1.6922
-4.2487 -4.9817 1.6922
-4.0677 -5.1329 1.6922
-3.8813 -5.2774 1.6922
-3.6898 -5.4151 1.6922
-3.4934 -5.5459 1.6922
-3.2924 -5.6696 1.6922
-3.0869 -5.7859 1.6922
-2.8774 -5.8948 1.6922
-2.6640 -5.9960 1.6922
-2.4470 -6.0895 1.6922
-2.2268 -6.1751 1.6922
-2.0035 -6.2527 1.6922
-1.7776 -6.3222 1.6922
-1.5492 -6.3835 1.6922
-1.3187 -6.4365 1.6922
-1.0864 -6.4812 1.6922
-0.8526 -6.5174 1.6922
-0.6176 -6.5451 1.6922
-0.3817 -6.5643 1.6922
-0.1453 -6.5750 1.6922
0.0915 -6.5770 1.6922
0.3282 -6.5706 1.6922
0.5645 -6.5555 1.6922
0.8002 -6.5319 1.6922
1.0349 -6.4997 1.6922
1.2683 -6.4591 1.6922
1.5001 -6.4100 1.6922
1.7300 -6.3525 1.6922
1.9577 -6.2868 1.6922
2.1829 -6.2128 1.6922
2.4052 -6.1307 1.6922
2.6245 -6.0406 1.6922
2.8403 -5.9426 1.6922
3.0525 -5.8368 1.6922
3.2607 -5.7234 1.6922
3.2745 -5.2950 1.5993
3.4562 -5.1636 1.5962
3.6237 -5.0137 1.5891
3.5984 -4.6189 1.5041
3.9749 -4.7400 1.5891
4.1428 -4.5938 1.5891
3.3835 -3.4906 1.2489
3.3760 -3.2409 1.2023
3.3881 -3.0259 1.1672
3.4030 -2.8257 1.1365
3.4008 -2.6231 1.1036
3.3915 -2.4263 1.0717
3.3753 -2.2356 1.0405
3.3728 -2.0633 1.0163
3.3724 -1.8997 0.9950
3.3803 -1.7470 0.9783
3.3929 -1.6015 0.9647
5.6795 -2.4350 1.5891
3.4205 -1.3228 0.9433
5.8382 -2.0195 1.5891
5.9061 -1.8078 1.5891
5.9663 -1.5938 1.5891
6.0187 -1.3777 1.5891
6.0632 -1.1600 1.5891
6.0999 -0.9409 1.5891
6.1285 -0.7206 1.5891
6.1492 -0.4994 1.5891
6.1618 -0.2777 1.5891
6.1665 -0.0557 1.5891
6.1630 0.1662 1.5891
3.6573 0.2306 0.9448
6.1322 0.6089 1.5891
6.1048 0.8291 1.5891
6.0695 1.0480 1.5891
6.0263 1.2655 1.5891
3.5294 0.8749 0.9387
5.9165 1.6949 1.5891
5.8501 1.9063 1.5891
5.7762 2.1151 1.5891
5.6947 2.3210 1.5891
3.3883 1.5255 0.9605
3.3755 1.6683 0.9736
3.3622 1.8152 0.9882
3.3618 1.9745 1.0086
3.3613 2.1406 1.0312
3.3726 2.3226 1.0600
3.3888 2.5183 1.0932
3.3893 2.7135 1.1245
3.3780 2.9100 1.1551
3.3613 3.1134 1.1873
3.3581 3.3429 1.2282
4.1850 4.4776 1.5891
4.0200 4.6241 1.5891
3.8498 4.7646 1.5891
3.6747 4.8988 1.5891
3.4950 5.0266 1.5891
3.3109 5.1478 1.5891
3.2359 5.4533 1.6468
3.1204 5.7183 1.6922
2.9117 5.8255 1.6922
2.6993 5.9251 1.6922
0.8824 2.1379 0.6013
0.8049 2.1683 0.6014
0.7262 2.1958 0.6015
0.6467 2.2205 0.6017
0.5663 2.2424 0.6018
0.4851 2.2613 0.6019
0.4034 2.2773 0.6021
-3.5172 4.7801 1.6922
-3.6871 4.6503 1.6922
-3.8523 4.5145 1.6922
-4.0125 4.3729 1.6922
-4.1675 4.2256 1.6922
-4.3172 4.0729 1.6922
-4.4614 3.9150 1.6922
-4.5998 3.7519 1.6922
-4.7323 3.5840 1.6922
-4.8044 3.3734 1.6733
-4.8052 3.1217 1.6332
-4.8132 2.8858 1.5994
-4.8826 2.6933 1.5890
-4.9771 2.5159 1.5890
-5.0131 2.3113 1.5727
-5.1465 2.1516 1.5890
-5.2214 1.9651 1.5890
-5.2896 1.7760 1.5890
-5.3510 1.5845 1.5890
-5.4054 1.3910 1.5890
-5.0098 1.0984 1.4599
-5.4934 0.9986 1.5890
-5.5268 0.8002 1.5890
-5.5531 0.6007 1.5890
-5.5722 0.4004 1.5890
-5.0073 0.1789 1.4249
-5.5888 -0.0017 1.5890
-5.5863 -0.2031 1.5890
-5.5766 -0.4042 1.5890
-5.5597 -0.6049 1.5890
-5.5356 -0.8049 1.5890
-5.0043 -0.9128 1.4447
-5.4658 -1.2019 1.5890
-5.4203 -1.3983 1.5890
-5.3677 -1.5929 1.5890
-5.1168 -1.7212 1.5317
-5.2418 -1.9761 1.5890
-5.1685 -2.1641 1.5890
-5.0885 -2.3494 1.5890
-5.0019 -2.5318 1.5890
-4.9087 -2.7110 1.5890
-4.8092 -2.8867 1.5890
-4.7918 -3.1163 1.6189
-4.7860 -3.3637 1.6563
-4.7641 -3.6114 1.6922
-4.6322 -3.7816 1.6922
-4.4942 -3.9470 1.6922
-4.3503 -4.1073 1.6922
-4.2007 -4.2623 1.6922
-4.0456 -4.4119 1.6922
-3.8851 -4.5559 1.6922
-3.7195 -4.6940 1.6922
-3.5490 -4.8260 1.6922
-3.3738 -4.9519 1.6922
-3.1942 -5.0714 1.6922
-3.0103 -5.1844 1.6922
-2.8224 -5.2906 1.6922
-2.6307 -5.3900 1.6922
-2.4356 -5.4825 1.6922
-2.2372 -5.5679 1.6922
-2.0357 -5.6460 1.6922
-1.8316 -5.7169 1.6922
-1.6250 -5.7803 1.6922
-1.4162 -5.8363 1.6922
-1.2054 -5.8846 1.6922
-0.9931 -5.9253 1.6922
-0.7793 -5.9583 1.6922
-0.5645 -5.9836 1.6922
-0.3488 -6.0011 1.6922
-0.1326 -6.0107 1.6922
0.0838 -6.0125 1.6922
0.3002 -6.0065 1.6922
0.5162 -5.9927 1.6922
0.7316 -5.9710 1.6922
0.9462 -5.9416 1.6922
1.1595 -5.9043 1.6922
1.3714 -5.8594 1.6922
1.5815 -5.8068 1.6922
1.7896 -5.7467 1.6922
1.9954 -5.6790 1.6922
2.1987 -5.6040 1.6922
2.3991 -5.5216 1.6922
2.5963 -5.4319 1.6922
2.7903 -5.3352 1.6922
2.9806 -5.2316 1.6922
3.1669 -5.1211 1.6922
3.2641 -4.8767 1.6492
3.3123 -4.5828 1.5891
3.4751 -4.4607 1.5891
3.6333 -4.3327 1.5891
3.7868 -4.1990 1.5891
3.9353 -4.0599 1.5891
4.0787 -3.9155 1.5891
3.6782 -3.2850 1.3862
3.3748 -2.8024 1.2331
3.3743 -2.6027 1.1980
3.3850 -2.4218 1.1701
3.3969 -2.2500 1.1456
3.4024 -2.0815 1.1216
3.4020 -1.9165 1.0981
3.3905 -1.7524 1.0734
3.3788 -1.5950 1.0510
3.3711 -1.4454 1.0319
3.3707 -1.3037 1.0169
3.3703 -1.1659 1.0036
3.3700 -1.0316 0.9919
3.3736 -0.9013 0.9829
3.3797 -0.7738 0.9761
3.3848 -0.6477 0.9704
3.3889 -0.5228 0.9657
3.3921 -0.3989 0.9621
3.3942 -0.2758 0.9595
3.3955 -0.1531 0.9578
3.3958 -0.0308 0.9572
3.3951 0.0915 0.9575
3.3935 0.2138 0.9588
3.3910 0.3366 0.9611
3.3875 0.4599 0.9644
3.3831 0.5840 0.9687
3.3776 0.7091 0.9741
3.3712 0.8355 0.9805
3.3645 0.9637 0.9883
3.3642 1.0961 0.9994
3.3638 1.2316 1.0120
3.3634 1.3707 1.0264
3.3666 1.5155 1.0436
3.3770 1.6689 1.0650
3.3886 1.8293 1.0890
3.3913 1.9916 1.1125
3.3892 2.1581 1.1369
3.3769 2.3253 1.1604
3.3635 2.4992 1.1863
3.3598 2.6896 1.2187
3.3800 2.9115 1.2636
4.1152 3.8113 1.5891
3.9743 3.9560 1.5891
3.8283 4.0955 1.5891
3.6774 4.2296 1.5891
3.5218 4.3582 1.5891
3.3617 4.4811 1.5891
3.2442 4.6654 1.6124
3.2255 5.0145 1.6922
3.0420 5.1262 1.6922
2.8548 5.2312 1.6922
2.6639 5.3293 1.6922
0.8775 1.9261 0.6013
0.8076 1.9563 0.6014
0.7366 1.9841 0.6015
0.6646 2.0093 0.6016
0.5918 2.0319 0.6018
0.5183 2.0519 0.6019
0.4440 2.0692 0.6020
0.3692 2.0839 0.6021
-3.2388 4.4017 1.6922
-3.3952 4.2821 1.6922
-3.5474 4.1571 1.6922
-3.6949 4.0267 1.6922
-3.8376 3.8911 1.6922
-3.9755 3.7505 1.6922
-4.1082 3.6050 1.6922
-4.2357 3.4548 1.6922
-4.3576 3.3002 1.6922
-4.4740 3.1413 1.6922
-4.5847 2.9783 1.6922
-4.6894 2.8115 1.6922
-4.7881 2.6410 1.6922
-4.8018 2.4272 1.6649
-4.8020 2.2139 1.6360
-4.8076 2.0097 1.6120
-4.8125 1.8110 1.5906
-4.8705 1.6351 1.5890
-4.9269 1.4588 1.5890
-4.9770 1.2806 1.5890
-5.0098 1.0983 1.5856
-5.0579 0.9192 1.5890
-5.0886 0.7366 1.5890
-5.1127 0.5529 1.5890
-5.1302 0.3685 1.5890
-5.0073 0.1787 1.5476
-5.1454 -0.0018 1.5890
-5.1430 -0.1871 1.5890
-5.1340 -0.3723 1.5890
-5.1183 -0.5571 1.5890
-5.0960 -0.7412 1.5890
-5.0043 -0.9130 1.5693
-5.0316 -1.1066 1.5890
-5.0040 -1.2911 1.5936
-4.9412 -1.4666 1.5890
-4.8863 -1.6440 1.5890
-4.8250 -1.8193 1.5890
-4.7989 -2.0097 1.6028
-4.7925 -2.2130 1.6259
-4.7885 -2.4241 1.6527
-4.7879 -2.6445 1.6839
-4.7141 -2.8299 1.6922
-4.6103 -2.9985 1.6922
-4.5004 -3.1633 1.6922
-4.3846 -3.3241 1.6922
-4.2632 -3.4807 1.6922
-4.1361 -3.6328 1.6922
-4.0036 -3.7803 1.6922
-3.8658 -3.9229 1.6922
-3.7230 -4.0605 1.6922
-3.5752 -4.1929 1.6922
-3.4228 -4.3199 1.6922
-3.2658 -4.4414 1.6922
-3.1045 -4.5571 1.6922
-2.9392 -4.6670 1.6922
-2.7699 -4.7708 1.6922
-2.5969 -4.8685 1.6922
-2.4205 -4.9599 1.6922
-2.2409 -5.0449 1.6922
-2.0583 -5.1234 1.6922
-1.8730 -5.1952 1.6922
-1.6851 -5.2603 1.6922
-1.4950 -5.3186 1.6922
-1.3028 -5.3700 1.6922
-1.1089 -5.4144 1.6922
-0.9135 -5.4518 1.6922
-0.7168 -5.4821 1.6922
-0.5192 -5.5052 1.6922
-0.3207 -5.5212 1.6922
-0.1219 -5.5301 1.6922
0.0772 -5.5317 1.6922
0.2763 -5.5261 1.6922
0.4751 -5.5133 1.6922
0.6732 -5.4933 1.6922
0.8706 -5.4662 1.6922
1.0668 -5.4319 1.6922
1.2617 -5.3905 1.6922
1.4550 -5.3421 1.6922
1.6465 -5.2867 1.6922
1.8358 -5.2245 1.6922
2.0227 -5.1554 1.6922
2.2071 -5.0796 1.6922
2.3886 -4.9971 1.6922
2.5669 -4.9081 1.6922
2.7420 -4.8127 1.6922
2.9134 -4.7111 1.6922
3.0811 -4.6033 1.6922
3.2448 -4.4894 1.6922
3.2659 -4.1922 1.6235
3.3424 -3.9858 1.5891
3.4836 -3.8629 1.5891
3.6202 -3.7349 1.5891
3.7522 -3.6021 1.5891
3.6781 -3.2850 1.5068
4.0011 -3.3226 1.5891
4.1178 -3.1763 1.5891
3.6651 -2.6222 1.3772
3.3733 -2.2344 1.2366
3.3728 -2.0635 1.2085
3.3763 -1.9021 1.1846
3.3857 -1.7500 1.1651
3.3941 -1.6023 1.1476
3.4007 -1.4582 1.1314
3.4003 -1.3153 1.1150
3.3999 -1.1763 1.1004
3.3950 -1.0394 1.0861
3.3880 -0.9052 1.0729
3.3819 -0.7744 1.0617
3.3769 -0.6463 1.0522
3.3727 -0.5204 1.0446
3.3694 -0.3964 1.0387
3.3679 -0.2738 1.0347
3.3676 -0.1520 1.0324
3.3672 -0.0307 1.0315
3.3669 0.0906 1.0320
3.3666 0.2120 1.0337
3.3665 0.3340 1.0369
3.3688 0.4572 1.0423
3.3721 0.5820 1.0493
3.3761 0.7087 1.0581
3.3810 0.8378 1.0686
3.3869 0.9699 1.0811
3.3937 1.1055 1.0955
3.3933 1.2422 1.1093
3.3930 1.3825 1.1250
3.3887 1.5252 1.1414
3.3798 1.6701 1.1582
3.3701 1.8191 1.1768
3.3618 1.9741 1.1983
3.3613 2.1402 1.2251
3.3800 2.3272 1.2619
4.1472 3.0813 1.5891
4.0326 3.2278 1.5891
3.9128 3.3701 1.5891
3.7880 3.5079 1.5891
3.6583 3.6412 1.5891
3.5240 3.7696 1.5891
3.3851 3.8932 1.5891
3.2504 4.0220 1.5933
3.2390 4.3171 1.6632
3.1344 4.5071 1.6922
2.9694 4.6160 1.6922
2.8006 4.7189 1.6922
2.6283 4.8156 1.6922
0.8715 1.7433 0.6013
0.8081 1.7735 0.6014
0.7437 1.8014 0.6015
0.6783 1.8269 0.6016
0.6121 1.8501 0.6017
0.5450 1.8709 0.6018
0.4773 1.8893 0.6019
0.4089 1.9053 0.6021
0.3400 1.9188 0.6022
-2.9981 4.0746 1.6922
-3.1430 3.9639 1.6922
-3.2837 3.8482 1.6922
-3.4203 3.7274 1.6922
-3.5525 3.6019 1.6922
-3.6801 3.4717 1.6922
-3.8029 3.3370 1.6922
-3.9209 3.1980 1.6922
-4.0338 3.0549 1.6922
-4.1415 2.9078 1.6922
-4.2439 2.7569 1.6922
-4.3408 2.6024 1.6922
-4.4322 2.4446 1.6922
-4.5178 2.2835 1.6922
-4.5976 2.1195 1.6922
-4.6715 1.9527 1.6922
-4.7394 1.7834 1.6922
-4.7996 1.6112 1.6917
-4.7991 1.4208 1.6721
-4.7985 1.2345 1.6551
-4.7980 1.0517 1.6406
-4.8001 0.8722 1.6292
-4.8019 0.6949 1.6200
-4.8033 0.5193 1.6129
-4.8041 0.3449 1.6077
-4.8045 0.1713 1.6044
-4.8044 -0.0019 1.6030
-4.8038 -0.1750 1.6036
-4.8027 -0.3485 1.6061
-4.8010 -0.5228 1.6105
-4.7989 -0.6982 1.6168
-4.7963 -0.8753 1.6252
-4.7932 -1.0544 1.6356
-4.7918 -1.2366 1.6489
-4.7913 -1.4223 1.6649
-4.7908 -1.6121 1.6835
-4.7552 -1.7932 1.6922
-4.6886 -1.9637 1.6922
-4.6159 -2.1317 1.6922
-4.5371 -2.2971 1.6922
-4.4525 -2.4595 1.6922
-4.3620 -2.6188 1.6922
-4.2659 -2.7748 1.6922
-4.1642 -2.9273 1.6922
-4.0570 -3.0760 1.6922
-3.9445 -3.2208 1.6922
-3.8269 -3.3615 1.6922
-3.7042 -3.4979 1.6922
-3.5767 -3.6298 1.6922
-3.4445 -3.7571 1.6922
-3.3077 -3.8795 1.6922
-3.1666 -3.9970 1.6922
-3.0214 -4.1093 1.6922
-2.8721 -4.2163 1.6922
-2.7191 -4.3179 1.6922
-2.5624 -4.4139 1.6922
-2.4024 -4.5042 1.6922
-2.2391 -4.5887 1.6922
-2.0729 -4.6673 1.6922
-1.9040 -4.7398 1.6922
-1.7325 -4.8062 1.6922
-1.5587 -4.8663 1.6922
-1.3828 -4.9202 1.6922
-1.2050 -4.9676 1.6922
-1.0256 -5.0087 1.6922
-0.8448 -5.0432 1.6922
-0.6629 -5.0711 1.6922
-0.4801 -5.0925 1.6922
-0.2965 -5.1073 1.6922
-0.1126 -5.1153 1.6922
0.0716 -5.1168 1.6922
0.2557 -5.1116 1.6922
0.4395 -5.0997 1.6922
0.6228 -5.0811 1.6922
0.8054 -5.0560 1.6922
0.9869 -5.0243 1.6922
1.1672 -4.9860 1.6922
1.3459 -4.9412 1.6922
1.5230 -4.8899 1.6922
1.6981 -4.8323 1.6922
1.8710 -4.7684 1.6922
2.0414 -4.6982 1.6922
2.2093 -4.6219 1.6922
2.3743 -4.5396 1.6922
2.5361 -4.4514 1.6922
2.6947 -4.3574 1.6922
2.8498 -4.2577 1.6922
3.0012 -4.1524 1.6922
3.1486 -4.0417 1.6922
3.2614 -3.8893 1.6765
3.2671 -3.6229 1.6114
3.3484 -3.4546 1.5891
3.4705 -3.3317 1.5891
3.5879 -3.2046 1.5891
3.7007 -3.0732 1.5891
3.8087 -2.9379 1.5891
3.6651 -2.6223 1.4890
4.0095 -2.6560 1.5891
4.1022 -2.5098 1.5891
4.1895 -2.3603 1.5891
3.3908 -1.7527 1.2616
3.3715 -1.5917 1.2324
3.3711 -1.4456 1.2126
3.3707 -1.3039 1.1949
3.3760 -1.1681 1.1813
3.3815 -1.0353 1.1695
3.3863 -0.9049 1.1593
3.3903 -0.7764 1.1506
3.3937 -0.6496 1.1432
3.3964 -0.5242 1.1372
3.3978 -0.3998 1.1323
3.3975 -0.2763 1.1283
3.3972 -0.1535 1.1259
3.3968 -0.0310 1.1249
3.3965 0.0912 1.1253
3.3961 0.2138 1.1272
3.3958 0.3368 1.1306
3.3947 0.4606 1.1353
3.3915 0.5852 1.1408
3.3878 0.7110 1.1476
3.3833 0.8382 1.1558
3.3781 0.9672 1.1654
3.3722 1.0983 1.1765
3.3655 1.2318 1.1891
3.3634 1.3703 1.2054
3.3630 1.5135 1.2242
3.3678 1.6640 1.2473
4.2109 2.2727 1.5891
4.1254 2.4222 1.5891
4.0346 2.5686 1.5891
3.5366 2.4348 1.4270
3.8376 2.8510 1.5891
3.7316 2.9866 1.5891
3.6208 3.1183 1.5891
3.5054 3.2459 1.5891
3.3854 3.3693 1.5891
3.2612 3.4882 1.5891
3.2406 3.7266 1.6439
3.1950 3.9530 1.6922
3.0499 4.0646 1.6922
2.9009 4.1709 1.6922
2.7482 4.2718 1.6922
2.5921 4.3670 1.6922
0.8644 1.5836 0.6013
0.8068 1.6136 0.6014
0.7481 1.6416 0.6015
0.6885 1.6674 0.6016
0.6280 1.6911 0.6017
0.5666 1.7125 0.6018
0.5046 1.7318 0.6019
0.4419 1.7488 0.6020
0.3786 1.7636 0.6021
0.3148 1.7761 0.6022
-2.7878 3.7888 1.6922
-2.9225 3.6859 1.6922
-3.0534 3.5782 1.6922
-3.1804 3.4660 1.6922
-3.3033 3.3492 1.6922
-3.4220 3.2281 1.6922
-3.5362 3.1029 1.6922
-3.6459 2.9736 1.6922
-3.7509 2.8405 1.6922
-3.8510 2.7037 1.6922
-3.9462 2.5634 1.6922
-4.0363 2.4197 1.6922
-4.1212 2.2729 1.6922
-4.2008 2.1232 1.6922
-4.2750 1.9707 1.6922
-4.3437 1.8156 1.6922
-4.4068 1.6581 1.6922
-4.4642 1.4984 1.6922
-4.5158 1.3368 1.6922
-4.5617 1.1734 1.6922
-4.6016 1.0085 1.6922
-4.6356 0.8422 1.6922
-4.6637 0.6748 1.6922
-4.6857 0.5064 1.6922
-4.7016 0.3374 1.6922
-4.7115 0.1678 1.6922
-4.7153 -0.0020 1.6922
-4.7130 -0.1719 1.6922
-4.7046 -0.3416 1.6922
-4.6901 -0.5109 1.6922
-4.6695 -0.6796 1.6922
-4.6429 -0.8475 1.6922
-4.6103 -1.0144 1.6922
-4.5717 -1.1800 1.6922
-4.5271 -1.3441 1.6922
-4.4767 -1.5066 1.6922
-4.4205 -1.6672 1.6922
-4.3585 -1.8257 1.6922
-4.2908 -1.9818 1.6922
-4.2175 -2.1355 1.6922
-4.1388 -2.2865 1.6922
-4.0546 -2.4346 1.6922
-3.9652 -2.5795 1.6922
-3.8706 -2.7212 1.6922
-3.7709 -2.8594 1.6922
-3.6663 -2.9940 1.6922
-3.5569 -3.1247 1.6922
-3.4428 -3.2514 1.6922
-3.3243 -3.3740 1.6922
-3.2014 -3.4922 1.6922
-3.0742 -3.6060 1.6922
-2.9430 -3.7151 1.6922
-2.8080 -3.8194 1.6922
-2.6692 -3.9188 1.6922
-2.5269 -4.0132 1.6922
-2.3813 -4.1024 1.6922
-2.2325 -4.1862 1.6922
-2.0808 -4.2647 1.6922
-1.9263 -4.3377 1.6922
-1.7693 -4.4050 1.6922
-1.6099 -4.4666 1.6922
-1.4484 -4.5225 1.6922
-1.2849 -4.5725 1.6922
-1.1197 -4.6165 1.6922
-0.9530 -4.6546 1.6922
-0.7850 -4.6866 1.6922
-0.6159 -4.7126 1.6922
-0.4460 -4.7324 1.6922
-0.2754 -4.7460 1.6922
-0.1045 -4.7535 1.6922
0.0667 -4.7548 1.6922
0.2378 -4.7499 1.6922
0.4086 -4.7388 1.6922
0.5789 -4.7216 1.6922
0.7485 -4.6982 1.6922
0.9171 -4.6687 1.6922
1.0846 -4.6330 1.6922
1.2507 -4.5914 1.6922
1.4152 -4.5438 1.6922
1.5779 -4.4902 1.6922
1.7386 -4.4308 1.6922
1.8969 -4.3656 1.6922
2.0529 -4.2947 1.6922
2.2062 -4.2182 1.6922
2.3566 -4.1362 1.6922
2.5039 -4.0489 1.6922
2.6481 -3.9562 1.6922
2.7887 -3.8584 1.6922
2.9257 -3.7555 1.6922
3.0589 -3.6478 1.6922
3.1881 -3.5353 1.6922
3.2600 -3.3633 1.6651
3.2662 -3.1357 1.6096
3.3339 -2.9777 1.5891
3.4503 -2.8653 1.5945
3.5390 -2.7300 1.5891
3.6347 -2.6007 1.5891
3.7257 -2.4680 1.5891
3.8118 -2.3322 1.5891
3.8929 -2.1934 1.5891
3.9689 -2.0517 1.5891
4.0398 -1.9073 1.5891
4.1054 -1.7606 1.5891
3.5470 -1.3722 1.3532
4.2204 -1.4604 1.5891
3.3885 -1.0376 1.2612
3.3696 -0.9005 1.2415
3.3693 -0.7717 1.2305
3.3689 -0.6450 1.2212
3.3686 -0.5200 1.2137
3.3682 -0.3965 1.2079
3.3679 -0.2740 1.2036
3.3676 -0.1523 1.2010
3.3672 -0.0309 1.1999
3.3669 0.0903 1.2003
3.3666 0.2118 1.2024
3.3662 0.3337 1.2060
3.3659 0.4565 1.2112
3.3656 0.5806 1.2180
3.3652 0.7061 1.2266
3.3649 0.8335 1.2368
3.3750 0.9662 1.2528
3.3954 1.1057 1.2746
4.1802 1.5298 1.5891
4.1216 1.6790 1.5891
4.0576 1.8259 1.5891
3.9884 1.9703 1.5891
3.9140 2.1122 1.5891
3.8346 2.2513 1.5891
3.7503 2.3873 1.5891
3.5366 2.4346 1.5351
3.5673 2.6499 1.5891
3.4688 2.7760 1.5891
3.3658 2.8985 1.5891
3.2586 3.0171 1.5891
3.2424 3.2266 1.6372
3.2284 3.4528 1.6922
3.1013 3.5660 1.6922
2.9702 3.6746 1.6922
2.8354 3.7784 1.6922
2.6969 3.8773 1.6922
2.5550 3.9711 1.6922
0.8564 1.4426 0.6013
0.8038 1.4725 0.6014
0.7502 1.5004 0.6015
0.6957 1.5264 0.6016
0.6402 1.5504 0.6017
0.5839 1.5724 0.6018
0.5269 1.5923 0.6019
0.4692 1.6103 0.6020
0.4109 1.6261 0.6021
0.3520 1.6398 0.6022
0.2928 1.6515 0.6023
-2.6023 3.5366 1.6922
-2.7280 3.4406 1.6922
-2.8502 3.3401 1.6922
-2.9688 3.2353 1.6922
-3.0835 3.1263 1.6922
-3.1943 3.0133 1.6922
-3.3009 2.8963 1.6922
-3.4033 2.7757 1.6922
-3.5012 2.6514 1.6922
-3.5947 2.5237 1.6922
-3.6835 2.3927 1.6922
-3.7676 2.2586 1.6922
-3.8469 2.1215 1.6922
-3.9212 1.9817 1.6922
-3.9904 1.8394 1.6922
-4.0545 1.6946 1.6922
-4.1133 1.5476 1.6922
-4.1669 1.3985 1.6922
-4.2151 1.2477 1.6922
-4.2579 1.0951 1.6922
-4.2951 0.9412 1.6922
-4.3268 0.7859 1.6922
-4.3529 0.6296 1.6922
-4.3735 0.4725 1.6922
-4.3883 0.3147 1.6922
-4.3975 0.1565 1.6922
-4.4010 -0.0021 1.6922
-4.3988 -0.1606 1.6922
-4.3909 -0.3190 1.6922
-4.3773 -0.4770 1.6922
-4.3581 -0.6345 1.6922
-4.3332 -0.7912 1.6922
-4.3027 -0.9469 1.6922
-4.2666 -1.1015 1.6922
-4.2249 -1.2546 1.6922
-4.1779 -1.4062 1.6922
-4.1253 -1.5561 1.6922
-4.0674 -1.7040 1.6922
-4.0042 -1.8497 1.6922
-3.9358 -1.9931 1.6922
-3.8622 -2.1339 1.6922
-3.7837 -2.2721 1.6922
-3.7002 -2.4074 1.6922
-3.6118 -2.5395 1.6922
-3.5188 -2.6685 1.6922
-3.4211 -2.7940 1.6922
-3.3190 -2.9160 1.6922
-3.2125 -3.0342 1.6922
-3.1018 -3.1485 1.6922
-2.9871 -3.2588 1.6922
-2.8684 -3.3649 1.6922
-2.7460 -3.4667 1.6922
-2.6199 -3.5640 1.6922
-2.4904 -3.6567 1.6922
-2.3576 -3.7447 1.6922
-2.2217 -3.8278 1.6922
-2.0829 -3.9060 1.6922
-1.9413 -3.9792 1.6922
-1.7971 -4.0472 1.6922
-1.6506 -4.1100 1.6922
-1.5019 -4.1675 1.6922
-1.3512 -4.2195 1.6922
-1.1986 -4.2661 1.6922
-1.0445 -4.3072 1.6922
-0.8889 -4.3427 1.6922
-0.7322 -4.3725 1.6922
-0.5745 -4.3967 1.6922
-0.4159 -4.4151 1.6922
-0.2568 -4.4278 1.6922
-0.0973 -4.4348 1.6922
0.0623 -4.4359 1.6922
0.2219 -4.4313 1.6922
0.3813 -4.4210 1.6922
0.5402 -4.4048 1.6922
0.6984 -4.3830 1.6922
0.8557 -4.3554 1.6922
1.0119 -4.3222 1.6922
1.1669 -4.2833 1.6922
1.3203 -4.2388 1.6922
1.4721 -4.1889 1.6922
1.6219 -4.1334 1.6922
1.7697 -4.0726 1.6922
1.9152 -4.0065 1.6922
2.0582 -3.9351 1.6922
2.1984 -3.8586 1.6922
2.3359 -3.7771 1.6922
2.4703 -3.6906 1.6922
2.6015 -3.5994 1.6922
2.7293 -3.5035 1.6922
2.8536 -3.4030 1.6922
2.9741 -3.2981 1.6922
3.0908 -3.1888 1.6922
3.2034 -3.0755 1.6922
3.2588 -2.9107 1.6651
3.2634 -2.7102 1.6166
3.3015 -2.5468 1.5891
3.3908 -2.4262 1.5891
3.4756 -2.3025 1.5891
3.5560 -2.1758 1.5891
3.6317 -2.0463 1.5891
3.7026 -1.9141 1.5891
3.7687 -1.7795 1.5891
3.8299 -1.6425 1.5891
3.5470 -1.3723 1.4505
3.9373 -1.3626 1.5891
3.9833 -1.2199 1.5891
4.0241 -1.0756 1.5891
4.0597 -0.9300 1.5891
4.0900 -0.7832 1.5891
4.1149 -0.6354 1.5891
4.1345 -0.4868 1.5891
4.1487 -0.3377 1.5891
4.1575 -0.1881 1.5891
4.1609 -0.0384 1.5891
4.1589 0.1114 1.5891
3.5427 0.2227 1.3561
4.1387 0.4101 1.5891
4.1205 0.5587 1.5891
4.0970 0.7065 1.5891
4.0682 0.8534 1.5891
3.5409 0.8769 1.3949
3.9947 1.1434 1.5891
3.9502 1.2862 1.5891
3.9006 1.4273 1.5891
3.8459 1.5665 1.5891
3.7863 1.7036 1.5891
3.7217 1.8384 1.5891
3.6524 1.9708 1.5891
3.5784 2.1006 1.5891
3.4997 2.2276 1.5891
3.4352 2.3645 1.5978
3.3290 2.4726 1.5891
3.2534 2.6034 1.5971
3.2432 2.7925 1.6408
3.2383 2.9981 1.6922
3.1276 3.1121 1.6922
3.0130 3.2221 1.6922
2.8944 3.3278 1.6922
2.7721 3.4292 1.6922
2.6463 3.5261 1.6922
0.8944 1.2857 0.6013
0.8475 1.3170 0.6014
0.7994 1.3466 0.6014
0.7503 1.3744 0.6015
0.7004 1.4005 0.6016
0.6494 1.4247 0.6017
0.5976 1.4471 0.6018
0.5451 1.4677 0.6018
0.4919 1.4863 0.6019
0.4380 1.5030 0.6020
0.3836 1.5178 0.6021
0.3287 1.5306 0.6022
0.2733 1.5415 0.6023
-0.8702 1.1826 0.6042
-2.5550 3.2224 1.6922
-2.6695 3.1283 1.6922
-2.7805 3.0301 1.6922
-2.8880 2.9280 1.6922
-2.9917 2.8221 1.6922
-3.0916 2.7126 1.6922
-3.1874 2.5996 1.6922
-3.2792 2.4832 1.6922
-3.3667 2.3635 1.6922
-3.4499 2.2408 1.6922
-3.5287 2.1152 1.6922
-3.6029 1.9869 1.6922
-3.6724 1.8559 1.6922
-3.7373 1.7226 1.6922
-3.7973 1.5870 1.6922
-3.8524 1.4493 1.6922
-3.9025 1.3097 1.6922
-3.9476 1.1684 1.6922
-3.9876 1.0255 1.6922
-4.0225 0.8813 1.6922
-4.0521 0.7359 1.6922
-4.0766 0.5895 1.6922
-4.0958 0.4424 1.6922
-4.1096 0.2946 1.6922
-4.1182 0.1464 1.6922
-4.1214 -0.0021 1.6922
-4.1193 -0.1506 1.6922
-4.1119 -0.2989 1.6922
-4.0991 -0.4469 1.6922
-4.0811 -0.5943 1.6922
-4.0578 -0.7411 1.6922
-4.0292 -0.8869 1.6922
-3.9953 -1.0316 1.6922
-3.9563 -1.1750 1.6922
-3.9121 -1.3170 1.6922
-3.8629 -1.4573 1.6922
-3.8086 -1.5958 1.6922
-3.7494 -1.7322 1.6922
-3.6853 -1.8665 1.6922
-3.6164 -1.9983 1.6922
-3.5428 -2.1277 1.6922
-3.4646 -2.2543 1.6922
-3.3818 -2.3780 1.6922
-3.2946 -2.4987 1.6922
-3.2031 -2.6162 1.6922
-3.1075 -2.7304 1.6922
-3.0078 -2.8411 1.6922
-2.9041 -2.9481 1.6922
-2.7966 -3.0513 1.6922
-2.6855 -3.1506 1.6922
-2.5708 -3.2458 1.6922
-2.4528 -3.3369 1.6922
-2.3315 -3.4237 1.6922
-2.2071 -3.5060 1.6922
-2.0799 -3.5838 1.6922
-1.9499 -3.6570 1.6922
-1.8173 -3.7255 1.6922
-1.6823 -3.7891 1.6922
-1.5451 -3.8479 1.6922
-1.4059 -3.9016 1.6922
-1.2648 -3.9503 1.6922
-1.1220 -3.9939 1.6922
-0.9777 -4.0323 1.6922
-0.8321 -4.0655 1.6922
-0.6853 -4.0934 1.6922
-0.5377 -4.1160 1.6922
-0.3892 -4.1332 1.6922
-0.2403 -4.1451 1.6922
-0.0910 -4.1515 1.6922
0.0585 -4.1526 1.6922
0.2079 -4.1483 1.6922
0.3570 -4.1386 1.6922
0.5058 -4.1234 1.6922
0.6538 -4.1030 1.6922
0.8011 -4.0771 1.6922
0.9474 -4.0460 1.6922
1.0924 -4.0096 1.6922
1.2360 -3.9679 1.6922
1.3781 -3.9211 1.6922
1.5184 -3.8692 1.6922
1.6566 -3.8123 1.6922
1.7928 -3.7504 1.6922
1.9266 -3.6836 1.6922
2.0580 -3.6120 1.6922
2.1866 -3.5357 1.6922
2.3124 -3.4547 1.6922
2.4352 -3.3693 1.6922
2.5549 -3.2795 1.6922
2.6712 -3.1855 1.6922
2.7840 -3.0873 1.6922
2.8932 -2.9850 1.6922
2.9987 -2.8789 1.6922
3.1002 -2.7691 1.6922
3.1977 -2.6556 1.6922
3.2577 -2.5131 1.6751
3.2589 -2.3319 1.6316
3.2668 -2.1642 1.5956
3.3287 -2.0368 1.5891
3.3996 -1.9156 1.5891
3.4660 -1.7919 1.5891
3.5279 -1.6659 1.5891
3.5852 -1.5377 1.5891
3.5470 -1.3724 1.5495
3.6858 -1.2756 1.5891
3.7289 -1.1421 1.5891
3.7671 -1.0070 1.5891
3.8004 -0.8707 1.5891
3.8288 -0.7333 1.5891
3.8522 -0.5950 1.5891
3.8706 -0.4559 1.5891
3.8839 -0.3163 1.5891
3.8922 -0.1763 1.5891
3.8954 -0.0361 1.5891
3.8936 0.1041 1.5891
3.5427 0.2225 1.4485
3.8747 0.3838 1.5891
3.8577 0.5229 1.5891
3.8357 0.6613 1.5891
3.8088 0.7988 1.5891
3.5409 0.8768 1.4899
3.7401 1.0703 1.5891
3.6984 1.2040 1.5891
3.6520 1.3361 1.5891
3.6009 1.4665 1.5891
3.5451 1.5948 1.5891
3.4847 1.7211 1.5891
3.4368 1.8542 1.5970
3.3505 1.9666 1.5891
3.2769 2.0855 1.5891
3.2503 2.2370 1.6146
3.2442 2.4094 1.6539
3.2278 2.5826 1.6922
3.1321 2.6967 1.6922
3.0324 2.8071 1.6922
2.9288 2.9139 1.6922
2.8214 3.0169 1.6922
2.7104 3.1160 1.6922
2.5960 3.2110 1.6922
0.8806 1.1732 0.6013
0.8377 1.2041 0.6014
0.7937 1.2334 0.6015
0.7487 1.2611 0.6015
0.7028 1.2872 0.6016
0.6559 1.3116 0.6017
0.6083 1.3343 0.6018
0.5598 1.3553 0.6018
0.5106 1.3745 0.6019
0.4607 1.3920 0.6020
0.4103 1.4077 0.6021
0.3593 1.4215 0.6022
0.3079 1.4335 0.6022
0.2560 1.4437 0.6023
-0.8172 1.1107 0.6041
-0.8568 1.0806 0.6041
-0.8953 1.0492 0.6042
-2.6118 2.8462 1.6922
-2.7127 2.7503 1.6922
-2.8101 2.6509 1.6922
-2.9040 2.5480 1.6922
-2.9940 2.4418 1.6922
-3.0802 2.3324 1.6922
-3.1624 2.2200 1.6922
-3.2406 2.1048 1.6922
-3.3145 1.9868 1.6922
-3.3842 1.8662 1.6922
-3.4495 1.7432 1.6922
-3.5104 1.6179 1.6922
-3.5667 1.4905 1.6922
-3.6185 1.3612 1.6922
-3.6656 1.2300 1.6922
-3.7079 1.0973 1.6922
-3.7455 0.9631 1.6922
-3.7782 0.8276 1.6922
-3.8060 0.6911 1.6922
-3.8289 0.5536 1.6922
-3.8469 0.4153 1.6922
-3.8600 0.2765 1.6922
-3.8680 0.1373 1.6922
-3.8709 -0.0021 1.6922
-3.8690 -0.1416 1.6922
-3.8619 -0.2809 1.6922
-3.8500 -0.4199 1.6922
-3.8329 -0.5584 1.6922
-3.8110 -0.6962 1.6922
-3.7841 -0.8331 1.6922
-3.7522 -0.9690 1.6922
-3.7156 -1.1037 1.6922
-3.6741 -1.2371 1.6922
-3.6278 -1.3688 1.6922
-3.5768 -1.4988 1.6922
-3.5211 -1.6270 1.6922
-3.4609 -1.7530 1.6922
-3.3961 -1.8769 1.6922
-3.3270 -1.9983 1.6922
-3.2535 -2.1172 1.6922
-3.1757 -2.2334 1.6922
-3.0938 -2.3467 1.6922
-3.0079 -2.4570 1.6922
-2.9180 -2.5642 1.6922
-2.8244 -2.6681 1.6922
-2.7270 -2.7686 1.6922
-2.6260 -2.8655 1.6922
-2.5216 -2.9587 1.6922
-2.4139 -3.0481 1.6922
-2.3030 -3.1336 1.6922
-2.1891 -3.2150 1.6922
-2.0724 -3.2923 1.6922
-1.9529 -3.3654 1.6922
-1.8308 -3.4340 1.6922
-1.7063 -3.4983 1.6922
-1.5796 -3.5580 1.6922
-1.4507 -3.6132 1.6922
-1.3199 -3.6636 1.6922
-1.1874 -3.7093 1.6922
-1.0533 -3.7502 1.6922
-0.9179 -3.7862 1.6922
-0.7811 -3.8173 1.6922
-0.6433 -3.8435 1.6922
-0.5047 -3.8647 1.6922
-0.3653 -3.8808 1.6922
-0.2255 -3.8919 1.6922
-0.0853 -3.8980 1.6922
0.0550 -3.8990 1.6922
0.1953 -3.8949 1.6922
0.3353 -3.8857 1.6922
0.4750 -3.8715 1.6922
0.6140 -3.8523 1.6922
0.7523 -3.8280 1.6922
0.8896 -3.7988 1.6922
1.0257 -3.7646 1.6922
1.1605 -3.7255 1.6922
1.2939 -3.6815 1.6922
1.4256 -3.6328 1.6922
1.5554 -3.5793 1.6922
1.6833 -3.5212 1.6922
1.8089 -3.4584 1.6922
1.9322 -3.3912 1.6922
2.0530 -3.3196 1.6922
2.1711 -3.2436 1.6922
2.2864 -3.1634 1.6922
2.3987 -3.0791 1.6922
2.5079 -2.9908 1.6922
2.6138 -2.8986 1.6922
2.7164 -2.8026 1.6922
2.8154 -2.7030 1.6922
2.9107 -2.5999 1.6922
3.0022 -2.4934 1.6922
3.0898 -2.3836 1.6922
3.1734 -2.2708 1.6922
3.2528 -2.1550 1.6922
3.2562 -1.9925 1.6557
3.2596 -1.8368 1.6229
3.2657 -1.6884 1.5947
3.3124 -1.5642 1.5891
3.3662 -1.4438 1.5891
3.4156 -1.3217 1.5891
3.4606 -1.1978 1.5891
3.5011 -1.0724 1.5891
3.5370 -0.9456 1.5891
3.5683 -0.8176 1.5891
3.5950 -0.6886 1.5891
3.6169 -0.5588 1.5891
3.6342 -0.4282 1.5891
3.6468 -0.2971 1.5891
3.6546 -0.1657 1.5891
3.6576 -0.0340 1.5891
3.6559 0.0976 1.5891
3.5427 0.2224 1.5426
3.6383 0.3602 1.5891
3.6224 0.4908 1.5891
3.6018 0.6208 1.5891
3.5765 0.7499 1.5891
3.5409 0.8766 1.5866
3.5121 1.0049 1.5891
3.4730 1.1305 1.5891
3.4392 1.2581 1.5937
3.3814 1.3769 1.5891
3.3291 1.4975 1.5891
3.2724 1.6160 1.5891
3.2528 1.7548 1.6096
3.2456 1.9048 1.6392
3.2451 2.0651 1.6758
3.1992 2.2016 1.6922
3.1173 2.3149 1.6922
3.0314 2.4252 1.6922
2.9415 2.5323 1.6922
2.8479 2.6361 1.6922
2.7507 2.7364 1.6922
2.6498 2.8332 1.6922
2.5456 2.9262 1.6922
0.8664 1.0716 0.6013
0.8272 1.1020 0.6014
0.7869 1.1310 0.6015
0.7456 1.1585 0.6015
0.7034 1.1845 0.6016
0.6602 1.2090 0.6017
0.6162 1.2320 0.6017
0.5714 1.2533 0.6018
0.5259 1.2730 0.6019
0.4797 1.2911 0.6020
0.4328 1.3075 0.6020
0.3854 1.3222 0.6021
0.3376 1.3352 0.6022
0.2892 1.3465 0.6023
0.2406 1.3560 0.6024
-0.7695 1.0458 0.6040
-0.8068 1.0175 0.6041
-0.8430 0.9879 0.6041
-0.8782 0.9570 0.6042
-2.5546 2.5900 1.6922
-2.6464 2.4963 1.6922
-2.7347 2.3994 1.6922
-2.8195 2.2994 1.6922
-2.9007 2.1964 1.6922
-2.9781 2.0906 1.6922
-3.0517 1.9820 1.6922
-3.1213 1.8709 1.6922
-3.1870 1.7573 1.6922
-3.2484 1.6415 1.6922
-3.3058 1.5235 1.6922
-3.3588 1.4035 1.6922
-3.4075 1.2817 1.6922
-3.4519 1.1582 1.6922
-3.4917 1.0332 1.6922
-3.5270 0.9068 1.6922
-3.5578 0.7792 1.6922
-3.5840 0.6506 1.6922
-3.6056 0.5211 1.6922
-3.6225 0.3910 1.6922
-3.6347 0.2602 1.6922
-3.6422 0.1291 1.6922
-3.6450 -0.0021 1.6922
-3.6431 -0.1335 1.6922
-3.6365 -0.2647 1.6922
-3.6252 -0.3955 1.6922
-3.6091 -0.5259 1.6922
-3.5884 -0.6557 1.6922
-3.5631 -0.7846 1.6922
-3.5331 -0.9126 1.6922
-3.4985 -1.0395 1.6922
-3.4594 -1.1650 1.6922
-3.4157 -1.2890 1.6922
-3.3677 -1.4114 1.6922
-3.3153 -1.5321 1.6922
-3.2585 -1.6507 1.6922
-3.1976 -1.7673 1.6922
-3.1324 -1.8817 1.6922
-3.0632 -1.9936 1.6922
-2.9899 -2.1029 1.6922
-2.9128 -2.2096 1.6922
-2.8318 -2.3135 1.6922
-2.7472 -2.4144 1.6922
-2.6590 -2.5122 1.6922
-2.5673 -2.6067 1.6922
-2.4722 -2.6979 1.6922
-2.3739 -2.7857 1.6922
-2.2725 -2.8698 1.6922
-2.1681 -2.9503 1.6922
-2.0609 -3.0269 1.6922
-1.9509 -3.0996 1.6922
-1.8384 -3.1684 1.6922
-1.7234 -3.2330 1.6922
-1.6062 -3.2935 1.6922
-1.4869 -3.3497 1.6922
-1.3656 -3.4016 1.6922
-1.2425 -3.4490 1.6922
-1.1177 -3.4920 1.6922
-0.9915 -3.5305 1.6922
-0.8639 -3.5644 1.6922
-0.7352 -3.5936 1.6922
-0.6055 -3.6183 1.6922
-0.4750 -3.6381 1.6922
-0.3438 -3.6533 1.6922
-0.2121 -3.6638 1.6922
-0.0802 -3.6695 1.6922
0.0519 -3.6704 1.6922
0.1839 -3.6665 1.6922
0.3157 -3.6578 1.6922
0.4472 -3.6445 1.6922
0.5781 -3.6263 1.6922
0.7082 -3.6035 1.6922
0.8374 -3.5759 1.6922
0.9656 -3.5437 1.6922
1.0926 -3.5069 1.6922
1.2181 -3.4655 1.6922
1.3420 -3.4196 1.6922
1.4642 -3.3693 1.6922
1.5845 -3.3146 1.6922
1.7028 -3.2555 1.6922
1.8189 -3.1922 1.6922
1.9325 -3.1248 1.6922
2.0437 -3.0533 1.6922
2.1523 -2.9778 1.6922
2.2580 -2.8984 1.6922
2.3608 -2.8153 1.6922
2.4605 -2.7285 1.6922
2.5570 -2.6382 1.6922
2.6502 -2.5444 1.6922
2.7399 -2.4474 1.6922
2.8260 -2.3471 1.6922
2.9085 -2.2439 1.6922
2.9872 -2.1377 1.6922
3.0620 -2.0287 1.6922
3.1328 -1.9171 1.6922
3.1995 -1.8030 1.6922
3.2554 -1.6832 1.6888
3.2550 -1.5372 1.6589
3.2561 -1.3967 1.6329
3.2606 -1.2618 1.6115
3.2647 -1.1301 1.5926
3.2958 -1.0096 1.5891
3.3296 -0.8903 1.5891
3.3591 -0.7698 1.5891
3.3842 -0.6484 1.5891
3.4049 -0.5261 1.5891
3.4212 -0.4032 1.5891
3.4434 -0.2807 1.5939
3.4438 -0.1562 1.5907
3.4438 -0.0322 1.5894
3.4433 0.0918 1.5899
3.4424 0.2159 1.5923
3.4411 0.3405 1.5965
3.4102 0.4619 1.5891
3.3909 0.5843 1.5891
3.3671 0.7058 1.5891
3.3390 0.8264 1.5891
3.3065 0.9459 1.5891
3.2698 1.0641 1.5891
3.2560 1.1909 1.6025
3.2510 1.3236 1.6228
3.2468 1.4603 1.6462
3.2464 1.6030 1.6744
3.2199 1.7368 1.6922
3.1547 1.8512 1.6922
3.0855 1.9633 1.6922
3.0122 2.0727 1.6922
2.9351 2.1794 1.6922
2.8542 2.2833 1.6922
2.7697 2.3841 1.6922
2.6816 2.4819 1.6922
2.5900 2.5764 1.6922
0.8866 0.9478 0.6013
0.8518 0.9791 0.6014
0.8160 1.0090 0.6014
0.7790 1.0377 0.6015
