ply
format ascii 1.0
element vertex 2180
property float32 x
property float32 y
property float32 z
end_header
-6.2975 -4.4930 1.2510
-6.2656 -4.8184 1.2764
-6.2912 -5.2074 1.3170
-7.3947 -6.5818 1.5942
-6.3891 -6.1111 1.4219
-6.4783 -6.6573 1.4920
-6.1617 -6.8040 1.4726
-6.0488 -7.1807 1.5043
-6.0389 -7.7142 1.5678
-5.8679 -8.0763 1.5957
-5.6738 -8.4289 1.6223
-5.6222 -9.0355 1.6973
-5.3001 -9.2408 1.6973
-4.9704 -9.4342 1.6973
-4.6334 -9.6154 1.6973
-4.2896 -9.7842 1.6973
-3.9395 -9.9402 1.6973
-3.5836 -10.0832 1.6973
-3.2223 -10.2129 1.6973
-2.8562 -10.3292 1.6973
-2.4858 -10.4318 1.6973
-2.1116 -10.5206 1.6973
-1.7341 -10.5954 1.6973
-1.3539 -10.6561 1.6973
-0.9715 -10.7025 1.6973
-0.5875 -10.7347 1.6973
-0.2025 -10.7524 1.6973
0.1831 -10.7558 1.6973
0.5686 -10.7447 1.6973
0.9535 -10.7192 1.6973
1.3372 -10.6793 1.6973
1.7191 -10.6251 1.6973
2.0988 -10.5566 1.6973
2.4114 -10.2020 1.6533
2.6758 -9.7459 1.5941
3.0228 -9.6420 1.5941
3.3657 -9.5253 1.5941
3.7038 -9.3958 1.5941
2.4022 -5.5067 0.9486
4.3641 -9.0995 1.5941
4.6853 -8.9331 1.5941
4.9999 -8.7550 1.5941
5.3075 -8.5653 1.5941
5.6076 -8.3644 1.5941
5.8999 -8.1525 1.5941
6.1838 -7.9301 1.5941
6.5590 -7.8165 1.6187
6.8210 -7.5609 1.6168
6.8546 -7.0710 1.5649
7.0690 -6.7875 1.5587
7.2727 -6.4984 1.5527
7.4658 -6.2043 1.5470
7.6483 -5.9055 1.5415
7.8191 -5.6018 1.5362
7.9793 -5.2943 1.5311
8.1234 -4.9799 1.5252
8.2875 -4.6802 1.5254
8.6141 -4.4651 1.5569
8.6946 -4.1183 1.5457
8.7488 -3.7661 1.5323
8.7922 -3.4165 1.5195
8.8250 -3.0698 1.5072
8.8614 -2.7304 1.4978
8.9150 -2.4005 1.4934
8.9641 -2.0720 1.4904
9.0060 -1.7440 1.4881
9.0396 -1.4163 1.4865
6.3574 -0.7636 1.0418
6.3366 -0.5314 1.0361
9.0907 -0.4347 1.4852
6.3415 -0.0755 1.0365
6.3244 0.1516 1.0355
9.2043 0.5516 1.5116
6.5629 0.6302 1.0825
6.1971 0.8204 1.0280
9.2699 1.5675 1.5484
9.2317 1.9040 1.5548
9.1372 2.2291 1.5537
8.2296 -1.2661 1.5461
6.3595 -0.7460 1.1905
6.3449 -0.5144 1.1851
8.2781 -0.3730 1.5448
6.3436 -0.0580 1.1842
6.3327 0.1693 1.1841
8.3793 0.5253 1.5715
6.4262 0.6350 1.2103
6.1966 0.8377 1.1736
8.3126 1.4292 1.5852
8.2534 1.7260 1.5868
8.1701 2.0170 1.5858
8.0781 2.3048 1.5852
7.9831 2.5909 1.5859
7.8924 2.8784 1.5895
7.7931 3.1635 1.5935
7.6854 3.4460 1.5978
7.5691 3.7257 1.6025
7.4446 4.0025 1.6076
7.3173 4.2796 1.6143
7.1802 4.5530 1.6211
7.0106 4.8067 1.6227
6.8321 5.0542 1.6244
6.6441 5.2946 1.6258
6.4423 5.5233 1.6258
6.1113 5.6325 1.5941
5.8986 5.8418 1.5941
5.6789 6.0433 1.5941
5.4525 6.2368 1.5941
5.2197 6.4220 1.5941
4.9808 6.5988 1.5941
4.7361 6.7670 1.5941
4.4859 6.9264 1.5941
4.2305 7.0767 1.5941
3.9703 7.2180 1.5941
3.7055 7.3500 1.5941
3.4364 7.4726 1.5941
3.1635 7.5857 1.5941
2.8870 7.6891 1.5941
2.6072 7.7828 1.5941
0.8999 3.0454 0.6171
0.7899 3.0757 0.6174
0.6789 3.1021 0.6178
0.5671 3.1245 0.6181
0.4545 3.1430 0.6184
0.3413 3.1574 0.6186
0.2276 3.1678 0.6189
0.1137 3.1742 0.6191
-0.0004 3.1765 0.6193
-0.1145 3.1747 0.6195
-0.2285 3.1689 0.6197
-0.3423 3.1590 0.6198
-0.4556 3.1450 0.6199
-0.5684 3.1271 0.6200
-0.6805 3.1051 0.6201
-0.7917 3.0792 0.6201
-2.4686 8.3454 1.6973
-2.7673 8.2527 1.6973
-3.0627 8.1498 1.6973
-3.3544 8.0366 1.6973
-3.6421 7.9134 1.6973
-3.9254 7.7802 1.6973
-4.2041 7.6372 1.6973
-4.4777 7.4846 1.6973
-4.7460 7.3225 1.6973
-5.0087 7.1511 1.6973
-5.2654 6.9706 1.6973
-5.5158 6.7812 1.6973
-5.7596 6.5830 1.6973
-5.9415 6.3179 1.6818
-5.9392 5.8773 1.6191
-6.0570 5.5778 1.5942
-6.2585 5.3610 1.5942
-6.4526 5.1372 1.5942
-6.6388 4.9065 1.5942
-6.8171 4.6693 1.5942
-6.9871 4.4257 1.5942
-7.1486 4.1761 1.5942
-7.3015 3.9208 1.5942
-7.4454 3.6599 1.5942
-6.5942 2.9525 1.3869
-6.4312 2.6065 1.3305
-7.8219 2.8476 1.5942
-6.6427 2.1516 1.3357
-6.6794 1.9015 1.3269
-6.5299 1.6078 1.2834
-8.1882 1.7069 1.5942
-6.4894 1.1114 1.2533
-8.3105 1.1179 1.5942
-6.5633 0.6440 1.2522
-6.4717 0.4013 1.2296
-6.4157 0.1670 1.2154
-6.3645 -0.0629 1.2038
-6.3239 -0.2896 1.1957
-6.4947 -0.5315 1.2291
-6.5812 -0.7772 1.2483
-6.6519 -1.0287 1.2662
-6.4401 -1.2340 1.2319
-8.2833 -1.8977 1.5942
-8.2210 -2.1966 1.5942
-8.1479 -2.4935 1.5942
-8.0641 -2.7879 1.5942
-7.9696 -3.0795 1.5942
-7.8646 -3.3679 1.5942
-7.7490 -3.6527 1.5942
-7.6230 -3.9334 1.5942
-7.4868 -4.2098 1.5942
-6.7801 -4.1393 1.4726
-6.6874 -4.4195 1.4840
-6.2959 -4.4932 1.4302
-6.3868 -4.9129 1.4881
-6.1491 -5.0914 1.4726
-6.0815 -5.4144 1.5001
-6.0741 -5.8114 1.5469
-6.0480 -6.2167 1.5942
-5.8277 -6.4367 1.5942
-5.7040 -6.7731 1.6241
-5.6901 -7.2704 1.6915
-5.4500 -7.5030 1.6973
-5.1827 -7.7012 1.6973
-4.9079 -7.8895 1.6973
-4.6262 -8.0676 1.6973
-4.3378 -8.2355 1.6973
-4.0432 -8.3927 1.6973
-3.7428 -8.5390 1.6973
-3.4369 -8.6742 1.6973
-3.1261 -8.7981 1.6973
-2.8106 -8.9104 1.6973
-2.4911 -9.0110 1.6973
-2.1678 -9.0998 1.6973
-1.8413 -9.1765 1.6973
-1.5119 -9.2411 1.6973
-1.1803 -9.2935 1.6973
-0.8469 -9.3334 1.6973
-0.5120 -9.3610 1.6973
-0.1763 -9.3761 1.6973
0.1599 -9.3787 1.6973
0.4959 -9.3688 1.6973
0.8315 -9.3464 1.6973
1.1660 -9.3114 1.6973
1.4990 -9.2641 1.6973
1.8300 -9.2044 1.6973
2.1585 -9.1324 1.6973
2.3869 -8.6941 1.6309
2.6356 -8.4074 1.5941
2.9346 -8.3059 1.5941
3.2295 -8.1933 1.5941
2.3994 -5.5009 1.0866
3.8055 -7.9357 1.5941
4.0858 -7.7911 1.5941
4.3604 -7.6362 1.5941
4.6290 -7.4713 1.5941
4.8911 -7.2967 1.5941
5.1464 -7.1125 1.5941
5.3946 -6.9191 1.5941
5.6353 -6.7168 1.5941
5.8682 -6.5058 1.5941
6.0929 -6.2865 1.5941
6.2553 -6.0073 1.5804
6.4386 -5.7542 1.5749
6.6134 -5.4971 1.5698
6.7792 -5.2356 1.5650
6.9351 -4.9696 1.5604
7.1832 -4.7672 1.5783
7.4683 -4.5795 1.6054
7.5811 -4.2825 1.5973
7.6692 -3.9766 1.5865
7.7626 -3.6781 1.5793
7.8475 -3.3794 1.5727
7.9241 -3.0804 1.5667
7.9923 -2.7814 1.5613
8.0523 -2.4824 1.5565
8.1064 -2.1840 1.5528
8.1546 -1.8862 1.5500
8.1949 -1.5882 1.5478
8.2273 -1.2903 1.5462
6.3516 -0.7639 1.1893
6.3446 -0.5330 1.1852
8.2777 -0.3971 1.5447
6.3466 -0.0766 1.1847
6.3324 0.1508 1.1839
8.3772 0.5007 1.5706
6.5629 0.6292 1.2356
6.1972 0.8194 1.1731
8.3170 1.4050 1.5850
8.2585 1.7019 1.5867
8.1771 1.9935 1.5859
7.5459 -1.1621 1.5963
6.3648 -0.7476 1.3415
6.3530 -0.5161 1.3358
7.5933 -0.3433 1.5949
6.3487 -0.0591 1.3338
6.3408 0.1685 1.3341
7.6167 0.4763 1.6071
6.4415 0.6355 1.3647
6.1966 0.8367 1.3200
7.5076 1.2895 1.6100
7.4543 1.5576 1.6115
7.3874 1.8226 1.6121
7.3187 2.0869 1.6144
7.2437 2.3496 1.6173
7.1514 2.6069 1.6185
7.0481 2.8598 1.6193
6.9363 3.1088 1.6201
6.8158 3.3536 1.6209
6.6816 3.5910 1.6205
6.5424 3.8250 1.6209
6.3993 4.0565 1.6223
6.1341 4.2044 1.5941
5.9728 4.4172 1.5941
5.8042 4.6238 1.5941
5.6285 4.8242 1.5941
5.4461 5.0181 1.5941
5.2572 5.2052 1.5941
5.0619 5.3854 1.5941
4.8607 5.5585 1.5941
4.6537 5.7242 1.5941
4.4411 5.8824 1.5941
4.2234 6.0329 1.5941
4.0007 6.1756 1.5941
3.7733 6.3103 1.5941
3.5415 6.4369 1.5941
3.3056 6.5552 1.5941
3.0658 6.6651 1.5941
2.8225 6.7665 1.5941
2.5760 6.8592 1.5941
0.8979 2.6796 0.6152
0.8010 2.7101 0.6155
0.7032 2.7371 0.6158
0.6044 2.7606 0.6161
0.5048 2.7806 0.6164
0.4046 2.7970 0.6167
0.3038 2.8098 0.6169
0.2027 2.8190 0.6171
0.1013 2.8246 0.6173
-0.0003 2.8266 0.6175
-0.1019 2.8250 0.6177
-0.2033 2.8198 0.6178
-0.3045 2.8110 0.6179
-0.4054 2.7985 0.6180
-0.5058 2.7825 0.6181
-0.6055 2.7629 0.6182
-0.7045 2.7398 0.6182
-0.8026 2.7131 0.6183
-2.4701 7.3656 1.6973
-2.7337 7.2735 1.6973
-2.9939 7.1723 1.6973
-3.2506 7.0621 1.6973
-3.5034 6.9430 1.6973
-3.7520 6.8151 1.6973
-3.9960 6.6786 1.6973
-4.2352 6.5336 1.6973
-4.4694 6.3803 1.6973
-4.6982 6.2188 1.6973
-4.9213 6.0494 1.6973
-5.1385 5.8722 1.6973
-5.3495 5.6874 1.6973
-5.5541 5.4952 1.6973
-5.7520 5.2959 1.6973
-5.9184 5.0687 1.6903
-5.9131 4.7067 1.6382
-5.9200 4.3743 1.5942
-6.0939 4.1729 1.5983
-6.2294 3.9447 1.5942
-6.3727 3.7218 1.5942
-6.5083 3.4938 1.5942
-6.2384 3.0656 1.4987
-6.2447 2.7949 1.4737
-6.3423 2.5694 1.4726
-6.7971 2.4735 1.5549
-6.5412 2.1177 1.4765
-6.6780 1.9000 1.4894
-6.5308 1.6070 1.4412
-6.7954 1.4155 1.4857
-6.4907 1.1106 1.4079
-6.5400 0.8787 1.4092
-6.5651 0.6432 1.4071
-6.4741 0.4004 1.3820
-6.4155 0.1659 1.3657
-6.3643 -0.0639 1.3529
-6.5862 -0.3027 1.3998
-6.4961 -0.5327 1.3821
-6.5832 -0.7785 1.4040
-6.5724 -1.0175 1.4069
-6.4413 -1.2353 1.3857
-6.8018 -1.5594 1.4726
-7.3074 -1.9538 1.5942
-7.2415 -2.2173 1.5942
-7.1659 -2.4787 1.5942
-7.0809 -2.7374 1.5942
-6.9865 -2.9932 1.5942
-6.8829 -3.2457 1.5942
-6.7700 -3.4946 1.5942
-6.6481 -3.7395 1.5942
-6.5172 -3.9801 1.5942
-6.1070 -4.0372 1.5266
-6.1011 -4.3555 1.5614
-6.0725 -4.6727 1.5942
-5.9257 -4.9077 1.5991
-5.7412 -5.1128 1.5961
-5.7236 -5.4775 1.6431
-5.7117 -5.8725 1.6973
-5.5029 -6.0796 1.6973
-5.2866 -6.2790 1.6973
-5.0628 -6.4705 1.6973
-4.8321 -6.6539 1.6973
-4.5945 -6.8288 1.6973
-4.3505 -6.9950 1.6973
-4.1003 -7.1523 1.6973
-3.8444 -7.3003 1.6973
-3.5829 -7.4390 1.6973
-3.3164 -7.5680 1.6973
-3.0451 -7.6872 1.6973
-2.7694 -7.7963 1.6973
-2.4898 -7.8952 1.6973
-2.2065 -7.9839 1.6973
-1.9200 -8.0620 1.6973
-1.6307 -8.1295 1.6973
-1.3389 -8.1862 1.6973
-1.0451 -8.2322 1.6973
-0.7498 -8.2672 1.6973
-0.4532 -8.2913 1.6973
-0.1559 -8.3044 1.6973
0.1418 -8.3065 1.6973
0.4394 -8.2975 1.6973
0.7365 -8.2775 1.6973
1.0327 -8.2465 1.6973
1.3275 -8.2046 1.6973
1.6206 -8.1517 1.6973
1.9116 -8.0880 1.6973
2.1999 -8.0136 1.6973
2.3692 -7.5581 1.6180
2.5989 -7.3564 1.5941
2.8601 -7.2569 1.5941
2.3966 -5.4950 1.2255
2.6323 -5.4898 1.2450
3.6189 -6.9016 1.5941
3.8623 -6.7648 1.5941
4.1004 -6.6191 1.5941
4.3329 -6.4647 1.5941
4.5593 -6.3020 1.5941
4.7795 -6.1311 1.5941
4.9931 -5.9523 1.5941
5.1999 -5.7658 1.5941
5.3995 -5.5720 1.5941
5.5917 -5.3710 1.5941
5.7762 -5.1633 1.5941
5.9528 -4.9491 1.5941
6.1214 -4.7286 1.5941
6.2815 -4.5023 1.5941
6.5237 -4.3306 1.6165
6.6640 -4.0874 1.6154
6.7954 -3.8398 1.6144
6.9178 -3.5881 1.6134
7.0310 -3.3326 1.6125
7.1349 -3.0736 1.6116
7.2295 -2.8116 1.6109
7.3147 -2.5467 1.6102
7.3744 -2.2745 1.6061
7.4280 -2.0024 1.6028
7.4740 -1.7299 1.6001
7.5126 -1.4571 1.5980
7.5437 -1.1843 1.5964
6.3617 -0.7661 1.3411
6.3528 -0.5347 1.3359
7.5929 -0.3655 1.5949
6.3516 -0.0776 1.3343
6.3405 0.1500 1.3338
7.6186 0.4541 1.6070
6.5630 0.6281 1.3899
6.1972 0.8184 1.3194
7.5115 1.2677 1.6099
7.4589 1.5359 1.6113
7.3937 1.8012 1.6122
6.8735 -1.0596 1.6184
6.3677 -0.7490 1.4936
6.3612 -0.5178 1.4883
6.9292 -0.3144 1.6193
6.3556 -0.0602 1.4854
6.3490 0.1677 1.4859
6.9004 0.4304 1.6193
6.4569 0.6359 1.5213
6.1967 0.8357 1.4678
6.7932 1.1657 1.6197
6.7437 1.4080 1.6207
6.6869 1.6486 1.6220
6.6189 1.8862 1.6227
6.5421 2.1209 1.6233
6.4572 2.3527 1.6239
6.3644 2.5812 1.6246
6.1435 2.7523 1.5941
6.0343 2.9679 1.5941
5.9177 3.1792 1.5941
5.7937 3.3861 1.5941
5.6627 3.5883 1.5941
5.5246 3.7855 1.5941
5.3798 3.9774 1.5941
5.2285 4.1640 1.5941
5.0708 4.3450 1.5941
4.9069 4.5200 1.5941
4.7372 4.6891 1.5941
4.5617 4.8519 1.5941
4.3807 5.0083 1.5941
4.1945 5.1581 1.5941
4.0033 5.3012 1.5941
3.8073 5.4373 1.5941
3.6068 5.5663 1.5941
3.4021 5.6882 1.5941
3.1933 5.8027 1.5941
2.9808 5.9098 1.5941
2.7648 6.0092 1.5941
2.5456 6.1010 1.5941
0.8944 2.3810 0.6137
0.8083 2.4115 0.6140
0.7211 2.4390 0.6143
0.6330 2.4632 0.6145
0.5441 2.4844 0.6148
0.4544 2.5023 0.6150
0.3642 2.5171 0.6153
0.2735 2.5286 0.6155
0.1825 2.5369 0.6157
0.0912 2.5420 0.6159
-0.0002 2.5438 0.6160
-0.0916 2.5423 0.6162
-0.1829 2.5376 0.6163
-0.2740 2.5296 0.6164
-0.3648 2.5184 0.6165
-0.4551 2.5039 0.6166
-0.5449 2.4862 0.6166
-0.6340 2.4654 0.6167
-0.7223 2.4414 0.6167
-0.8097 2.4142 0.6167
-2.4661 6.5611 1.6973
-2.7009 6.4697 1.6973
-2.9324 6.3700 1.6973
-3.1603 6.2624 1.6973
-3.3845 6.1468 1.6973
-3.6045 6.0234 1.6973
-3.8201 5.8924 1.6973
-4.0312 5.7538 1.6973
-4.2373 5.6079 1.6973
-4.4383 5.4548 1.6973
-4.6340 5.2947 1.6973
-4.8240 5.1277 1.6973
-5.0082 4.9541 1.6973
-5.1862 4.7741 1.6973
-5.3580 4.5878 1.6973
-5.5232 4.3954 1.6973
-5.6817 4.1972 1.6973
-5.8333 3.9935 1.6973
-5.8937 3.7312 1.6735
-5.8904 3.4391 1.6351
-5.8930 3.1625 1.6018
-5.9794 2.9374 1.5942
-6.0865 2.7232 1.5942
-6.1860 2.5051 1.5942
-6.2235 2.2638 1.5805
-6.2189 2.0123 1.5584
-6.2144 1.7670 1.5389
-6.2099 1.5271 1.5217
-6.2056 1.2917 1.5068
-6.2013 1.0601 1.4940
-6.1970 0.8316 1.4833
-6.2004 0.6065 1.4764
-6.2088 0.3829 1.4726
-6.2252 0.1600 1.4726
-6.2337 -0.0636 1.4726
-6.2341 -0.2876 1.4726
-6.2266 -0.5116 1.4726
-6.2111 -0.7355 1.4726
-6.1875 -0.9590 1.4726
-6.1685 -1.1841 1.4755
-6.1555 -1.4123 1.4820
-6.1512 -1.6457 1.4926
-6.5102 -1.9946 1.5942
-6.4415 -2.2293 1.5942
-6.3644 -2.4616 1.5942
-6.2788 -2.6912 1.5942
-6.1849 -2.9178 1.5942
-6.0828 -3.1411 1.5942
-5.9726 -3.3607 1.5942
-5.8544 -3.5765 1.5942
-5.7634 -3.8113 1.6040
-5.7500 -4.1061 1.6386
-5.7429 -4.4203 1.6790
-5.6473 -4.6785 1.6973
-5.4812 -4.8827 1.6973
-5.3077 -5.0808 1.6973
-5.1269 -5.2727 1.6973
-4.9390 -5.4580 1.6973
-4.7444 -5.6365 1.6973
-4.5432 -5.8078 1.6973
-4.3357 -5.9718 1.6973
-4.1222 -6.1283 1.6973
-3.9029 -6.2769 1.6973
-3.6782 -6.4175 1.6973
-3.4483 -6.5498 1.6973
-3.2135 -6.6736 1.6973
-2.9743 -6.7889 1.6973
-2.7307 -6.8953 1.6973
-2.4834 -6.9927 1.6973
-2.2324 -7.0811 1.6973
-1.9783 -7.1601 1.6973
-1.7213 -7.2298 1.6973
-1.4618 -7.2900 1.6973
-1.2002 -7.3405 1.6973
-0.9368 -7.3815 1.6973
-0.6719 -7.4126 1.6973
-0.4061 -7.4340 1.6973
-0.1395 -7.4456 1.6973
0.1273 -7.4472 1.6973
0.3941 -7.4391 1.6973
0.6604 -7.4211 1.6973
0.9259 -7.3932 1.6973
1.1902 -7.3556 1.6973
1.4529 -7.3082 1.6973
1.7137 -7.2511 1.6973
1.9722 -7.1845 1.6973
2.2280 -7.1083 1.6973
2.3545 -6.6651 1.6109
2.5641 -6.5065 1.5941
2.3938 -5.4891 1.3653
2.6292 -5.4838 1.3869
3.2446 -6.1885 1.5941
3.4630 -6.0661 1.5941
3.6766 -5.9357 1.5941
3.8852 -5.7977 1.5941
4.0885 -5.6521 1.5941
4.2862 -5.4991 1.5941
4.4780 -5.3391 1.5941
4.6637 -5.1722 1.5941
4.8430 -4.9987 1.5941
5.0158 -4.8188 1.5941
5.1817 -4.6328 1.5941
5.3405 -4.4410 1.5941
5.4922 -4.2435 1.5941
5.6363 -4.0409 1.5941
5.7729 -3.8332 1.5941
5.9017 -3.6208 1.5941
6.0225 -3.4040 1.5941
6.1352 -3.1832 1.5941
6.2397 -2.9585 1.5941
6.4271 -2.7697 1.6170
6.5133 -2.5341 1.6163
6.5921 -2.2962 1.6160
6.6649 -2.0568 1.6163
6.7292 -1.8151 1.6167
6.7850 -1.5715 1.6172
6.8322 -1.3263 1.6177
6.8708 -1.0797 1.6183
6.3772 -0.7689 1.4962
6.3610 -0.5364 1.4885
6.9289 -0.3346 1.6193
6.3568 -0.0787 1.4856
6.3487 0.1492 1.4856
6.9023 0.4103 1.6193
6.5630 0.6271 1.5457
6.1972 0.8174 1.4672
6.7971 1.1460 1.6197
6.7479 1.3883 1.6206
6.6918 1.6291 1.6219
6.1404 -0.9476 1.5941
6.1644 -0.7261 1.5941
6.1804 -0.5040 1.5941
6.1884 -0.2818 1.5941
6.1883 -0.0596 1.5941
6.1802 0.1623 1.5941
6.1642 0.3835 1.5941
6.1403 0.6037 1.5941
6.1085 0.8228 1.5941
6.0688 1.0403 1.5941
6.0215 1.2562 1.5941
5.9665 1.4699 1.5941
5.9039 1.6814 1.5941
5.8339 1.8903 1.5941
5.7566 2.0963 1.5941
5.6720 2.2993 1.5941
5.5803 2.4989 1.5941
5.4817 2.6950 1.5941
5.3762 2.8873 1.5941
5.2641 3.0755 1.5941
5.1455 3.2595 1.5941
5.0205 3.4389 1.5941
4.8894 3.6137 1.5941
4.7522 3.7836 1.5941
4.6092 3.9483 1.5941
4.4607 4.1078 1.5941
4.3067 4.2618 1.5941
4.1474 4.4102 1.5941
3.9832 4.5527 1.5941
3.8142 4.6892 1.5941
3.6406 4.8196 1.5941
3.4626 4.9437 1.5941
3.2805 5.0615 1.5941
3.0945 5.1726 1.5941
2.9048 5.2771 1.5941
2.7116 5.3748 1.5941
2.5153 5.4655 1.5941
0.8897 2.1318 0.6124
0.8125 2.1623 0.6127
0.7342 2.1900 0.6129
0.6550 2.2149 0.6132
0.5750 2.2370 0.6135
0.4942 2.2562 0.6137
0.4128 2.2725 0.6139
0.3309 2.2859 0.6141
0.2485 2.2963 0.6143
0.1658 2.3039 0.6145
0.0829 2.3084 0.6147
-0.0001 2.3100 0.6148
-0.0831 2.3087 0.6149
-0.1661 2.3044 0.6151
-0.2488 2.2971 0.6152
-0.3313 2.2869 0.6152
-0.4133 2.2737 0.6153
-0.4948 2.2577 0.6154
-0.5757 2.2387 0.6154
-0.6559 2.2168 0.6154
-0.7352 2.1921 0.6154
-0.8137 2.1646 0.6154
-0.8911 2.1343 0.6154
-2.6684 5.7959 1.6973
-2.8757 5.6977 1.6973
-3.0796 5.5924 1.6973
-3.2797 5.4799 1.6973
-3.4758 5.3605 1.6973
-3.6677 5.2343 1.6973
-3.8551 5.1013 1.6973
-4.0378 4.9618 1.6973
-4.2156 4.8159 1.6973
-4.3883 4.6638 1.6973
-4.5556 4.5056 1.6973
-4.7173 4.3415 1.6973
-4.8733 4.1718 1.6973
-5.0233 3.9966 1.6973
-5.1671 3.8162 1.6973
-5.3046 3.6306 1.6973
-5.4355 3.4402 1.6973
-5.5597 3.2452 1.6973
-5.6771 3.0457 1.6973
-5.7875 2.8421 1.6973
-5.8732 2.6268 1.6923
-5.8686 2.3756 1.6639
-5.8654 2.1325 1.6388
-5.8659 1.8972 1.6174
-5.8661 1.6671 1.5985
-5.9117 1.4528 1.5942
-5.9656 1.2408 1.5942
-6.0120 1.0268 1.5942
-6.0507 0.8110 1.5942
-6.0818 0.5939 1.5942
-6.1052 0.3756 1.5942
-6.1208 0.1564 1.5942
-6.1285 -0.0635 1.5942
-6.1284 -0.2837 1.5942
-6.1204 -0.5039 1.5942
-6.1046 -0.7239 1.5942
-6.0808 -0.9435 1.5942
-6.0492 -1.1622 1.5942
-6.0097 -1.3799 1.5942
-5.9624 -1.5962 1.5942
-5.9073 -1.8109 1.5942
-5.8444 -2.0237 1.5942
-5.7935 -2.2418 1.5997
-5.7846 -2.4804 1.6191
-5.7749 -2.7255 1.6411
-5.7695 -2.9804 1.6673
-5.7646 -3.2449 1.6967
-5.6519 -3.4540 1.6973
-5.5297 -3.6579 1.6973
-5.4000 -3.8574 1.6973
-5.2631 -4.0522 1.6973
-5.1190 -4.2421 1.6973
-4.9681 -4.4268 1.6973
-4.8104 -4.6060 1.6973
-4.6461 -4.7795 1.6973
-4.4755 -4.9471 1.6973
-4.2988 -5.1084 1.6973
-4.1162 -5.2633 1.6973
-3.9279 -5.4115 1.6973
-3.7342 -5.5528 1.6973
-3.5353 -5.6870 1.6973
-3.3315 -5.8140 1.6973
-3.1230 -5.9335 1.6973
-2.9103 -6.0453 1.6973
-2.6934 -6.1493 1.6973
-2.4727 -6.2453 1.6973
-2.2486 -6.3333 1.6973
-2.0213 -6.4129 1.6973
-1.7911 -6.4842 1.6973
-1.5583 -6.5470 1.6973
-1.3233 -6.6012 1.6973
-1.0864 -6.6468 1.6973
-0.8479 -6.6836 1.6973
-0.6081 -6.7117 1.6973
-0.3674 -6.7308 1.6973
-0.1261 -6.7412 1.6973
0.1154 -6.7426 1.6973
0.3569 -6.7351 1.6973
0.5980 -6.7187 1.6973
0.8383 -6.6934 1.6973
1.0775 -6.6594 1.6973
1.3154 -6.6165 1.6973
1.5514 -6.5648 1.6973
1.7854 -6.5045 1.6973
2.0170 -6.4357 1.6973
2.2459 -6.3583 1.6973
2.3418 -5.9429 1.6081
2.3909 -5.4832 1.5063
2.6260 -5.4778 1.5301
2.9376 -5.6036 1.5941
3.1354 -5.4930 1.5941
3.3289 -5.3752 1.5941
3.5179 -5.2503 1.5941
3.7021 -5.1187 1.5941
3.8813 -4.9805 1.5941
4.0552 -4.8358 1.5941
4.2236 -4.6849 1.5941
4.3862 -4.5280 1.5941
4.5429 -4.3654 1.5941
4.6935 -4.1972 1.5941
4.8377 -4.0237 1.5941
4.9754 -3.8451 1.5941
5.1063 -3.6618 1.5941
5.2304 -3.4739 1.5941
5.3475 -3.2817 1.5941
5.4574 -3.0855 1.5941
5.5600 -2.8856 1.5941
5.6551 -2.6823 1.5941
5.7427 -2.4757 1.5941
5.8227 -2.2663 1.5941
5.8950 -2.0543 1.5941
5.9594 -1.8400 1.5941
6.0160 -1.6237 1.5941
6.0647 -1.4056 1.5941
6.1054 -1.1861 1.5941
6.1381 -0.9655 1.5941
6.1628 -0.7441 1.5941
6.1794 -0.5221 1.5941
6.1880 -0.2998 1.5941
6.1886 -0.0776 1.5941
6.1812 0.1443 1.5941
6.1658 0.3655 1.5941
6.1425 0.5859 1.5941
6.1113 0.8050 1.5941
6.0723 1.0227 1.5941
6.0256 1.2387 1.5941
5.9712 1.4526 1.5941
5.6121 -0.8669 1.5941
5.6345 -0.6645 1.5941
5.6496 -0.4616 1.5941
5.6573 -0.2585 1.5941
5.6577 -0.0554 1.5941
5.6508 0.1474 1.5941
5.6366 0.3497 1.5941
5.6151 0.5512 1.5941
5.5865 0.7515 1.5941
5.5507 0.9506 1.5941
5.5078 1.1481 1.5941
5.4580 1.3437 1.5941
5.4012 1.5372 1.5941
5.3376 1.7285 1.5941
5.2672 1.9172 1.5941
5.1903 2.1030 1.5941
5.1068 2.2859 1.5941
5.0169 2.4655 1.5941
4.9208 2.6417 1.5941
4.8185 2.8142 1.5941
4.7103 2.9828 1.5941
4.5962 3.1473 1.5941
4.4765 3.3075 1.5941
4.3512 3.4633 1.5941
4.2206 3.6144 1.5941
4.0848 3.7607 1.5941
3.9441 3.9019 1.5941
3.7985 4.0380 1.5941
3.6483 4.1688 1.5941
3.4937 4.2942 1.5941
3.3349 4.4138 1.5941
3.1721 4.5278 1.5941
3.0054 4.6359 1.5941
2.8351 4.7379 1.5941
2.6615 4.8339 1.5941
2.4846 4.9236 1.5941
0.8838 1.9200 0.6113
0.8142 1.9504 0.6116
0.7436 1.9784 0.6118
0.6719 2.0037 0.6121
0.5995 2.0265 0.6123
0.5262 2.0467 0.6125
0.4523 2.0643 0.6128
0.3778 2.0792 0.6130
0.3028 2.0914 0.6132
0.2275 2.1010 0.6133
0.1518 2.1079 0.6135
0.0759 2.1120 0.6136
-0.0000 2.1135 0.6138
-0.0760 2.1123 0.6139
-0.1519 2.1083 0.6140
-0.2276 2.1016 0.6141
-0.3031 2.0923 0.6142
-0.3781 2.0802 0.6142
-0.4527 2.0655 0.6143
-0.5267 2.0481 0.6143
-0.6001 2.0281 0.6144
-0.6727 2.0055 0.6144
-0.7445 1.9803 0.6143
-0.8153 1.9525 0.6143
-0.8851 1.9222 0.6143
-2.6356 5.2212 1.6973
-2.8223 5.1246 1.6973
-3.0057 5.0214 1.6973
-3.1853 4.9118 1.6973
-3.3611 4.7959 1.6973
-3.5327 4.6739 1.6973
-3.7000 4.5459 1.6973
-3.8628 4.4120 1.6973
-4.0208 4.2724 1.6973
-4.1739 4.1273 1.6973
-4.3219 3.9768 1.6973
-4.4646 3.8212 1.6973
-4.6018 3.6605 1.6973
-4.7333 3.4949 1.6973
-4.8590 3.3248 1.6973
-4.9786 3.1502 1.6973
-5.0921 2.9714 1.6973
-5.1993 2.7885 1.6973
-5.3001 2.6019 1.6973
-5.3942 2.4116 1.6973
-5.4816 2.2181 1.6973
-5.5621 2.0214 1.6973
-5.6357 1.8218 1.6973
-5.7022 1.6196 1.6973
-5.7616 1.4150 1.6973
-5.8137 1.2082 1.6973
-5.8431 0.9970 1.6929
-5.8391 0.7818 1.6810
-5.8352 0.5689 1.6714
-5.8313 0.3578 1.6641
-5.8274 0.1479 1.6588
-5.8235 -0.0613 1.6558
-5.8196 -0.2703 1.6548
-5.8158 -0.4798 1.6560
-5.8119 -0.6902 1.6593
-5.8079 -0.9021 1.6648
-5.8040 -1.1161 1.6725
-5.8000 -1.3328 1.6825
-5.7959 -1.5527 1.6948
-5.7504 -1.7639 1.6973
-5.6888 -1.9708 1.6973
-5.6196 -2.1756 1.6973
-5.5431 -2.3780 1.6973
-5.4593 -2.5776 1.6973
-5.3682 -2.7742 1.6973
-5.2700 -2.9676 1.6973
-5.1648 -3.1574 1.6973
-5.0527 -3.3435 1.6973
-4.9338 -3.5255 1.6973
-4.8084 -3.7033 1.6973
-4.6764 -3.8765 1.6973
-4.5382 -4.0449 1.6973
-4.3938 -4.2083 1.6973
-4.2435 -4.3665 1.6973
-4.0874 -4.5192 1.6973
-3.9257 -4.6662 1.6973
-3.7587 -4.8074 1.6973
-3.5865 -4.9424 1.6973
-3.4094 -5.0712 1.6973
-3.2276 -5.1934 1.6973
-3.0414 -5.3091 1.6973
-2.8510 -5.4179 1.6973
-2.6566 -5.5197 1.6973
-2.4585 -5.6144 1.6973
-2.2569 -5.7018 1.6973
-2.0522 -5.7818 1.6973
-1.8447 -5.8543 1.6973
-1.6345 -5.9191 1.6973
-1.4220 -5.9762 1.6973
-1.2075 -6.0255 1.6973
-0.9913 -6.0669 1.6973
-0.7736 -6.1003 1.6973
-0.5548 -6.1258 1.6973
-0.3351 -6.1432 1.6973
-0.1149 -6.1525 1.6973
0.1055 -6.1537 1.6973
0.3259 -6.1468 1.6973
0.5458 -6.1318 1.6973
0.7651 -6.1087 1.6973
0.9834 -6.0775 1.6973
1.2004 -6.0384 1.6973
1.4158 -5.9913 1.6973
1.6294 -5.9363 1.6973
1.8407 -5.8735 1.6973
2.0496 -5.8030 1.6973
2.2557 -5.7249 1.6973
2.3306 -5.3453 1.6088
2.4968 -5.2089 1.5941
2.6810 -5.1147 1.5941
2.8616 -5.0139 1.5941
3.0383 -4.9065 1.5941
3.2109 -4.7928 1.5941
3.3791 -4.6728 1.5941
3.5428 -4.5468 1.5941
3.7016 -4.4149 1.5941
3.8555 -4.2774 1.5941
4.0042 -4.1344 1.5941
4.1474 -3.9861 1.5941
4.2851 -3.8327 1.5941
4.4169 -3.6745 1.5941
4.5429 -3.5117 1.5941
4.6627 -3.3445 1.5941
4.7763 -3.1731 1.5941
4.8835 -2.9978 1.5941
4.9842 -2.8189 1.5941
5.0782 -2.6365 1.5941
5.1655 -2.4509 1.5941
5.2459 -2.2624 1.5941
5.3193 -2.0713 1.5941
5.3857 -1.8777 1.5941
5.4450 -1.6820 1.5941
5.4971 -1.4845 1.5941
5.5420 -1.2854 1.5941
5.5796 -1.0849 1.5941
5.6100 -0.8834 1.5941
5.6329 -0.6810 1.5941
5.6486 -0.4781 1.5941
5.6569 -0.2750 1.5941
5.6579 -0.0719 1.5941
5.6516 0.1310 1.5941
5.6380 0.3333 1.5941
5.6171 0.5348 1.5941
5.5891 0.7353 1.5941
5.5539 0.9345 1.5941
5.5116 1.1321 1.5941
5.4623 1.3279 1.5941
5.1623 -0.7983 1.5941
5.1832 -0.6122 1.5941
5.1974 -0.4256 1.5941
5.2049 -0.2387 1.5941
5.2056 -0.0518 1.5941
5.1996 0.1348 1.5941
5.1869 0.3209 1.5941
5.1675 0.5064 1.5941
5.1415 0.6908 1.5941
5.1090 0.8740 1.5941
5.0699 1.0559 1.5941
5.0243 1.2360 1.5941
4.9724 1.4143 1.5941
4.9142 1.5905 1.5941
4.8497 1.7643 1.5941
4.7792 1.9356 1.5941
4.7026 2.1041 1.5941
4.6202 2.2696 1.5941
4.5319 2.4320 1.5941
4.4380 2.5910 1.5941
4.3386 2.7465 1.5941
4.2338 2.8982 1.5941
4.1238 3.0460 1.5941
4.0086 3.1896 1.5941
3.8885 3.3290 1.5941
3.7637 3.4640 1.5941
3.6342 3.5944 1.5941
3.5003 3.7200 1.5941
3.3621 3.8407 1.5941
3.2198 3.9564 1.5941
3.0735 4.0669 1.5941
2.9236 4.1721 1.5941
2.7701 4.2719 1.5941
2.6133 4.3662 1.5941
2.4534 4.4548 1.5941
0.8770 1.7374 0.6103
0.8139 1.7677 0.6106
0.7498 1.7957 0.6109
0.6847 1.8214 0.6111
0.6188 1.8447 0.6113
0.5521 1.8657 0.6116
0.4846 1.8843 0.6118
0.4166 1.9005 0.6120
0.3480 1.9142 0.6122
0.2789 1.9255 0.6123
0.2095 1.9343 0.6125
0.1398 1.9406 0.6126
0.0700 1.9444 0.6128
0.0000 1.9458 0.6129
-0.0699 1.9446 0.6130
-0.1398 1.9410 0.6131
-0.2095 1.9348 0.6132
-0.2790 1.9262 0.6133
-0.3481 1.9151 0.6133
-0.4168 1.9015 0.6134
-0.4849 1.8855 0.6134
-0.5525 1.8670 0.6134
-0.6193 1.8462 0.6134
-0.6854 1.8229 0.6134
-0.7506 1.7974 0.6134
-0.8148 1.7695 0.6134
-0.8781 1.7393 0.6133
-2.6021 4.7242 1.6973
-2.7711 4.6289 1.6973
-2.9367 4.5278 1.6973
-3.0986 4.4208 1.6973
-3.2568 4.3082 1.6973
-3.4109 4.1900 1.6973
-3.5609 4.0665 1.6973
-3.7065 3.9377 1.6973
-3.8475 3.8038 1.6973
-3.9837 3.6649 1.6973
-4.1151 3.5212 1.6973
-4.2413 3.3730 1.6973
-4.3623 3.2202 1.6973
-4.4780 3.0633 1.6973
-4.5880 2.9022 1.6973
-4.6924 2.7373 1.6973
-4.7909 2.5687 1.6973
-4.8835 2.3965 1.6973
-4.9699 2.2211 1.6973
-5.0502 2.0427 1.6973
-5.1241 1.8613 1.6973
-5.1916 1.6774 1.6973
-5.2525 1.4910 1.6973
-5.3069 1.3024 1.6973
-5.3545 1.1119 1.6973
-5.3954 0.9197 1.6973
-5.4294 0.7260 1.6973
-5.4565 0.5311 1.6973
-5.4767 0.3351 1.6973
-5.4899 0.1384 1.6973
-5.4960 -0.0587 1.6973
-5.4951 -0.2562 1.6973
-5.4872 -0.4536 1.6973
-5.4721 -0.6508 1.6973
-5.4500 -0.8475 1.6973
-5.4208 -1.0434 1.6973
-5.3846 -1.2383 1.6973
-5.3414 -1.4319 1.6973
-5.2912 -1.6240 1.6973
-5.2342 -1.8143 1.6973
-5.1702 -2.0026 1.6973
-5.0994 -2.1886 1.6973
-5.0220 -2.3721 1.6973
-4.9378 -2.5528 1.6973
-4.8472 -2.7305 1.6973
-4.7501 -2.9049 1.6973
-4.6467 -3.0759 1.6973
-4.5371 -3.2431 1.6973
-4.4214 -3.4063 1.6973
-4.2998 -3.5654 1.6973
-4.1725 -3.7200 1.6973
-4.0395 -3.8700 1.6973
-3.9010 -4.0152 1.6973
-3.7573 -4.1554 1.6973
-3.6085 -4.2903 1.6973
-3.4548 -4.4198 1.6973
-3.2963 -4.5437 1.6973
-3.1334 -4.6618 1.6973
-2.9662 -4.7740 1.6973
-2.7949 -4.8800 1.6973
-2.6198 -4.9798 1.6973
-2.4410 -5.0731 1.6973
-2.2589 -5.1599 1.6973
-2.0736 -5.2400 1.6973
-1.8855 -5.3133 1.6973
-1.6947 -5.3797 1.6973
-1.5016 -5.4391 1.6973
-1.3063 -5.4915 1.6973
-1.1092 -5.5366 1.6973
-0.9105 -5.5745 1.6973
-0.7105 -5.6051 1.6973
-0.5095 -5.6283 1.6973
-0.3077 -5.6442 1.6973
-0.1054 -5.6526 1.6973
0.0971 -5.6537 1.6973
0.2995 -5.6473 1.6973
0.5016 -5.6334 1.6973
0.7030 -5.6122 1.6973
0.9035 -5.5836 1.6973
1.1028 -5.5477 1.6973
1.3007 -5.5044 1.6973
1.4969 -5.4539 1.6973
1.6910 -5.3963 1.6973
1.8829 -5.3316 1.6973
2.0723 -5.2599 1.6973
2.2588 -5.1813 1.6973
2.3203 -4.8413 1.6125
2.4631 -4.6996 1.5941
2.6290 -4.6071 1.5941
2.7914 -4.5085 1.5941
2.9501 -4.4042 1.5941
3.1047 -4.2941 1.5941
3.2552 -4.1784 1.5941
3.4013 -4.0574 1.5941
3.5428 -3.9312 1.5941
3.6796 -3.7999 1.5941
3.8113 -3.6638 1.5941
3.9380 -3.5230 1.5941
4.0594 -3.3778 1.5941
4.1753 -3.2283 1.5941
4.2857 -3.0748 1.5941
4.3903 -2.9175 1.5941
4.4891 -2.7565 1.5941
4.5819 -2.5921 1.5941
4.6686 -2.4246 1.5941
4.7491 -2.2541 1.5941
4.8233 -2.0809 1.5941
4.8911 -1.9053 1.5941
4.9524 -1.7275 1.5941
5.0073 -1.5476 1.5941
5.0555 -1.3661 1.5941
5.0971 -1.1830 1.5941
5.1320 -0.9987 1.5941
5.1603 -0.8134 1.5941
5.1818 -0.6273 1.5941
5.1965 -0.4407 1.5941
5.2045 -0.2539 1.5941
5.2058 -0.0670 1.5941
5.2003 0.1197 1.5941
5.1882 0.3058 1.5941
5.1693 0.4913 1.5941
5.1439 0.6759 1.5941
5.1118 0.8592 1.5941
5.0733 1.0412 1.5941
5.0282 1.2215 1.5941
4.7743 -0.7391 1.5941
4.7939 -0.5670 1.5941
4.8073 -0.3944 1.5941
4.8145 -0.2216 1.5941
4.8155 -0.0487 1.5941
4.8102 0.1239 1.5941
4.7988 0.2961 1.5941
4.7811 0.4677 1.5941
4.7573 0.6384 1.5941
4.7275 0.8080 1.5941
4.6916 0.9762 1.5941
4.6497 1.1430 1.5941
4.6019 1.3081 1.5941
4.5483 1.4712 1.5941
4.4889 1.6322 1.5941
4.4239 1.7908 1.5941
4.3533 1.9469 1.5941
4.2772 2.1003 1.5941
4.1958 2.2507 1.5941
4.1091 2.3981 1.5941
4.0172 2.5421 1.5941
3.9204 2.6828 1.5941
3.8187 2.8197 1.5941
3.7123 2.9529 1.5941
3.6013 3.0822 1.5941
3.4858 3.2073 1.5941
3.3661 3.3282 1.5941
3.2422 3.4447 1.5941
3.1143 3.5567 1.5941
2.9826 3.6640 1.5941
2.8473 3.7666 1.5941
2.7085 3.8642 1.5941
2.5665 3.9568 1.5941
2.4213 4.0443 1.5941
0.8692 1.5779 0.6095
0.8118 1.6080 0.6098
0.7535 1.6360 0.6100
0.6941 1.6619 0.6103
0.6339 1.6857 0.6105
0.5729 1.7073 0.6107
0.5111 1.7267 0.6109
0.4487 1.7439 0.6111
0.3857 1.7589 0.6113
0.3222 1.7716 0.6115
0.2582 1.7821 0.6116
0.1940 1.7902 0.6118
0.1295 1.7961 0.6119
0.0648 1.7996 0.6120
0.0001 1.8008 0.6122
-0.0647 1.7998 0.6123
-0.1294 1.7964 0.6124
-0.1939 1.7906 0.6124
-0.2582 1.7826 0.6125
-0.3222 1.7724 0.6126
-0.3857 1.7598 0.6126
-0.4488 1.7449 0.6126
-0.5113 1.7278 0.6126
-0.5732 1.7085 0.6126
-0.6343 1.6870 0.6126
-0.6947 1.6633 0.6126
-0.7541 1.6375 0.6126
-0.8127 1.6095 0.6125
-0.8701 1.5795 0.6125
-2.5679 4.2889 1.6973
-2.7213 4.1950 1.6973
-2.8713 4.0958 1.6973
-3.0178 3.9914 1.6973
-3.1605 3.8818 1.6973
-3.2994 3.7672 1.6973
-3.4342 3.6477 1.6973
-3.5647 3.5235 1.6973
-3.6908 3.3947 1.6973
-3.8124 3.2615 1.6973
-3.9292 3.1240 1.6973
-4.0412 2.9824 1.6973
-4.1481 2.8369 1.6973
-4.2499 2.6876 1.6973
-4.3464 2.5347 1.6973
-4.4374 2.3784 1.6973
-4.5230 2.2188 1.6973
-4.6028 2.0563 1.6973
-4.6769 1.8909 1.6973
-4.7451 1.7229 1.6973
-4.8074 1.5525 1.6973
-4.8636 1.3798 1.6973
-4.9137 1.2051 1.6973
-4.9575 1.0287 1.6973
-4.9951 0.8506 1.6973
-5.0263 0.6713 1.6973
-5.0511 0.4908 1.6973
-5.0695 0.3094 1.6973
-5.0814 0.1273 1.6973
-5.0868 -0.0552 1.6973
-5.0856 -0.2379 1.6973
-5.0780 -0.4206 1.6973
-5.0638 -0.6031 1.6973
-5.0430 -0.7851 1.6973
-5.0157 -0.9663 1.6973
-4.9819 -1.1466 1.6973
-4.9416 -1.3256 1.6973
-4.8949 -1.5032 1.6973
-4.8418 -1.6792 1.6973
-4.7823 -1.8533 1.6973
-4.7166 -2.0252 1.6973
-4.6447 -2.1948 1.6973
-4.5666 -2.3618 1.6973
-4.4825 -2.5260 1.6973
-4.3925 -2.6872 1.6973
-4.2966 -2.8451 1.6973
-4.1950 -2.9995 1.6973
-4.0879 -3.1503 1.6973
-3.9752 -3.2972 1.6973
-3.8573 -3.4400 1.6973
-3.7341 -3.5785 1.6973
-3.6060 -3.7125 1.6973
-3.4729 -3.8419 1.6973
-3.3352 -3.9665 1.6973
-3.1930 -4.0860 1.6973
-3.0464 -4.2003 1.6973
-2.8957 -4.3092 1.6973
-2.7410 -4.4127 1.6973
-2.5827 -4.5105 1.6973
-2.4207 -4.6025 1.6973
-2.2554 -4.6886 1.6973
-2.0871 -4.7686 1.6973
-1.9158 -4.8425 1.6973
-1.7419 -4.9101 1.6973
-1.5656 -4.9713 1.6973
-1.3871 -5.0260 1.6973
-1.2067 -5.0742 1.6973
-1.0246 -5.1158 1.6973
-0.8410 -5.1507 1.6973
-0.6562 -5.1789 1.6973
-0.4705 -5.2003 1.6973
-0.2841 -5.2149 1.6973
-0.0972 -5.2226 1.6973
0.0898 -5.2235 1.6973
0.2768 -5.2175 1.6973
0.4635 -5.2047 1.6973
0.6495 -5.1851 1.6973
0.8348 -5.1587 1.6973
1.0189 -5.1254 1.6973
1.2017 -5.0855 1.6973
1.3829 -5.0389 1.6973
1.5622 -4.9857 1.6973
1.7395 -4.9260 1.6973
1.9145 -4.8598 1.6973
2.0868 -4.7873 1.6973
2.2564 -4.7085 1.6973
2.3107 -4.4095 1.6187
2.4289 -4.2569 1.5941
2.5790 -4.1660 1.5941
2.7256 -4.0697 1.5941
2.8686 -3.9681 1.5941
3.0077 -3.8614 1.5941
3.1428 -3.7497 1.5941
3.2736 -3.6332 1.5941
3.4001 -3.5120 1.5941
3.5220 -3.3863 1.5941
3.6392 -3.2564 1.5941
3.7515 -3.1223 1.5941
3.8588 -2.9843 1.5941
3.9610 -2.8425 1.5941
4.0578 -2.6972 1.5941
4.1493 -2.5485 1.5941
4.2353 -2.3967 1.5941
4.3156 -2.2420 1.5941
4.3902 -2.0845 1.5941
4.4590 -1.9246 1.5941
4.5220 -1.7623 1.5941
4.5789 -1.5980 1.5941
4.6299 -1.4318 1.5941
4.6747 -1.2640 1.5941
4.7135 -1.0948 1.5941
4.7460 -0.9244 1.5941
4.7724 -0.7530 1.5941
4.7926 -0.5810 1.5941
4.8065 -0.4084 1.5941
4.8142 -0.2356 1.5941
4.8156 -0.0628 1.5941
4.8109 0.1099 1.5941
4.7999 0.2821 1.5941
4.7828 0.4538 1.5941
4.7595 0.6245 1.5941
4.7301 0.7942 1.5941
4.6947 0.9626 1.5941
4.6533 1.1296 1.5941
4.4359 -0.6874 1.5941
4.4544 -0.5276 1.5941
4.4670 -0.3672 1.5941
4.4740 -0.2067 1.5941
4.4751 -0.0461 1.5941
4.4704 0.1144 1.5941
4.4600 0.2744 1.5941
4.4438 0.4339 1.5941
4.4220 0.5926 1.5941
4.3944 0.7503 1.5941
4.3613 0.9067 1.5941
4.3226 1.0618 1.5941
4.2784 1.2153 1.5941
4.2288 1.3671 1.5941
4.1738 1.5168 1.5941
4.1135 1.6644 1.5941
4.0481 1.8096 1.5941
3.9775 1.9523 1.5941
3.9020 2.0923 1.5941
3.8215 2.2294 1.5941
3.7363 2.3635 1.5941
3.6465 2.4944 1.5941
3.5520 2.6220 1.5941
3.4532 2.7460 1.5941
3.3501 2.8663 1.5941
3.2428 2.9829 1.5941
3.1315 3.0955 1.5941
3.0164 3.2040 1.5941
2.8976 3.3083 1.5941
2.7752 3.4083 1.5941
2.6494 3.5038 1.5941
2.5203 3.5948 1.5941
2.3882 3.6811 1.5941
0.8605 1.4370 0.6088
0.8083 1.4669 0.6091
0.7549 1.4949 0.6093
0.7007 1.5209 0.6095
0.6455 1.5450 0.6097
0.5895 1.5671 0.6099
0.5327 1.5873 0.6101
0.4753 1.6053 0.6103
0.4172 1.6213 0.6105
0.3587 1.6352 0.6107
0.2996 1.6471 0.6108
0.2402 1.6568 0.6110
0.1804 1.6643 0.6111
0.1205 1.6698 0.6113
0.0603 1.6730 0.6114
0.0001 1.6742 0.6115
-0.0601 1.6732 0.6116
-0.1202 1.6700 0.6117
-0.1802 1.6647 0.6118
-0.2400 1.6572 0.6118
-0.2995 1.6477 0.6119
-0.3586 1.6360 0.6119
-0.4172 1.6221 0.6119
-0.4754 1.6062 0.6119
-0.5329 1.5883 0.6120
-0.5897 1.5683 0.6119
-0.6458 1.5462 0.6119
-0.7011 1.5222 0.6119
-0.7555 1.4962 0.6119
-0.8090 1.4683 0.6118
-0.8614 1.4385 0.6117
-2.5327 3.9038 1.6973
-2.6723 3.8113 1.6973
-2.8085 3.7140 1.6973
-2.9413 3.6120 1.6973
-3.0705 3.5052 1.6973
-3.1958 3.3939 1.6973
-3.3172 3.2782 1.6973
-3.4345 3.1583 1.6973
-3.5475 3.0342 1.6973
-3.6561 2.9062 1.6973
-3.7602 2.7744 1.6973
-3.8595 2.6388 1.6973
-3.9541 2.4998 1.6973
-4.0437 2.3575 1.6973
-4.1283 2.2119 1.6973
-4.2077 2.0634 1.6973
-4.2818 1.9121 1.6973
-4.3505 1.7582 1.6973
-4.4138 1.6018 1.6973
-4.4715 1.4432 1.6973
-4.5236 1.2826 1.6973
-4.5699 1.1201 1.6973
-4.6105 0.9559 1.6973
-4.6452 0.7903 1.6973
-4.6740 0.6234 1.6973
-4.6968 0.4556 1.6973
-4.7137 0.2869 1.6973
-4.7245 0.1175 1.6973
-4.7293 -0.0522 1.6973
-4.7280 -0.2220 1.6973
-4.7206 -0.3919 1.6973
-4.7071 -0.5614 1.6973
-4.6876 -0.7306 1.6973
-4.6620 -0.8990 1.6973
-4.6303 -1.0665 1.6973
-4.5927 -1.2328 1.6973
-4.5490 -1.3979 1.6973
-4.4994 -1.5613 1.6973
-4.4439 -1.7230 1.6973
-4.3826 -1.8827 1.6973
-4.3156 -2.0402 1.6973
-4.2428 -2.1952 1.6973
-4.1645 -2.3477 1.6973
-4.0806 -2.4973 1.6973
-3.9914 -2.6439 1.6973
-3.8968 -2.7872 1.6973
-3.7971 -2.9271 1.6973
-3.6923 -3.0634 1.6973
-3.5825 -3.1959 1.6973
-3.4680 -3.3244 1.6973
-3.3488 -3.4488 1.6973
-3.2251 -3.5688 1.6973
-3.0971 -3.6843 1.6973
-2.9649 -3.7951 1.6973
-2.8287 -3.9011 1.6973
-2.6886 -4.0021 1.6973
-2.5449 -4.0981 1.6973
-2.3978 -4.1887 1.6973
-2.2473 -4.2740 1.6973
-2.0938 -4.3538 1.6973
-1.9375 -4.4279 1.6973
-1.7784 -4.4964 1.6973
-1.6169 -4.5590 1.6973
-1.4532 -4.6157 1.6973
-1.2875 -4.6664 1.6973
-1.1200 -4.7111 1.6973
-0.9509 -4.7496 1.6973
-0.7805 -4.7819 1.6973
-0.6090 -4.8079 1.6973
-0.4366 -4.8277 1.6973
-0.2635 -4.8412 1.6973
-0.0901 -4.8483 1.6973
0.0835 -4.8491 1.6973
0.2571 -4.8435 1.6973
0.4303 -4.8316 1.6973
0.6030 -4.8134 1.6973
0.7749 -4.7888 1.6973
0.9458 -4.7580 1.6973
1.1155 -4.7210 1.6973
1.2837 -4.6777 1.6973
1.4502 -4.6284 1.6973
1.6147 -4.5730 1.6973
1.7771 -4.5116 1.6973
1.9371 -4.4443 1.6973
2.0945 -4.3713 1.6973
2.2492 -4.2925 1.6973
2.3016 -4.0344 1.6272
2.3941 -3.8679 1.5941
2.5303 -3.7785 1.5941
2.6630 -3.6843 1.5941
2.7922 -3.5853 1.5941
2.9177 -3.4817 1.5941
3.0393 -3.3737 1.5941
3.1567 -3.2613 1.5941
3.2700 -3.1447 1.5941
3.3789 -3.0242 1.5941
3.4833 -2.8998 1.5941
3.5831 -2.7717 1.5941
3.6781 -2.6402 1.5941
3.7682 -2.5054 1.5941
3.8533 -2.3674 1.5941
3.9332 -2.2265 1.5941
4.0080 -2.0829 1.5941
4.0775 -1.9367 1.5941
4.1416 -1.7882 1.5941
4.2002 -1.6376 1.5941
4.2533 -1.4851 1.5941
4.3008 -1.3307 1.5941
4.3427 -1.1749 1.5941
4.3789 -1.0178 1.5941
4.4094 -0.8595 1.5941
4.4341 -0.7004 1.5941
4.4531 -0.5406 1.5941
4.4662 -0.3803 1.5941
4.4736 -0.2197 1.5941
4.4752 -0.0591 1.5941
4.4710 0.1014 1.5941
4.4610 0.2615 1.5941
4.4453 0.4210 1.5941
4.4239 0.5797 1.5941
4.3969 0.7375 1.5941
4.3642 0.8941 1.5941
4.3260 1.0493 1.5941
4.1378 -0.6419 1.5941
4.1553 -0.4928 1.5941
4.1673 -0.3433 1.5941
4.1739 -0.1935 1.5941
4.1751 -0.0437 1.5941
4.1710 0.1060 1.5941
4.1615 0.2553 1.5941
4.1466 0.4041 1.5941
4.1264 0.5522 1.5941
4.1009 0.6994 1.5941
4.0701 0.8455 1.5941
4.0342 0.9902 1.5941
3.9931 1.1335 1.5941
3.9470 1.2752 1.5941
3.8959 1.4150 1.5941
3.8398 1.5528 1.5941
3.7788 1.6885 1.5941
3.7132 1.8218 1.5941
3.6428 1.9525 1.5941
3.5679 2.0807 1.5941
3.4885 2.2059 1.5941
3.4047 2.3282 1.5941
3.3167 2.4474 1.5941
3.2245 2.5633 1.5941
3.1283 2.6758 1.5941
3.0283 2.7847 1.5941
2.9245 2.8900 1.5941
2.8171 2.9914 1.5941
2.7062 3.0889 1.5941
2.5920 3.1824 1.5941
2.4746 3.2718 1.5941
0.8978 1.2802 0.6079
0.8511 1.3115 0.6082
0.8033 1.3411 0.6084
0.7545 1.3690 0.6086
0.7047 1.3951 0.6089
0.6541 1.4194 0.6091
0.6026 1.4419 0.6093
0.5503 1.4626 0.6095
0.4973 1.4814 0.6097
0.4437 1.4982 0.6098
0.3895 1.5131 0.6100
0.3348 1.5261 0.6102
0.2797 1.5372 0.6103
0.2242 1.5462 0.6105
0.1685 1.5533 0.6106
0.1125 1.5584 0.6107
0.0564 1.5614 0.6108
0.0002 1.5625 0.6109
-0.0561 1.5615 0.6110
-0.1122 1.5586 0.6111
-0.1682 1.5536 0.6112
-0.2240 1.5466 0.6112
-0.2795 1.5377 0.6113
-0.3347 1.5267 0.6113
-0.3894 1.5139 0.6113
-0.4437 1.4990 0.6113
-0.4973 1.4822 0.6113
-0.5504 1.4635 0.6113
-0.6028 1.4429 0.6113
-0.6544 1.4205 0.6113
-0.7051 1.3962 0.6112
-0.7550 1.3702 0.6112
-0.8039 1.3423 0.6111
-0.8518 1.3127 0.6111
-0.8986 1.2814 0.6110
-2.6237 3.4690 1.6973
-2.7477 3.3735 1.6973
-2.8683 3.2737 1.6973
-2.9853 3.1697 1.6973
-3.0986 3.0616 1.6973
-3.2081 2.9494 1.6973
-3.3135 2.8335 1.6973
-3.4149 2.7138 1.6973
-3.5120 2.5906 1.6973
-3.6047 2.4639 1.6973
-3.6928 2.3340 1.6973
-3.7764 2.2009 1.6973
-3.8553 2.0650 1.6973
-3.9293 1.9262 1.6973
-3.9983 1.7849 1.6973
-4.0624 1.6410 1.6973
-4.1213 1.4950 1.6973
-4.1750 1.3468 1.6973
-4.2235 1.1967 1.6973
-4.2666 1.0450 1.6973
-4.3042 0.8917 1.6973
-4.3365 0.7370 1.6973
-4.3632 0.5812 1.6973
-4.3843 0.4245 1.6973
-4.3998 0.2670 1.6973
-4.4098 0.1090 1.6973
-4.4140 -0.0495 1.6973
-4.4126 -0.2080 1.6973
-4.4055 -0.3665 1.6973
-4.3928 -0.5247 1.6973
-4.3743 -0.6825 1.6973
-4.3502 -0.8396 1.6973
-4.3205 -0.9959 1.6973
-4.2851 -1.1511 1.6973
-4.2442 -1.3050 1.6973
-4.1977 -1.4574 1.6973
-4.1458 -1.6082 1.6973
-4.0884 -1.7571 1.6973
-4.0256 -1.9040 1.6973
-3.9576 -2.0485 1.6973
-3.8844 -2.1906 1.6973
-3.8060 -2.3301 1.6973
-3.7226 -2.4667 1.6973
-3.6342 -2.6002 1.6973
-3.5411 -2.7306 1.6973
-3.4432 -2.8576 1.6973
-3.3407 -2.9811 1.6973
-3.2338 -3.1008 1.6973
-3.1225 -3.2166 1.6973
-3.0071 -3.3284 1.6973
-2.8876 -3.4360 1.6973
-2.7642 -3.5392 1.6973
-2.6371 -3.6379 1.6973
-2.5065 -3.7319 1.6973
-2.3724 -3.8213 1.6973
-2.2352 -3.9056 1.6973
-2.0949 -3.9850 1.6973
-1.9517 -4.0593 1.6973
-1.8059 -4.1283 1.6973
-1.6576 -4.1920 1.6973
-1.5070 -4.2503 1.6973
-1.3544 -4.3030 1.6973
-1.1999 -4.3502 1.6973
-1.0437 -4.3917 1.6973
-0.8861 -4.4275 1.6973
-0.7273 -4.4576 1.6973
-0.5674 -4.4818 1.6973
-0.4067 -4.5002 1.6973
-0.2455 -4.5127 1.6973
-0.0838 -4.5193 1.6973
0.0780 -4.5200 1.6973
0.2397 -4.5147 1.6973
0.4012 -4.5036 1.6973
0.5621 -4.4866 1.6973
0.7223 -4.4637 1.6973
0.8816 -4.4350 1.6973
1.0397 -4.4005 1.6973
1.1965 -4.3602 1.6973
1.3516 -4.3142 1.6973
1.5050 -4.2626 1.6973
1.6563 -4.2055 1.6973
1.8055 -4.1428 1.6973
1.9522 -4.0748 1.6973
2.0964 -4.0015 1.6973
2.2377 -3.9229 1.6973
2.2928 -3.7047 1.6378
2.3585 -3.5225 1.5941
2.4976 -3.4560 1.6039
2.6028 -3.3426 1.5941
2.7198 -3.2461 1.5941
2.8331 -3.1455 1.5941
2.9427 -3.0408 1.5941
3.0484 -2.9322 1.5941
3.1500 -2.8199 1.5941
3.2474 -2.7040 1.5941
3.3405 -2.5847 1.5941
3.4292 -2.4622 1.5941
3.5133 -2.3366 1.5941
3.5928 -2.2080 1.5941
3.6675 -2.0767 1.5941
3.7374 -1.9429 1.5941
3.8023 -1.8067 1.5941
3.8622 -1.6683 1.5941
3.9170 -1.5279 1.5941
3.9667 -1.3856 1.5941
4.0112 -1.2418 1.5941
4.0504 -1.0965 1.5941
4.0843 -0.9500 1.5941
4.1129 -0.8025 1.5941
4.1362 -0.6540 1.5941
4.1540 -0.5050 1.5941
4.1665 -0.3555 1.5941
4.1736 -0.2057 1.5941
4.1753 -0.0559 1.5941
4.1715 0.0938 1.5941
4.1624 0.2432 1.5941
4.1480 0.3921 1.5941
4.1282 0.5402 1.5941
4.1031 0.6875 1.5941
4.0728 0.8336 1.5941
4.0373 0.9785 1.5941
3.8731 -0.6015 1.5941
3.8896 -0.4620 1.5941
3.9010 -0.3221 1.5941
3.9073 -0.1819 1.5941
3.9086 -0.0416 1.5941
3.9049 0.0985 1.5941
3.8961 0.2384 1.5941
3.8824 0.3777 1.5941
3.8636 0.5164 1.5941
3.8399 0.6542 1.5941
3.8113 0.7910 1.5941
3.7778 0.9266 1.5941
3.7395 1.0608 1.5941
3.6964 1.1935 1.5941
3.6487 1.3245 1.5941
3.5963 1.4536 1.5941
3.5394 1.5807 1.5941
3.4780 1.7056 1.5941
3.4122 1.8282 1.5941
3.3421 1.9483 1.5941
3.2679 2.0657 1.5941
3.1895 2.1803 1.5941
3.1072 2.2921 1.5941
3.0210 2.4007 1.5941
2.9310 2.5062 1.5941
2.8374 2.6083 1.5941
2.7402 2.7070 1.5941
2.6396 2.8022 1.5941
2.5358 2.8937 1.5941
2.4289 2.9813 1.5941
0.8835 1.1679 0.6074
0.8409 1.1987 0.6076
0.7972 1.2281 0.6078
0.7524 1.2558 0.6080
0.7067 1.2819 0.6083
0.6601 1.3064 0.6085
0.6126 1.3292 0.6087
0.5644 1.3502 0.6089
0.5154 1.3696 0.6090
0.4658 1.3872 0.6092
0.4156 1.4029 0.6094
0.3649 1.4170 0.6095
0.3136 1.4291 0.6097
0.2620 1.4394 0.6098
0.2101 1.4479 0.6100
0.1578 1.4545 0.6101
0.1054 1.4593 0.6102
0.0528 1.4621 0.6103
0.0002 1.4631 0.6104
-0.0524 1.4622 0.6105
-0.1050 1.4595 0.6106
-0.1575 1.4548 0.6106
-0.2097 1.4483 0.6107
-0.2617 1.4399 0.6107
-0.3134 1.4296 0.6108
-0.3647 1.4175 0.6108
-0.4155 1.4036 0.6108
-0.4657 1.3879 0.6108
-0.5154 1.3704 0.6108
-0.5645 1.3511 0.6108
-0.6128 1.3301 0.6107
-0.6603 1.3073 0.6107
-0.7070 1.2829 0.6107
-0.7528 1.2568 0.6106
-0.7977 1.2291 0.6105
-0.8415 1.1998 0.6105
-0.8843 1.1689 0.6104
-2.5751 3.1611 1.6973
-2.6881 3.0675 1.6973
-2.7977 2.9700 1.6973
-2.9039 2.8686 1.6973
-3.0064 2.7634 1.6973
-3.1051 2.6547 1.6973
-3.2000 2.5425 1.6973
-3.2909 2.4269 1.6973
-3.3777 2.3081 1.6973
-3.4602 2.1863 1.6973
-3.5384 2.0616 1.6973
-3.6122 1.9341 1.6973
-3.6814 1.8041 1.6973
-3.7460 1.6716 1.6973
-3.8059 1.5368 1.6973
-3.8610 1.3999 1.6973
-3.9112 1.2610 1.6973
-3.9564 1.1204 1.6973
-3.9966 0.9782 1.6973
-4.0318 0.8345 1.6973
-4.0618 0.6896 1.6973
-4.0867 0.5437 1.6973
-4.1063 0.3969 1.6973
-4.1207 0.2493 1.6973
-4.1298 0.1013 1.6973
-4.1336 -0.0470 1.6973
-4.1321 -0.1955 1.6973
-4.1253 -0.3439 1.6973
-4.1132 -0.4921 1.6973
-4.0958 -0.6398 1.6973
-4.0731 -0.7869 1.6973
-4.0451 -0.9332 1.6973
-4.0118 -1.0784 1.6973
-3.9733 -1.2225 1.6973
-3.9296 -1.3652 1.6973
-3.8808 -1.5062 1.6973
-3.8270 -1.6456 1.6973
-3.7681 -1.7829 1.6973
-3.7043 -1.9182 1.6973
-3.6356 -2.0511 1.6973
-3.5621 -2.1815 1.6973
-3.4838 -2.3093 1.6973
-3.4010 -2.4342 1.6973
-3.3137 -2.5562 1.6973
-3.2220 -2.6749 1.6973
-3.1260 -2.7903 1.6973
-3.0258 -2.9023 1.6973
-2.9216 -3.0105 1.6973
-2.8135 -3.1150 1.6973
-2.7016 -3.2156 1.6973
-2.5861 -3.3120 1.6973
-2.4671 -3.4043 1.6973
-2.3448 -3.4922 1.6973
-2.2193 -3.5756 1.6973
-2.0909 -3.6545 1.6973
-1.9596 -3.7287 1.6973
-1.8256 -3.7980 1.6973
-1.6892 -3.8625 1.6973
-1.5504 -3.9220 1.6973
-1.4095 -3.9764 1.6973
-1.2667 -4.0257 1.6973
-1.1222 -4.0697 1.6973
-0.9761 -4.1085 1.6973
-0.8287 -4.1419 1.6973
-0.6801 -4.1700 1.6973
-0.5306 -4.1926 1.6973
-0.3803 -4.2097 1.6973
-0.2294 -4.2213 1.6973
-0.0782 -4.2275 1.6973
0.0731 -4.2281 1.6973
0.2243 -4.2232 1.6973
0.3753 -4.2128 1.6973
0.5258 -4.1968 1.6973
0.6757 -4.1754 1.6973
0.8246 -4.1486 1.6973
0.9725 -4.1163 1.6973
1.1191 -4.0786 1.6973
1.2642 -4.0357 1.6973
1.4077 -3.9874 1.6973
1.5493 -3.9340 1.6973
1.6888 -3.8754 1.6973
1.8260 -3.8119 1.6973
1.9609 -3.7433 1.6973
2.0931 -3.6699 1.6973
2.2225 -3.5917 1.6973
2.2858 -3.4146 1.6517
2.3219 -3.2135 1.5941
2.4347 -3.1273 1.5941
2.5442 -3.0371 1.5941
2.6503 -2.9430 1.5941
2.7529 -2.8451 1.5941
2.8518 -2.7437 1.5941
2.9469 -2.6387 1.5941
3.0381 -2.5303 1.5941
3.1253 -2.4188 1.5941
3.2084 -2.3042 1.5941
3.2871 -2.1868 1.5941
3.3616 -2.0665 1.5941
3.4316 -1.9438 1.5941
3.4971 -1.8186 1.5941
3.5580 -1.6912 1.5941
3.6141 -1.5618 1.5941
3.6656 -1.4304 1.5941
3.7122 -1.2974 1.5941
3.7540 -1.1628 1.5941
3.7908 -1.0269 1.5941
3.8227 -0.8898 1.5941
3.8496 -0.7518 1.5941
3.8715 -0.6129 1.5941
3.8884 -0.4734 1.5941
3.9002 -0.3334 1.5941
3.9070 -0.1932 1.5941
3.9087 -0.0530 1.5941
3.9054 0.0872 1.5941
3.8970 0.2270 1.5941
3.8837 0.3664 1.5941
3.8653 0.5051 1.5941
3.8420 0.6430 1.5941
3.8138 0.7799 1.5941
3.7807 0.9156 1.5941
3.6361 -0.5654 1.5941
3.6517 -0.4344 1.5941
3.6626 -0.3030 1.5941
3.6687 -0.1714 1.5941
3.6700 -0.0397 1.5941
3.6667 0.0919 1.5941
3.6586 0.2232 1.5941
3.6458 0.3540 1.5941
3.6283 0.4842 1.5941
3.6061 0.6137 1.5941
3.5794 0.7422 1.5941
3.5481 0.8696 1.5941
3.5122 0.9957 1.5941
3.4719 1.1203 1.5941
3.4272 1.2434 1.5941
3.3781 1.3647 1.5941
3.3248 1.4842 1.5941
3.2672 1.6016 1.5941
3.2055 1.7168 1.5941
3.1398 1.8296 1.5941
3.0702 1.9400 1.5941
2.9967 2.0478 1.5941
2.9194 2.1528 1.5941
2.8385 2.2550 1.5941
2.7540 2.3541 1.5941
2.6661 2.4502 1.5941
2.5749 2.5430 1.5941
2.4805 2.6325 1.5941
2.3855 2.7213 1.5957
0.8690 1.0663 0.6069
0.8300 1.0968 0.6071
0.7899 1.1257 0.6073
0.7488 1.1533 0.6075
0.7068 1.1794 0.6077
0.6639 1.2039 0.6079
0.6201 1.2269 0.6081
0.5755 1.2483 0.6083
0.5302 1.2681 0.6085
0.4842 1.2862 0.6087
0.4376 1.3028 0.6088
0.3904 1.3176 0.6090
0.3428 1.3307 0.6091
0.2947 1.3421 0.6093
0.2462 1.3519 0.6094
0.1974 1.3598 0.6095
0.1483 1.3660 0.6096
0.0991 1.3705 0.6098
0.0497 1.3732 0.6098
0.0002 1.3741 0.6099
-0.0492 1.3733 0.6100
-0.0986 1.3706 0.6101
-0.1479 1.3662 0.6101
-0.1970 1.3601 0.6102
-0.2458 1.3522 0.6102
-0.2943 1.3426 0.6103
-0.3425 1.3312 0.6103
-0.3902 1.3182 0.6103
-0.4374 1.3034 0.6103
-0.4841 1.2869 0.6103
-0.5301 1.2688 0.6103
-0.5755 1.2491 0.6103
-0.6202 1.2277 0.6102
-0.6640 1.2047 0.6102
-0.7071 1.1802 0.6101
-0.7492 1.1542 0.6101
-0.7903 1.1266 0.6100
-0.8305 1.0977 0.6099
-0.8696 1.0672 0.6098
-2.5264 2.8825 1.6973
-2.6294 2.7908 1.6973
-2.7291 2.6954 1.6973
-2.8254 2.5965 1.6973
-2.9182 2.4942 1.6973
-3.0073 2.3887 1.6973
-3.0926 2.2801 1.6973
-3.1741 2.1684 1.6973
-3.2516 2.0539 1.6973
-3.3250 1.9366 1.6973
-3.3942 1.8168 1.6973
-3.4592 1.6945 1.6973
-3.5198 1.5699 1.6973
-3.5759 1.4433 1.6973
-3.6275 1.3146 1.6973
-3.6746 1.1841 1.6973
-3.7170 1.0519 1.6973
-3.7546 0.9183 1.6973
-3.7875 0.7833 1.6973
-3.8156 0.6472 1.6973
-3.8388 0.5100 1.6973
-3.8572 0.3721 1.6973
-3.8705 0.2335 1.6973
-3.8790 0.0945 1.6973
-3.8824 -0.0449 1.6973
-3.8809 -0.1843 1.6973
-3.8744 -0.3237 1.6973
-3.8628 -0.4628 1.6973
-3.8463 -0.6016 1.6973
-3.8248 -0.7397 1.6973
-3.7984 -0.8770 1.6973
-3.7670 -1.0134 1.6973
-3.7307 -1.1486 1.6973
-3.6896 -1.2825 1.6973
-3.6437 -1.4149 1.6973
-3.5930 -1.5457 1.6973
-3.5375 -1.6746 1.6973
-3.4775 -1.8015 1.6973
-3.4129 -1.9262 1.6973
-3.3437 -2.0486 1.6973
-3.2702 -2.1685 1.6973
-3.1924 -2.2857 1.6973
-3.1103 -2.4001 1.6973
-3.0241 -2.5114 1.6973
-2.9339 -2.6197 1.6973
-2.8398 -2.7247 1.6973
-2.7419 -2.8262 1.6973
-2.6404 -2.9242 1.6973
-2.5353 -3.0184 1.6973
-2.4268 -3.1089 1.6973
-2.3151 -3.1954 1.6973
-2.2003 -3.2778 1.6973
-2.0824 -3.3560 1.6973
-1.9618 -3.4299 1.6973
-1.8386 -3.4994 1.6973
-1.7129 -3.5644 1.6973
-1.5848 -3.6249 1.6973
-1.4546 -3.6806 1.6973
-1.3224 -3.7316 1.6973
-1.1884 -3.7778 1.6973
-1.0527 -3.8190 1.6973
-0.9157 -3.8553 1.6973
-0.7773 -3.8866 1.6973
-0.6379 -3.9129 1.6973
-0.4976 -3.9340 1.6973
-0.3566 -3.9501 1.6973
-0.2151 -3.9609 1.6973
-0.0733 -3.9667 1.6973
0.0687 -3.9672 1.6973
0.2106 -3.9626 1.6973
0.3522 -3.9528 1.6973
0.4934 -3.9379 1.6973
0.6340 -3.9178 1.6973
0.7737 -3.8926 1.6973
0.9125 -3.8623 1.6973
1.0500 -3.8270 1.6973
1.1862 -3.7867 1.6973
1.3207 -3.7415 1.6973
1.4536 -3.6914 1.6973
1.5845 -3.6365 1.6973
1.7132 -3.5768 1.6973
1.8398 -3.5126 1.6973
1.9638 -3.4437 1.6973
2.0853 -3.3705 1.6973
2.2040 -3.2928 1.6973
2.2811 -3.1574 1.6690
2.2890 -2.9407 1.5973
2.3872 -2.8502 1.5941
2.4873 -2.7626 1.5944
2.5831 -2.6703 1.5941
2.6760 -2.5751 1.5941
2.7653 -2.4766 1.5941
2.8510 -2.3750 1.5941
2.9329 -2.2704 1.5941
3.0109 -2.1630 1.5941
3.0849 -2.0528 1.5941
3.1548 -1.9400 1.5941
3.2206 -1.8249 1.5941
3.2822 -1.7075 1.5941
3.3394 -1.5880 1.5941
3.3922 -1.4665 1.5941
3.4406 -1.3433 1.5941
3.4845 -1.2184 1.5941
3.5238 -1.0922 1.5941
3.5585 -0.9646 1.5941
3.5886 -0.8359 1.5941
3.6140 -0.7064 1.5941
3.6347 -0.5760 1.5941
3.6506 -0.4451 1.5941
3.6619 -0.3137 1.5941
3.6684 -0.1821 1.5941
3.6701 -0.0504 1.5941
3.6671 0.0812 1.5941
3.6594 0.2125 1.5941
3.6470 0.3434 1.5941
3.6299 0.4737 1.5941
3.6081 0.6032 1.5941
3.5817 0.7318 1.5941
3.5508 0.8592 1.5941
3.4226 -0.5328 1.5941
3.4374 -0.4095 1.5941
3.4477 -0.2859 1.5941
3.4536 -0.1620 1.5941
3.4550 -0.0380 1.5941
3.4519 0.0858 1.5941
3.4444 0.2095 1.5941
3.4324 0.3327 1.5941
3.4161 0.4553 1.5941
3.3954 0.5772 1.5941
3.3703 0.6982 1.5941
3.3409 0.8181 1.5941
3.3073 0.9369 1.5941
3.2694 1.0543 1.5941
3.2274 1.1703 1.5941
3.1813 1.2846 1.5941
3.1312 1.3971 1.5941
3.0771 1.5077 1.5941
3.0191 1.6162 1.5941
2.9573 1.7226 1.5941
2.8918 1.8266 1.5941
2.8226 1.9281 1.5941
2.7499 2.0271 1.5941
2.6738 2.1234 1.5941
2.5943 2.2169 1.5941
2.5116 2.3074 1.5941
2.4257 2.3949 1.5941
0.8886 0.9428 0.6062
0.8541 0.9740 0.6064
0.8184 1.0039 0.6066
0.7816 1.0326 0.6068
0.7439 1.0599 0.6070
0.7052 1.0858 0.6072
0.6657 1.1104 0.6074
0.6252 1.1335 0.6076
0.5840 1.1551 0.6078
0.5420 1.1753 0.6080
0.4993 1.1940 0.6082
0.4560 1.2110 0.6083
0.4121 1.2266 0.6085
0.3677 1.2406 0.6086
0.3228 1.2529 0.6088
0.2775 1.2637 0.6089
0.2319 1.2728 0.6090
0.1859 1.2803 0.6091
