ply
format ascii 1.0
element vertex 2175
property float32 x
property float32 y
property float32 z
end_header
-6.6550 -8.9761 1.7516
-6.4137 -9.3317 1.7516
-6.1583 -9.6857 1.7516
-5.8885 -10.0376 1.7516
-5.6038 -10.3870 1.7516
-5.3041 -10.7334 1.7516
-4.9889 -11.0763 1.7516
-4.6581 -11.4151 1.7516
-4.3114 -11.7492 1.7516
-3.9484 -12.0780 1.7516
-3.5689 -12.4006 1.7516
-3.1728 -12.7165 1.7516
-2.7598 -13.0248 1.7516
-2.3298 -13.3246 1.7516
-1.8827 -13.6151 1.7516
-1.3350 -13.0775 1.6485
-0.8818 -13.3306 1.6485
-0.4125 -13.5721 1.6485
0.0728 -13.8010 1.6485
2.7739 -6.9748 0.9304
2.9681 -6.7530 0.9033
3.2810 -6.7978 0.9134
3.6314 -6.8869 0.9314
3.9790 -6.9367 0.9460
4.3465 -6.9894 0.9633
4.7367 -7.0452 0.9833
0.5865 -0.8087 0.1146
0.6060 -0.7760 0.1118
0.6418 -0.7642 0.1123
4.3273 -4.7957 0.7211
4.3920 -4.5326 0.6990
4.4181 -4.2467 0.6737
4.5446 -4.0676 0.6660
4.6436 -3.8681 0.6558
4.9521 -3.8354 0.6759
5.1721 -3.7195 0.6841
5.3531 -3.5682 0.6879
5.6868 -3.5054 0.7117
6.2441 -3.5491 0.7629
6.9006 -3.6042 0.8251
5.0216 -2.3997 0.5890
4.8894 -2.1266 0.5638
4.8096 -1.8917 0.5464
4.6926 -1.6557 0.5264
4.6901 -1.4697 0.5205
4.6876 -1.2879 0.5159
4.7205 -1.1182 0.5162
4.7719 -0.9527 0.5195
4.8236 -0.7860 0.5238
4.9875 -0.6317 0.5414
5.1066 -0.4632 0.5551
5.2199 -0.2870 0.5693
5.4622 -0.1059 0.5989
6.4266 0.1039 0.7096
6.4594 0.3343 0.7196
6.4931 0.5679 0.7312
6.1755 0.7621 0.7042
5.4431 0.8691 0.6296
4.7466 0.9320 0.5580
4.7071 1.0994 0.5633
5.7641 1.5643 0.7034
5.7988 1.7973 0.7229
5.8347 2.0385 0.7443
5.8566 2.2829 0.7659
5.5384 2.3891 0.7438
5.1540 2.4442 0.7121
4.7784 2.4781 0.6805
4.6218 2.6095 0.6796
4.6277 2.8346 0.7040
5.7753 3.8267 0.9106
5.7385 4.1035 0.9397
5.3916 4.1533 0.9188
5.0676 4.1995 0.9007
4.7793 4.2566 0.8879
4.5614 4.3636 0.8878
5.8718 6.0324 1.2003
6.0069 6.6282 1.2931
5.8925 6.9871 1.3396
5.5205 7.0409 1.3294
6.4683 8.8849 1.6555
6.0640 8.9866 1.6555
5.6382 9.0350 1.6485
5.2410 9.1070 1.6485
4.8473 9.1650 1.6485
4.4574 9.2095 1.6485
4.0718 9.2409 1.6485
3.6908 9.2597 1.6485
3.3146 9.2664 1.6485
2.9437 9.2613 1.6485
0.8019 2.8757 0.5128
0.6980 2.9004 0.5187
0.5933 2.9216 0.5246
0.4880 2.9391 0.5306
0.3821 2.9530 0.5364
0.2759 2.9633 0.5423
0.1694 2.9699 0.5481
0.0627 2.9729 0.5539
-0.0440 2.9722 0.5596
-0.1507 2.9679 0.5653
-0.2571 2.9599 0.5709
-0.3632 2.9482 0.5765
-0.4689 2.9330 0.5819
-0.5741 2.9141 0.5873
-0.6786 2.8916 0.5926
-0.7822 2.8655 0.5978
-2.5710 8.2380 1.7516
-2.8430 8.0747 1.7516
-3.1079 7.9054 1.7516
-3.3657 7.7305 1.7516
-3.6164 7.5501 1.7516
-3.8600 7.3644 1.7516
-4.0965 7.1737 1.7516
-4.3261 6.9780 1.7516
-4.5486 6.7776 1.7516
-4.7642 6.5727 1.7516
-4.9728 6.3633 1.7516
-5.1745 6.1497 1.7516
-5.3693 5.9320 1.7516
-5.5571 5.7102 1.7516
-5.7381 5.4846 1.7516
-5.9122 5.2552 1.7516
-6.0795 5.0222 1.7516
-6.2400 4.7856 1.7516
-6.3935 4.5456 1.7516
-6.5403 4.3022 1.7516
-6.6802 4.0556 1.7516
-6.8133 3.8059 1.7516
-6.9395 3.5530 1.7516
-7.0588 3.2972 1.7516
-7.1712 3.0385 1.7516
-7.2767 2.7769 1.7516
-7.3752 2.5125 1.7516
-7.4668 2.2454 1.7516
-7.5513 1.9757 1.7516
-7.6288 1.7035 1.7516
-7.6991 1.4287 1.7516
-7.7622 1.1516 1.7516
-7.8181 0.8720 1.7516
-7.8667 0.5902 1.7516
-7.9079 0.3062 1.7516
-7.9416 0.0200 1.7516
-7.9678 -0.2682 1.7516
-7.9863 -0.5585 1.7516
-7.9971 -0.8507 1.7516
-8.0000 -1.1447 1.7516
-7.9950 -1.4404 1.7516
-7.9819 -1.7378 1.7516
-7.9605 -2.0368 1.7516
-7.9309 -2.3373 1.7516
-7.8927 -2.6391 1.7516
-7.8460 -2.9422 1.7516
-7.7905 -3.2463 1.7516
-7.7260 -3.5515 1.7516
-7.6526 -3.8576 1.7516
-7.5698 -4.1643 1.7516
-7.4776 -4.4716 1.7516
-7.3759 -4.7793 1.7516
-7.2643 -5.0872 1.7516
-7.1428 -5.3951 1.7516
-7.0112 -5.7028 1.7516
-6.8692 -6.0100 1.7516
-6.7167 -6.3166 1.7516
-6.5535 -6.6222 1.7516
-6.3793 -6.9267 1.7516
-6.1941 -7.2296 1.7516
-5.9975 -7.5308 1.7516
-5.7894 -7.8298 1.7516
-5.5696 -8.1262 1.7516
-5.3379 -8.4198 1.7516
-5.0942 -8.7101 1.7516
-4.8383 -8.9966 1.7516
-4.5700 -9.2790 1.7516
-4.2891 -9.5567 1.7516
-3.9957 -9.8292 1.7516
-3.6894 -10.0959 1.7516
-3.3703 -10.3564 1.7516
-3.0383 -10.6099 1.7516
-2.6934 -10.8559 1.7516
-2.3354 -11.0937 1.7516
-1.9646 -11.3226 1.7516
-1.5808 -11.5418 1.7516
-1.1146 -11.0591 1.6485
-0.7296 -11.2452 1.6485
-0.3328 -11.4200 1.6485
0.0754 -11.5828 1.6485
3.3410 -8.3770 1.3245
2.9943 -6.7956 1.0794
3.3092 -6.8407 1.0936
3.6396 -6.8881 1.1103
3.9873 -6.9379 1.1298
4.3549 -6.9906 1.1523
4.7451 -7.0465 1.1783
0.5868 -0.8080 0.1374
0.6063 -0.7753 0.1343
0.6424 -0.7639 0.1352
4.3280 -4.7909 0.8683
4.3926 -4.5284 0.8429
4.4199 -4.2442 0.8137
4.5462 -4.0654 0.8053
4.6456 -3.8666 0.7940
4.9543 -3.8342 0.8191
5.1741 -3.7185 0.8297
5.3522 -3.5655 0.8345
5.6896 -3.5054 0.8646
6.2475 -3.5496 0.9274
6.9008 -3.6032 1.0028
5.4458 -2.6019 0.7765
4.8893 -2.1264 0.6855
4.8096 -1.8918 0.6644
4.6926 -1.6560 0.6400
4.8288 -1.5137 0.6515
4.6877 -1.2887 0.6269
4.7202 -1.1192 0.6269
4.9059 -0.9808 0.6483
4.8231 -0.7874 0.6354
4.9864 -0.6333 0.6561
5.1052 -0.4651 0.6721
5.4636 -0.3027 0.7209
5.8191 -0.1156 0.7710
6.4262 0.1005 0.8564
6.4589 0.3306 0.8674
6.4926 0.5639 0.8801
6.1909 0.7600 0.8485
5.4558 0.8673 0.7573
4.8710 0.9528 0.6860
4.5986 1.0703 0.6582
4.6100 1.2471 0.6717
5.6087 1.7332 0.8334
5.6434 1.9661 0.8565
5.6794 2.2078 0.8820
5.5494 2.3876 0.8834
5.1641 2.4428 0.8442
4.7588 2.4617 0.8002
4.6599 2.6246 0.8075
4.3368 2.6500 0.7759
5.6608 3.7418 1.0477
5.5497 3.9590 1.0646
5.4025 4.1518 1.0764
5.0780 4.1981 1.0531
4.7737 4.2414 1.0327
4.4874 4.2824 1.0151
5.8756 6.0213 1.3933
6.0040 6.6083 1.4964
5.9061 6.9851 1.5515
5.5337 7.0390 1.5369
5.6191 7.6973 1.6555
5.2554 7.7663 1.6485
4.9162 7.8550 1.6485
4.5784 7.9311 1.6485
4.2422 7.9951 1.6485
3.9081 8.0471 1.6485
3.5766 8.0876 1.6485
3.2478 8.1168 1.6485
2.9223 8.1350 1.6485
0.8007 2.5073 0.5076
0.7099 2.5324 0.5128
0.6183 2.5543 0.5181
0.5261 2.5731 0.5233
0.4333 2.5886 0.5285
0.3400 2.6009 0.5337
0.2464 2.6100 0.5389
0.1525 2.6159 0.5440
0.0585 2.6186 0.5491
-0.0355 2.6179 0.5542
-0.1295 2.6141 0.5592
-0.2233 2.6070 0.5641
-0.3168 2.5967 0.5690
-0.4100 2.5832 0.5738
-0.5026 2.5664 0.5786
-0.5946 2.5465 0.5832
-0.6859 2.5234 0.5878
-0.7764 2.4971 0.5923
-2.5422 7.2437 1.7516
-2.7821 7.0972 1.7516
-3.0159 6.9451 1.7516
-3.2435 6.7877 1.7516
-3.4650 6.6250 1.7516
-3.6803 6.4573 1.7516
-3.8894 6.2848 1.7516
-4.0922 6.1076 1.7516
-4.2888 5.9259 1.7516
-4.4793 5.7398 1.7516
-4.6634 5.5495 1.7516
-4.8413 5.3551 1.7516
-5.0130 5.1567 1.7516
-5.1784 4.9546 1.7516
-5.3375 4.7487 1.7516
-5.4904 4.5393 1.7516
-5.6370 4.3264 1.7516
-5.7772 4.1101 1.7516
-5.9112 3.8906 1.7516
-6.0387 3.6680 1.7516
-6.1600 3.4423 1.7516
-6.2748 3.2137 1.7516
-6.3833 2.9822 1.7516
-6.4853 2.7480 1.7516
-6.5808 2.5111 1.7516
-6.6698 2.2716 1.7516
-6.7523 2.0296 1.7516
-6.8281 1.7852 1.7516
-6.8974 1.5385 1.7516
-6.9599 1.2896 1.7516
-7.0157 1.0385 1.7516
-7.0647 0.7853 1.7516
-7.1068 0.5302 1.7516
-7.1419 0.2732 1.7516
-7.1701 0.0144 1.7516
-7.1912 -0.2461 1.7516
-7.2051 -0.5082 1.7516
-7.2118 -0.7718 1.7516
-7.2111 -1.0368 1.7516
-7.2030 -1.3031 1.7516
-7.1874 -1.5706 1.7516
-7.1642 -1.8392 1.7516
-7.1332 -2.1087 1.7516
-7.0944 -2.3791 1.7516
-7.0476 -2.6501 1.7516
-6.9927 -2.9217 1.7516
-6.9297 -3.1937 1.7516
-6.8584 -3.4660 1.7516
-6.7786 -3.7383 1.7516
-6.6902 -4.0106 1.7516
-6.5932 -4.2826 1.7516
-6.4874 -4.5541 1.7516
-6.3725 -4.8249 1.7516
-6.2486 -5.0948 1.7516
-6.1156 -5.3637 1.7516
-5.9731 -5.6311 1.7516
-5.8211 -5.8969 1.7516
-5.6596 -6.1608 1.7516
-5.4883 -6.4226 1.7516
-5.3072 -6.6818 1.7516
-5.1162 -6.9382 1.7516
-4.9150 -7.1915 1.7516
-4.7037 -7.4412 1.7516
-4.4821 -7.6871 1.7516
-4.2503 -7.9287 1.7516
-4.0080 -8.1655 1.7516
-3.7552 -8.3973 1.7516
-3.4920 -8.6235 1.7516
-3.2183 -8.8436 1.7516
-2.9341 -9.0571 1.7516
-2.6394 -9.2636 1.7516
-2.3343 -9.4625 1.7516
-2.0189 -9.6532 1.7516
-1.6932 -9.8353 1.7516
-1.3575 -10.0080 1.7516
-0.9523 -9.5722 1.6485
-0.6179 -9.7155 1.6485
-0.2747 -9.8483 1.6485
0.0772 -9.9700 1.6485
3.2470 -8.1184 1.4858
3.0024 -6.7967 1.2514
3.3173 -6.8417 1.2695
3.6477 -6.8891 1.2906
3.9956 -6.9391 1.3149
4.3634 -6.9918 1.3429
4.7537 -7.0477 1.3748
0.5872 -0.8072 0.1603
0.6066 -0.7746 0.1569
0.6430 -0.7636 0.1582
4.3287 -4.7860 1.0163
4.2837 -4.4113 0.9629
4.4217 -4.2417 0.9544
4.5478 -4.0631 0.9454
4.6476 -3.8650 0.9329
4.9565 -3.8331 0.9632
5.1761 -3.7174 0.9762
5.3513 -3.5628 0.9819
5.6924 -3.5053 1.0184
6.2509 -3.5501 1.0929
6.9009 -3.6021 1.1816
5.3254 -2.5438 0.8948
4.8892 -2.1261 0.8079
4.8096 -1.8918 0.7831
4.6926 -1.6564 0.7543
4.8287 -1.5143 0.7677
4.8546 -1.3354 0.7649
4.8803 -1.1582 0.7634
4.9058 -0.9820 0.7633
4.8227 -0.7888 0.7476
4.9853 -0.6349 0.7714
5.1039 -0.4669 0.7897
5.4595 -0.3049 0.8461
5.7278 -0.1165 0.8906
6.4257 0.0971 1.0041
6.4584 0.3269 1.0160
6.4922 0.5599 1.0298
6.2064 0.7577 0.9944
5.4686 0.8654 0.8864
4.8819 0.9512 0.8019
4.4943 1.0424 0.7494
4.5044 1.2146 0.7636
5.4130 1.6677 0.9345
5.4464 1.8920 0.9592
5.4811 2.1249 0.9864
5.5172 2.3675 1.0164
5.1744 2.4414 0.9774
4.8273 2.4909 0.9367
4.4580 2.5047 0.8901
4.3128 2.6290 0.8878
4.1814 2.7572 0.8891
4.2174 3.0014 0.9281
5.3857 4.1289 1.2291
5.0886 4.1967 1.2070
4.7837 4.2399 1.1819
4.4969 4.2809 1.1600
5.8794 6.0101 1.5874
5.8426 6.4143 1.6555
5.5514 6.5486 1.6555
5.2363 6.6429 1.6485
4.9435 6.7532 1.6485
4.6500 6.8521 1.6485
4.3563 6.9398 1.6485
4.0629 7.0165 1.6485
3.7701 7.0823 1.6485
3.4783 7.1376 1.6485
3.1880 7.1825 1.6485
2.8993 7.2173 1.6485
0.7981 2.2123 0.5036
0.7179 2.2376 0.5082
0.6368 2.2601 0.5129
0.5551 2.2797 0.5176
0.4727 2.2965 0.5223
0.3899 2.3105 0.5269
0.3066 2.3215 0.5316
0.2230 2.3297 0.5362
0.1392 2.3349 0.5407
0.0552 2.3373 0.5453
-0.0288 2.3368 0.5498
-0.1127 2.3333 0.5543
-0.1965 2.3269 0.5587
-0.2800 2.3177 0.5631
-0.3631 2.3056 0.5674
-0.4458 2.2905 0.5716
-0.5280 2.2727 0.5758
-0.6095 2.2519 0.5798
-0.6903 2.2284 0.5839
-0.7703 2.2021 0.5878
-2.5144 6.4332 1.7516
-2.7282 6.2990 1.7516
-2.9365 6.1597 1.7516
-3.1393 6.0152 1.7516
-3.3366 5.8659 1.7516
-3.5284 5.7119 1.7516
-3.7146 5.5532 1.7516
-3.8952 5.3902 1.7516
-4.0702 5.2230 1.7516
-4.2395 5.0516 1.7516
-4.4031 4.8762 1.7516
-4.5610 4.6969 1.7516
-4.7131 4.5140 1.7516
-4.8595 4.3275 1.7516
-5.0001 4.1374 1.7516
-5.1349 3.9441 1.7516
-5.2639 3.7474 1.7516
-5.3870 3.5477 1.7516
-5.5041 3.3449 1.7516
-5.6154 3.1393 1.7516
-5.7207 2.9308 1.7516
-5.8200 2.7196 1.7516
-5.9133 2.5058 1.7516
-6.0005 2.2895 1.7516
-6.0816 2.0707 1.7516
-6.1565 1.8497 1.7516
-6.2253 1.6264 1.7516
-6.2878 1.4011 1.7516
-6.3440 1.1737 1.7516
-6.3939 0.9443 1.7516
-6.4374 0.7132 1.7516
-6.4744 0.4803 1.7516
-6.5049 0.2458 1.7516
-6.5288 0.0098 1.7516
-6.5461 -0.2277 1.7516
-6.5567 -0.4664 1.7516
-6.5604 -0.7064 1.7516
-6.5573 -0.9474 1.7516
-6.5473 -1.1895 1.7516
-6.5302 -1.4323 1.7516
-6.5060 -1.6759 1.7516
-6.4747 -1.9201 1.7516
-6.4360 -2.1647 1.7516
-6.3900 -2.4096 1.7516
-6.3365 -2.6547 1.7516
-6.2755 -2.8999 1.7516
-6.2069 -3.1448 1.7516
-6.1305 -3.3894 1.7516
-6.0463 -3.6335 1.7516
-5.9541 -3.8769 1.7516
-5.8539 -4.1195 1.7516
-5.7457 -4.3609 1.7516
-5.6292 -4.6010 1.7516
-5.5044 -4.8396 1.7516
-5.3713 -5.0763 1.7516
-5.2297 -5.3111 1.7516
-5.0795 -5.5435 1.7516
-4.9207 -5.7734 1.7516
-4.7533 -6.0005 1.7516
-4.5771 -6.2243 1.7516
-4.3921 -6.4448 1.7516
-4.1983 -6.6614 1.7516
-3.9956 -6.8738 1.7516
-3.7840 -7.0818 1.7516
-3.5635 -7.2849 1.7516
-3.3341 -7.4828 1.7516
-3.0958 -7.6750 1.7516
-2.8487 -7.8612 1.7516
-2.5928 -8.0409 1.7516
-2.3283 -8.2136 1.7516
-2.0551 -8.3790 1.7516
-1.7735 -8.5366 1.7516
-1.4835 -8.6858 1.7516
-1.1854 -8.8263 1.7516
-0.8277 -8.4302 1.6485
-0.5325 -8.5445 1.6485
-0.2303 -8.6490 1.6485
0.0786 -8.7435 1.6485
3.1218 -7.7833 1.6199
3.0107 -6.7981 1.4249
3.3255 -6.8428 1.4469
3.6560 -6.8902 1.4724
4.0039 -6.9401 1.5016
4.3718 -6.9929 1.5350
4.7622 -7.0489 1.5729
0.5875 -0.8064 0.1833
0.6069 -0.7739 0.1796
0.6436 -0.7634 0.1813
4.3294 -4.7811 1.1651
4.2848 -4.4076 1.1049
4.4235 -4.2391 1.0962
4.5494 -4.0608 1.0864
4.6497 -3.8635 1.0729
4.9587 -3.8319 1.1084
5.1781 -3.7164 1.1238
5.3504 -3.5601 1.1302
5.6952 -3.5053 1.1734
6.2544 -3.5506 1.2597
6.9011 -3.6010 1.3615
5.4437 -2.5998 1.0541
4.8891 -2.1259 0.9311
4.8096 -1.8919 0.9026
4.6926 -1.6567 0.8693
4.8241 -1.5134 0.8839
4.8545 -1.3362 0.8813
4.8801 -1.1592 0.8794
4.9056 -0.9833 0.8790
4.8223 -0.7902 0.8606
4.9841 -0.6365 0.8875
5.1026 -0.4688 0.9080
5.4554 -0.3070 0.9719
5.8089 -0.1210 1.0377
6.4252 0.0937 1.1528
6.4580 0.3232 1.1656
6.4917 0.5558 1.1806
6.2218 0.7555 1.1420
5.4815 0.8636 1.0170
4.8930 0.9496 0.9192
4.3940 1.0155 0.8371
4.4028 1.1833 0.8520
5.3210 1.6343 1.0476
5.2417 1.8157 1.0517
5.2750 2.0394 1.0804
5.3097 2.2724 1.1120
5.1847 2.4399 1.1121
4.8370 2.4896 1.0646
4.5221 2.5344 1.0230
4.2356 2.5755 0.9868
4.2253 2.7795 1.0156
5.3204 3.7771 1.3220
5.1794 3.9611 1.3331
5.0993 4.1953 1.3625
4.7939 4.2385 1.3326
4.5064 4.2793 1.3063
5.4627 5.5702 1.6555
5.1894 5.6825 1.6485
4.9366 5.8081 1.6485
4.6818 5.9234 1.6485
4.4253 6.0285 1.6485
4.1675 6.1236 1.6485
3.9090 6.2087 1.6485
3.6501 6.2840 1.6485
3.3912 6.3496 1.6485
3.1326 6.4058 1.6485
0.8651 1.9420 0.4961
0.7945 1.9699 0.5003
0.7229 1.9953 0.5045
0.6505 2.0182 0.5087
0.5774 2.0385 0.5130
0.5036 2.0563 0.5172
0.4293 2.0715 0.5214
0.3546 2.0841 0.5256
0.2794 2.0941 0.5298
0.2039 2.1015 0.5340
0.1283 2.1063 0.5381
0.0525 2.1084 0.5422
-0.0233 2.1079 0.5463
-0.0990 2.1048 0.5503
-0.1746 2.0991 0.5543
-0.2500 2.0907 0.5582
-0.3250 2.0797 0.5621
-0.3997 2.0661 0.5659
-0.4738 2.0499 0.5697
-0.5474 2.0311 0.5734
-0.6202 2.0098 0.5770
-0.6924 1.9860 0.5805
-0.7637 1.9596 0.5840
-2.4871 5.7577 1.7516
-2.6789 5.6329 1.7516
-2.8658 5.5032 1.7516
-3.0478 5.3689 1.7516
-3.2248 5.2299 1.7516
-3.3967 5.0866 1.7516
-3.5636 4.9390 1.7516
-3.7253 4.7872 1.7516
-3.8818 4.6315 1.7516
-4.0331 4.4719 1.7516
-4.1791 4.3085 1.7516
-4.3199 4.1416 1.7516
-4.4553 3.9712 1.7516
-4.5854 3.7975 1.7516
-4.7101 3.6205 1.7516
-4.8293 3.4404 1.7516
-4.9431 3.2573 1.7516
-5.0513 3.0713 1.7516
-5.1541 2.8825 1.7516
-5.2512 2.6911 1.7516
-5.3427 2.4970 1.7516
-5.4286 2.3005 1.7516
-5.5087 2.1017 1.7516
-5.5832 1.9005 1.7516
-5.6518 1.6973 1.7516
-5.7146 1.4919 1.7516
-5.7715 1.2846 1.7516
-5.8225 1.0755 1.7516
-5.8676 0.8646 1.7516
-5.9066 0.6521 1.7516
-5.9395 0.4381 1.7516
-5.9663 0.2226 1.7516
-5.9869 0.0059 1.7516
-6.0012 -0.2121 1.7516
-6.0092 -0.4312 1.7516
-6.0109 -0.6512 1.7516
-6.0061 -0.8721 1.7516
-5.9949 -1.0937 1.7516
-5.9770 -1.3159 1.7516
-5.9525 -1.5386 1.7516
-5.9213 -1.7616 1.7516
-5.8834 -1.9847 1.7516
-5.8385 -2.2080 1.7516
-5.7868 -2.4311 1.7516
-5.7281 -2.6539 1.7516
-5.6623 -2.8763 1.7516
-5.5894 -3.0981 1.7516
-5.5093 -3.3191 1.7516
-5.4219 -3.5392 1.7516
-5.3272 -3.7580 1.7516
-5.2251 -3.9756 1.7516
-5.1155 -4.1915 1.7516
-4.9984 -4.4056 1.7516
-4.8738 -4.6177 1.7516
-4.7415 -4.8276 1.7516
-4.6016 -5.0349 1.7516
-4.4539 -5.2395 1.7516
-4.2985 -5.4411 1.7516
-4.1353 -5.6393 1.7516
-3.9644 -5.8340 1.7516
-3.7857 -6.0247 1.7516
-3.5991 -6.2112 1.7516
-3.4049 -6.3932 1.7516
-3.2028 -6.5704 1.7516
-2.9931 -6.7423 1.7516
-2.7758 -6.9087 1.7516
-2.5508 -7.0693 1.7516
-2.3184 -7.2235 1.7516
-2.0786 -7.3711 1.7516
-1.8316 -7.5116 1.7516
-1.5775 -7.6447 1.7516
-1.3164 -7.7700 1.7516
-1.0487 -7.8870 1.7516
-0.7288 -7.5249 1.6485
-0.4648 -7.6184 1.6485
-0.1952 -7.7030 1.6485
0.0797 -7.7784 1.6485
2.8400 -7.0604 1.6485
3.0191 -6.7996 1.6001
3.3338 -6.8438 1.6260
3.6631 -6.8890 1.6555
3.9299 -6.7987 1.6555
4.1939 -6.6966 1.6555
4.4546 -6.5828 1.6555
0.5878 -0.8057 0.2066
0.6072 -0.7732 0.2025
0.6442 -0.7631 0.2047
4.3301 -4.7762 1.3151
4.2859 -4.4039 1.2480
4.3898 -4.2026 1.2291
4.5510 -4.0585 1.2286
4.6518 -3.8620 1.2140
4.9263 -3.8039 1.2459
5.1418 -3.6878 1.2632
5.3494 -3.5573 1.2795
5.6980 -3.5052 1.3298
6.2579 -3.5511 1.4279
6.9012 -3.6000 1.5428
5.4425 -2.5987 1.1944
4.8891 -2.1257 1.0553
4.8097 -1.8920 1.0230
4.6926 -1.6570 0.9853
4.8286 -1.5154 1.0027
4.8544 -1.3370 0.9987
4.8800 -1.1602 0.9963
4.9054 -0.9845 0.9956
4.8218 -0.7916 0.9745
4.9830 -0.6382 1.0045
5.1012 -0.4707 1.0273
5.4513 -0.3092 1.0985
5.8037 -0.1237 1.1722
6.4247 0.0903 1.3026
6.4576 0.3194 1.3164
6.4912 0.5517 1.3326
6.2372 0.7532 1.2914
5.4947 0.8617 1.1493
4.9042 0.9479 1.0379
4.3190 0.9946 0.9263
4.0781 1.0924 0.8877
4.0115 1.2283 0.8878
5.2409 1.8101 1.1810
5.1680 1.9925 1.1878
5.1078 2.1801 1.1994
5.1426 2.4138 1.2358
4.8469 2.4883 1.1940
4.5311 2.5331 1.1463
4.2439 2.5742 1.1046
4.2303 2.7759 1.1350
5.1337 3.6356 1.4225
5.0993 3.8903 1.4623
5.0130 4.1141 1.4908
4.8042 4.2371 1.4850
4.5160 4.2777 1.4543
4.9012 4.9848 1.6485
4.6803 5.1118 1.6485
4.4567 5.2296 1.6485
4.2308 5.3383 1.6485
4.0030 5.4380 1.6485
3.7736 5.5287 1.6485
3.5431 5.6105 1.6485
3.3118 5.6836 1.6485
3.0800 5.7479 1.6485
0.8533 1.7388 0.4939
0.7899 1.7665 0.4977
0.7256 1.7919 0.5015
0.6605 1.8151 0.5053
0.5946 1.8360 0.5092
0.5281 1.8546 0.5130
0.4609 1.8708 0.5169
0.3933 1.8847 0.5207
0.3252 1.8962 0.5245
0.2568 1.9054 0.5283
0.1881 1.9121 0.5321
0.1193 1.9165 0.5359
0.0503 1.9184 0.5396
-0.0187 1.9180 0.5433
-0.0877 1.9151 0.5470
-0.1565 1.9098 0.5506
-0.2251 1.9022 0.5542
-0.2934 1.8921 0.5577
-0.3613 1.8797 0.5612
-0.4288 1.8650 0.5646
-0.4958 1.8478 0.5680
-0.5621 1.8284 0.5713
-0.6277 1.8066 0.5745
-0.6926 1.7826 0.5777
-0.7566 1.7562 0.5807
-2.4595 5.1843 1.7516
-2.6327 5.0669 1.7516
-2.8014 4.9449 1.7516
-2.9656 4.8185 1.7516
-3.1252 4.6879 1.7516
-3.2801 4.5532 1.7516
-3.4302 4.4145 1.7516
-3.5756 4.2719 1.7516
-3.7163 4.1257 1.7516
-3.8520 3.9758 1.7516
-3.9828 3.8225 1.7516
-4.1087 3.6658 1.7516
-4.2296 3.5059 1.7516
-4.3455 3.3429 1.7516
-4.4563 3.1769 1.7516
-4.5620 3.0080 1.7516
-4.6625 2.8363 1.7516
-4.7578 2.6620 1.7516
-4.8479 2.4851 1.7516
-4.9327 2.3058 1.7516
-5.0122 2.1242 1.7516
-5.0863 1.9403 1.7516
-5.1550 1.7543 1.7516
-5.2182 1.5663 1.7516
-5.2760 1.3764 1.7516
-5.3282 1.1847 1.7516
-5.3748 0.9912 1.7516
-5.4158 0.7962 1.7516
-5.4511 0.5997 1.7516
-5.4807 0.4019 1.7516
-5.5044 0.2028 1.7516
-5.5224 0.0025 1.7516
-5.5344 -0.1988 1.7516
-5.5405 -0.4010 1.7516
-5.5407 -0.6040 1.7516
-5.5347 -0.8076 1.7516
-5.5227 -1.0118 1.7516
-5.5045 -1.2165 1.7516
-5.4801 -1.4213 1.7516
-5.4494 -1.6263 1.7516
-5.4124 -1.8314 1.7516
-5.3690 -2.0362 1.7516
-5.3191 -2.2408 1.7516
-5.2628 -2.4449 1.7516
-5.1999 -2.6483 1.7516
-5.1304 -2.8510 1.7516
-5.0543 -3.0527 1.7516
-4.9714 -3.2533 1.7516
-4.8819 -3.4525 1.7516
-4.7855 -3.6502 1.7516
-4.6823 -3.8461 1.7516
-4.5722 -4.0401 1.7516
-4.4553 -4.2320 1.7516
-4.3314 -4.4214 1.7516
-4.2006 -4.6083 1.7516
-4.0628 -4.7922 1.7516
-3.9181 -4.9731 1.7516
-3.7664 -5.1507 1.7516
-3.6077 -5.3246 1.7516
-3.4421 -5.4946 1.7516
-3.2696 -5.6604 1.7516
-3.0902 -5.8218 1.7516
-2.9041 -5.9784 1.7516
-2.7111 -6.1300 1.7516
-2.5115 -6.2762 1.7516
-2.3053 -6.4167 1.7516
-2.0927 -6.5512 1.7516
-1.8737 -6.6793 1.7516
-1.6484 -6.8008 1.7516
-1.4172 -6.9153 1.7516
-1.1801 -7.0225 1.7516
-0.9373 -7.1219 1.7516
-0.6495 -6.7992 1.6510
-0.4100 -6.8670 1.6485
-0.1669 -6.9370 1.6485
0.0806 -6.9985 1.6485
2.5665 -6.3622 1.6485
2.8082 -6.3081 1.6485
3.0487 -6.2438 1.6485
3.2875 -6.1694 1.6485
3.5391 -6.1106 1.6555
3.7741 -6.0153 1.6555
4.0058 -5.9098 1.6555
0.5882 -0.8049 0.2300
0.6075 -0.7725 0.2256
0.6448 -0.7628 0.2283
4.3308 -4.7712 1.4662
3.9298 -4.0335 1.2763
3.9648 -3.7918 1.2387
4.2478 -3.7846 1.2802
4.6289 -3.8397 1.3492
4.9632 -3.8295 1.4024
5.1822 -3.7142 1.4228
5.3485 -3.5546 1.4301
5.7009 -3.5052 1.4876
6.2614 -3.5517 1.5979
6.6203 -3.4524 1.6555
5.4414 -2.5976 1.3359
4.8890 -2.1254 1.1806
4.8097 -1.8921 1.1445
4.6926 -1.6573 1.1024
4.8285 -1.5160 1.1217
4.8543 -1.3378 1.1171
4.8798 -1.1612 1.1143
4.9052 -0.9858 1.1133
4.8214 -0.7931 1.0894
4.9818 -0.6398 1.1225
5.0999 -0.4727 1.1476
5.2056 -0.2976 1.1718
5.5140 -0.1202 1.2435
6.4242 0.0869 1.4538
6.4572 0.3156 1.4686
6.4908 0.5476 1.4859
6.2532 0.7508 1.4431
5.5079 0.8597 1.2834
4.9155 0.9463 1.1582
4.4320 1.0169 1.0577
3.9352 1.0506 0.9526
3.9989 1.2207 0.9835
5.0417 1.7362 1.2619
5.0736 1.9506 1.2943
5.0757 2.1605 1.3219
4.9632 2.3235 1.3219
4.8568 2.4870 1.3252
4.5403 2.5318 1.2713
4.2523 2.5728 1.2240
4.2354 2.7723 1.2557
4.9236 3.4783 1.5065
4.9659 3.7792 1.5712
4.8830 3.9975 1.6010
4.8147 4.2357 1.6394
4.5258 4.2761 1.6042
4.4565 4.5210 1.6485
4.2592 4.6397 1.6485
4.0591 4.7503 1.6485
3.8566 4.8528 1.6485
3.6519 4.9471 1.6485
3.4456 5.0334 1.6485
3.2379 5.1117 1.6485
3.0291 5.1820 1.6485
0.8416 1.5654 0.4920
0.7844 1.5929 0.4955
0.7263 1.6183 0.4990
0.6674 1.6417 0.5025
0.6078 1.6630 0.5060
0.5474 1.6822 0.5095
0.4864 1.6993 0.5131
0.4249 1.7142 0.5166
0.3629 1.7270 0.5201
0.3005 1.7376 0.5236
0.2378 1.7459 0.5271
0.1748 1.7521 0.5306
0.1116 1.7561 0.5340
0.0484 1.7579 0.5374
-0.0149 1.7575 0.5408
-0.0781 1.7549 0.5442
-0.1412 1.7501 0.5475
-0.2041 1.7430 0.5508
-0.2667 1.7338 0.5541
-0.3290 1.7224 0.5572
-0.3908 1.7088 0.5604
-0.4522 1.6931 0.5635
-0.5130 1.6752 0.5665
-0.5731 1.6552 0.5694
-0.6326 1.6331 0.5723
-0.6912 1.6089 0.5751
-0.7490 1.5827 0.5779
-0.8059 1.5545 0.5805
-2.5886 4.5787 1.7516
-2.7416 4.4629 1.7516
-2.8903 4.3431 1.7516
-3.0347 4.2193 1.7516
-3.1748 4.0917 1.7516
-3.3104 3.9605 1.7516
-3.4417 3.8256 1.7516
-3.5683 3.6873 1.7516
-3.6905 3.5456 1.7516
-3.8080 3.4007 1.7516
-3.9208 3.2528 1.7516
-4.0290 3.1018 1.7516
-4.1323 2.9480 1.7516
-4.2309 2.7914 1.7516
-4.3247 2.6322 1.7516
-4.4135 2.4704 1.7516
-4.4974 2.3062 1.7516
-4.5764 2.1397 1.7516
-4.6503 1.9709 1.7516
-4.7191 1.8001 1.7516
-4.7829 1.6272 1.7516
-4.8415 1.4525 1.7516
-4.8949 1.2760 1.7516
-4.9430 1.0978 1.7516
-4.9859 0.9180 1.7516
-5.0234 0.7368 1.7516
-5.0556 0.5542 1.7516
-5.0824 0.3704 1.7516
-5.1037 0.1855 1.7516
-5.1195 -0.0004 1.7516
-5.1297 -0.1872 1.7516
-5.1343 -0.3748 1.7516
-5.1333 -0.5631 1.7516
-5.1266 -0.7519 1.7516
-5.1141 -0.9410 1.7516
-5.0958 -1.1304 1.7516
-5.0717 -1.3200 1.7516
-5.0417 -1.5096 1.7516
-5.0058 -1.6990 1.7516
-4.9639 -1.8881 1.7516
-4.9160 -2.0768 1.7516
-4.8621 -2.2648 1.7516
-4.8020 -2.4521 1.7516
-4.7358 -2.6385 1.7516
-4.6634 -2.8238 1.7516
-4.5848 -3.0079 1.7516
-4.5000 -3.1905 1.7516
-4.4090 -3.3714 1.7516
-4.3116 -3.5506 1.7516
-4.2079 -3.7277 1.7516
-4.0980 -3.9026 1.7516
-3.9817 -4.0750 1.7516
-3.8591 -4.2448 1.7516
-3.7301 -4.4117 1.7516
-3.5948 -4.5756 1.7516
-3.4533 -4.7360 1.7516
-3.3054 -4.8929 1.7516
-3.1513 -5.0460 1.7516
-2.9911 -5.1949 1.7516
-2.8247 -5.3395 1.7516
-2.6523 -5.4795 1.7516
-2.4738 -5.6147 1.7516
-2.2895 -5.7446 1.7516
-2.0994 -5.8691 1.7516
-1.9036 -5.9879 1.7516
-1.7022 -6.1007 1.7516
-1.4955 -6.2072 1.7516
-1.2835 -6.3071 1.7516
-1.0665 -6.4001 1.7516
-0.8447 -6.4860 1.7516
-0.6022 -6.3944 1.7062
-0.3646 -6.2447 1.6485
-0.1434 -6.3034 1.6485
0.0814 -6.3545 1.6485
2.3399 -5.7836 1.6485
2.5581 -5.7312 1.6485
2.7750 -5.6698 1.6485
2.9902 -5.5992 1.6485
3.2032 -5.5196 1.6485
3.4137 -5.4309 1.6485
3.6210 -5.3331 1.6485
0.5885 -0.8041 0.2536
0.6080 -0.7721 0.2490
0.6454 -0.7626 0.2521
4.2138 -4.6366 1.5748
3.9304 -4.0296 1.4097
3.9653 -3.7884 1.3687
4.2526 -3.7853 1.4165
4.6337 -3.8404 1.4932
4.8804 -3.7627 1.5251
5.0250 -3.5991 1.5262
5.2855 -3.5106 1.5637
5.7038 -3.5052 1.6472
5.8607 -3.3230 1.6555
5.9802 -3.1176 1.6555
5.4403 -2.5965 1.4787
4.8889 -2.1252 1.3072
4.8097 -1.8922 1.2673
4.6926 -1.6577 1.2206
4.8029 -1.5085 1.2354
4.8283 -1.3315 1.2301
4.8535 -1.1561 1.2269
4.8786 -0.9818 1.2255
4.8209 -0.7945 1.2055
4.9807 -0.6414 1.2416
5.0985 -0.4746 1.2691
4.9303 -0.2841 1.2272
5.5136 -0.1229 1.3746
5.1432 0.0667 1.2863
6.4568 0.3118 1.6223
6.4903 0.5434 1.6408
6.2694 0.7485 1.5971
5.5213 0.8577 1.4195
4.9267 0.9446 1.2803
4.4418 1.0154 1.1685
4.0381 1.0745 1.0770
4.0032 1.2181 1.0842
4.8482 1.6645 1.3355
4.8788 1.8703 1.3691
4.9107 2.0845 1.4061
4.9440 2.3083 1.4468
4.8668 2.4856 1.4581
4.5497 2.5305 1.3980
4.2608 2.5714 1.3451
4.2405 2.7686 1.3779
4.7783 3.3672 1.6013
4.7602 3.6135 1.6485
4.5967 3.7536 1.6485
4.4291 3.8866 1.6485
4.2577 4.0125 1.6485
4.0828 4.1310 1.6485
3.9047 4.2423 1.6485
3.7239 4.3463 1.6485
3.5406 4.4429 1.6485
3.3552 4.5322 1.6485
3.1680 4.6142 1.6485
2.9793 4.6889 1.6485
0.8300 1.4154 0.4905
0.7782 1.4426 0.4937
0.7255 1.4680 0.4969
0.6720 1.4915 0.5001
0.6177 1.5131 0.5034
0.5626 1.5328 0.5066
0.5070 1.5505 0.5098
0.4507 1.5663 0.5131
0.3940 1.5801 0.5163
0.3368 1.5919 0.5196
0.2793 1.6017 0.5228
0.2214 1.6094 0.5260
0.1633 1.6151 0.5292
0.1051 1.6188 0.5324
0.0468 1.6205 0.5356
-0.0116 1.6201 0.5387
-0.0699 1.6177 0.5418
-0.1281 1.6132 0.5449
-0.1861 1.6067 0.5479
-0.2438 1.5982 0.5509
-0.3013 1.5876 0.5538
-0.3583 1.5751 0.5567
-0.4149 1.5605 0.5596
-0.4709 1.5440 0.5624
-0.5264 1.5255 0.5651
-0.5812 1.5051 0.5677
-0.6352 1.4828 0.5703
-0.6885 1.4586 0.5728
-0.7409 1.4325 0.5753
-0.7924 1.4046 0.5777
-2.5458 4.1522 1.7516
-2.6849 4.0416 1.7516
-2.8201 3.9273 1.7516
-2.9512 3.8093 1.7516
-3.0782 3.6877 1.7516
-3.2011 3.5627 1.7516
-3.3198 3.4344 1.7516
-3.4342 3.3029 1.7516
-3.5443 3.1683 1.7516
-3.6500 3.0308 1.7516
-3.7513 2.8903 1.7516
-3.8481 2.7471 1.7516
-3.9404 2.6013 1.7516
-4.0281 2.4530 1.7516
-4.1112 2.3022 1.7516
-4.1897 2.1491 1.7516
-4.2635 1.9938 1.7516
-4.3325 1.8364 1.7516
-4.3968 1.6770 1.7516
-4.4561 1.5157 1.7516
-4.5107 1.3526 1.7516
-4.5603 1.1879 1.7516
-4.6049 1.0215 1.7516
-4.6446 0.8538 1.7516
-4.6792 0.6847 1.7516
-4.7087 0.5143 1.7516
-4.7331 0.3429 1.7516
-4.7523 0.1704 1.7516
-4.7663 -0.0030 1.7516
-4.7751 -0.1771 1.7516
-4.7785 -0.3519 1.7516
-4.7766 -0.5273 1.7516
-4.7694 -0.7030 1.7516
-4.7567 -0.8791 1.7516
-4.7385 -1.0552 1.7516
-4.7149 -1.2315 1.7516
-4.6857 -1.4076 1.7516
-4.6510 -1.5834 1.7516
-4.6106 -1.7589 1.7516
-4.5646 -1.9338 1.7516
-4.5130 -2.1080 1.7516
-4.4556 -2.2814 1.7516
-4.3926 -2.4537 1.7516
-4.3237 -2.6249 1.7516
-4.2491 -2.7948 1.7516
-4.1687 -2.9632 1.7516
-4.0825 -3.1298 1.7516
-3.9905 -3.2946 1.7516
-3.8927 -3.4573 1.7516
-3.7891 -3.6178 1.7516
-3.6796 -3.7759 1.7516
-3.5644 -3.9313 1.7516
-3.4433 -4.0838 1.7516
-3.3165 -4.2332 1.7516
-3.1840 -4.3794 1.7516
-3.0457 -4.5221 1.7516
-2.9018 -4.6610 1.7516
-2.7524 -4.7959 1.7516
-2.5974 -4.9267 1.7516
-2.4370 -5.0530 1.7516
-2.2712 -5.1746 1.7516
-2.1001 -5.2912 1.7516
-1.9239 -5.4027 1.7516
-1.7427 -5.5088 1.7516
-1.5566 -5.6091 1.7516
-1.3657 -5.7035 1.7516
-1.1703 -5.7918 1.7516
-0.9704 -5.8735 1.7516
-0.7664 -5.9486 1.7516
-0.5584 -6.0167 1.7516
-0.3263 -5.7199 1.6485
-0.1237 -5.7702 1.6485
0.0820 -5.8133 1.6485
2.1488 -5.2958 1.6485
2.3474 -5.2454 1.6485
2.5447 -5.1868 1.6485
2.7403 -5.1201 1.6485
2.9337 -5.0451 1.6485
3.1247 -4.9620 1.6485
3.3127 -4.8708 1.6485
0.5888 -0.8033 0.2775
0.6087 -0.7718 0.2728
0.6460 -0.7623 0.2762
4.0452 -4.4457 1.6555
3.9309 -4.0256 1.5445
3.9658 -3.7849 1.5001
4.2575 -3.7860 1.5546
4.6386 -3.8411 1.6390
4.8301 -3.7211 1.6555
4.9683 -3.5561 1.6555
5.0995 -3.3850 1.6555
5.2233 -3.2083 1.6555
5.3395 -3.0262 1.6555
5.4477 -2.8390 1.6555
5.1108 -2.4387 1.5251
4.8888 -2.1250 1.4351
4.8098 -1.8923 1.3914
4.6926 -1.6580 1.3401
4.8283 -1.5171 1.3635
4.8540 -1.3394 1.3577
4.8795 -1.1634 1.3540
4.9048 -0.9884 1.3524
4.8205 -0.7960 1.3228
4.9795 -0.6431 1.3620
5.0971 -0.4766 1.3918
4.8062 -0.2791 1.3122
4.5057 -0.1027 1.2317
4.5215 0.0562 1.2396
6.0124 0.2867 1.6555
5.9774 0.4966 1.6555
5.9338 0.7043 1.6555
5.5346 0.8557 1.5578
4.9381 0.9428 1.4043
4.4517 1.0138 1.2811
4.0474 1.0732 1.1804
4.0075 1.2155 1.1863
4.8474 1.6592 1.4587
4.7726 1.8243 1.4624
4.7090 1.9933 1.4715
4.7408 2.2074 1.5134
4.7743 2.4319 1.5595
4.5593 2.5292 1.5266
4.2694 2.5700 1.4679
4.2456 2.7649 1.5017
4.5216 3.1781 1.6485
4.3780 3.3150 1.6485
4.2301 3.4455 1.6485
4.0783 3.5696 1.6485
3.9227 3.6872 1.6485
3.7639 3.7983 1.6485
3.6020 3.9029 1.6485
3.4373 4.0007 1.6485
3.2702 4.0920 1.6485
3.1009 4.1765 1.6485
2.9298 4.2544 1.6485
0.8184 1.2840 0.4893
0.7713 1.3109 0.4922
0.7233 1.3362 0.4952
0.6744 1.3598 0.4981
0.6248 1.3816 0.5011
0.5745 1.4016 0.5041
0.5235 1.4199 0.5071
0.4719 1.4364 0.5101
0.4198 1.4510 0.5131
0.3672 1.4638 0.5161
0.3142 1.4748 0.5191
0.2609 1.4839 0.5221
0.2073 1.4911 0.5251
0.1534 1.4964 0.5281
0.0995 1.4998 0.5310
0.0454 1.5014 0.5340
-0.0087 1.5010 0.5369
-0.0628 1.4987 0.5398
-0.1167 1.4946 0.5426
-0.1705 1.4885 0.5454
-0.2240 1.4806 0.5482
-0.2772 1.4708 0.5509
-0.3301 1.4592 0.5536
-0.3825 1.4457 0.5562
-0.4345 1.4303 0.5588
-0.4859 1.4132 0.5613
-0.5367 1.3942 0.5638
-0.5867 1.3735 0.5662
-0.6361 1.3510 0.5685
-0.6847 1.3268 0.5708
-0.7324 1.3009 0.5730
-0.7792 1.2733 0.5751
-2.5037 3.7755 1.7516
-2.6306 3.6694 1.7516
-2.7537 3.5598 1.7516
-2.8730 3.4467 1.7516
-2.9885 3.3304 1.7516
-3.1000 3.2109 1.7516
-3.2075 3.0883 1.7516
-3.3109 2.9627 1.7516
-3.4103 2.8343 1.7516
-3.5054 2.7031 1.7516
-3.5964 2.5693 1.7516
-3.6831 2.4330 1.7516
-3.7655 2.2943 1.7516
-3.8435 2.1532 1.7516
-3.9172 2.0099 1.7516
-3.9863 1.8645 1.7516
-4.0510 1.7172 1.7516
-4.1112 1.5679 1.7516
-4.1667 1.4168 1.7516
-4.2177 1.2641 1.7516
-4.2639 1.1098 1.7516
-4.3055 0.9540 1.7516
-4.3424 0.7969 1.7516
-4.3744 0.6385 1.7516
-4.4016 0.4790 1.7516
-4.4240 0.3185 1.7516
-4.4414 0.1570 1.7516
-4.4540 -0.0052 1.7516
-4.4615 -0.1682 1.7516
-4.4640 -0.3317 1.7516
-4.4615 -0.4956 1.7516
-4.4538 -0.6599 1.7516
-4.4411 -0.8244 1.7516
-4.4232 -0.9889 1.7516
-4.4001 -1.1534 1.7516
-4.3718 -1.3176 1.7516
-4.3383 -1.4816 1.7516
-4.2995 -1.6451 1.7516
-4.2553 -1.8079 1.7516
-4.2059 -1.9700 1.7516
-4.1511 -2.1312 1.7516
-4.0910 -2.2914 1.7516
-4.0255 -2.4503 1.7516
-3.9546 -2.6079 1.7516
-3.8783 -2.7639 1.7516
-3.7966 -2.9181 1.7516
-3.7095 -3.0705 1.7516
-3.6170 -3.2209 1.7516
-3.5191 -3.3690 1.7516
-3.4159 -3.5146 1.7516
-3.3073 -3.6577 1.7516
-3.1934 -3.7979 1.7516
-3.0742 -3.9351 1.7516
-2.9497 -4.0692 1.7516
-2.8200 -4.1997 1.7516
-2.6852 -4.3267 1.7516
-2.5453 -4.4498 1.7516
-2.4004 -4.5689 1.7516
-2.2506 -4.6837 1.7516
-2.0959 -4.7940 1.7516
-1.9365 -4.8996 1.7516
-1.7725 -5.0003 1.7516
-1.6040 -5.0958 1.7516
-1.4311 -5.1859 1.7516
-1.2541 -5.2704 1.7516
-1.0730 -5.3491 1.7516
-0.8880 -5.4217 1.7516
-0.6994 -5.4880 1.7516
-0.5073 -5.5479 1.7516
-0.2935 -5.2714 1.6485
-0.1068 -5.3149 1.6485
0.0825 -5.3517 1.6485
1.9854 -4.8787 1.6485
2.1674 -4.8303 1.6485
2.3481 -4.7745 1.6485
2.5271 -4.7113 1.6485
2.7040 -4.6407 1.6485
2.8785 -4.5627 1.6485
3.0504 -4.4773 1.6485
0.5892 -0.8025 0.3017
0.6094 -0.7715 0.2968
0.6467 -0.7620 0.3006
3.7031 -4.0646 1.6485
3.8723 -3.9610 1.6555
3.9663 -3.7814 1.6330
4.1642 -3.6995 1.6555
4.3021 -3.5594 1.6555
4.4342 -3.4134 1.6555
4.5602 -3.2616 1.6555
4.6797 -3.1045 1.6555
4.7926 -2.9422 1.6555
4.8985 -2.7751 1.6555
4.9973 -2.6035 1.6555
5.0169 -2.3934 1.6321
4.8887 -2.1247 1.5646
4.8098 -1.8924 1.5171
4.6926 -1.6584 1.4611
4.8282 -1.5177 1.4865
4.8539 -1.3403 1.4801
4.8794 -1.1644 1.4760
4.9046 -0.9897 1.4741
4.8200 -0.7974 1.4416
4.9783 -0.6448 1.4839
5.0957 -0.4786 1.5160
4.8320 -0.2829 1.4371
4.4982 -0.1049 1.3393
4.5212 0.0537 1.3496
5.5231 0.2601 1.6555
5.4925 0.4528 1.6555
5.4540 0.6435 1.6555
5.4078 0.8320 1.6555
4.9497 0.9410 1.5305
4.4618 1.0123 1.3955
4.0568 1.0720 1.2855
4.0118 1.2129 1.2898
4.6484 1.5862 1.5187
4.6776 1.7827 1.5554
4.7081 1.9873 1.5959
4.6264 2.1482 1.6013
4.5866 2.3300 1.6238
4.5448 2.5145 1.6485
4.2782 2.5686 1.5927
4.2509 2.7612 1.6273
4.1798 2.9304 1.6485
4.0491 3.0580 1.6485
3.9143 3.1800 1.6485
3.7758 3.2962 1.6485
3.6337 3.4065 1.6485
3.4884 3.5109 1.6485
3.3401 3.6093 1.6485
3.1891 3.7016 1.6485
3.0358 3.7878 1.6485
0.8485 1.1395 0.4856
0.8065 1.1677 0.4883
0.7636 1.1943 0.4910
0.7198 1.2195 0.4937
0.6752 1.2430 0.4964
0.6297 1.2650 0.4992
0.5836 1.2853 0.5020
0.5367 1.3040 0.5047
0.4893 1.3210 0.5075
0.4412 1.3364 0.5103
0.3927 1.3500 0.5131
0.3438 1.3620 0.5159
0.2944 1.3722 0.5187
0.2448 1.3807 0.5215
0.1949 1.3874 0.5243
0.1448 1.3923 0.5271
0.0945 1.3955 0.5298
0.0442 1.3970 0.5326
-0.0062 1.3966 0.5353
-0.0565 1.3945 0.5379
-0.1067 1.3907 0.5406
-0.1568 1.3850 0.5432
-0.2066 1.3777 0.5458
-0.2562 1.3685 0.5483
-0.3054 1.3576 0.5508
-0.3542 1.3451 0.5533
-0.4026 1.3308 0.5556
-0.4504 1.3148 0.5580
-0.4977 1.2971 0.5603
-0.5443 1.2778 0.5625
-0.5902 1.2568 0.5647
-0.6354 1.2342 0.5668
-0.6798 1.2101 0.5689
-0.7233 1.1844 0.5708
-0.7659 1.1571 0.5727
-0.8076 1.1284 0.5746
-2.5778 3.3376 1.7516
-2.6902 3.2320 1.7516
-2.7990 3.1233 1.7516
-2.9041 3.0116 1.7516
-3.0054 2.8968 1.7516
-3.1028 2.7793 1.7516
-3.1964 2.6590 1.7516
-3.2861 2.5361 1.7516
-3.3718 2.4106 1.7516
-3.4535 2.2828 1.7516
-3.5310 2.1526 1.7516
-3.6045 2.0202 1.7516
-3.6738 1.8857 1.7516
-3.7389 1.7491 1.7516
-3.7997 1.6107 1.7516
-3.8562 1.4705 1.7516
-3.9083 1.3286 1.7516
-3.9561 1.1851 1.7516
-3.9994 1.0401 1.7516
-4.0383 0.8938 1.7516
-4.0726 0.7461 1.7516
-4.1024 0.5973 1.7516
-4.1276 0.4475 1.7516
-4.1482 0.2967 1.7516
-4.1642 0.1451 1.7516
-4.1754 -0.0073 1.7516
-4.1819 -0.1602 1.7516
-4.1837 -0.3136 1.7516
-4.1807 -0.4674 1.7516
-4.1728 -0.6215 1.7516
-4.1602 -0.7757 1.7516
-4.1426 -0.9298 1.7516
-4.1201 -1.0839 1.7516
-4.0927 -1.2377 1.7516
-4.0604 -1.3911 1.7516
-4.0230 -1.5440 1.7516
-3.9807 -1.6962 1.7516
-3.9334 -1.8476 1.7516
-3.8811 -1.9981 1.7516
-3.8237 -2.1475 1.7516
-3.7613 -2.2956 1.7516
-3.6938 -2.4423 1.7516
-3.6213 -2.5875 1.7516
-3.5437 -2.7310 1.7516
-3.4612 -2.8726 1.7516
-3.3736 -3.0121 1.7516
-3.2810 -3.1494 1.7516
-3.1834 -3.2843 1.7516
-3.0808 -3.4167 1.7516
-2.9733 -3.5463 1.7516
-2.8610 -3.6730 1.7516
-2.7438 -3.7965 1.7516
-2.6218 -3.9167 1.7516
-2.4952 -4.0335 1.7516
-2.3638 -4.1465 1.7516
-2.2279 -4.2556 1.7516
-2.0875 -4.3606 1.7516
-1.9427 -4.4614 1.7516
-1.7936 -4.5576 1.7516
-1.6404 -4.6491 1.7516
-1.4831 -4.7358 1.7516
-1.3219 -4.8173 1.7516
-1.1570 -4.8936 1.7516
-0.9884 -4.9643 1.7516
-0.8164 -5.0294 1.7516
-0.6412 -5.0885 1.7516
-0.4629 -5.1416 1.7516
-0.2652 -4.8831 1.6485
-0.0922 -4.9211 1.6485
0.0830 -4.9529 1.6485
1.8439 -4.5174 1.6485
2.0117 -4.4711 1.6485
2.1781 -4.4180 1.6485
2.3429 -4.3582 1.6485
2.5057 -4.2915 1.6485
2.6662 -4.2181 1.6485
2.8241 -4.1381 1.6485
0.5895 -0.8017 0.3262
0.6100 -0.7712 0.3212
0.6473 -0.7617 0.3254
3.4235 -3.7530 1.6485
3.5637 -3.6411 1.6485
3.6994 -3.5232 1.6485
3.8304 -3.3996 1.6485
3.9732 -3.2843 1.6555
4.0943 -3.1492 1.6555
4.2098 -3.0089 1.6555
4.3195 -2.8637 1.6555
4.4231 -2.7139 1.6555
4.5204 -2.5597 1.6555
4.6111 -2.4015 1.6555
4.6951 -2.2394 1.6555
4.7723 -2.0740 1.6555
4.8098 -1.8925 1.6444
4.6926 -1.6587 1.5837
4.6902 -1.4749 1.5652
4.6878 -1.2952 1.5493
4.7178 -1.1270 1.5467
4.7685 -0.9636 1.5531
4.8196 -0.7990 1.5619
4.9771 -0.6465 1.6073
5.0943 -0.4806 1.6419
4.8584 -0.2867 1.5650
4.4979 -0.1072 1.4503
4.5208 0.0511 1.4612
5.1023 0.2371 1.6555
5.0753 0.4150 1.6555
5.0410 0.5912 1.6555
4.9996 0.7654 1.6555
4.9513 0.9372 1.6555
4.4720 1.0107 1.5121
4.0664 1.0707 1.3924
4.0162 1.2102 1.3949
4.5376 1.5436 1.6010
4.4940 1.7076 1.6133
4.5062 1.8966 1.6485
4.4148 2.0442 1.6485
4.3181 2.1876 1.6485
4.2163 2.3265 1.6485
4.1096 2.4608 1.6485
3.9983 2.5903 1.6485
3.8826 2.7149 1.6485
3.7628 2.8344 1.6485
3.6392 2.9487 1.6485
3.5120 3.0578 1.6485
3.3814 3.1615 1.6485
3.2477 3.2598 1.6485
3.1111 3.3526 1.6485
2.9720 3.4398 1.6485
0.8328 1.0361 0.4850
0.7945 1.0638 0.4875
0.7553 1.0902 0.4899
0.7153 1.1151 0.4925
0.6743 1.1386 0.4950
0.6326 1.1606 0.4975
0.5902 1.1812 0.5001
0.5471 1.2002 0.5027
0.5033 1.2177 0.5053
0.4590 1.2336 0.5079
0.4141 1.2480 0.5105
0.3688 1.2608 0.5132
0.3231 1.2720 0.5158
0.2770 1.2815 0.5184
0.2306 1.2894 0.5210
0.1839 1.2957 0.5236
0.1371 1.3004 0.5262
0.0901 1.3034 0.5288
0.0431 1.3047 0.5313
-0.0040 1.3044 0.5338
-0.0510 1.3024 0.5363
-0.0979 1.2988 0.5388
-0.1447 1.2935 0.5413
-0.1913 1.2866 0.5437
-0.2376 1.2781 0.5460
-0.2836 1.2679 0.5484
-0.3292 1.2561 0.5506
-0.3744 1.2427 0.5529
-0.4190 1.2278 0.5551
-0.4632 1.2112 0.5572
-0.5067 1.1931 0.5593
-0.5496 1.1735 0.5613
-0.5919 1.1524 0.5633
-0.6333 1.1298 0.5652
-0.6739 1.1058 0.5671
-0.7137 1.0803 0.5688
-0.7526 1.0534 0.5705
-0.7906 1.0252 0.5722
-2.5262 3.0393 1.7516
-2.6289 2.9374 1.7516
-2.7281 2.8326 1.7516
-2.8238 2.7249 1.7516
-2.9159 2.6145 1.7516
-3.0043 2.5015 1.7516
-3.0890 2.3860 1.7516
-3.1699 2.2680 1.7516
-3.2470 2.1477 1.7516
-3.3203 2.0252 1.7516
-3.3896 1.9006 1.7516
-3.4550 1.7739 1.7516
-3.5163 1.6454 1.7516
-3.5736 1.5150 1.7516
-3.6269 1.3829 1.7516
-3.6759 1.2492 1.7516
-3.7208 1.1141 1.7516
-3.7615 0.9775 1.7516
-3.7980 0.8396 1.7516
-3.8301 0.7005 1.7516
-3.8579 0.5603 1.7516
-3.8814 0.4192 1.7516
-3.9005 0.2771 1.7516
-3.9151 0.1344 1.7516
-3.9253 -0.0091 1.7516
-3.9309 -0.1530 1.7516
-3.9321 -0.2974 1.7516
-3.9287 -0.4421 1.7516
-3.9208 -0.5870 1.7516
-3.9082 -0.7320 1.7516
-3.8910 -0.8769 1.7516
-3.8692 -1.0216 1.7516
-3.8427 -1.1660 1.7516
-3.8115 -1.3100 1.7516
-3.7756 -1.4535 1.7516
-3.7350 -1.5962 1.7516
-3.6897 -1.7381 1.7516
-3.6397 -1.8791 1.7516
-3.5849 -2.0189 1.7516
-3.5253 -2.1575 1.7516
-3.4611 -2.2947 1.7516
-3.3921 -2.4303 1.7516
-3.3184 -2.5642 1.7516
-3.2400 -2.6962 1.7516
-3.1568 -2.8263 1.7516
-3.0691 -2.9541 1.7516
-2.9766 -3.0796 1.7516
-2.8796 -3.2026 1.7516
-2.7780 -3.3229 1.7516
-2.6719 -3.4404 1.7516
-2.5613 -3.5548 1.7516
-2.4463 -3.6660 1.7516
-2.3269 -3.7738 1.7516
-2.2033 -3.8781 1.7516
-2.0754 -3.9787 1.7516
-1.9435 -4.0753 1.7516
-1.8075 -4.1678 1.7516
-1.6677 -4.2560 1.7516
-1.5240 -4.3398 1.7516
-1.3767 -4.4189 1.7516
-1.2259 -4.4932 1.7516
-1.0716 -4.5625 1.7516
-0.9142 -4.6265 1.7516
-0.7536 -4.6852 1.7516
-0.5902 -4.7384 1.7516
-0.4241 -4.7859 1.7516
-0.2404 -4.5434 1.6485
-0.0795 -4.5769 1.6485
0.0834 -4.6045 1.6485
1.7201 -4.2013 1.6485
1.8755 -4.1570 1.6485
2.0296 -4.1065 1.6485
2.1820 -4.0497 1.6485
2.3326 -3.9867 1.6485
2.4810 -3.9175 1.6485
2.6269 -3.8423 1.6485
0.5899 -0.8009 0.3510
0.6107 -0.7709 0.3459
0.6480 -0.7614 0.3506
3.1802 -3.4818 1.6485
3.3095 -3.3774 1.6485
3.4348 -3.2676 1.6485
3.5556 -3.1525 1.6485
3.6717 -3.0323 1.6485
3.7830 -2.9073 1.6485
3.8890 -2.7775 1.6485
3.9898 -2.6434 1.6485
4.1023 -2.5157 1.6555
4.1921 -2.3728 1.6555
4.2759 -2.2261 1.6555
4.3536 -2.0760 1.6555
4.4249 -1.9228 1.6555
4.4897 -1.7667 1.6555
4.5480 -1.6080 1.6555
4.5996 -1.4471 1.6555
4.6444 -1.2842 1.6555
4.6824 -1.1196 1.6555
4.7134 -0.9538 1.6555
4.7375 -0.7870 1.6555
4.7546 -0.6195 1.6555
4.7648 -0.4516 1.6555
4.7680 -0.2837 1.6555
4.4976 -0.1095 1.5628
4.5204 0.0485 1.5743
4.7362 0.2172 1.6555
4.7120 0.3821 1.6555
4.6812 0.5456 1.6555
4.6439 0.7073 1.6555
4.6002 0.8670 1.6555
4.4825 1.0091 1.6308
4.0761 1.0694 1.5015
4.0208 1.2075 1.5018
4.3457 1.4736 1.6485
4.2726 1.6186 1.6485
4.1941 1.7601 1.6485
4.1104 1.8979 1.6485
4.0217 2.0318 1.6485
3.9283 2.1617 1.6485
3.8303 2.2874 1.6485
3.7279 2.4087 1.6485
3.6215 2.5255 1.6485
3.5111 2.6378 1.6485
3.3971 2.7452 1.6485
3.2797 2.8479 1.6485
3.1591 2.9456 1.6485
3.0354 3.0384 1.6485
0.8511 0.9146 0.4823
0.8172 0.9431 0.4845
0.7823 0.9704 0.4868
0.7464 0.9964 0.4891
0.7097 1.0211 0.4914
0.6722 1.0445 0.4938
0.6338 1.0666 0.4961
0.5947 1.0872 0.4985
0.5550 1.1065 0.5010
0.5145 1.1244 0.5034
0.4735 1.1408 0.5058
0.4320 1.1558 0.5083
0.3899 1.1692 0.5107
0.3474 1.1812 0.5132
0.3046 1.1917 0.5156
0.2614 1.2007 0.5181
0.2179 1.2081 0.5205
0.1741 1.2140 0.5230
0.1302 1.2184 0.5254
0.0862 1.2212 0.5278
0.0421 1.2224 0.5302
-0.0020 1.2222 0.5326
-0.0461 1.2203 0.5349
-0.0901 1.2169 0.5372
-0.1339 1.2120 0.5395
-0.1776 1.2055 0.5418
-0.2210 1.1974 0.5440
-0.2641 1.1879 0.5462
-0.3069 1.1768 0.5483
-0.3492 1.1643 0.5504
-0.3911 1.1502 0.5525
-0.4325 1.1347 0.5545
-0.4733 1.1177 0.5564
-0.5135 1.0993 0.5583
-0.5530 1.0795 0.5602
-0.5919 1.0583 0.5620
-0.6300 1.0358 0.5637
-0.6673 1.0118 0.5654
-0.7037 0.9866 0.5670
-0.7392 0.9601 0.5685
-0.7738 0.9324 0.5700
-0.8074 0.9034 0.5714
-2.5691 2.6708 1.7516
-2.6597 2.5695 1.7516
-2.7468 2.4656 1.7516
-2.8305 2.3591 1.7516
-2.9107 2.2502 1.7516
-2.9873 2.1390 1.7516
-3.0603 2.0255 1.7516
-3.1296 1.9100 1.7516
-3.1952 1.7924 1.7516
-3.2570 1.6728 1.7516
-3.3150 1.5515 1.7516
-3.3691 1.4284 1.7516
-3.4194 1.3037 1.7516
-3.4657 1.1774 1.7516
-3.5080 1.0498 1.7516
-3.5463 0.9208 1.7516
-3.5806 0.7905 1.7516
-3.6107 0.6592 1.7516
-3.6368 0.5268 1.7516
-3.6587 0.3935 1.7516
-3.6764 0.2595 1.7516
-3.6899 0.1247 1.7516
-3.6992 -0.0107 1.7516
-3.7041 -0.1466 1.7516
-3.7048 -0.2828 1.7516
-3.7011 -0.4193 1.7516
-3.6931 -0.5559 1.7516
-3.6807 -0.6926 1.7516
-3.6640 -0.8291 1.7516
-3.6428 -0.9654 1.7516
-3.6172 -1.1014 1.7516
-3.5872 -1.2370 1.7516
-3.5527 -1.3719 1.7516
-3.5137 -1.5062 1.7516
-3.4703 -1.6396 1.7516
-3.4224 -1.7720 1.7516
-3.3701 -1.9032 1.7516
-3.3132 -2.0333 1.7516
-3.2520 -2.1619 1.7516
-3.1862 -2.2890 1.7516
-3.1160 -2.4144 1.7516
-3.0415 -2.5380 1.7516
-2.9625 -2.6596 1.7516
-2.8791 -2.7790 1.7516
-2.7915 -2.8962 1.7516
-2.6995 -3.0109 1.7516
-2.6032 -3.1230 1.7516
-2.5028 -3.2324 1.7516
-2.3982 -3.3388 1.7516
-2.2895 -3.4421 1.7516
-2.1768 -3.5422 1.7516
-2.0601 -3.6389 1.7516
-1.9396 -3.7319 1.7516
-1.8153 -3.8212 1.7516
-1.6873 -3.9066 1.7516
-1.5557 -3.9879 1.7516
-1.4206 -4.0650 1.7516
-1.2823 -4.1376 1.7516
-1.1407 -4.2056 1.7516
-0.9960 -4.2689 1.7516
-0.8484 -4.3273 1.7516
-0.6981 -4.3806 1.7516
-0.5451 -4.4287 1.7516
-0.3898 -4.4715 1.7516
-0.2185 -4.2434 1.6485
-0.0682 -4.2731 1.6485
0.0837 -4.2974 1.6485
1.6107 -3.9221 1.6485
1.7553 -3.8797 1.6485
1.8985 -3.8316 1.6485
2.0401 -3.7777 1.6485
2.1800 -3.7181 1.6485
2.3178 -3.6527 1.6485
2.4532 -3.5818 1.6485
0.5902 -0.8001 0.3762
0.6114 -0.7706 0.3711
0.6486 -0.7611 0.3761
2.9664 -3.2434 1.6485
3.0862 -3.1457 1.6485
3.2023 -3.0430 1.6485
3.3142 -2.9355 1.6485
3.4218 -2.8234 1.6485
3.5249 -2.7067 1.6485
3.6232 -2.5858 1.6485
3.7166 -2.4608 1.6485
3.8048 -2.3319 1.6485
3.8877 -2.1994 1.6485
3.9651 -2.0636 1.6485
4.0369 -1.9245 1.6485
4.1028 -1.7826 1.6485
4.1806 -1.6451 1.6555
4.2348 -1.4976 1.6555
4.2829 -1.3480 1.6555
4.3247 -1.1966 1.6555
4.3602 -1.0437 1.6555
4.3894 -0.8895 1.6555
4.4122 -0.7344 1.6555
4.4286 -0.5787 1.6555
4.4385 -0.4226 1.6555
4.4420 -0.2664 1.6555
4.4391 -0.1105 1.6555
4.4299 0.0450 1.6555
4.3957 0.1988 1.6485
4.3741 0.3518 1.6485
4.3464 0.5034 1.6485
4.3126 0.6535 1.6485
4.2729 0.8017 1.6485
4.2275 0.9478 1.6485
4.0861 1.0681 1.6128
4.0253 1.2047 1.6107
4.0578 1.3715 1.6485
3.9907 1.5071 1.6485
3.9185 1.6395 1.6485
3.8414 1.7685 1.6485
3.7597 1.8940 1.6485
3.6735 2.0159 1.6485
3.5830 2.1339 1.6485
3.4885 2.2478 1.6485
3.3900 2.3577 1.6485
3.2879 2.4633 1.6485
3.1823 2.5646 1.6485
3.0734 2.6615 1.6485
2.9615 2.7538 1.6485
0.8325 0.8310 0.4821
0.8016 0.8590 0.4842
0.7697 0.8858 0.4863
0.7369 0.9114 0.4884
0.7033 0.9359 0.4906
0.6688 0.9592 0.4927
0.6335 0.9812 0.4950
0.5974 1.0019 0.4972
0.5607 1.0214 0.4994
0.5233 1.0395 0.5017
0.4854 1.0563 0.5040
0.4468 1.0718 0.5063
0.4077 1.0858 0.5086
0.3682 1.0985 0.5109
0.3283 1.1098 0.5132
0.2880 1.1197 0.5155
0.2474 1.1281 0.5178
0.2065 1.1351 0.5201
0.1654 1.1407 0.5224
0.1241 1.1448 0.5247
0.0827 1.1474 0.5269
0.0412 1.1486 0.5292
-0.0002 1.1483 0.5314
-0.0417 1.1466 0.5336
-0.0830 1.1434 0.5358
-0.1243 1.1387 0.5380
-0.1653 1.1326 0.5401
-0.2061 1.1251 0.5422
-0.2466 1.1161 0.5442
-0.2868 1.1057 0.5462
-0.3266 1.0939 0.5482
-0.3660 1.0806 0.5501
-0.4049 1.0660 0.5520
-0.4433 1.0501 0.5539
-0.4810 1.0327 0.5556
-0.5182 1.0141 0.5574
-0.5547 0.9942 0.5591
-0.5905 0.9729 0.5607
-0.6255 0.9504 0.5623
-0.6598 0.9267 0.5638
-0.6931 0.9018 0.5652
-0.7256 0.8757 0.5666
-0.7572 0.8484 0.5679
-0.7878 0.8201 0.5691
-2.5105 2.4282 1.7516
-2.5931 2.3301 1.7516
-2.6725 2.2296 1.7516
-2.7485 2.1267 1.7516
-2.8212 2.0216 1.7516
-2.8904 1.9144 1.7516
-2.9561 1.8051 1.7516
-3.0182 1.6939 1.7516
-3.0768 1.5808 1.7516
-3.1317 1.4660 1.7516
-3.1830 1.3496 1.7516
-3.2305 1.2316 1.7516
-3.2743 1.1121 1.7516
-3.3143 0.9913 1.7516
-3.3505 0.8692 1.7516
-3.3828 0.7459 1.7516
-3.4112 0.6216 1.7516
-3.4356 0.4964 1.7516
-3.4561 0.3702 1.7516
-3.4726 0.2434 1.7516
-3.4851 0.1159 1.7516
-3.4936 -0.0122 1.7516
-3.4979 -0.1407 1.7516
-3.4982 -0.2695 1.7516
-3.4943 -0.3985 1.7516
-3.4863 -0.5276 1.7516
-3.4742 -0.6567 1.7516
-3.4579 -0.7857 1.7516
-3.4373 -0.9145 1.7516
-3.4126 -1.0428 1.7516
-3.3837 -1.1707 1.7516
-3.3505 -1.2980 1.7516
-3.3131 -1.4246 1.7516
-3.2715 -1.5502 1.7516
-3.2256 -1.6750 1.7516
-3.1756 -1.7985 1.7516
-3.1213 -1.9209 1.7516
-3.0628 -2.0419 1.7516
-3.0001 -2.1613 1.7516
-2.9332 -2.2791 1.7516
-2.8622 -2.3951 1.7516
-2.7870 -2.5091 1.7516
-2.7078 -2.6211 1.7516
-2.6245 -2.7308 1.7516
-2.5371 -2.8382 1.7516
-2.4458 -2.9430 1.7516
-2.3506 -3.0451 1.7516
-2.2514 -3.1445 1.7516
-2.1485 -3.2408 1.7516
-2.0418 -3.3340 1.7516
-1.9315 -3.4239 1.7516
-1.8176 -3.5104 1.7516
-1.7002 -3.5933 1.7516
-1.5794 -3.6725 1.7516
-1.4554 -3.7477 1.7516
-1.3281 -3.8189 1.7516
-1.1978 -3.8859 1.7516
-1.0645 -3.9485 1.7516
-0.9284 -4.0066 1.7516
-0.7897 -4.0601 1.7516
-0.6485 -4.1088 1.7516
-0.5049 -4.1526 1.7516
-0.3592 -4.1913 1.7516
-0.1990 -3.9762 1.6485
-0.0588 -4.0443 1.6656
0.0841 -4.0243 1.6485
1.5134 -3.6734 1.6485
1.6482 -3.6329 1.6485
1.7819 -3.5870 1.6485
1.9140 -3.5358 1.6485
2.0444 -3.4793 1.6485
2.1728 -3.4175 1.6485
2.2989 -3.3505 1.6485
0.5906 -0.7992 0.4019
0.6121 -0.7703 0.3967
0.6493 -0.7608 0.4021
2.7767 -3.0321 1.6485
2.8883 -2.9404 1.6485
2.9962 -2.8441 1.6485
3.1004 -2.7433 1.6485
3.2005 -2.6383 1.6485
3.2964 -2.5291 1.6485
3.3879 -2.4160 1.6485
3.4748 -2.2991 1.6485
3.5569 -2.1787 1.6485
3.6341 -2.0550 1.6485
3.7061 -1.9281 1.6485
3.7730 -1.7983 1.6485
3.8345 -1.6658 1.6485
3.8905 -1.5310 1.6485
3.9409 -1.3939 1.6485
3.9857 -1.2549 1.6485
4.0247 -1.1143 1.6485
4.0579 -0.9722 1.6485
4.0853 -0.8290 1.6485
4.1067 -0.6850 1.6485
4.1223 -0.5402 1.6485
4.1319 -0.3952 1.6485
4.1357 -0.2500 1.6485
4.1335 -0.1051 1.6485
4.1255 0.0395 1.6485
4.1117 0.1833 1.6485
4.0921 0.3263 1.6485
4.0668 0.4680 1.6485
4.0360 0.6083 1.6485
3.9997 0.7470 1.6485
3.9580 0.8838 1.6485
3.9110 1.0185 1.6485
3.8589 1.1508 1.6485
3.8017 1.2807 1.6485
3.7398 1.4079 1.6485
3.6731 1.5321 1.6485
3.6018 1.6533 1.6485
3.5262 1.7713 1.6485
3.4463 1.8858 1.6485
3.3624 1.9969 1.6485
3.2747 2.1042 1.6485
3.1832 2.2078 1.6485
3.0883 2.3075 1.6485
2.9901 2.4031 1.6485
0.8414 0.7266 0.4802
0.8142 0.7550 0.4820
0.7860 0.7824 0.4839
0.7569 0.8087 0.4859
0.7269 0.8340 0.4878
0.6960 0.8582 0.4898
0.6643 0.8812 0.4919
0.6318 0.9032 0.4939
0.5985 0.9239 0.4960
0.5646 0.9435 0.4981
0.5300 0.9619 0.5002
0.4948 0.9790 0.5024
0.4590 0.9948 0.5045
0.4227 1.0094 0.5067
0.3859 1.0227 0.5089
0.3486 1.0346 0.5110
0.3110 1.0453 0.5132
0.2730 1.0546 0.5154
0.2347 1.0626 0.5176
0.1962 1.0692 0.5197
0.1575 1.0744 0.5219
0.1185 1.0783 0.5240
0.0795 1.0808 0.5262
0.0405 1.0819 0.5283
0.0014 1.0816 0.5304
-0.0377 1.0800 0.5325
-0.0767 1.0770 0.5345
-0.1155 1.0726 0.5365
-0.1542 1.0668 0.5385
-0.1927 1.0597 0.5405
-0.2308 1.0512 0.5424
-0.2687 1.0414 0.5443
-0.3062 1.0302 0.5462
-0.3433 1.0178 0.5480
-0.3800 1.0040 0.5498
-0.4161 0.9889 0.5515
-0.4517 0.9726 0.5532
-0.4868 0.9550 0.5548
-0.5211 0.9362 0.5564
-0.5549 0.9162 0.5580
-0.5878 0.8949 0.5594
-0.6201 0.8726 0.5609
-0.6515 0.8491 0.5622
-0.6821 0.8244 0.5635
-0.7119 0.7988 0.5647
-0.7407 0.7720 0.5659
-0.7685 0.7443 0.5670
-0.7954 0.7155 0.5681
-2.5280 2.1111 1.7516
-2.6002 2.0138 1.7516
-2.6692 1.9142 1.7516
-2.7350 1.8127 1.7516
-2.7973 1.7092 1.7516
-2.8564 1.6038 1.7516
-2.9119 1.4967 1.7516
-2.9640 1.3879 1.7516
-3.0127 1.2775 1.7516
-3.0577 1.1656 1.7516
-3.0992 1.0523 1.7516
-3.1371 0.9377 1.7516
-3.1713 0.8220 1.7516
-3.2018 0.7051 1.7516
-3.2286 0.5873 1.7516
-3.2516 0.4685 1.7516
-3.2709 0.3489 1.7516
-3.2863 0.2287 1.7516
-3.2979 0.1078 1.7516
-3.3056 -0.0136 1.7516
-3.3095 -0.1353 1.7516
-3.3094 -0.2573 1.7516
-3.3054 -0.3795 1.7516
-3.2975 -0.5018 1.7516
-3.2856 -0.6240 1.7516
-3.2697 -0.7461 1.7516
-3.2498 -0.8679 1.7516
-3.2259 -0.9894 1.7516
-3.1981 -1.1103 1.7516
-3.1662 -1.2306 1.7516
-3.1303 -1.3502 1.7516
-3.0904 -1.4689 1.7516
-3.0464 -1.5866 1.7516
-2.9985 -1.7032 1.7516
-2.9466 -1.8186 1.7516
-2.8907 -1.9326 1.7516
-2.8308 -2.0452 1.7516
-2.7670 -2.1561 1.7516
-2.6993 -2.2652 1.7516
-2.6277 -2.3725 1.7516
-2.5522 -2.4777 1.7516
-2.4730 -2.5807 1.7516
-2.3899 -2.6815 1.7516
-2.3031 -2.7798 1.7516
-2.2127 -2.8755 1.7516
-2.1186 -2.9685 1.7516
-2.0209 -3.0586 1.7516
-1.9198 -3.1457 1.7516
-1.8153 -3.2297 1.7516
-1.7074 -3.3103 1.7516
-1.5964 -3.3875 1.7516
-1.4821 -3.4612 1.7516
-1.3649 -3.5311 1.7516
-1.2446 -3.5971 1.7516
-1.1216 -3.6591 1.7516
-0.9959 -3.7170 1.7516
-0.8676 -3.7707 1.7516
-0.7369 -3.8199 1.7516
-0.6039 -3.8646 1.7516
-0.4688 -3.9046 1.7516
-0.3317 -3.9399 1.7516
-0.1815 -3.7366 1.6485
