ply
format ascii 1.0
element vertex 2086
property float32 x
property float32 y
property float32 z
end_header
-14.3251 -5.9403 -1.6673
-14.4926 -6.6276 -1.7135
-14.6067 -7.3232 -1.7571
-14.1541 -7.7426 -1.7351
-13.3410 -7.9314 -1.6694
-12.4866 -8.0423 -1.5977
-11.7638 -8.1872 -1.5419
-11.1326 -8.3553 -1.4976
-10.7716 -8.7044 -1.4902
-10.4182 -9.0544 -1.4853
-10.2324 -9.5573 -1.5069
-10.6630 -10.6997 -1.6258
-12.3165 -13.2777 -1.9494
-12.4701 -14.4484 -2.0545
-12.6951 -15.8209 -2.1838
-12.0826 -16.2149 -2.1771
-11.6117 -16.8073 -2.1995
-11.2898 -17.6621 -2.2572
-12.1592 -20.6136 -2.5772
-14.6979 -27.0900 -3.3191
-13.7963 -27.7559 -3.3381
-14.2821 -31.5173 -3.7268
-15.9073 -38.7372 -4.5104
-16.2741 -44.0588 -5.0591
-14.5899 -44.3218 -5.0263
8.1232 -43.7738 -4.7964
8.0194 -35.9791 -3.9711
8.2224 -31.5266 -3.5099
7.5280 -25.1400 -2.8270
7.9947 -23.5888 -2.6830
7.5938 -20.0173 -2.3061
8.1640 -19.3956 -2.2667
8.8796 -19.1472 -2.2733
8.8968 -17.5123 -2.1155
7.6464 -13.8034 -1.6994
7.4635 -12.4034 -1.5589
7.8040 -11.9763 -1.5393
8.2147 -11.6703 -1.5367
8.6664 -11.4201 -1.5435
7.5397 -9.2294 -1.2831
7.4713 -8.5049 -1.2187
7.4852 -7.9289 -1.1737
7.6554 -7.5484 -1.1572
8.0627 -7.3996 -1.1778
7.2222 3.2117 -0.6680
7.4263 3.6264 -0.6984
8.6646 4.6225 -0.8297
8.6598 5.0263 -0.8459
8.6126 5.4203 -0.8596
8.7055 5.9243 -0.8894
8.6999 6.3881 -0.9115
8.6382 6.8321 -0.9300
8.6879 7.3922 -0.9631
8.6834 7.9417 -0.9934
8.6187 8.4689 -1.0199
8.6113 9.0903 -1.0568
8.1385 9.2321 -1.0386
7.8462 9.5708 -1.0443
7.4139 9.7346 -1.0324
7.2057 10.1992 -1.0536
7.2118 11.0256 -1.1114
7.9815 13.2121 -1.3020
7.5277 13.5335 -1.3062
7.1399 13.9936 -1.3250
8.4679 18.1764 -1.6911
8.4805 20.0494 -1.8358
7.9717 20.9031 -1.8865
7.2914 21.3905 -1.9055
6.6982 22.2267 -1.9573
6.8315 26.0064 -2.2670
2.9591 13.1671 -1.1377
6.8997 36.8194 -3.1581
6.7316 44.7133 -3.8119
-8.8899 17.9662 -1.6905
-9.0134 16.6845 -1.5994
-9.6527 16.4320 -1.6074
-10.4577 16.4256 -1.6425
-11.2996 16.4189 -1.6814
-11.8474 15.9594 -1.6768
-8.8070 11.0164 -1.1900
-8.7976 10.2308 -1.1386
-8.8630 9.5897 -1.1020
-8.9508 9.0144 -1.0721
-9.3891 8.8017 -1.0863
-10.0829 8.7953 -1.1295
-10.8350 8.7884 -1.1778
-11.6012 8.7401 -1.2264
-12.3728 8.6447 -1.2746
-13.3531 8.6350 -1.3430
-14.4392 8.6201 -1.4204
-15.6631 8.6054 -1.5097
-17.0530 8.5888 -1.6132
-18.6491 8.5698 -1.7343
-31.0259 12.9325 -2.8407
-31.0105 11.6409 -2.7997
-30.9955 10.3849 -2.7633
-30.9809 9.1599 -2.7314
-30.9666 7.9616 -2.7037
-30.9526 6.7863 -2.6799
-30.9388 5.6304 -2.6599
-30.9252 4.4904 -2.6436
-18.4970 2.0125 -1.5742
-11.4930 0.8353 -0.9751
-11.5689 0.4252 -0.9798
-11.6478 0.0107 -0.9859
-11.7301 -0.4096 -0.9937
-11.7904 -0.8353 -1.0008
-13.6447 -1.4593 -1.1621
-13.6721 -1.9597 -1.1698
-13.9065 -2.5045 -1.1970
-13.9010 -3.0211 -1.2052
-13.9910 -3.5698 -1.2235
-5.7375 -1.6849 -0.5068
-14.1800 -4.7221 -1.2668
-14.2798 -5.3307 -1.2921
-14.4808 -6.0050 -1.3291
-14.4926 -6.6277 -1.3513
-14.6067 -7.3233 -1.3857
-14.1539 -7.7427 -1.3684
-13.3950 -7.9636 -1.3219
-12.4867 -8.0424 -1.2601
-11.7636 -8.1873 -1.2161
-11.1325 -8.3553 -1.1812
-10.7715 -8.7045 -1.1754
-10.4182 -9.0545 -1.1716
-10.2325 -9.5575 -1.1886
-10.6633 -10.7001 -1.2825
-12.2847 -13.2436 -1.5338
-12.6074 -14.6076 -1.6386
-12.7632 -15.9061 -1.7319
-12.0892 -16.2238 -1.7184
-11.6568 -16.8727 -1.7420
-12.6452 -19.7827 -1.9945
-12.2097 -20.6993 -2.0416
-14.6978 -27.0900 -2.6185
-13.7384 -27.6397 -2.6226
-14.2820 -31.5175 -2.9403
-15.9501 -38.8418 -3.5682
-16.2740 -44.0588 -3.9915
-14.5899 -44.3222 -3.9657
8.1334 -43.8293 -3.7892
8.0193 -35.9790 -3.1333
8.2224 -31.5266 -2.7693
7.4214 -24.7840 -2.1989
8.0126 -23.6420 -2.1216
7.6242 -20.0977 -1.8268
8.1683 -19.4059 -1.7893
8.9150 -19.2238 -1.8007
8.9717 -17.6598 -1.6831
7.6464 -13.8034 -1.3407
7.4635 -12.4034 -1.2299
7.8039 -11.9763 -1.2144
8.2146 -11.6704 -1.2123
8.6663 -11.4201 -1.2177
7.5398 -9.2296 -1.0122
7.4713 -8.5050 -0.9614
7.4851 -7.9289 -0.9259
7.6554 -7.5484 -0.9128
8.0627 -7.3997 -0.9291
7.2223 3.2117 -0.4891
7.4262 3.6263 -0.5112
8.6646 4.6224 -0.6074
8.6598 5.0263 -0.6192
8.6126 5.4202 -0.6292
8.7055 5.9242 -0.6509
8.6999 6.3880 -0.6671
8.6382 6.8320 -0.6806
8.6879 7.3922 -0.7048
8.6819 7.9402 -0.7268
8.6187 8.4688 -0.7463
8.6113 9.0902 -0.7733
8.1386 9.2321 -0.7600
7.8207 9.5395 -0.7616
7.4139 9.7345 -0.7554
7.2057 10.1992 -0.7708
7.2144 11.0294 -0.8134
7.9815 13.2120 -0.9526
7.5278 13.5335 -0.9556
7.1400 13.9936 -0.9693
8.4679 18.1762 -1.2371
8.4805 20.0493 -1.3429
7.9532 20.8545 -1.3767
7.2730 21.3362 -1.3903
7.5169 24.9432 -1.6067
8.3408 31.7516 -2.0246
2.9588 13.1657 -0.8322
6.8843 36.7370 -2.3048
6.7316 44.7133 -2.7882
-8.8899 17.9661 -1.2366
-9.0135 16.6846 -1.1700
-9.6529 16.4322 -1.1759
-10.4578 16.4256 -1.2016
-11.2997 16.4189 -1.2301
-11.8474 15.9592 -1.2268
-8.8070 11.0163 -0.8706
-5.8113 6.7579 -0.5503
-8.8630 9.5895 -0.8063
-8.9508 9.0143 -0.7845
-9.3890 8.8015 -0.7949
-10.0828 8.7952 -0.8265
-10.8351 8.7884 -0.8620
-11.6012 8.7400 -0.8975
-12.3729 8.6447 -0.9328
-13.3533 8.6350 -0.9830
-14.4394 8.6201 -1.0397
-15.6634 8.6054 -1.1051
-17.0533 8.5888 -1.1809
-18.6495 8.5698 -1.2696
-31.0259 12.9322 -2.0796
-31.0105 11.6407 -2.0497
-30.9955 10.3847 -2.0232
-30.9809 9.1596 -1.9999
-30.9666 7.9614 -1.9797
-30.9526 6.7860 -1.9624
-30.9388 5.6301 -1.9479
-30.9251 4.4902 -1.9360
-18.4970 2.0124 -1.1530
-11.1127 0.8076 -0.6906
-11.1778 0.4107 -0.6934
-11.2435 0.0102 -0.6971
-11.3100 -0.3950 -0.7018
-11.3774 -0.8061 -0.7075
-13.6448 -1.4594 -0.8514
-13.6722 -1.9598 -0.8571
-13.9066 -2.5046 -0.8770
-13.9010 -3.0212 -0.8831
-13.9910 -3.5700 -0.8966
-5.7364 -1.6847 -0.3713
-14.1800 -4.7222 -0.9284
-14.2798 -5.3308 -0.9470
-14.4808 -6.0051 -0.9741
-14.4926 -6.6278 -0.9905
-14.6067 -7.3235 -1.0157
-14.1538 -7.7427 -1.0031
-13.3948 -7.9637 -0.9691
-12.4867 -8.0426 -0.9238
-11.7635 -8.1873 -0.8916
-11.1324 -8.3553 -0.8660
-10.7715 -8.7046 -0.8618
-10.4182 -9.0546 -0.8591
-10.2325 -9.5576 -0.8716
-10.6636 -10.7006 -0.9405
-12.2847 -13.2438 -1.1248
-12.6074 -14.6078 -1.2016
-12.7633 -15.9063 -1.2702
-12.1800 -16.3459 -1.2698
-11.6568 -16.8729 -1.2776
-12.6934 -19.8583 -1.4684
-12.1702 -20.6327 -1.4926
-14.7031 -27.0999 -1.9214
-13.7699 -27.7034 -1.9281
-13.0972 -28.9031 -1.9778
-15.8868 -38.6880 -2.6070
-16.2739 -44.0587 -2.9280
-14.5899 -44.3226 -2.9091
8.1334 -43.8293 -2.7798
7.2465 -32.5120 -2.0771
8.1904 -31.4041 -2.0237
7.5274 -25.1383 -1.6361
8.0543 -23.7651 -1.5645
7.6242 -20.0977 -1.3401
8.2319 -19.5573 -1.3228
8.9149 -19.2238 -1.3209
8.9627 -17.6424 -1.2334
7.6463 -13.8035 -0.9834
7.4635 -12.4035 -0.9021
7.8039 -11.9763 -0.8907
8.2146 -11.6704 -0.8892
8.6662 -11.4201 -0.8931
7.5400 -9.2299 -0.7424
7.4713 -8.5050 -0.7050
7.4851 -7.9290 -0.6790
7.6553 -7.5485 -0.6694
8.0626 -7.3997 -0.6813
7.2050 3.2040 -0.3098
7.4262 3.6263 -0.3246
8.6646 4.6224 -0.3857
8.6411 5.0154 -0.3922
7.9593 5.0090 -0.3691
7.7230 5.2556 -0.3665
8.6999 6.3879 -0.4234
8.6382 6.8319 -0.4319
8.6879 7.3921 -0.4472
8.6814 7.9397 -0.4611
8.6187 8.4687 -0.4735
8.6113 9.0901 -0.4906
8.1387 9.2321 -0.4821
7.8463 9.5707 -0.4847
7.4140 9.7345 -0.4791
7.2057 10.1991 -0.4889
7.2144 11.0294 -0.5158
7.9816 13.2120 -0.6040
7.5278 13.5334 -0.6059
7.1400 13.9936 -0.6146
8.4679 18.1760 -0.7843
8.4805 20.0491 -0.8514
7.9533 20.8545 -0.8728
7.2730 21.3361 -0.8814
7.5169 24.9431 -1.0185
8.3408 31.7513 -1.2833
2.9586 13.1642 -0.5274
6.9031 36.8366 -1.4649
6.7319 44.7152 -1.7673
-5.9926 24.0109 -0.9673
-13.2493 32.4298 -1.3698
-8.8899 17.9659 -0.7840
-9.0136 16.6846 -0.7418
-9.6533 16.4327 -0.7456
-10.4580 16.4258 -0.7620
-11.2998 16.4189 -0.7801
-11.8474 15.9591 -0.7780
-8.8070 11.0162 -0.5522
-5.8113 6.7579 -0.3490
-6.2381 6.7494 -0.3600
-8.9508 9.0142 -0.4977
-9.3889 8.8014 -0.5043
-10.0828 8.7951 -0.5244
-10.8352 8.7884 -0.5470
-11.6012 8.7399 -0.5696
-12.3731 8.6447 -0.5920
-13.3535 8.6350 -0.6239
-14.4397 8.6201 -0.6600
-15.6636 8.6054 -0.7016
-17.0536 8.5888 -0.7498
-18.6498 8.5698 -0.8062
-31.0259 12.9320 -1.3207
-31.0105 11.6404 -1.3018
-30.9955 10.3844 -1.2851
-30.9809 9.1594 -1.2705
-30.9666 7.9611 -1.2578
-30.9526 6.7858 -1.2469
-30.9388 5.6298 -1.2378
-30.9251 4.4899 -1.2304
-18.4971 2.0122 -0.7328
-11.3455 0.8244 -0.4482
-22.0923 0.8116 -0.8713
-16.6076 0.0150 -0.6548
-13.4898 -0.4713 -0.5323
-11.5754 -0.8202 -0.4578
-13.6448 -1.4595 -0.5415
-13.6722 -1.9599 -0.5452
-13.9066 -2.5047 -0.5580
-13.9010 -3.0213 -0.5619
-13.9910 -3.5701 -0.5705
-5.7357 -1.6845 -0.2363
-14.1800 -4.7224 -0.5909
-14.2799 -5.3310 -0.6028
-14.4808 -6.0052 -0.6202
-14.4926 -6.6280 -0.6306
-14.6068 -7.3236 -0.6468
-14.1536 -7.7427 -0.6388
-13.4772 -8.0127 -0.6210
-12.4867 -8.0427 -0.5884
-11.7634 -8.1873 -0.5679
-11.1323 -8.3554 -0.5517
-10.7714 -8.7046 -0.5491
-10.4181 -9.0547 -0.5474
-10.2325 -9.5577 -0.5554
-10.6640 -10.7011 -0.5994
-12.2848 -13.2440 -0.7169
-12.6075 -14.6080 -0.7659
-12.7633 -15.9065 -0.8097
-12.1800 -16.3460 -0.8095
-11.6568 -16.8730 -0.8145
-12.6934 -19.8583 -0.9362
-12.1702 -20.6329 -0.9518
-14.7029 -27.1000 -1.2252
-13.8137 -27.7916 -1.2335
-14.2887 -31.5326 -1.3761
-15.9497 -38.8414 -1.6692
-16.2737 -44.0587 -1.8674
-14.5899 -44.3229 -1.8555
8.1263 -43.7916 -1.7717
8.0185 -35.9761 -1.4661
8.2252 -31.5376 -1.2963
7.5274 -25.1383 -1.0436
8.0542 -23.7651 -0.9979
7.6242 -20.0978 -0.8547
8.2319 -19.5574 -0.8436
8.9149 -19.2238 -0.8424
8.9717 -17.6602 -0.7873
7.6463 -13.8035 -0.6271
7.4634 -12.4036 -0.5752
7.8038 -11.9764 -0.5679
8.2145 -11.6704 -0.5669
8.6661 -11.4201 -0.5694
7.5401 -9.2302 -0.4733
7.4713 -8.5051 -0.4494
7.4851 -7.9291 -0.4328
7.6553 -7.5485 -0.4266
8.0626 -7.3997 -0.4342
7.2050 3.2039 -0.1321
7.4262 3.6262 -0.1384
8.6640 4.6219 -0.1643
8.6582 5.0252 -0.1674
8.0217 5.0482 -0.1584
7.5428 5.1329 -0.1524
8.6999 6.3878 -0.1801
8.3095 6.5719 -0.1767
7.7072 6.5576 -0.1687
7.5029 6.8618 -0.1694
8.4465 8.2994 -0.1972
7.8542 8.2908 -0.1900
8.1387 9.2320 -0.2047
7.7332 9.4326 -0.2028
7.4140 9.7345 -0.2033
7.2057 10.1991 -0.2074
7.0810 10.8253 -0.2147
7.8842 13.0506 -0.2530
7.4368 13.3696 -0.2538
7.0879 13.8913 -0.2586
7.7552 16.6462 -0.3044
7.6668 18.1252 -0.3261
7.5700 19.8495 -0.3519
7.2731 21.3361 -0.3733
7.5170 24.9431 -0.4313
7.8157 29.7523 -0.5092
2.9583 13.1628 -0.2232
6.9031 36.8365 -0.6202
6.7320 44.7152 -0.7481
3.1919 27.9739 -0.4658
-2.9553 29.0729 -0.4834
-3.9745 28.8029 -0.4810
-4.9848 28.5354 -0.4792
-5.9918 24.0073 -0.4095
-13.2473 32.4247 -0.5802
-8.8899 17.9658 -0.3322
-9.0138 16.6848 -0.3144
-9.6536 16.4331 -0.3161
-10.4583 16.4263 -0.3231
-11.3000 16.4191 -0.3308
-11.8474 15.9589 -0.3301
-8.8070 11.0160 -0.2343
-5.8114 6.7579 -0.1481
-8.8629 9.5893 -0.2171
-8.9508 9.0141 -0.2114
-9.3889 8.8013 -0.2142
-10.0829 8.7951 -0.2229
-10.8353 8.7884 -0.2325
-11.6012 8.7398 -0.2422
-12.3733 8.6447 -0.2519
-13.3537 8.6350 -0.2655
-14.4399 8.6201 -0.2810
-15.6639 8.6054 -0.2988
-17.0539 8.5888 -0.3194
-18.6502 8.5698 -0.3436
-31.0259 12.9317 -0.5631
-31.0105 11.6402 -0.5552
-30.9955 10.3841 -0.5483
-30.9809 9.1591 -0.5423
-30.9666 7.9608 -0.5371
-30.9526 6.7855 -0.5327
-30.9388 5.6296 -0.5290
-30.9251 4.4897 -0.5261
-17.8548 1.9422 -0.3026
-11.3455 0.8244 -0.1918
-22.1528 0.8136 -0.3740
-16.5612 0.0148 -0.2796
-13.4893 -0.4713 -0.2281
-11.5754 -0.8203 -0.1962
-13.6448 -1.4596 -0.2322
-13.6722 -1.9600 -0.2339
-13.7571 -2.4779 -0.2369
-13.9010 -3.0215 -0.2413
-13.9910 -3.5702 -0.2451
-5.7350 -1.6844 -0.1015
-14.1801 -4.7225 -0.2540
-14.2799 -5.3311 -0.2593
-14.3252 -5.9408 -0.2640
-14.4927 -6.6281 -0.2714
-14.6068 -7.3238 -0.2785
-14.1534 -7.7427 -0.2752
-13.2673 -7.8881 -0.2634
-12.4867 -8.0428 -0.2536
-11.7632 -8.1873 -0.2449
-11.1322 -8.3554 -0.2380
-10.6605 -8.6151 -0.2345
-10.4181 -9.0548 -0.2363
-10.2324 -9.5578 -0.2398
-10.6643 -10.7016 -0.2589
-11.1849 -12.0583 -0.2820
-12.6075 -14.6082 -0.3310
-12.7633 -15.9067 -0.3500
-12.1799 -16.3460 -0.3500
-11.6567 -16.8731 -0.3523
-12.6933 -19.8584 -0.4050
-12.1703 -20.6331 -0.4118
-14.7028 -27.1000 -0.5302
-13.8136 -27.7917 -0.5339
-14.2886 -31.5328 -0.5958
-15.9437 -38.8272 -0.7226
-16.2736 -44.0587 -0.8088
-14.5899 -44.3233 -0.8037
-7.6008 -30.2259 -0.5371
-7.1707 -33.5542 -0.5914
3.3407 -22.4593 -0.3915
4.0999 -22.0942 -0.3874
8.0185 -35.9761 -0.6353
8.2251 -31.5377 -0.5617
7.5273 -25.1384 -0.4521
8.0542 -23.7652 -0.4323
7.6241 -20.0979 -0.3702
8.1681 -19.4060 -0.3625
8.4750 -18.2755 -0.3468
8.4079 -16.5506 -0.3194
7.3365 -13.2445 -0.2605
7.4020 -12.3016 -0.2469
7.7090 -11.8309 -0.2427
8.1281 -11.5477 -0.2426
8.5982 -11.3307 -0.2443
7.5403 -9.2304 -0.2046
7.3208 -8.3339 -0.1903
7.4850 -7.9291 -0.1870
7.6553 -7.5486 -0.1843
7.9284 -7.2767 -0.1844
7.2226 3.2117 0.0456
7.4261 3.6261 0.0478
8.6640 4.6219 0.0569
8.6584 5.0252 0.0581
8.0219 5.0483 0.0551
7.3515 5.0026 0.0518
8.6999 6.3877 0.0630
8.3093 6.5716 0.0619
7.7141 6.5633 0.0593
7.2832 6.6608 0.0579
8.4463 8.2991 0.0695
7.8542 8.2907 0.0672
7.2684 8.2447 0.0647
7.8464 9.5706 0.0730
7.4141 9.7344 0.0723
7.2058 10.1990 0.0739
7.2146 11.0294 0.0780
7.9817 13.2119 0.0915
7.5279 13.5334 0.0919
7.1402 13.9937 0.0933
7.7553 16.6463 0.1092
7.1072 16.8023 0.1086
6.9568 18.2412 0.1163
7.2731 21.3361 0.1344
7.4660 24.7739 0.1543
7.3930 28.1430 0.1737
2.9580 13.1614 0.0805
6.9032 36.8364 0.2239
6.4572 42.8899 0.2592
-2.9557 29.0764 0.1748
-3.9750 28.8064 0.1739
-4.9855 28.5388 0.1732
-9.6659 45.6254 0.2787
-6.0662 24.3055 0.1496
-13.2454 32.4197 0.2087
-20.3481 45.1180 0.2946
-8.7670 17.7172 0.1176
-8.9144 16.5006 0.1114
-9.5822 16.3114 0.1123
-10.3792 16.3018 0.1146
-11.2125 16.2918 0.1171
-8.7954 11.8477 0.0873
-8.6852 10.8636 0.0822
-5.8834 6.8416 0.0532
-8.7532 9.4704 0.0760
-8.8325 8.8949 0.0738
-9.2616 8.6818 0.0746
-9.9439 8.6737 0.0774
-10.6832 8.6649 0.0806
-11.4891 8.6552 0.0841
-12.3734 8.6447 0.0881
-13.2699 8.5806 0.0921
-14.2087 8.4820 0.0962
-15.6641 8.6054 0.1037
-17.0542 8.5888 0.1106
-18.6505 8.5698 0.1187
-31.0259 12.9314 0.1940
-31.0105 11.6399 0.1908
-30.9955 10.3839 0.1879
-30.9809 9.1588 0.1853
-30.9666 7.9606 0.1830
-30.9525 6.7853 0.1810
-30.9387 5.6294 0.1792
-30.9251 4.4894 0.1777
-18.3730 1.9984 0.1049
-11.3455 0.8243 0.0644
-22.0835 0.8109 0.1248
-17.1566 0.0152 0.0967
-13.4888 -0.4714 0.0759
-11.5754 -0.8204 0.0651
-13.6448 -1.4597 0.0768
-13.7282 -1.9681 0.0775
-13.8135 -2.4882 0.0782
-13.9010 -3.0216 0.0791
-13.9911 -3.5703 0.0801
-5.7344 -1.6842 0.0331
-14.1801 -4.7226 0.0826
-14.2799 -5.3312 0.0840
-14.3839 -5.9653 0.0857
-14.4927 -6.6282 0.0875
-14.6068 -7.3239 0.0895
-14.2271 -7.7832 0.0886
-13.3364 -7.9293 0.0846
-12.5186 -8.0635 0.0811
-11.7632 -8.1874 0.0779
-11.1321 -8.3554 0.0755
-10.7713 -8.7047 0.0750
-10.4181 -9.0549 0.0746
-10.2324 -9.5579 0.0755
-10.6647 -10.7020 0.0814
-11.1128 -11.9808 0.0879
-11.6283 -13.4738 0.0955
-10.9678 -13.6690 0.0939
-11.3472 -15.2287 0.1016
-11.6567 -16.8732 0.1096
-12.6932 -19.8585 0.1258
-12.1703 -20.6332 0.1277
-12.6899 -23.3900 0.1417
-13.1877 -26.5328 0.1576
-14.2886 -31.5330 0.1839
-14.8000 -36.0422 0.2067
-16.2734 -44.0587 0.2490
-14.8726 -45.1827 0.2520
-7.6125 -30.2726 0.1651
-7.1751 -33.5749 0.1815
3.3406 -22.4593 0.1199
4.0999 -22.0942 0.1187
8.0185 -35.9762 0.1948
7.8776 -30.2056 0.1651
7.4858 -24.9998 0.1381
7.9984 -23.6007 0.1319
7.6241 -20.0979 0.1139
7.7117 -18.3218 0.1054
7.6963 -16.5964 0.0971
7.6603 -15.0790 0.0899
7.6462 -13.8036 0.0839
7.4634 -12.4037 0.0771
7.8037 -11.9764 0.0762
8.2144 -11.6705 0.0762
8.6660 -11.4201 0.0766
7.5404 -9.2307 0.0638
7.4713 -8.5053 0.0607
7.4850 -7.9292 0.0586
7.6552 -7.5486 0.0578
8.0625 -7.3998 0.0590
7.2050 3.2038 0.2231
7.4261 3.6260 0.2339
8.6640 4.6218 0.2781
8.6586 5.0252 0.2836
8.0222 5.0484 0.2686
7.4091 5.0418 0.2541
6.9818 5.1262 0.2457
8.3091 6.5713 0.3006
7.7145 6.5636 0.2875
7.1263 6.5172 0.2742
7.0389 6.9162 0.2803
7.8545 8.2910 0.3245
7.3029 8.2837 0.3138
6.8611 8.3686 0.3076
7.4457 9.7759 0.3494
7.2058 10.1989 0.3552
7.1484 10.9281 0.3715
7.9363 13.1367 0.4367
7.4874 13.4603 0.4384
7.1452 14.0035 0.4476
7.7553 16.6461 0.5229
7.0380 16.6385 0.5145
6.9236 18.1541 0.5534
6.7760 19.8776 0.5983
7.5171 24.9430 0.7423
7.3931 28.1429 0.8292
2.9577 13.1600 0.3844
5.8709 31.3279 0.9085
5.9512 39.5282 1.1395
0.1950 31.6926 0.9036
-2.9561 29.0800 0.8333
-3.9756 28.8099 0.8291
-4.9861 28.5422 0.8259
-9.6658 45.6250 1.3293
-6.0663 24.3055 0.7139
-13.0188 45.2050 1.3406
-11.4395 34.9609 1.0482
-12.2461 33.3365 1.0118
-13.1982 32.3040 0.9940
-15.2492 33.8119 1.0564
-8.7670 17.7170 0.5629
-8.9145 16.5007 0.5340
-9.5826 16.3120 0.5385
-10.3792 16.3017 0.5500
-11.2122 16.2912 0.5627
-8.7955 11.8477 0.4197
-8.6852 10.8635 0.3955
-5.8835 6.8417 0.2565
-8.7532 9.4703 0.3665
-8.8325 8.8948 0.3561
-9.2617 8.6818 0.3606
-9.9440 8.6737 0.3747
-10.6833 8.6649 0.3904
-11.4892 8.6552 0.4082
-12.3736 8.6447 0.4281
-13.3511 8.6330 0.4508
-14.4401 8.6200 0.4767
-15.6644 8.6054 0.5064
-17.0545 8.5888 0.5408
-18.6508 8.5697 0.5811
-31.0259 12.9312 0.9512
-31.0105 11.6396 0.9369
-30.9955 10.3836 0.9243
-30.9809 9.1586 0.9131
-30.9666 7.9603 0.9033
-30.9525 6.7850 0.8948
-30.9387 5.6291 0.8876
-30.9251 4.4892 0.8817
-17.8496 1.9414 0.5064
-11.3455 0.8242 0.3207
-19.0853 0.7007 0.5381
-17.1558 0.0150 0.4832
-13.4882 -0.4715 0.3799
-11.5754 -0.8205 0.3265
-13.6448 -1.4598 0.3860
-13.7282 -1.9683 0.3899
-13.8135 -2.4883 0.3944
-13.9011 -3.0217 0.3996
-13.9911 -3.5704 0.4054
-5.7338 -1.6841 0.1677
-14.1801 -4.7228 0.4193
-14.2799 -5.3313 0.4274
-14.3840 -5.9654 0.4365
-14.4927 -6.6284 0.4465
-14.6068 -7.3241 0.4576
-14.2269 -7.7832 0.4540
-13.3362 -7.9293 0.4342
-12.5184 -8.0635 0.4165
-11.7630 -8.1874 0.4007
-11.1320 -8.3555 0.3890
-10.7018 -8.6487 0.3845
-10.4181 -9.0550 0.3855
-10.2845 -9.6067 0.3930
-10.6650 -10.7025 0.4217
-11.1439 -12.0144 0.4573
-10.4473 -12.1054 0.4460
-10.9055 -13.5916 0.4860
-11.3731 -15.2636 0.5307
-11.6566 -16.8733 0.5716
-12.6931 -19.8586 0.6567
-12.1703 -20.6334 0.6673
-12.6038 -23.2315 0.7361
-12.3146 -24.7763 0.7704
-14.2885 -31.5331 0.9638
-14.1920 -34.5620 1.0400
-13.9983 -37.8993 1.1244
-14.8726 -45.1831 1.3236
-7.6124 -30.2726 0.8683
-7.1750 -33.5749 0.9550
3.4074 -44.7365 1.2476
3.3406 -22.4593 0.6314
4.0999 -22.0942 0.6249
6.7263 -30.1791 0.8600
7.0346 -26.9734 0.7754
7.5272 -25.1384 0.7300
8.0541 -23.7652 0.6982
7.0322 -18.5379 0.5517
7.0604 -16.7746 0.5065
7.0841 -15.2764 0.4687
7.6602 -15.0791 0.4709
8.3477 -15.0700 0.4797
7.4633 -12.4037 0.4032
7.7601 -11.9095 0.3960
8.1580 -11.5905 0.3950
8.6659 -11.4202 0.3996
7.5405 -9.2310 0.3323
7.3657 -8.3851 0.3113
7.4850 -7.9292 0.3042
7.6921 -7.5850 0.3015
7.9689 -7.3140 0.3019
7.2610 3.2286 0.4041
7.4260 3.6259 0.4203
8.6640 4.6217 0.4996
8.6588 5.0253 0.5094
8.0224 5.0485 0.4824
7.4092 5.0418 0.4562
6.8922 5.0603 0.4354
7.9522 6.2890 0.5163
7.7146 6.5636 0.5160
7.1692 6.5564 0.4950
6.8168 6.6979 0.4870
7.8360 8.2713 0.5807
7.3030 8.2838 0.5629
6.7538 8.2377 0.5431
7.4142 9.7343 0.6239
7.2058 10.1989 0.6369
7.2147 11.0294 0.6722
7.9818 13.2118 0.7874
7.5280 13.5333 0.7901
7.1403 13.9937 0.8016
7.7554 16.6461 0.9371
7.0381 16.6386 0.9220
6.3281 16.5926 0.9064
6.1851 18.1440 0.9785
5.9873 19.8668 1.0593
6.5982 25.1170 1.3258
2.9574 13.1586 0.6886
5.7444 30.6527 1.5924
4.6428 30.8374 1.5924
3.5353 30.9827 1.5924
2.4234 31.0885 1.5924
1.3932 33.1718 1.6955
0.2043 33.2001 1.6955
-0.9848 33.1861 1.6955
-2.1727 33.1298 1.6955
-3.0079 29.5895 1.5188
-4.5387 32.8907 1.6955
-5.1128 29.2672 1.5171
-6.8819 32.4838 1.6955
-6.0663 24.3055 1.2791
-8.6308 29.9681 1.5922
-9.6992 29.6420 1.5922
-10.7554 29.2781 1.5922
-11.5734 28.3269 1.5619
-12.7691 28.3126 1.5852
-8.7667 17.7163 1.0087
-8.9139 16.4994 0.9569
-9.5812 16.3094 0.9651
-10.3780 16.2996 0.9858
-11.2107 16.2889 1.0086
-8.7956 11.8477 0.7525
-8.6852 10.8634 0.7092
-5.8837 6.8418 0.4601
-8.7532 9.4702 0.6574
-8.8326 8.8947 0.6389
-9.2618 8.6818 0.6469
-9.9441 8.6737 0.6723
-10.6834 8.6649 0.7007
-11.4894 8.6552 0.7326
-12.3738 8.6447 0.7686
-13.3513 8.6330 0.8094
-14.4404 8.6200 0.8560
-15.6646 8.6054 0.9095
-17.0547 8.5888 0.9715
-18.6512 8.5697 1.0441
-29.6839 12.3716 1.6355
-30.1148 11.3032 1.6355
-30.5074 10.2199 1.6355
-30.8611 9.1229 1.6355
-30.9666 7.9601 1.6245
-30.9525 6.7848 1.6096
-30.9387 5.6289 1.5970
-12.2341 1.7758 0.6276
-17.2796 1.8792 0.8823
-11.3456 0.8241 0.5773
-13.3404 0.4897 0.6773
-13.4198 0.0117 0.6807
-13.5001 -0.4720 0.6850
-11.5755 -0.8206 0.5883
-13.6449 -1.4599 0.6955
-13.7283 -1.9684 0.7027
-13.8136 -2.4884 0.7110
-13.9011 -3.0218 0.7205
-13.9911 -3.5706 0.7311
-5.7331 -1.6840 0.3025
-14.1801 -4.7229 0.7564
-14.2800 -5.3315 0.7712
-14.3840 -5.9656 0.7877
-12.9747 -5.9342 0.7215
-13.0990 -6.5681 0.7409
-13.1769 -7.2089 0.7593
-13.4765 -8.0129 0.7924
-12.4868 -8.0432 0.7505
-11.7629 -8.1874 0.7240
-11.1319 -8.3555 0.7030
-10.7711 -8.7049 0.6993
-10.4180 -9.0550 0.6969
-10.2324 -9.5581 0.7068
-10.6653 -10.7029 0.7626
-11.1438 -12.0145 0.8269
-10.4655 -12.1267 0.8081
-9.8794 -12.3129 0.7963
-10.2588 -13.7683 0.8660
-10.6281 -15.3846 0.9429
-12.6930 -19.8586 1.1883
-12.1702 -20.6336 1.2077
-12.6036 -23.2315 1.3323
-11.6271 -23.3933 1.3167
-12.0556 -26.6057 1.4720
-12.0266 -29.2888 1.5955
-10.9710 -29.7036 1.5955
-9.9011 -30.0800 1.5955
-8.8003 -30.3556 1.5922
-7.7081 -30.6535 1.5922
-6.6058 -30.9117 1.5922
-5.4949 -31.1301 1.5922
-4.6606 -33.3386 1.6955
-3.4638 -33.4852 1.6955
-2.2625 -33.5886 1.6955
-1.0582 -33.6486 1.6955
0.1475 -33.6652 1.6955
1.3530 -33.6384 1.6955
2.5567 -33.5679 1.6955
3.5287 -31.4201 1.5924
3.7071 -24.9235 1.2691
5.7682 -31.0848 1.5924
6.7348 -30.2172 1.5593
6.9117 -26.5022 1.3796
7.5272 -25.1384 1.3219
8.0540 -23.7653 1.2641
6.3011 -16.6108 0.8951
6.4031 -15.2130 0.8317
6.9967 -15.0880 0.8381
7.6602 -15.0791 0.8524
7.6461 -13.8037 0.7954
7.4633 -12.4038 0.7297
7.8036 -11.9765 0.7207
8.2143 -11.6706 0.7196
8.6659 -11.4202 0.7230
7.5407 -9.2312 0.6012
7.3208 -8.3341 0.5596
7.4850 -7.9293 0.5501
7.6551 -7.5487 0.5425
6.8186 -6.2583 0.4671
7.2229 3.2116 0.5807
7.4260 3.6258 0.6072
8.6640 4.6216 0.7216
8.6590 5.0253 0.7358
8.0224 5.0483 0.6967
7.4094 5.0418 0.6589
6.8060 4.9970 0.6208
6.5255 5.1606 0.6118
7.6018 6.4675 0.7341
7.1694 6.5565 0.7146
6.6261 6.5104 0.6834
6.5790 6.9444 0.7038
7.3031 8.2838 0.8126
6.7859 8.2768 0.7877
6.4705 8.4952 0.7859
7.2059 10.1988 0.9192
7.2147 11.0294 0.9702
7.9818 13.2118 1.1364
7.5281 13.5333 1.1402
7.1404 13.9937 1.1568
7.7555 16.6462 1.3523
7.0381 16.6384 1.3305
6.3428 16.6310 1.3109
6.1851 18.1437 1.4119
5.9872 19.8662 1.5283
5.4925 20.9076 1.5924
2.9417 13.0886 0.9882
3.9815 21.2454 1.5924
3.2180 21.3736 1.5924
2.4504 21.4746 1.5924
1.7885 22.9432 1.6955
0.9657 22.9922 1.6955
0.1416 23.0119 1.6955
-0.6826 23.0022 1.6955
-1.5059 22.9631 1.6955
-2.3274 22.8948 1.6955
-3.1459 22.7971 1.6955
-3.9604 22.6704 1.6955
-4.7699 22.5146 1.6955
-5.5733 22.3302 1.6955
-5.9824 20.7723 1.5924
-6.7227 20.5453 1.5923
-7.4544 20.2920 1.5923
-8.1766 20.0129 1.5923
-8.8885 19.7081 1.5922
-8.7666 17.7160 1.4556
-8.9136 16.4988 1.3809
-9.5792 16.3058 1.3924
-10.3747 16.2943 1.4222
-10.8641 15.7851 1.4107
-8.7943 11.8459 1.0860
-8.6850 10.8631 1.0237
-5.8838 6.8419 0.6641
-8.7533 9.4702 0.9490
-8.8326 8.8946 0.9223
-9.2619 8.6818 0.9339
-9.9442 8.6737 0.9706
-10.6836 8.6649 1.0117
-11.4895 8.6552 1.0579
-12.3739 8.6447 1.1099
-13.3515 8.6330 1.1689
-14.4406 8.6200 1.2362
-15.6649 8.6054 1.3136
-17.0550 8.5888 1.4033
-18.6515 8.5697 1.5082
-20.5488 8.5641 1.6355
-20.8456 7.8239 1.6355
-21.1159 7.0735 1.6355
-21.3591 6.3138 1.6355
-21.5751 5.5458 1.6355
-21.7635 4.7704 1.6355
-21.3879 3.8910 1.5955
-12.0577 1.7501 0.8941
-17.2772 1.8788 1.2750
-11.3456 0.8240 0.8344
-13.0534 0.4790 0.9580
-13.1310 0.0113 0.9629
-13.2096 -0.4620 0.9691
-11.5755 -0.8207 0.8506
-13.6449 -1.4601 1.0057
-13.7283 -1.9685 1.0163
-12.2550 -2.2077 0.9123
-12.3977 -2.6951 0.9294
-12.4802 -3.1851 0.9434
-5.7325 -1.6838 0.4375
-14.1801 -4.7230 1.0943
-14.2800 -5.3316 1.1158
-14.3840 -5.9657 1.1398
-12.9521 -5.9240 1.0423
-13.0445 -6.5409 1.0677
-13.1250 -7.1806 1.0945
-13.4764 -8.0129 1.1468
-12.4868 -8.0433 1.0863
-11.7627 -8.1874 1.0480
-11.1318 -8.3556 1.0177
-10.7711 -8.7049 1.0124
-10.4180 -9.0551 1.0089
-10.2324 -9.5582 1.0233
-10.6657 -10.7034 1.1042
-11.1437 -12.0145 1.1973
-10.4654 -12.1268 1.1703
-9.8161 -12.2341 1.1458
-10.2111 -13.7044 1.2483
-10.6282 -15.3849 1.3657
-11.7659 -18.4083 1.5955
-11.1002 -18.8196 1.5955
-10.4200 -19.2068 1.5955
-9.7263 -19.5692 1.5955
-9.0016 -19.8660 1.5922
-8.2850 -20.1770 1.5922
-7.5576 -20.4621 1.5922
-6.8204 -20.7208 1.5922
-6.0743 -20.9529 1.5922
-5.3204 -21.1581 1.5922
-4.8551 -22.7195 1.6955
-4.0385 -22.8796 1.6955
-3.2167 -23.0103 1.6955
-2.3907 -23.1112 1.6955
-1.5615 -23.1824 1.6955
-0.7304 -23.2238 1.6955
0.1018 -23.2351 1.6955
0.9338 -23.2166 1.6955
1.7646 -23.1681 1.6955
2.5931 -23.0897 1.6955
3.2104 -21.5842 1.5924
3.9812 -21.4548 1.5924
4.7468 -21.2978 1.5924
5.5062 -21.1134 1.5924
6.2585 -20.9017 1.5924
7.0336 -20.7544 1.5994
6.3586 -16.7623 1.3085
6.3542 -15.0969 1.1956
6.7920 -14.6468 1.1786
7.4346 -14.6351 1.1984
7.6461 -13.8037 1.1521
7.4633 -12.4039 1.0570
7.8036 -11.9765 1.0438
8.2143 -11.6706 1.0422
8.6658 -11.4202 1.0470
7.5408 -9.2315 0.8707
7.4713 -8.5056 0.8270
7.4849 -7.9293 0.7967
7.6551 -7.5487 0.7856
6.7708 -6.2145 0.6716
7.2230 3.2116 0.7600
7.4259 3.6257 0.7946
8.6640 4.6216 0.9443
8.6592 5.0253 0.9629
8.0224 5.0483 0.9117
7.4095 5.0418 0.8622
6.8593 5.0360 0.8187
6.4988 5.1395 0.7972
7.4190 6.3120 0.9374
7.1695 6.5565 0.9350
6.6660 6.5496 0.8995
6.1620 6.5042 0.8624
6.0358 6.8462 0.8786
6.7861 8.2769 1.0305
6.2990 8.2700 1.0009
7.2059 10.1987 1.2024
7.2148 11.0293 1.2692
7.9096 13.0921 1.4731
7.4614 13.4133 1.4783
6.7651 13.2582 1.4336
6.1738 13.2511 1.4081
6.4400 15.2243 1.5924
5.8903 15.4444 1.5924
5.3332 15.6447 1.5924
4.7693 15.8250 1.5924
4.1993 15.9850 1.5924
2.9388 13.0757 1.2913
3.0442 16.2436 1.5924
2.5106 16.6751 1.6248
1.9949 17.4821 1.6955
1.3675 17.5421 1.6955
0.7383 17.5796 1.6955
0.1083 17.5947 1.6955
-0.5219 17.5873 1.6955
-1.1514 17.5574 1.6955
-1.7795 17.5050 1.6955
-2.4053 17.4303 1.6955
-3.0281 17.3333 1.6955
-3.6470 17.2141 1.6955
-4.2612 17.0729 1.6955
-4.8701 16.9099 1.6955
-5.4728 16.7253 1.6955
-5.6989 15.5132 1.5922
-6.2511 15.2999 1.5922
-6.7954 15.0669 1.5922
-7.3310 14.8147 1.5922
-7.8573 14.5435 1.5922
-8.3737 14.2537 1.5922
-8.8794 13.9456 1.5922
-9.3738 13.6196 1.5922
-8.7935 11.8447 1.4205
-8.6848 10.8627 1.3391
-5.8840 6.8420 0.8688
-8.7542 9.4711 1.2416
-8.8328 8.8948 1.2067
-9.2621 8.6818 1.2219
-9.9444 8.6737 1.2700
-10.6837 8.6649 1.3238
-11.4897 8.6552 1.3842
-12.3741 8.6447 1.4523
-13.3516 8.6330 1.5296
-14.4408 8.6200 1.6177
-14.9031 8.1867 1.6355
-15.1885 7.6486 1.6355
-15.4545 7.1006 1.6355
-15.7007 6.5434 1.6355
-15.9269 5.9777 1.6355
-16.1328 5.4041 1.6355
-16.3180 4.8235 1.6355
-16.0795 4.1330 1.5955
-16.2193 3.5550 1.5955
-16.3383 2.9722 1.5955
-12.0577 1.7500 1.1704
-16.5134 1.7956 1.5955
-11.3456 0.8239 1.0925
-12.6469 0.4640 1.2152
-12.6091 0.0108 1.2106
-12.6124 -0.4412 1.2115
-11.5755 -0.8208 1.1139
-13.6449 -1.4602 1.3170
-13.7283 -1.9686 1.3308
-12.2748 -2.2114 1.1967
-11.9169 -2.5907 1.1700
-12.0015 -3.0630 1.1881
-5.7319 -1.6837 0.5730
-14.1802 -4.7231 1.4333
-14.2800 -5.3317 1.4616
-14.3840 -5.9658 1.4930
-12.9706 -5.9326 1.3673
-14.6069 -7.3245 1.5662
-14.1525 -7.7429 1.5461
-13.4762 -8.0129 1.5024
-12.4868 -8.0435 1.4232
-11.7626 -8.1875 1.3731
-11.1317 -8.3556 1.3334
-10.7710 -8.7050 1.3265
-10.4180 -9.0552 1.3220
-10.2324 -9.5584 1.3410
-10.6660 -10.7039 1.4470
-11.1435 -12.0144 1.5690
-10.4651 -12.1265 1.5336
-9.8160 -12.2341 1.5016
-9.9583 -13.3652 1.5955
-9.4740 -13.7143 1.5955
-8.9592 -14.0173 1.5922
-8.4521 -14.3301 1.5922
-7.9341 -14.6246 1.5922
-7.4057 -14.9003 1.5922
-6.8678 -15.1568 1.5922
-6.3209 -15.3939 1.5922
-5.7659 -15.6112 1.5922
-5.2034 -15.8083 1.5922
-4.9347 -17.0218 1.6955
-4.3221 -17.1882 1.6955
-3.7039 -17.3326 1.6955
-3.0809 -17.4546 1.6955
-2.4539 -17.5541 1.6955
-1.8238 -17.6310 1.6955
-1.1912 -17.6853 1.6955
-0.5571 -17.7167 1.6955
0.0776 -17.7254 1.6955
0.7123 -17.7113 1.6955
1.3462 -17.6743 1.6955
1.9782 -17.6146 1.6955
2.6077 -17.5321 1.6955
3.0372 -16.3675 1.5924
3.2198 -14.4467 1.4158
4.2007 -16.1073 1.5924
4.7746 -15.9460 1.5924
5.3424 -15.7642 1.5924
5.9032 -15.5621 1.5924
6.3543 -15.0974 1.5672
6.7901 -14.6428 1.5443
7.4345 -14.6351 1.5707
7.6460 -13.8038 1.5100
7.4633 -12.4039 1.3853
7.8035 -11.9766 1.3680
8.2142 -11.6707 1.3660
8.6657 -11.4202 1.3722
7.5409 -9.2317 1.1411
7.4714 -8.5057 1.0838
7.4849 -7.9294 1.0440
6.1970 -6.1109 0.8333
6.6527 -6.1062 0.8647
7.2231 3.2116 0.9401
7.4259 3.6256 0.9829
8.6642 4.6216 1.1680
8.6594 5.0254 1.1910
8.0226 5.0483 1.1277
7.4097 5.0419 1.0664
6.8594 5.0361 1.0126
6.3615 5.0308 0.9651
6.0961 5.1864 0.9526
7.0407 6.4386 1.1356
6.6663 6.5497 1.1124
6.1988 6.5430 1.0729
6.0821 6.8987 1.0949
6.7863 8.2771 1.2743
6.2988 8.2697 1.2377
6.5535 9.2754 1.3523
6.1552 9.4094 1.3389
6.9449 11.4952 1.5994
6.4997 11.6844 1.5924
6.0768 11.9090 1.5924
5.6461 12.1184 1.5924
5.2083 12.3123 1.5924
4.7638 12.4904 1.5924
4.3132 12.6525 1.5924
3.8572 12.7985 1.5924
3.3963 12.9280 1.5924
2.9310 13.0410 1.5924
2.5436 13.5724 1.6451
2.1187 14.0724 1.6955
1.6134 14.1390 1.6955
1.1060 14.1876 1.6955
0.5972 14.2180 1.6955
0.0876 14.2302 1.6955
-0.4221 14.2242 1.6955
-0.9313 14.2000 1.6955
-1.4392 14.1576 1.6955
-1.9454 14.0971 1.6955
-2.4490 14.0186 1.6955
-2.9496 13.9222 1.6955
-3.4463 13.8079 1.6955
-3.9387 13.6760 1.6955
-4.4261 13.5266 1.6955
-4.9079 13.3598 1.6955
-5.3834 13.1760 1.6955
-5.4990 12.1924 1.5932
-5.9288 11.9810 1.5922
-6.3544 11.7615 1.5922
-6.7719 11.5270 1.5922
-7.1807 11.2777 1.5922
-7.5805 11.0139 1.5922
-7.9705 10.7360 1.5922
-8.3504 10.4444 1.5922
-5.8841 6.8420 1.0744
-8.7542 9.4710 1.5354
-8.8328 8.8947 1.4922
-9.2622 8.6818 1.5111
-9.9445 8.6737 1.5706
-10.6726 8.6557 1.6355
-10.9766 8.2686 1.6355
-11.2667 7.8709 1.6355
-11.5423 7.4630 1.6355
-11.8033 7.0455 1.6355
-12.0491 6.6189 1.6355
-12.2796 6.1837 1.6355
-12.4944 5.7405 1.6355
-12.6932 5.2899 1.6355
-12.8758 4.8324 1.6355
-12.7231 4.2619 1.5955
-12.8688 3.8039 1.5955
-12.9982 3.3409 1.5955
-13.1108 2.8736 1.5955
-13.2067 2.4024 1.5955
-13.2857 1.9281 1.5955
-13.3476 1.4513 1.5955
-11.3456 0.8238 1.3516
-12.2147 0.4480 1.4521
-12.2873 0.0104 1.4596
-12.3609 -0.4325 1.4691
-11.5755 -0.8209 1.3782
-13.3587 -1.4296 1.5955
-13.3003 -1.9073 1.5955
-12.3723 -2.2291 1.4926
-13.1325 -2.8550 1.5955
-13.0232 -3.3239 1.5955
-5.7313 -1.6835 0.7090
-12.7545 -4.2484 1.5955
-12.5955 -4.7029 1.5955
-12.4202 -5.1515 1.5955
-12.2290 -5.5935 1.5955
-12.0220 -6.0284 1.5955
-11.7995 -6.4557 1.5955
-11.5619 -6.8748 1.5955
-11.3093 -7.2851 1.5955
-11.0422 -7.6861 1.5955
-10.7608 -8.0773 1.5955
-10.4655 -8.4582 1.5955
-10.1568 -8.8283 1.5955
-9.8349 -9.1871 1.5955
-9.5004 -9.5342 1.5955
-9.1349 -9.8489 1.5922
-8.7769 -10.1705 1.5922
-8.4077 -10.4790 1.5922
-8.0276 -10.7741 1.5922
-7.6371 -11.0554 1.5922
-7.2368 -11.3225 1.5922
-6.8270 -11.5750 1.5922
-6.4085 -11.8127 1.5922
-5.9817 -12.0352 1.5922
-5.5471 -12.2423 1.5922
-5.1955 -12.6531 1.6203
-4.9590 -13.4267 1.6955
-4.4752 -13.5962 1.6955
-3.9856 -13.7482 1.6955
-3.4908 -13.8825 1.6955
-2.9915 -13.9990 1.6955
-2.4883 -14.0974 1.6955
-1.9819 -14.1778 1.6955
-1.4730 -14.2399 1.6955
-0.9621 -14.2836 1.6955
-0.4500 -14.3090 1.6955
0.0627 -14.3160 1.6955
0.5753 -14.3046 1.6955
1.0872 -14.2747 1.6955
1.5977 -14.2265 1.6955
2.1061 -14.1600 1.6955
2.6118 -14.0753 1.6955
2.9248 -13.1229 1.5924
3.3927 -13.0094 1.5924
3.8563 -12.8792 1.5924
4.3149 -12.7325 1.5924
4.7679 -12.5694 1.5924
5.2148 -12.3901 1.5924
5.6549 -12.1949 1.5924
6.0877 -11.9840 1.5924
6.5126 -11.7577 1.5924
6.9597 -11.5672 1.5994
7.3691 -11.3099 1.5994
7.7689 -11.0381 1.5994
8.1587 -10.7522 1.5994
7.5411 -9.2320 1.4126
7.4714 -8.5058 1.3417
7.4849 -7.9294 1.2924
6.2356 -6.1491 1.0380
6.6942 -6.1444 1.0771
7.2232 3.2116 1.1212
7.4259 3.6256 1.1721
8.6644 4.6216 1.3930
8.6596 5.0254 1.4204
8.0228 5.0483 1.3448
7.4097 5.0418 1.2716
6.8593 5.0359 1.2075
6.3614 5.0306 1.1509
6.1045 5.1934 1.1374
6.8611 6.2743 1.3196
6.6665 6.5499 1.3265
6.1987 6.5427 1.2793
6.0917 6.9095 1.3076
6.6496 8.1103 1.4889
6.2989 8.2698 1.4759
6.4719 9.1598 1.5924
6.1394 9.3852 1.5924
5.7991 9.5986 1.5924
5.4514 9.7996 1.5924
5.0967 9.9881 1.5924
4.7355 10.1638 1.5924
4.3683 10.3265 1.5924
3.9955 10.4760 1.5924
3.6176 10.6120 1.5924
3.2352 10.7344 1.5924
2.8486 10.8432 1.5924
0.7564 3.3652 0.4899
0.6351 3.3889 0.4897
0.5132 3.4085 0.4896
0.3907 3.4239 0.4895
0.2678 3.4351 0.4894
0.1446 3.4422 0.4894
0.0212 3.4450 0.4894
-0.1022 3.4437 0.4894
-0.2255 3.4382 0.4894
-0.3485 3.4284 0.4895
-0.4712 3.4145 0.4896
-0.5934 3.3965 0.4898
-0.7149 3.3742 0.4899
-2.8906 11.5812 1.6955
-3.3036 11.4706 1.6955
-3.7124 11.3452 1.6955
-4.1164 11.2053 1.6955
-4.5152 11.0510 1.6955
-4.9083 10.8826 1.6955
-5.2950 10.7002 1.6955
-5.4641 10.1137 1.6324
-5.6796 9.6677 1.5922
-6.0225 9.4585 1.5922
-6.3577 9.2372 1.5922
-6.6847 9.0040 1.5922
-7.0033 8.7593 1.5922
-5.8843 6.8421 1.2812
-7.6132 8.2365 1.5922
-7.9038 7.9591 1.5922
-8.1843 7.6714 1.5922
-8.4543 7.3739 1.5922
-8.7136 7.0668 1.5922
-8.9617 6.7507 1.5922
-9.1984 6.4259 1.5922
-9.4233 6.0928 1.5922
-9.8978 5.9080 1.6355
-10.1038 5.5502 1.6355
-10.2970 5.1852 1.6355
-10.4769 4.8135 1.6355
-10.3833 4.3271 1.5955
-10.5324 3.9528 1.5955
-10.6682 3.5734 1.5955
-10.7902 3.1894 1.5955
-10.8984 2.8011 1.5955
-10.9927 2.4092 1.5955
-11.0729 2.0142 1.5955
-11.1390 1.6165 1.5955
-11.1907 1.2167 1.5955
-11.2281 0.8152 1.5955
-11.2511 0.4126 1.5955
-11.2597 0.0094 1.5955
-11.2539 -0.3939 1.5955
-11.2335 -0.7967 1.5955
-11.1988 -1.1986 1.5955
-11.1497 -1.5990 1.5955
-11.0863 -1.9975 1.5955
-11.0086 -2.3934 1.5955
-10.9168 -2.7863 1.5955
-5.7306 -1.6834 0.8457
-10.6913 -3.5612 1.5955
-10.5578 -3.9421 1.5955
-10.4107 -4.3181 1.5955
-10.2503 -4.6885 1.5955
-10.0766 -5.0530 1.5955
-9.8900 -5.4110 1.5955
-9.6906 -5.7622 1.5955
-9.4788 -6.1060 1.5955
-9.2359 -6.4289 1.5922
-9.0005 -6.7560 1.5922
-8.7534 -7.0745 1.5922
-8.4950 -7.3840 1.5922
-8.2257 -7.6840 1.5922
-7.9458 -7.9742 1.5922
-7.6556 -8.2541 1.5922
-7.3556 -8.5235 1.5922
-7.0461 -8.7820 1.5922
-6.7274 -9.0292 1.5922
-6.4001 -9.2648 1.5922
-6.0645 -9.4885 1.5922
-5.7212 -9.7001 1.5922
-5.3704 -9.8992 1.5922
-5.2156 -10.4941 1.6567
-4.9499 -10.9243 1.6955
-4.5557 -11.0950 1.6955
-4.1556 -11.2514 1.6955
-3.7501 -11.3934 1.6955
-3.3398 -11.5207 1.6955
-2.9252 -11.6332 1.6955
-2.5068 -11.7307 1.6955
-2.0851 -11.8132 1.6955
-1.6608 -11.8805 1.6955
-1.2343 -11.9325 1.6955
-0.8062 -11.9691 1.6955
-0.3771 -11.9904 1.6955
0.0525 -11.9962 1.6955
0.4821 -11.9867 1.6955
0.9110 -11.9617 1.6955
1.3388 -11.9213 1.6955
1.7648 -11.8656 1.6955
2.1886 -11.7946 1.6955
2.6095 -11.7085 1.6955
2.8470 -10.9167 1.5946
3.2315 -10.7925 1.5924
3.6158 -10.6695 1.5924
3.9954 -10.5329 1.5924
4.3699 -10.3827 1.5924
4.7388 -10.2192 1.5924
5.1015 -10.0426 1.5924
5.4576 -9.8531 1.5924
5.8067 -9.6509 1.5924
6.1483 -9.4363 1.5924
6.4819 -9.2096 1.5924
6.8072 -8.9711 1.5924
7.1551 -8.7597 1.5994
7.3207 -8.3344 1.5687
6.3477 -6.7249 1.3078
6.2449 -6.1583 1.2405
6.6943 -6.1445 1.2853
7.2234 3.2116 1.3034
7.4258 3.6255 1.3626
8.5576 4.5645 1.5994
8.3881 4.8678 1.5994
8.0227 5.0482 1.5633
7.4096 5.0417 1.4782
6.8592 5.0358 1.4036
6.3613 5.0305 1.3378
6.1129 5.2005 1.3240
6.6763 6.1053 1.4926
6.6667 6.5500 1.5420
6.1984 6.5425 1.4870
6.1014 6.9204 1.5223
6.1183 7.4622 1.5924
5.8469 7.6762 1.5924
5.5680 7.8803 1.5924
5.2819 8.0743 1.5924
4.9892 8.2579 1.5924
4.6900 8.4309 1.5924
4.3849 8.5932 1.5924
4.0742 8.7444 1.5924
3.7583 8.8844 1.5924
3.4376 9.0130 1.5924
3.1125 9.1301 1.5924
2.7876 9.2492 1.5947
0.7593 2.8904 0.4934
0.6551 2.9147 0.4932
0.5501 2.9353 0.4930
0.4445 2.9524 0.4929
0.3384 2.9658 0.4928
0.2320 2.9756 0.4928
0.1252 2.9818 0.4927
0.0184 2.9842 0.4927
-0.0885 2.9831 0.4927
-0.1953 2.9782 0.4928
-0.3019 2.9698 0.4928
-0.4081 2.9576 0.4929
-0.5139 2.9418 0.4930
-0.6192 2.9225 0.4932
-0.7237 2.8995 0.4934
-0.8274 2.8729 0.4936
-3.1940 9.7609 1.6955
-3.5416 9.6405 1.6955
-3.8847 9.5078 1.6955
-4.2229 9.3628 1.6955
-4.5556 9.2059 1.6955
-4.8825 9.0371 1.6955
-5.2033 8.8568 1.6955
-5.4429 8.5482 1.6726
-5.4697 7.9470 1.5922
-5.7510 7.7463 1.5922
-6.0250 7.5357 1.5922
-5.8844 6.8422 1.4892
-6.5497 7.0858 1.5922
-6.7996 6.8471 1.5922
-7.0408 6.5995 1.5922
-7.2731 6.3435 1.5922
-7.4960 6.0793 1.5922
-7.7094 5.8073 1.5922
-7.9130 5.5278 1.5922
-8.1064 5.2412 1.5922
-8.2894 4.9479 1.5922
-8.4619 4.6482 1.5922
-8.6235 4.3424 1.5922
-8.7741 4.0311 1.5922
-8.9135 3.7146 1.5922
-9.0414 3.3932 1.5922
-9.1579 3.0675 1.5922
-9.2625 2.7377 1.5922
-9.3553 2.4044 1.5922
-9.4554 2.0722 1.5955
-9.5243 1.7324 1.5955
-9.5810 1.3903 1.5955
-9.6254 1.0464 1.5955
-9.6574 0.7011 1.5955
-9.6771 0.3548 1.5955
-9.6843 0.0080 1.5955
-9.6792 -0.3388 1.5955
-9.6616 -0.6853 1.5955
-9.6316 -1.0309 1.5955
-9.5892 -1.3753 1.5955
-9.5346 -1.7180 1.5955
-9.4677 -2.0585 1.5955
-9.3886 -2.3964 1.5955
-5.6511 -1.6601 0.9697
-9.1757 -3.0565 1.5922
-9.0610 -3.3833 1.5922
-8.9347 -3.7059 1.5922
-8.7969 -4.0238 1.5922
-8.6478 -4.3366 1.5922
-8.4875 -4.6438 1.5922
-8.3163 -4.9451 1.5922
-8.1345 -5.2401 1.5922
-7.9421 -5.5284 1.5922
-7.7395 -5.8097 1.5922
-7.5270 -6.0835 1.5922
-7.3048 -6.3495 1.5922
-7.0731 -6.6074 1.5922
-6.8324 -6.8569 1.5922
-6.5828 -7.0975 1.5922
-6.3247 -7.3291 1.5922
-6.0585 -7.5513 1.5922
-5.7845 -7.7638 1.5922
-5.5031 -7.9663 1.5922
-5.2526 -8.2183 1.6038
-5.2350 -8.8758 1.6944
-4.9170 -9.0636 1.6955
-4.5894 -9.2342 1.6955
-4.2560 -9.3930 1.6955
-3.9170 -9.5396 1.6955
-3.5730 -9.6741 1.6955
-3.2243 -9.7961 1.6955
-2.8716 -9.9055 1.6955
-2.5151 -10.0022 1.6955
-2.1553 -10.0861 1.6955
-1.7928 -10.1569 1.6955
-1.4279 -10.2148 1.6955
-1.0612 -10.2595 1.6955
-0.6932 -10.2909 1.6955
-0.3242 -10.3092 1.6955
0.0452 -10.3142 1.6955
0.4145 -10.3060 1.6955
0.7833 -10.2845 1.6955
1.1511 -10.2498 1.6955
1.5174 -10.2019 1.6955
1.8817 -10.1409 1.6955
2.2436 -10.0669 1.6955
2.6026 -9.9799 1.6955
2.8237 -9.4307 1.6183
3.1088 -9.1737 1.5924
3.4353 -9.0563 1.5924
3.7573 -8.9272 1.5924
4.0744 -8.7867 1.5924
4.3863 -8.6348 1.5924
4.6925 -8.4719 1.5924
4.9927 -8.2981 1.5924
5.2865 -8.1137 1.5924
5.5734 -7.9188 1.5924
5.8531 -7.7138 1.5924
6.1253 -7.4989 1.5924
6.3896 -7.2744 1.5924
6.3478 -6.7249 1.5210
6.2542 -6.1676 1.4448
6.6944 -6.1446 1.4947
7.2049 3.2033 1.4832
7.4258 3.6254 1.5545
7.5013 4.0010 1.5994
7.3527 4.2668 1.5994
7.1948 4.5272 1.5994
7.0276 4.7817 1.5994
6.8514 5.0300 1.5994
6.3618 5.0308 1.5263
6.1214 5.2077 1.5125
6.2439 5.7097 1.5924
6.0351 5.9294 1.5924
5.8186 6.1414 1.5924
5.5946 6.3456 1.5924
5.3635 6.5416 1.5924
5.1256 6.7291 1.5924
4.8283 6.8334 1.5752
4.5803 7.0017 1.5752
4.3737 7.2392 1.5924
4.1115 7.3909 1.5924
3.8440 7.5332 1.5924
3.5717 7.6658 1.5924
3.2948 7.7886 1.5924
3.0136 7.9014 1.5924
2.7286 8.0040 1.5924
0.7601 2.5221 0.4960
0.6691 2.5467 0.4958
0.5772 2.5682 0.4957
0.4847 2.5865 0.4956
0.3917 2.6017 0.4955
0.2982 2.6136 0.4954
0.2044 2.6222 0.4953
0.1104 2.6277 0.4953
0.0162 2.6299 0.4953
-0.0780 2.6288 0.4953
-0.1721 2.6245 0.4953
-0.2660 2.6170 0.4954
-0.3597 2.6063 0.4955
-0.4529 2.5923 0.4956
-0.5456 2.5751 0.4957
-0.6376 2.5547 0.4959
-0.7290 2.5312 0.4960
-0.8195 2.5045 0.4962
-3.1048 8.4515 1.6955
-3.4056 8.3351 1.6955
-3.7020 8.2080 1.6955
-3.9937 8.0704 1.6955
-4.2803 7.9224 1.6955
-4.5615 7.7643 1.6955
-4.8368 7.5962 1.6955
-5.1059 7.4184 1.6955
-5.3685 7.2310 1.6955
-5.4237 6.7836 1.6350
-5.5152 6.4129 1.5922
-5.7416 6.2116 1.5922
-5.9607 6.0022 1.5922
-6.1721 5.7852 1.5922
-6.3757 5.5607 1.5922
-6.5711 5.3291 1.5922
-6.7581 5.0906 1.5922
-6.9364 4.8456 1.5922
-7.1059 4.5943 1.5922
-7.2663 4.3371 1.5922
-7.4174 4.0744 1.5922
-7.5590 3.8063 1.5922
-7.6910 3.5334 1.5922
-7.8131 3.2559 1.5922
-7.9252 2.9742 1.5922
-8.0271 2.6887 1.5922
-8.1188 2.3996 1.5922
-8.2001 2.1075 1.5922
-8.2709 1.8126 1.5922
-8.3310 1.5153 1.5922
-8.3805 1.2161 1.5922
-8.4193 0.9152 1.5922
-8.4472 0.6132 1.5922
-8.4644 0.3103 1.5922
-8.4706 0.0069 1.5922
-8.4660 -0.2964 1.5922
-8.4506 -0.5995 1.5922
-8.4243 -0.9018 1.5922
-8.3872 -1.2030 1.5922
-8.3393 -1.5027 1.5922
-8.2807 -1.8005 1.5922
-8.2114 -2.0960 1.5922
-5.6453 -1.6584 1.1054
-8.0414 -2.6787 1.5922
-7.9409 -2.9652 1.5922
-7.8301 -3.2478 1.5922
-7.7093 -3.5264 1.5922
-7.5785 -3.8004 1.5922
-7.4380 -4.0696 1.5922
-7.2879 -4.3337 1.5922
-7.1285 -4.5921 1.5922
-6.9599 -4.8448 1.5922
-6.7823 -5.0912 1.5922
-6.5960 -5.3311 1.5922
-6.4012 -5.5642 1.5922
-6.1982 -5.7901 1.5922
-5.9872 -6.0087 1.5922
-5.7684 -6.2195 1.5922
-5.5423 -6.4224 1.5922
-5.3090 -6.6171 1.5922
-5.2567 -7.0554 1.6512
-5.1349 -7.4334 1.6955
-4.8656 -7.6128 1.6955
-4.5900 -7.7824 1.6955
-4.3085 -7.9421 1.6955
-4.0215 -8.0915 1.6955
-3.7293 -8.2306 1.6955
-3.4322 -8.3591 1.6955
-3.1308 -8.4769 1.6955
-2.8253 -8.5838 1.6955
-2.5162 -8.6796 1.6955
-2.2038 -8.7643 1.6955
-1.8885 -8.8378 1.6955
-1.5709 -8.8999 1.6955
-1.2512 -8.9505 1.6955
-0.9299 -8.9897 1.6955
-0.6074 -9.0172 1.6955
-0.2841 -9.0333 1.6955
0.0396 -9.0377 1.6955
0.3632 -9.0304 1.6955
0.6863 -9.0116 1.6955
1.0086 -8.9812 1.6955
1.3296 -8.9393 1.6955
1.6488 -8.8858 1.6955
1.9659 -8.8210 1.6955
2.2805 -8.7448 1.6955
2.5921 -8.6574 1.6955
2.8050 -8.2772 1.6397
3.0101 -7.9355 1.5924
3.2923 -7.8224 1.5924
3.5702 -7.6993 1.5924
3.8435 -7.5663 1.5924
4.1118 -7.4236 1.5924
4.3749 -7.2713 1.5924
4.6323 -7.1098 1.5924
4.8838 -6.9390 1.5924
5.1289 -6.7594 1.5924
5.3674 -6.5712 1.5924
5.5991 -6.3745 1.5924
5.8235 -6.1696 1.5924
6.0404 -5.9568 1.5924
6.2495 -5.7364 1.5924
6.9092 3.0717 1.5994
6.7943 3.3170 1.5994
6.6416 3.5424 1.5924
6.5101 3.7778 1.5924
6.3702 4.0083 1.5924
6.2223 4.2337 1.5924
6.0664 4.4535 1.5924
5.9027 4.6677 1.5924
5.7314 4.8759 1.5924
5.5529 5.0778 1.5924
5.3672 5.2731 1.5924
5.1747 5.4617 1.5924
4.9756 5.6433 1.5924
4.7701 5.8177 1.5924
4.5585 5.9845 1.5924
4.3410 6.1437 1.5924
4.1181 6.2950 1.5924
3.8899 6.4382 1.5924
3.6567 6.5732 1.5924
3.4188 6.6998 1.5924
3.1766 6.8177 1.5924
2.9303 6.9269 1.5924
0.8388 2.1993 0.4984
0.7592 2.2270 0.4982
0.6787 2.2519 0.4980
0.5974 2.2740 0.4978
0.5155 2.2933 0.4977
0.4329 2.3097 0.4976
0.3498 2.3233 0.4975
0.2663 2.3340 0.4974
0.1826 2.3417 0.4974
0.0986 2.3466 0.4973
0.0144 2.3486 0.4973
-0.0697 2.3477 0.4973
-0.1537 2.3438 0.4974
-0.2376 2.3371 0.4974
-0.3212 2.3274 0.4975
-0.4044 2.3149 0.4976
-0.4872 2.2995 0.4977
-0.5694 2.2812 0.4978
-0.6509 2.2601 0.4980
-0.7317 2.2362 0.4982
-0.8117 2.2094 0.4984
-3.0289 7.4130 1.6955
-3.2925 7.2999 1.6955
-3.5519 7.1775 1.6955
-3.8068 7.0459 1.6955
-4.0568 6.9052 1.6955
-4.3017 6.7557 1.6955
-4.5410 6.5975 1.6955
-4.7746 6.4309 1.6955
-5.0020 6.2560 1.6955
-5.2230 6.0731 1.6955
-5.4108 5.8536 1.6871
-5.4103 5.4480 1.6250
-5.4891 5.1449 1.5922
-5.6701 4.9453 1.5922
-5.8438 4.7392 1.5922
-6.0101 4.5271 1.5922
-6.1687 4.3092 1.5922
-6.3194 4.0857 1.5922
-6.4620 3.8570 1.5922
-6.5963 3.6233 1.5922
-6.7222 3.3849 1.5922
-6.8395 3.1422 1.5922
-6.9480 2.8954 1.5922
-7.0477 2.6448 1.5922
-7.1383 2.3909 1.5922
-7.2198 2.1338 1.5922
-7.2920 1.8740 1.5922
-7.3549 1.6118 1.5922
-7.4083 1.3474 1.5922
-7.4523 1.0813 1.5922
-7.4867 0.8138 1.5922
-7.5115 0.5452 1.5922
-7.5267 0.2758 1.5922
-7.5322 0.0061 1.5922
-7.5280 -0.2636 1.5922
-7.5142 -0.5331 1.5922
-7.4908 -0.8019 1.5922
-7.4577 -1.0697 1.5922
-7.4151 -1.3362 1.5922
-7.3629 -1.6010 1.5922
-7.3013 -1.8637 1.5922
-5.6395 -1.6568 1.2419
-7.1500 -2.3818 1.5922
-7.0606 -2.6365 1.5922
-6.9621 -2.8878 1.5922
-6.8546 -3.1355 1.5922
-6.7383 -3.3791 1.5922
-6.6133 -3.6185 1.5922
-6.4798 -3.8532 1.5922
-6.3380 -4.0830 1.5922
-6.1881 -4.3076 1.5922
-6.0301 -4.5266 1.5922
-5.8645 -4.7399 1.5922
-5.6913 -4.9471 1.5922
-5.5107 -5.1480 1.5922
-5.3231 -5.3423 1.5922
-5.2742 -5.6868 1.6374
-5.2470 -6.0803 1.6955
-5.0261 -6.2646 1.6955
-4.7987 -6.4408 1.6955
-4.5652 -6.6088 1.6955
-4.3258 -6.7682 1.6955
-4.0808 -6.9190 1.6955
-3.8305 -7.0609 1.6955
-3.5753 -7.1938 1.6955
-3.3155 -7.3174 1.6955
-3.0514 -7.4316 1.6955
-2.7834 -7.5363 1.6955
-2.5118 -7.6313 1.6955
-2.2369 -7.7165 1.6955
-1.9592 -7.7918 1.6955
-1.6790 -7.8571 1.6955
-1.3965 -7.9123 1.6955
-1.1123 -7.9573 1.6955
-0.8267 -7.9921 1.6955
-0.5400 -8.0166 1.6955
-0.2525 -8.0309 1.6955
0.0352 -8.0348 1.6955
0.3229 -8.0283 1.6955
0.6102 -8.0116 1.6955
0.8967 -7.9846 1.6955
1.1820 -7.9473 1.6955
1.4658 -7.8998 1.6955
1.7478 -7.8421 1.6955
2.0274 -7.7744 1.6955
2.3045 -7.6967 1.6955
2.5786 -7.6091 1.6955
2.7935 -7.3645 1.6622
2.9269 -6.9545 1.5924
3.1740 -6.8451 1.5924
3.4170 -6.7268 1.5924
3.6556 -6.6000 1.5924
3.8895 -6.4647 1.5924
4.1184 -6.3210 1.5924
4.3419 -6.1693 1.5924
4.5599 -6.0096 1.5924
4.7720 -5.8422 1.5924
4.9780 -5.6674 1.5924
5.1775 -5.4853 1.5924
5.3704 -5.2961 1.5924
5.5563 -5.1002 1.5924
6.1873 2.7507 1.5924
6.0845 2.9704 1.5924
5.9739 3.1862 1.5924
5.8556 3.3980 1.5924
5.7299 3.6053 1.5924
5.5968 3.8080 1.5924
5.4566 4.0059 1.5924
5.3094 4.1985 1.5924
5.1554 4.3858 1.5924
4.9948 4.5674 1.5924
4.8278 4.7432 1.5924
4.6547 4.9128 1.5924
4.4756 5.0762 1.5924
4.2907 5.2330 1.5924
4.1004 5.3831 1.5924
3.9049 5.5263 1.5924
3.7043 5.6625 1.5924
3.4990 5.7913 1.5924
3.2893 5.9128 1.5924
3.0753 6.0266 1.5924
2.8574 6.1327 1.5924
0.8279 1.9570 0.5001
0.7569 1.9845 0.4999
0.6851 2.0096 0.4997
0.6125 2.0322 0.4996
0.5392 2.0522 0.4994
0.4652 2.0697 0.4993
0.3907 2.0845 0.4992
0.3157 2.0968 0.4991
0.2404 2.1065 0.4991
0.1648 2.1135 0.4990
0.0890 2.1179 0.4990
0.0130 2.1197 0.4990
-0.0629 2.1189 0.4990
-0.1387 2.1154 0.4990
-0.2144 2.1093 0.4991
-0.2899 2.1005 0.4991
-0.3650 2.0892 0.4992
-0.4397 2.0752 0.4993
-0.5138 2.0587 0.4994
-0.5874 2.0395 0.4996
-0.6603 2.0179 0.4997
-0.7324 1.9937 0.4999
-0.8037 1.9670 0.5001
-2.9617 6.5665 1.6955
-3.1951 6.4564 1.6955
-3.4243 6.3380 1.6955
-3.6492 6.2114 1.6955
-3.8695 6.0769 1.6955
-4.0848 5.9346 1.6955
-4.2948 5.7847 1.6955
-4.4994 5.6274 1.6955
-4.6982 5.4628 1.6955
-4.8910 5.2912 1.6955
-5.0776 5.1129 1.6955
-5.2576 4.9279 1.6955
-5.3971 4.7071 1.6849
-5.3952 4.3753 1.6342
-5.4060 4.0721 1.5922
-5.5487 3.8760 1.5922
-5.6842 3.6750 1.5922
-5.8124 3.4692 1.5922
-5.9332 3.2590 1.5922
-6.0464 3.0446 1.5922
-6.1519 2.8262 1.5922
-6.2495 2.6042 1.5922
-6.3391 2.3789 1.5922
-6.4205 2.1504 1.5922
-6.4938 1.9192 1.5922
-6.5587 1.6855 1.5922
-6.6152 1.4496 1.5922
-6.6633 1.2118 1.5922
-6.7028 0.9725 1.5922
-6.7337 0.7319 1.5922
-6.7559 0.4903 1.5922
-6.7695 0.2480 1.5922
-6.7745 0.0054 1.5922
-6.7707 -0.2372 1.5922
-6.7583 -0.4795 1.5922
-6.7371 -0.7213 1.5922
-6.7073 -0.9621 1.5922
-6.6690 -1.2018 1.5922
-6.6220 -1.4399 1.5922
-6.5666 -1.6762 1.5922
-5.6337 -1.6551 1.3794
-6.4304 -2.1422 1.5922
-6.3499 -2.3712 1.5922
-6.2613 -2.5972 1.5922
-6.1646 -2.8199 1.5922
-6.0600 -3.0390 1.5922
-5.9475 -3.2543 1.5922
-5.8275 -3.4653 1.5922
-5.6999 -3.6720 1.5922
-5.5650 -3.8739 1.5922
-5.4230 -4.0709 1.5922
-5.3005 -4.2841 1.6002
-5.2861 -4.5949 1.6444
-5.2771 -4.9299 1.6955
-5.0974 -5.1159 1.6955
-4.9112 -5.2954 1.6955
-4.7186 -5.4680 1.6955
-4.5199 -5.6337 1.6955
-4.3154 -5.7922 1.6955
-4.1054 -5.9432 1.6955
-3.8901 -6.0866 1.6955
-3.6697 -6.2222 1.6955
-3.4446 -6.3498 1.6955
-3.2151 -6.4692 1.6955
-2.9815 -6.5804 1.6955
-2.7440 -6.6831 1.6955
-2.5030 -6.7772 1.6955
-2.2587 -6.8626 1.6955
-2.0116 -6.9392 1.6955
-1.7618 -7.0069 1.6955
-1.5098 -7.0656 1.6955
-1.2558 -7.1152 1.6955
-1.0002 -7.1557 1.6955
-0.7434 -7.1870 1.6955
-0.4856 -7.2090 1.6955
-0.2271 -7.2218 1.6955
0.0317 -7.2253 1.6955
0.2904 -7.2195 1.6955
0.5487 -7.2045 1.6955
0.8063 -7.1802 1.6955
1.0629 -7.1467 1.6955
1.3181 -7.1040 1.6955
1.5717 -7.0521 1.6955
1.8232 -6.9912 1.6955
2.0723 -6.9214 1.6955
2.3188 -6.8426 1.6955
2.5623 -6.7551 1.6955
2.7846 -6.6163 1.6846
2.8543 -6.1556 1.5924
3.0728 -6.0493 1.5924
3.2874 -5.9352 1.5924
3.4977 -5.8135 1.5924
3.7035 -5.6844 1.5924
3.9046 -5.5479 1.5924
4.1006 -5.4044 1.5924
4.2914 -5.2539 1.5924
4.4766 -5.0967 1.5924
4.6561 -4.9329 1.5924
4.8295 -4.7628 1.5924
4.9968 -4.5866 1.5924
5.6166 2.4970 1.5924
5.5233 2.6964 1.5924
5.4229 2.8923 1.5924
5.3156 3.0845 1.5924
5.2015 3.2728 1.5924
5.0807 3.4568 1.5924
4.9534 3.6364 1.5924
4.8198 3.8113 1.5924
4.6800 3.9813 1.5924
4.5343 4.1462 1.5924
4.3827 4.3058 1.5924
4.2255 4.4598 1.5924
4.0629 4.6081 1.5924
3.8952 4.7505 1.5924
3.7224 4.8868 1.5924
3.5449 5.0168 1.5924
3.3628 5.1404 1.5924
3.1765 5.2574 1.5924
2.9861 5.3677 1.5924
2.7919 5.4710 1.5924
