ply
format ascii 1.0
element vertex 2134
property float32 x
property float32 y
property float32 z
end_header
6.5599 -6.8474 -0.1524
7.0468 -6.8454 -0.1581
6.0031 -5.4262 -0.1305
6.1977 -5.2101 -0.1308
6.5574 -5.1220 -0.1347
7.0638 -5.1199 -0.1415
7.3400 -4.9278 -0.1437
5.9632 -3.6998 -0.1143
6.3397 -3.6247 -0.1192
6.8577 -3.6003 -0.1267
7.2727 -3.4909 -0.1323
7.2713 -3.1741 -0.1304
6.1061 -2.4081 -0.1081
5.9735 -2.1112 -0.1046
5.7932 -1.8161 -0.1004
5.7541 -1.5792 -0.0990
5.7680 -1.3623 -0.0985
5.7994 -1.1514 -0.0985
5.8602 -0.9461 -0.0992
5.9616 -0.7438 -0.1006
6.0495 -0.5349 -0.1019
6.2064 -0.3247 -0.1046
6.4838 -0.1059 -0.1094
7.6077 0.1491 -0.1286
7.6059 0.4228 -0.1291
7.6041 0.6974 -0.1297
7.6022 0.9738 -0.1305
7.6004 1.2525 -0.1315
7.5985 1.5344 -0.1326
7.5966 1.8204 -0.1340
7.5947 2.1111 -0.1355
7.5927 2.4075 -0.1372
7.5907 2.7107 -0.1392
7.5886 3.0215 -0.1413
7.5865 3.3412 -0.1438
7.5843 3.6710 -0.1464
7.5820 4.0122 -0.1494
7.5796 4.3665 -0.1527
7.5771 4.7356 -0.1563
7.5746 5.1213 -0.1602
7.5719 5.5260 -0.1646
7.5690 5.9522 -0.1694
7.5660 6.4028 -0.1746
7.5628 6.8813 -0.1805
7.5594 7.3917 -0.1869
7.5558 7.9388 -0.1941
7.5518 8.5283 -0.2021
7.5476 9.1669 -0.2109
7.7908 10.1872 -0.2281
-7.4606 11.7983 0.0651
-16.3171 17.7441 0.1154
-16.3106 16.5056 0.1118
-16.7008 15.7279 0.1112
-16.6950 14.6272 0.1082
-16.2938 13.2719 0.1031
-16.2888 12.3215 0.1009
-16.2980 11.4317 0.0990
-16.6753 10.8240 0.0995
-16.6709 9.9888 0.0980
-16.2714 8.9713 0.0943
-16.2675 8.2214 0.0932
-16.2637 7.4986 0.0922
-16.2601 6.7997 0.0914
-16.6516 6.2706 0.0929
-16.6480 5.5951 0.0924
-16.6446 4.9360 0.0920
-16.2465 4.1892 0.0896
-16.2433 3.5714 0.0895
-16.2401 2.9635 0.0895
-17.1823 2.5013 0.0948
-23.1309 2.5226 0.1280
-23.1159 1.6834 0.1284
-36.3072 1.3354 0.2028
-36.9262 0.0307 0.2076
-22.3144 -0.7836 0.1264
-37.6874 -2.6816 0.2155
-38.0827 -4.0891 0.2200
-38.4895 -5.5378 0.2249
-39.3764 -7.1177 0.2331
-39.7502 -8.6706 0.2386
-39.7626 -10.1825 0.2424
-39.7752 -11.7235 0.2465
-39.7881 -13.2984 0.2510
-30.3357 -21.2029 0.2321
-26.9945 -23.5718 0.2288
-33.0600 -35.8319 0.3149
-30.7386 -35.8162 0.3062
-21.0202 -35.9094 0.2749
-14.6504 -36.0649 0.2600
-13.0757 -35.8291 0.2553
-10.2566 -35.9302 0.2511
-10.1224 -48.3928 0.3333
-6.9927 -40.6716 0.2785
5.4159 -46.0015 0.3131
6.3214 -40.9593 0.2799
5.9562 -31.1281 0.2138
6.4011 -27.9687 0.1934
5.4757 -20.5073 0.1428
5.6643 -18.5171 0.1301
5.9704 -17.2732 0.1226
1.8375 -4.7555 0.0341
6.2932 -14.6937 0.1067
6.4772 -13.7376 0.1012
6.6056 -12.7967 0.0957
6.7526 -12.0028 0.0912
5.8701 -9.6092 0.0744
5.8446 -8.8373 0.0697
6.0594 -8.4832 0.0684
6.3622 -8.2626 0.0681
6.6643 -8.0400 0.0680
6.0719 -6.8116 0.0592
6.5601 -6.8473 0.0612
7.0468 -6.8451 0.0631
5.7954 -5.2383 0.0500
6.0506 -5.0863 0.0503
6.5576 -5.1219 0.0527
7.0639 -5.1197 0.0550
7.3400 -4.9276 0.0554
5.9671 -3.7020 0.0438
6.2396 -3.5672 0.0446
6.8582 -3.6004 0.0477
7.2727 -3.4907 0.0494
7.2713 -3.1739 0.0483
6.1058 -2.4078 0.0397
5.9734 -2.1110 0.0381
5.7932 -1.8160 0.0363
5.9117 -1.6223 0.0364
5.9102 -1.3957 0.0358
5.9088 -1.1730 0.0353
5.8603 -0.9460 0.0345
5.9617 -0.7437 0.0347
6.0493 -0.5348 0.0348
6.4393 -0.3367 0.0367
6.7340 -0.1098 0.0381
7.6077 0.1493 0.0427
7.6059 0.4230 0.0425
7.6041 0.6976 0.0423
7.6022 0.9740 0.0421
7.6004 1.2527 0.0420
7.5985 1.5346 0.0420
7.5966 1.8206 0.0420
7.5947 2.1113 0.0420
7.5927 2.4077 0.0422
7.5907 2.7109 0.0424
7.5886 3.0217 0.0426
7.5864 3.3414 0.0429
7.5842 3.6712 0.0433
7.5820 4.0125 0.0438
7.5796 4.3668 0.0444
7.5771 4.7358 0.0450
7.5746 5.1216 0.0457
7.5719 5.5262 0.0466
7.5690 5.9524 0.0475
7.5660 6.4030 0.0486
7.5628 6.8815 0.0498
7.5338 7.3669 0.0510
7.5302 7.9122 0.0526
7.4772 8.4442 0.0540
7.5476 9.1672 0.0565
7.7908 10.1875 0.0607
-7.4597 11.7971 0.3796
-29.0000 33.9052 1.2175
-16.3171 17.7447 0.6585
-16.3106 16.5061 0.6345
-16.3046 15.3554 0.6131
-16.2990 14.2808 0.5938
-16.2938 13.2724 0.5765
-16.2888 12.3220 0.5610
-16.2977 11.4320 0.5474
-16.6753 10.8245 0.5474
-16.6709 9.9893 0.5358
-16.2714 8.9718 0.5129
-16.2675 8.2219 0.5038
-16.2637 7.4991 0.4956
-16.2601 6.8002 0.4884
-16.6516 6.2711 0.4938
-16.6480 5.5955 0.4881
-16.6446 4.9364 0.4831
-16.2465 4.1897 0.4676
-16.2433 3.5718 0.4641
-16.2401 2.9639 0.4614
-17.1786 2.5012 0.4858
-16.2745 1.7753 0.4588
-16.2705 1.1853 0.4579
-16.2666 0.5987 0.4575
-16.2627 0.0139 0.4578
-16.2588 -0.5705 0.4586
-16.2549 -1.1562 0.4601
-16.2510 -1.7445 0.4621
-16.2471 -2.3372 0.4647
-16.2431 -2.9357 0.4680
-16.2390 -3.5417 0.4719
-16.2349 -4.1570 0.4765
-16.2307 -4.7835 0.4818
-16.2265 -5.4230 0.4878
-16.2221 -6.0777 0.4946
-16.2176 -6.7499 0.5022
-16.2130 -7.4421 0.5107
-16.2082 -8.1572 0.5201
-16.2033 -8.8982 0.5305
-16.1982 -9.6685 0.5420
-16.1928 -10.4722 0.5548
-16.1872 -11.3134 0.5688
-16.1813 -12.1975 0.5843
-16.1751 -13.1300 0.6014
-16.1685 -14.1179 0.6203
-16.1615 -15.1689 0.6412
-16.1540 -16.2923 0.6644
-16.1459 -17.4991 0.6902
-16.1372 -18.8023 0.7189
-17.2104 -25.0772 0.8848
-15.9140 -25.0736 0.8646
-14.6757 -25.0702 0.8464
-19.3140 -35.8922 1.1883
-17.6735 -35.8756 1.1667
-16.0915 -35.8596 1.1474
-14.5611 -35.8441 1.1300
-13.0761 -35.8291 1.1146
-11.6446 -35.8573 1.1022
-10.2568 -35.9299 1.0929
-10.1594 -41.1341 1.2397
-10.1113 -48.3387 1.4454
-6.9929 -40.6718 1.2082
2.1354 -47.0749 1.3804
5.4596 -46.3713 1.3675
6.1495 -39.8441 1.1805
5.9991 -31.3518 0.9345
6.3916 -27.9264 0.8385
5.4757 -20.5070 0.6210
5.7600 -18.8295 0.5759
5.9704 -17.2729 0.5343
1.8373 -4.7550 0.1490
6.4134 -14.9740 0.4757
6.5845 -13.9646 0.4507
6.7387 -13.0543 0.4286
6.8789 -12.2271 0.4090
5.8997 -9.6573 0.3297
5.8873 -8.9016 0.3107
6.0595 -8.4831 0.3032
6.3024 -8.1846 0.3002
5.7523 -6.9394 0.2617
6.1063 -6.8499 0.2662
6.5604 -6.8474 0.2749
5.6057 -5.4451 0.2263
5.7802 -5.2244 0.2254
6.0964 -5.1245 0.2301
6.5579 -5.1219 0.2402
7.0639 -5.1194 0.2515
7.3400 -4.9274 0.2546
5.8005 -3.5985 0.1963
6.3062 -3.6051 0.2087
6.8587 -3.6004 0.2223
7.2728 -3.4905 0.2312
7.2713 -3.1737 0.2271
6.1055 -2.4076 0.1876
5.9733 -2.1108 0.1808
5.7932 -1.8158 0.1731
5.7540 -1.5789 0.1698
5.7396 -1.3552 0.1676
5.7714 -1.1456 0.1670
5.8604 -0.9458 0.1683
5.9617 -0.7435 0.1701
6.0491 -0.5346 0.1716
6.2067 -0.3244 0.1754
6.4844 -0.1056 0.1828
7.6077 0.1495 0.2141
7.6059 0.4232 0.2141
7.6041 0.6978 0.2143
7.6022 0.9742 0.2148
7.6004 1.2529 0.2155
7.5985 1.5348 0.2166
7.5966 1.8208 0.2179
7.5947 2.1115 0.2196
7.5927 2.4079 0.2216
7.5907 2.7111 0.2239
7.5886 3.0219 0.2266
7.5864 3.3416 0.2297
7.5842 3.6714 0.2331
7.5820 4.0127 0.2370
7.5796 4.3670 0.2414
7.5771 4.7360 0.2463
7.5746 5.1218 0.2517
7.5719 5.5265 0.2577
7.5690 5.9527 0.2644
7.5660 6.4033 0.2719
7.5628 6.8818 0.2802
7.5338 7.3672 0.2884
7.5302 7.9125 0.2986
7.4772 8.4445 0.3081
7.5476 9.1675 0.3240
7.7908 10.1879 0.3496
-9.8453 30.4906 1.5901
-10.9313 30.1094 1.5901
-12.1778 30.1225 1.6134
-13.2479 29.6563 1.6134
-14.2997 29.1512 1.6134
-15.3320 28.6081 1.6134
-16.3433 28.0278 1.6134
-7.4587 11.7959 0.6943
-18.2975 26.7586 1.6134
-19.2380 26.0719 1.6134
-19.0932 24.0193 1.5286
-20.4649 23.9273 1.5694
-16.3171 17.7453 1.2022
-16.3106 16.5067 1.1579
-16.3046 15.3559 1.1183
-16.2990 14.2813 1.0826
-16.2938 13.2730 1.0506
-16.2888 12.3226 1.0217
-16.2842 11.4230 0.9956
-16.2797 10.5682 0.9722
-16.2755 9.7529 0.9510
-16.2714 8.9722 0.9320
-16.2675 8.2224 0.9149
-16.2637 7.4995 0.8996
-16.2601 6.8007 0.8860
-16.2566 6.1228 0.8739
-16.2531 5.4632 0.8632
-16.2498 4.8198 0.8540
-16.2465 4.1901 0.8460
-16.2433 3.5723 0.8393
-16.2401 2.9643 0.8337
-17.1750 2.5011 0.8772
-16.2745 1.7757 0.8281
-16.2706 1.1857 0.8259
-16.2666 0.5991 0.8247
-16.2627 0.0144 0.8246
-16.2588 -0.5701 0.8256
-16.2549 -1.1557 0.8276
-16.2510 -1.7441 0.8308
-16.2471 -2.3368 0.8350
-16.2431 -2.9353 0.8403
-16.2390 -3.5413 0.8468
-16.2349 -4.1566 0.8545
-16.2307 -4.7830 0.8635
-16.2265 -5.4225 0.8737
-16.2221 -6.0772 0.8853
-16.2176 -6.7494 0.8984
-16.2130 -7.4417 0.9131
-16.2082 -8.1567 0.9294
-16.2033 -8.8977 0.9475
-16.1982 -9.6681 0.9676
-16.1928 -10.4717 0.9898
-16.1872 -11.3129 1.0143
-16.1813 -12.1969 1.0414
-16.1751 -13.1295 1.0714
-16.1685 -14.1173 1.1045
-16.1615 -15.1683 1.1412
-16.1540 -16.2917 1.1820
-16.1459 -17.4984 1.2273
-14.1388 -16.4733 1.1196
-13.5379 -16.9707 1.1202
-18.4629 -24.9317 1.6016
-18.5528 -27.0323 1.6934
-15.7656 -24.8391 1.5202
-15.5386 -26.5435 1.5899
-15.5172 -28.8355 1.6934
-14.4660 -29.3637 1.6934
-13.3971 -29.8542 1.6934
-12.3120 -30.3067 1.6934
-11.2120 -30.7206 1.6934
-10.0984 -31.0953 1.6934
-8.9726 -31.4307 1.6934
-7.8360 -31.7262 1.6934
-6.6900 -31.9815 1.6934
-5.5358 -32.1963 1.6934
-4.3750 -32.3703 1.6934
-3.2089 -32.5035 1.6934
-2.0389 -32.5955 1.6934
-0.8666 -32.6463 1.6934
0.3069 -32.6560 1.6934
1.4061 -30.9963 1.6089
2.4898 -30.5700 1.5903
3.5867 -30.4630 1.5903
4.6793 -30.3176 1.5903
5.4446 -28.4529 1.5016
6.3546 -27.7641 1.4761
5.5372 -20.7367 1.1121
5.8247 -19.0404 1.0315
5.7021 -16.4963 0.9040
1.8372 -4.7545 0.2639
6.4134 -14.9737 0.8432
6.5845 -13.9643 0.7989
6.7388 -13.0540 0.7599
6.8790 -12.2268 0.7254
5.8276 -9.5391 0.5778
5.8447 -8.8369 0.5474
6.0596 -8.4829 0.5384
5.3688 -6.9720 0.4542
5.6483 -6.8138 0.4566
6.1065 -6.8500 0.4732
6.5607 -6.8475 0.4888
5.5904 -5.4300 0.4015
5.6300 -5.0884 0.3907
6.0967 -5.1246 0.4098
6.5583 -5.1221 0.4279
7.0639 -5.1192 0.4483
5.5123 -3.7002 0.3409
5.7563 -3.5709 0.3476
6.3063 -3.6050 0.3725
6.8592 -3.6005 0.3970
7.2730 -3.4904 0.4131
7.2713 -3.1735 0.4060
6.2281 -2.4557 0.3424
5.9732 -2.1106 0.3237
5.8485 -1.8330 0.3130
5.8090 -1.5938 0.3073
5.7902 -1.3670 0.3033
5.8223 -1.1555 0.3024
5.8604 -0.9457 0.3022
5.9618 -0.7434 0.3056
6.0703 -0.5363 0.3097
6.2760 -0.3278 0.3191
6.5940 -0.1072 0.3346
7.6077 0.1497 0.3858
7.6059 0.4234 0.3859
7.6041 0.6980 0.3865
7.6022 0.9744 0.3876
7.6004 1.2531 0.3893
7.5985 1.5350 0.3914
7.5966 1.8210 0.3942
7.5947 2.1117 0.3974
7.5927 2.4081 0.4013
7.5907 2.7113 0.4057
7.5886 3.0221 0.4109
7.5864 3.3418 0.4167
7.5842 3.6716 0.4232
7.5820 4.0129 0.4305
7.5796 4.3672 0.4387
7.5771 4.7363 0.4478
7.5746 5.1220 0.4579
7.5719 5.5267 0.4692
7.5690 5.9529 0.4816
7.5660 6.4035 0.4955
7.5628 6.8821 0.5108
7.5338 7.3675 0.5261
7.5302 7.9128 0.5450
7.4772 8.4448 0.5625
7.5476 9.1679 0.5918
7.7908 10.1882 0.6389
-6.9776 21.6102 1.6403
-7.5109 20.6886 1.5901
-8.2476 20.4014 1.5901
-8.9731 20.0875 1.5901
-9.6866 19.7476 1.5901
-10.3871 19.3819 1.5901
-11.2354 19.2686 1.6134
-7.4154 11.7278 1.0039
-12.5823 18.4012 1.6134
-13.2309 17.9315 1.6134
-9.6099 12.0896 1.1185
-14.2499 16.6613 1.5884
-14.8337 16.1326 1.5884
-15.3976 15.5833 1.5884
-15.9411 15.0141 1.5884
-14.6867 12.8690 1.4170
-16.2938 13.2735 1.5257
-16.2888 12.3231 1.4834
-16.2842 11.4236 1.4453
-16.2797 10.5687 1.4110
-16.2755 9.7533 1.3800
-16.2714 8.9727 1.3521
-16.2675 8.2228 1.3270
-16.2637 7.5000 1.3045
-13.6814 5.7225 1.0807
-16.2566 6.1232 1.2666
-16.2531 5.4637 1.2509
-16.2498 4.8202 1.2372
-16.2465 4.1905 1.2253
-16.2433 3.5727 1.2153
-16.2401 2.9648 1.2069
-17.1713 2.5011 1.2693
-16.2745 1.7761 1.1982
-16.2706 1.1861 1.1947
-16.2666 0.5995 1.1927
-16.2627 0.0148 1.1923
-16.2588 -0.5697 1.1934
-14.6877 -1.0439 1.0807
-16.2510 -1.7437 1.2003
-16.2471 -2.3363 1.2061
-16.2431 -2.9348 1.2135
-16.2390 -3.5409 1.2226
-16.2349 -4.1562 1.2334
-16.2307 -4.7826 1.2460
-16.2265 -5.4221 1.2605
-16.2221 -6.0768 1.2770
-16.2176 -6.7490 1.2956
-14.2158 -6.5246 1.1542
-13.7432 -6.9158 1.1359
-13.4893 -7.4070 1.1367
-16.1982 -9.6676 1.3940
-16.1928 -10.4712 1.4257
-16.1872 -11.3124 1.4608
-16.1813 -12.1964 1.4995
-16.1751 -13.1290 1.5424
-13.6376 -11.9070 1.3409
-15.6306 -14.6695 1.5884
-15.0875 -15.2155 1.5884
-10.2611 -11.1203 1.1221
-9.8423 -11.4670 1.1210
-9.4240 -11.8133 1.1214
-12.7339 -17.1949 1.5884
-12.1040 -17.6355 1.5884
-11.4591 -18.0535 1.5884
-10.7999 -18.4482 1.5884
-10.1385 -18.8398 1.5901
-9.4527 -19.1870 1.5901
-8.7552 -19.5096 1.5901
-8.0468 -19.8071 1.5901
-7.3285 -20.0794 1.5901
-7.0298 -21.6458 1.6934
-6.2466 -21.8808 1.6934
-5.4556 -22.0879 1.6934
-4.6580 -22.2669 1.6934
-3.8546 -22.4174 1.6934
-3.0464 -22.5395 1.6934
-2.2345 -22.6329 1.6934
-1.4198 -22.6974 1.6934
-0.6034 -22.7332 1.6934
0.2137 -22.7399 1.6934
1.0306 -22.7179 1.6934
1.7338 -21.2870 1.5903
2.4976 -21.2120 1.5903
3.2583 -21.1101 1.5903
4.0149 -20.9813 1.5903
4.7667 -20.8258 1.5903
5.4846 -20.5389 1.5822
5.2489 -17.1578 1.3352
5.4752 -15.8392 1.2469
1.8370 -4.7540 0.3791
6.4732 -15.1127 1.2228
6.5846 -13.9640 1.1480
6.7849 -13.1430 1.0996
6.9562 -12.3637 1.0543
5.8706 -9.6092 0.8367
5.8447 -8.8367 0.7870
6.0597 -8.4828 0.7741
5.3322 -6.9242 0.6487
5.6803 -6.8522 0.6605
6.1067 -6.8500 0.6807
5.2422 -5.4711 0.5619
5.4174 -5.2618 0.5598
5.6726 -5.1268 0.5665
6.0970 -5.1246 0.5899
6.4893 -5.0679 0.6096
6.5899 -4.7755 0.6022
5.4842 -3.6812 0.4885
5.8179 -3.6090 0.5062
6.3066 -3.6050 0.5368
6.8598 -3.6006 0.5722
7.2731 -3.4902 0.5955
7.2713 -3.1733 0.5854
6.1758 -2.4349 0.4896
5.9731 -2.1104 0.4669
5.8485 -1.8328 0.4515
5.8090 -1.5937 0.4435
5.7902 -1.3669 0.4378
5.8223 -1.1554 0.4366
5.8605 -0.9455 0.4364
5.9619 -0.7433 0.4414
6.0704 -0.5362 0.4475
6.2762 -0.3277 0.4612
6.5943 -0.1070 0.4837
7.6077 0.1499 0.5578
7.6059 0.4236 0.5581
7.6041 0.6982 0.5592
7.6022 0.9746 0.5609
7.6004 1.2533 0.5634
7.5985 1.5352 0.5667
7.5966 1.8212 0.5708
7.5947 2.1119 0.5756
7.5927 2.4083 0.5814
7.5907 2.7115 0.5880
7.5886 3.0223 0.5955
7.5864 3.3420 0.6041
7.5842 3.6718 0.6137
7.5820 4.0131 0.6245
7.5796 4.3674 0.6365
7.5771 4.7365 0.6498
7.5746 5.1223 0.6647
7.5719 5.5269 0.6811
7.5690 5.9531 0.6993
7.5660 6.4038 0.7195
7.5628 6.8823 0.7420
7.5338 7.3677 0.7643
7.5302 7.9130 0.7919
7.4772 8.4451 0.8175
7.5476 9.1681 0.8603
7.7908 10.1885 0.9288
-5.4820 16.9785 1.6934
-6.0875 16.7683 1.6934
-6.6849 16.5363 1.6934
-6.9433 15.5438 1.6165
-7.3733 15.0321 1.5901
-7.9070 14.7546 1.5901
-8.4301 14.4580 1.5901
-7.4068 11.7145 1.3171
-9.4421 13.8091 1.5901
-9.9296 13.4577 1.5901
-9.7619 12.2813 1.4920
-10.8524 12.6893 1.5884
-11.2980 12.2878 1.5884
-11.7286 11.8705 1.5884
-12.1438 11.4380 1.5884
-12.5428 10.9909 1.5884
-12.9253 10.5298 1.5884
-13.2907 10.0553 1.5884
-13.6386 9.5681 1.5884
-13.9685 9.0687 1.5884
-9.7161 5.8228 1.0807
-14.5728 8.0365 1.5884
-14.8465 7.5049 1.5884
-15.1006 6.9641 1.5884
-13.7228 5.7402 1.4214
-15.5494 5.8572 1.5884
-15.7433 5.2927 1.5884
-15.9168 4.7218 1.5884
-16.0695 4.1453 1.5884
-16.2013 3.5639 1.5884
-16.2401 2.9652 1.5814
-16.4015 2.3893 1.5884
-16.2745 1.7765 1.5696
-16.2706 1.1866 1.5647
-16.2666 0.6000 1.5619
-16.2627 0.0152 1.5612
-16.2588 -0.5693 1.5624
-16.2549 -1.1549 1.5657
-16.2510 -1.7433 1.5710
-13.7624 -1.9787 1.3370
-16.2431 -2.9344 1.5879
-16.1253 -3.5157 1.5884
-15.9819 -4.0910 1.5884
-15.8181 -4.6606 1.5884
-15.6341 -5.2237 1.5884
-15.4301 -5.7797 1.5884
-15.2064 -6.3278 1.5884
-14.4176 -6.6168 1.5304
-14.7014 -7.3976 1.5884
-14.4206 -7.9180 1.5884
-14.1216 -8.4278 1.5884
-10.0522 -6.5000 1.1566
-9.7085 -6.7845 1.1448
-9.3716 -7.0634 1.1347
-12.7509 -10.3492 1.5884
-12.3668 -10.7971 1.5884
-11.9671 -11.2309 1.5884
-11.5523 -11.6500 1.5884
-11.1230 -12.0539 1.5884
-10.6797 -12.4422 1.5884
-9.4773 -11.8796 1.4725
-9.7642 -13.1845 1.5901
-9.2819 -13.5234 1.5901
-8.7880 -13.8448 1.5901
-8.2830 -14.1485 1.5901
-7.7677 -14.4339 1.5901
-7.2427 -14.7008 1.5901
-6.7326 -15.0022 1.5958
-6.5666 -16.1631 1.6934
-5.9807 -16.3860 1.6934
-5.3874 -16.5880 1.6934
-4.7873 -16.7687 1.6934
-4.1813 -16.9280 1.6934
-3.5700 -17.0656 1.6934
-2.9543 -17.1815 1.6934
-2.3350 -17.2754 1.6934
-1.7127 -17.3472 1.6934
-1.0883 -17.3969 1.6934
-0.4625 -17.4244 1.6934
0.1638 -17.4296 1.6934
0.7899 -17.4126 1.6934
1.3289 -16.3158 1.5903
1.9143 -16.2581 1.5903
2.4973 -16.1798 1.5903
3.0773 -16.0807 1.5903
3.6533 -15.9611 1.5903
4.2249 -15.8211 1.5903
4.7911 -15.6609 1.5903
5.3589 -15.5024 1.5925
1.8369 -4.7534 0.4947
6.4238 -14.9972 1.5836
6.5884 -13.9717 1.4991
6.7389 -13.0534 1.4254
6.9562 -12.3634 1.3761
5.8708 -9.6091 1.0921
5.8447 -8.8364 1.0273
6.0598 -8.4826 1.0106
5.2489 -6.8158 0.8337
5.6806 -6.8524 0.8624
6.0836 -6.8238 0.8855
5.2316 -5.4599 0.7323
5.2548 -5.1037 0.7092
5.6730 -5.1269 0.7400
6.0972 -5.1246 0.7706
6.2419 -4.8745 0.7660
5.3260 -3.8595 0.6359
5.3388 -3.5835 0.6215
5.8182 -3.6090 0.6615
6.3070 -3.6050 0.7016
6.8603 -3.6007 0.7480
7.2733 -3.4901 0.7786
7.2713 -3.1731 0.7653
6.1047 -2.4067 0.6328
5.9730 -2.1102 0.6106
5.7931 -1.8153 0.5850
5.7540 -1.5784 0.5747
5.7397 -1.3548 0.5678
5.7714 -1.1451 0.5662
5.8606 -0.9454 0.5710
5.9619 -0.7431 0.5777
6.0486 -0.5341 0.5836
6.2071 -0.3239 0.5971
6.7336 -0.1091 0.6467
7.6077 0.1501 0.7304
7.6059 0.4238 0.7309
7.6041 0.6984 0.7324
7.6022 0.9748 0.7348
7.6004 1.2535 0.7382
7.5985 1.5354 0.7425
7.5966 1.8214 0.7479
7.5947 2.1121 0.7544
7.5927 2.4086 0.7620
7.5907 2.7117 0.7708
7.5886 3.0225 0.7808
7.5864 3.3423 0.7921
7.5842 3.6721 0.8048
7.5820 4.0133 0.8190
7.5796 4.3677 0.8349
7.5771 4.7367 0.8525
7.5746 5.1225 0.8721
7.5719 5.5272 0.8937
7.5690 5.9534 0.9177
7.5660 6.4040 0.9444
7.5628 6.8826 0.9739
7.5338 7.3680 1.0033
7.5302 7.9133 1.0397
7.4772 8.4454 1.0733
7.5476 9.1685 1.1297
7.7908 10.1889 1.2198
-4.4210 13.6928 1.6934
-4.9094 13.5236 1.6934
-5.3913 13.3369 1.6934
-5.8661 13.1328 1.6934
-6.3331 12.9118 1.6934
-6.7918 12.6739 1.6934
-6.9184 11.8657 1.6178
-7.2131 11.4086 1.5901
-7.6168 11.1400 1.5901
-8.0104 10.8570 1.5901
-8.3935 10.5600 1.5901
-8.7654 10.2495 1.5901
-9.1258 9.9257 1.5901
-9.4742 9.5892 1.5901
-9.8101 9.2403 1.5901
-10.1331 8.8797 1.5901
-10.4427 8.5077 1.5901
-10.7387 8.1249 1.5901
-11.0084 7.7232 1.5884
-11.2754 7.3207 1.5884
-9.5832 5.7434 1.3205
-11.7649 6.4883 1.5884
-11.9867 6.0596 1.5884
-12.1928 5.6234 1.5884
-12.3830 5.1801 1.5884
-12.5570 4.7304 1.5884
-12.7147 4.2749 1.5884
-12.8557 3.8141 1.5884
-12.9801 3.3487 1.5884
-13.0876 2.8793 1.5884
-13.1781 2.4064 1.5884
-13.2514 1.9308 1.5884
-13.3076 1.4530 1.5884
-13.3466 0.9737 1.5884
-13.3683 0.4934 1.5884
-13.3728 0.0128 1.5884
-13.3599 -0.4674 1.5884
-13.3299 -0.9467 1.5884
-10.1714 -1.0908 1.2163
-9.7893 -1.4072 1.1763
-9.4312 -1.7036 1.1403
-9.3671 -2.0420 1.1411
-12.9239 -3.3079 1.5884
-12.7925 -3.7688 1.5884
-12.6446 -4.2245 1.5884
-12.4806 -4.6745 1.5884
-12.3006 -5.1182 1.5884
-12.1049 -5.5551 1.5884
-11.8938 -5.9845 1.5884
-11.6675 -6.4060 1.5884
-11.4264 -6.8190 1.5884
-7.3328 -4.7414 1.0427
-10.9009 -7.6174 1.5884
-9.4420 -7.1161 1.4126
-10.3314 -8.3851 1.5901
-10.0208 -8.7485 1.5901
-9.6975 -9.1005 1.5901
-9.3619 -9.4407 1.5901
-9.0145 -9.7686 1.5901
-8.6557 -10.0838 1.5901
-8.2860 -10.3860 1.5901
-7.9058 -10.6747 1.5901
-7.5157 -10.9497 1.5901
-7.1160 -11.2105 1.5901
-6.7492 -11.5280 1.6000
-6.6989 -12.4474 1.6934
-6.2463 -12.6780 1.6934
-5.7859 -12.8923 1.6934
-5.3182 -13.0901 1.6934
-4.8439 -13.2710 1.6934
-4.3634 -13.4349 1.6934
-3.8775 -13.5816 1.6934
-3.3867 -13.7109 1.6934
-2.8917 -13.8227 1.6934
-2.3930 -13.9167 1.6934
-1.8914 -13.9929 1.6934
-1.3873 -14.0513 1.6934
-0.8815 -14.0916 1.6934
-0.3747 -14.1139 1.6934
0.1327 -14.1182 1.6934
0.6399 -14.1044 1.6934
1.1462 -14.0726 1.6934
1.5506 -13.1691 1.5903
2.0229 -13.1055 1.5903
2.4926 -13.0251 1.5903
2.9592 -12.9280 1.5903
3.4220 -12.8144 1.5903
3.8806 -12.6843 1.5903
4.3343 -12.5380 1.5903
1.8367 -4.7529 0.6108
5.2247 -12.1974 1.5903
5.8316 -12.3664 1.6384
6.2730 -12.1508 1.6384
6.7067 -11.9195 1.6384
5.8709 -9.6091 1.3487
5.8448 -8.8362 1.2687
4.8979 -6.8560 1.0088
5.2787 -6.8543 1.0356
5.6808 -6.8524 1.0652
4.7964 -5.3799 0.8624
4.9885 -5.2060 0.8625
5.2808 -5.1288 0.8804
5.6733 -5.1270 0.9143
6.0603 -5.0934 0.9463
4.7574 -3.7151 0.7213
5.1849 -3.7570 0.7650
5.3824 -3.6125 0.7742
5.8185 -3.6090 0.8175
6.3073 -3.6050 0.8672
6.8607 -3.6007 0.9246
7.2734 -3.4900 0.9624
7.2713 -3.1728 0.9461
6.1044 -2.4064 0.7822
5.9729 -2.1100 0.7549
5.7931 -1.8152 0.7233
5.9117 -1.6216 0.7301
5.9102 -1.3949 0.7230
5.9087 -1.1722 0.7169
5.8607 -0.9453 0.7063
5.9620 -0.7430 0.7146
6.0484 -0.5339 0.7219
6.4404 -0.3359 0.7665
6.7335 -0.1089 0.8001
7.6077 0.1503 0.9038
7.6059 0.4240 0.9044
7.6041 0.6986 0.9063
7.6022 0.9750 0.9094
7.6004 1.2537 0.9136
7.5985 1.5356 0.9191
7.5966 1.8216 0.9259
7.5947 2.1123 0.9340
7.5927 2.4088 0.9435
7.5907 2.7119 0.9544
7.5886 3.0228 0.9669
7.5864 3.3425 0.9810
7.5842 3.6723 0.9968
7.5820 4.0136 1.0145
7.5796 4.3679 1.0342
7.5771 4.7369 1.0561
7.5746 5.1227 1.0804
7.5719 5.5274 1.1073
7.5690 5.9536 1.1371
7.5660 6.4043 1.1702
7.5628 6.8829 1.2068
7.5338 7.3683 1.2433
7.5302 7.9136 1.2885
7.4772 8.4457 1.3302
7.5476 9.1688 1.4002
7.7908 10.1892 1.5119
-3.7008 11.4627 1.6934
-4.1098 11.3213 1.6934
-4.5133 11.1652 1.6934
-4.9109 10.9946 1.6934
-5.3020 10.8098 1.6934
-5.6861 10.6109 1.6934
-6.0627 10.3984 1.6934
-6.4313 10.1723 1.6934
-6.7915 9.9332 1.6934
-6.8972 9.3485 1.6352
-7.0281 8.8425 1.5901
-7.3398 8.5828 1.5901
-7.6419 8.3120 1.5901
-7.9339 8.0305 1.5901
-8.2155 7.7387 1.5901
-8.4864 7.4370 1.5901
-8.7461 7.1257 1.5901
-8.9943 6.8054 1.5901
-9.2308 6.4764 1.5901
-9.4552 6.1391 1.5901
-9.5830 5.7436 1.5763
-9.8666 5.4417 1.5901
-10.0530 5.0824 1.5901
-10.2264 4.7168 1.5901
-10.3865 4.3452 1.5901
-10.5330 3.9682 1.5901
-10.6658 3.5863 1.5901
-10.7728 3.1964 1.5884
-10.8776 2.8066 1.5884
-10.9683 2.4133 1.5884
-11.0447 2.0172 1.5884
-11.1068 1.6186 1.5884
-11.1545 1.2182 1.5884
-11.1878 0.8165 1.5884
-11.2067 0.4139 1.5884
-11.2110 0.0111 1.5884
-11.2009 -0.3916 1.5884
-11.1763 -0.7935 1.5884
-10.2898 -1.1033 1.4675
-11.0840 -1.5930 1.5884
-9.5410 -1.7231 1.3757
-10.9347 -2.3834 1.5884
-10.8389 -2.7739 1.5884
-10.7292 -3.1606 1.5884
-10.6174 -3.5469 1.5901
-10.4802 -3.9250 1.5901
-10.3297 -4.2978 1.5901
-10.1658 -4.6649 1.5901
-9.9890 -5.0258 1.5901
-9.7995 -5.3800 1.5901
-9.5974 -5.7272 1.5901
-7.3200 -4.7329 1.2405
-9.1569 -6.3984 1.5901
-8.9190 -6.7217 1.5901
-8.6697 -7.0361 1.5901
-8.4094 -7.3414 1.5901
-8.1384 -7.6372 1.5901
-7.8571 -7.9230 1.5901
-7.5659 -8.1985 1.5901
-7.2650 -8.4633 1.5901
-6.9720 -8.7387 1.5940
-6.7584 -9.1252 1.6195
-6.7184 -9.7878 1.6934
-6.3614 -10.0212 1.6934
-5.9963 -10.2417 1.6934
-5.6236 -10.4491 1.6934
-5.2438 -10.6429 1.6934
-4.8574 -10.8231 1.6934
-4.4649 -10.9894 1.6934
-4.0667 -11.1415 1.6934
-3.6635 -11.2793 1.6934
-3.2555 -11.4027 1.6934
-2.8435 -11.5114 1.6934
-2.4279 -11.6054 1.6934
-2.0093 -11.6844 1.6934
-1.5880 -11.7486 1.6934
-1.1648 -11.7976 1.6934
-0.7402 -11.8315 1.6934
-0.3146 -11.8503 1.6934
0.1114 -11.8539 1.6934
0.5372 -11.8423 1.6934
0.9624 -11.8156 1.6934
1.3020 -11.0570 1.5903
1.6985 -11.0034 1.5903
2.0928 -10.9358 1.5903
2.4845 -10.8542 1.5903
2.8731 -10.7587 1.5903
3.2581 -10.6493 1.5903
3.6389 -10.5263 1.5903
1.8366 -4.7524 0.7274
4.3864 -10.2399 1.5903
4.7520 -10.0769 1.5903
5.1117 -9.9009 1.5903
5.6301 -10.0059 1.6384
5.8274 -9.5375 1.5947
5.8448 -8.8360 1.5114
4.8979 -6.8558 1.2018
5.2790 -6.8544 1.2338
5.6811 -6.8524 1.2692
4.7253 -5.2999 1.0122
4.9163 -5.1305 1.0128
5.2811 -5.1289 1.0491
5.6735 -5.1270 1.0895
5.8673 -4.9310 1.0917
4.7731 -3.7272 0.8624
4.9376 -3.5777 0.8681
5.3826 -3.6125 0.9227
5.8188 -3.6090 0.9744
6.3077 -3.6051 1.0336
6.8609 -3.6006 1.1021
7.2736 -3.4898 1.1472
7.2715 -3.1727 1.1278
6.1041 -2.4062 0.9325
5.9728 -2.1098 0.9000
5.7930 -1.8150 0.8623
5.8848 -1.6140 0.8665
5.8861 -1.3891 0.8586
5.9087 -1.1721 0.8549
5.8607 -0.9451 0.8423
5.9621 -0.7428 0.8522
6.0482 -0.5337 0.8610
6.3769 -0.3324 0.9052
6.7334 -0.1088 0.9544
7.6077 0.1505 1.0780
7.6059 0.4242 1.0789
7.6041 0.6988 1.0812
7.6022 0.9752 1.0849
7.6004 1.2539 1.0901
7.5985 1.5358 1.0967
7.5966 1.8218 1.1048
7.5946 2.1125 1.1145
7.5927 2.4090 1.1259
7.5906 2.7121 1.1390
7.5886 3.0230 1.1539
7.5864 3.3427 1.1708
7.5842 3.6725 1.1898
7.5820 4.0138 1.2109
7.5796 4.3681 1.2345
7.5771 4.7372 1.2607
7.5746 5.1230 1.2898
7.5719 5.5277 1.3220
7.5690 5.9539 1.3576
7.5660 6.4046 1.3972
7.5628 6.8831 1.4410
7.5338 7.3686 1.4847
7.5302 7.9139 1.5387
7.4772 8.4460 1.5886
7.3952 8.9840 1.6384
7.0691 9.2456 1.6384
-3.1796 9.8485 1.6934
-3.5310 9.7271 1.6934
-3.8778 9.5932 1.6934
-4.2194 9.4468 1.6934
-4.5555 9.2881 1.6934
-4.8856 9.1174 1.6934
-5.2093 8.9350 1.6934
-5.5262 8.7409 1.6934
-5.8357 8.5356 1.6934
-6.1377 8.3193 1.6934
-6.4315 8.0922 1.6934
-6.7170 7.8547 1.6934
-6.8835 7.4874 1.6667
-6.8887 6.9728 1.6065
-7.0605 6.6510 1.5901
-7.2935 6.3919 1.5901
-7.5170 6.1246 1.5901
-7.7306 5.8494 1.5901
-7.9340 5.5668 1.5901
-8.1272 5.2771 1.5901
-8.3097 4.9807 1.5901
-8.4814 4.6780 1.5901
-8.6420 4.3693 1.5901
-8.7914 4.0551 1.5901
-8.9293 3.7358 1.5901
-9.0556 3.4119 1.5901
-9.1701 3.0836 1.5901
-9.2727 2.7516 1.5901
-9.3633 2.4161 1.5901
-9.4417 2.0777 1.5901
-9.5078 1.7367 1.5901
-9.5617 1.3937 1.5901
-9.6032 1.0490 1.5901
-9.6322 0.7032 1.5901
-9.6488 0.3566 1.5901
-9.6529 0.0098 1.5901
-9.6446 -0.3369 1.5901
-9.6238 -0.6830 1.5901
-9.5906 -1.0281 1.5901
-9.5451 -1.3716 1.5901
-9.4873 -1.7132 1.5901
-9.4173 -2.0524 1.5901
-9.3351 -2.3888 1.5901
-9.2410 -2.7220 1.5901
-9.1351 -3.0515 1.5901
-9.0174 -3.3769 1.5901
-8.8881 -3.6978 1.5901
-8.7475 -4.0138 1.5901
-8.5957 -4.3245 1.5901
-8.4328 -4.6295 1.5901
-8.2593 -4.9284 1.5901
-7.3072 -4.7244 1.4389
-7.8807 -5.5064 1.5901
-7.6761 -5.7848 1.5901
-7.4618 -6.0556 1.5901
-7.2380 -6.3186 1.5901
-7.0050 -6.5733 1.5901
-6.7986 -6.8553 1.5985
-6.7704 -7.3362 1.6531
-6.6598 -7.7581 1.6934
-6.3757 -7.9911 1.6934
-6.0836 -8.2137 1.6934
-5.7837 -8.4257 1.6934
-5.4764 -8.6269 1.6934
-5.1622 -8.8169 1.6934
-4.8415 -8.9956 1.6934
-4.5146 -9.1627 1.6934
-4.1820 -9.3179 1.6934
-3.8441 -9.4612 1.6934
-3.5014 -9.5924 1.6934
-3.1542 -9.7112 1.6934
-2.8030 -9.8175 1.6934
-2.4483 -9.9112 1.6934
-2.0905 -9.9922 1.6934
-1.7300 -10.0603 1.6934
-1.3674 -10.1156 1.6934
-1.0030 -10.1579 1.6934
-0.6373 -10.1871 1.6934
-0.2709 -10.2033 1.6934
0.0959 -10.2064 1.6934
0.4626 -10.1965 1.6934
0.8287 -10.1734 1.6934
1.1937 -10.1373 1.6934
1.4675 -9.5071 1.5958
1.8020 -9.4158 1.5903
2.1392 -9.3454 1.5903
2.4738 -9.2631 1.5903
2.8052 -9.1688 1.5903
3.1331 -9.0628 1.5903
1.8364 -4.7518 0.8448
3.7765 -8.8160 1.5903
4.0913 -8.6755 1.5903
4.4008 -8.5238 1.5903
4.7048 -8.3612 1.5903
5.0028 -8.1878 1.5903
5.4546 -8.2458 1.6384
4.8979 -6.8555 1.3960
5.2792 -6.8546 1.4333
5.5081 -6.6436 1.4295
4.7329 -5.3082 1.1778
4.9163 -5.1303 1.1766
5.2814 -5.1290 1.2188
5.6738 -5.1270 1.2658
5.6795 -4.7730 1.2278
4.7136 -3.6805 0.9895
4.9902 -3.6157 1.0194
5.3829 -3.6125 1.0722
5.8191 -3.6090 1.1323
6.3080 -3.6051 1.2012
6.8613 -3.6006 1.2808
7.2738 -3.4897 1.3332
7.2716 -3.1725 1.3107
6.1038 -2.4059 1.0837
5.9727 -2.1096 1.0460
5.7930 -1.8148 1.0022
5.9117 -1.6212 1.0118
5.9102 -1.3946 1.0021
5.9087 -1.1719 0.9938
5.8608 -0.9450 0.9791
5.9622 -0.7427 0.9907
6.0481 -0.5336 1.0009
6.4408 -0.3356 1.0629
6.7333 -0.1086 1.1096
7.6077 0.1507 1.2534
7.6059 0.4244 1.2545
7.6041 0.6990 1.2572
7.6022 0.9754 1.2616
7.6004 1.2541 1.2676
7.5985 1.5360 1.2754
7.5966 1.8220 1.2849
7.5946 2.1127 1.2962
7.5927 2.4092 1.3095
7.5906 2.7123 1.3248
7.5886 3.0232 1.3422
7.5864 3.3429 1.3619
7.5842 3.6727 1.3840
7.5820 4.0140 1.4087
7.5796 4.3683 1.4362
7.5771 4.7374 1.4667
7.5746 5.1232 1.5005
7.5719 5.5279 1.5380
7.5690 5.9541 1.5796
7.5660 6.4048 1.6256
7.3900 6.7261 1.6384
7.1449 6.9885 1.6384
6.8905 7.2419 1.6384
6.6271 7.4861 1.6384
6.3550 7.7206 1.6384
6.0746 7.9451 1.6384
-0.8098 2.5083 0.4925
-3.0923 8.5188 1.6934
-3.3960 8.4015 1.6934
-3.6952 8.2734 1.6934
-3.9896 8.1346 1.6934
-4.2788 7.9852 1.6934
-4.5623 7.8255 1.6934
-4.8399 7.6557 1.6934
-5.1111 7.4760 1.6934
-5.3757 7.2867 1.6934
-5.6332 7.0879 1.6934
-5.8833 6.8800 1.6934
-6.1257 6.6633 1.6934
-6.3601 6.4380 1.6934
-6.5862 6.2044 1.6934
-6.8037 5.9628 1.6934
-6.8709 5.5984 1.6593
-6.8749 5.2022 1.6143
-6.9504 4.8769 1.5901
-7.1198 4.6232 1.5901
-7.2798 4.3637 1.5901
-7.4304 4.0986 1.5901
-7.5714 3.8282 1.5901
-7.7024 3.5531 1.5901
-7.8235 3.2734 1.5901
-7.9344 2.9897 1.5901
-8.0349 2.7021 1.5901
-8.1251 2.4112 1.5901
-8.2047 2.1174 1.5901
-8.2736 1.8209 1.5901
-8.3319 1.5221 1.5901
-8.3793 1.2216 1.5901
-8.4159 0.9196 1.5901
-8.4416 0.6165 1.5901
-8.4564 0.3128 1.5901
-8.4603 0.0088 1.5901
-8.4533 -0.2951 1.5901
-8.4353 -0.5984 1.5901
-8.4065 -0.9009 1.5901
-8.3668 -1.2021 1.5901
-8.3164 -1.5015 1.5901
-8.2553 -1.7989 1.5901
-8.1835 -2.0939 1.5901
-8.1012 -2.3860 1.5901
-8.0086 -2.6750 1.5901
-7.9056 -2.9603 1.5901
-7.7925 -3.2418 1.5901
-7.6695 -3.5189 1.5901
-7.5366 -3.7914 1.5901
-7.3940 -4.0590 1.5901
-7.2420 -4.3211 1.5901
-7.0807 -4.5777 1.5901
-6.9104 -4.8282 1.5901
-6.8076 -5.1300 1.6082
-6.7969 -5.5157 1.6517
-6.7595 -5.9006 1.6934
-6.5420 -6.1386 1.6934
-6.3162 -6.3687 1.6934
-6.0824 -6.5905 1.6934
-5.8408 -6.8037 1.6934
-5.5917 -7.0082 1.6934
-5.3356 -7.2036 1.6934
-5.0726 -7.3897 1.6934
-4.8033 -7.5662 1.6934
-4.5278 -7.7330 1.6934
-4.2465 -7.8898 1.6934
-3.9599 -8.0365 1.6934
-3.6682 -8.1728 1.6934
-3.3718 -8.2986 1.6934
-3.0712 -8.4137 1.6934
-2.7667 -8.5180 1.6934
-2.4587 -8.6113 1.6934
-2.1476 -8.6936 1.6934
-1.8337 -8.7647 1.6934
-1.5175 -8.8245 1.6934
-1.1994 -8.8731 1.6934
-0.8798 -8.9102 1.6934
-0.5591 -8.9359 1.6934
-0.2376 -8.9501 1.6934
0.0841 -8.9528 1.6934
0.4058 -8.9441 1.6934
0.7269 -8.9238 1.6934
1.0471 -8.8921 1.6934
1.2828 -8.3103 1.5903
1.5807 -8.2591 1.5903
1.8765 -8.1974 1.5903
2.1699 -8.1251 1.5903
2.4606 -8.0424 1.5903
2.7482 -7.9493 1.5903
1.8104 -4.6844 0.9495
3.3125 -7.7326 1.5903
3.5886 -7.6093 1.5903
3.8600 -7.4762 1.5903
4.1266 -7.3334 1.5903
4.3879 -7.1812 1.5903
4.6437 -7.0197 1.5903
4.8935 -6.8492 1.5903
5.1371 -6.6698 1.5903
5.3214 -6.4182 1.5747
4.7405 -5.3165 1.3451
4.9163 -5.1301 1.3416
5.2817 -5.1291 1.3899
5.5007 -4.9705 1.3994
5.4970 -4.6194 1.3551
4.7200 -3.6854 1.1299
4.9903 -3.6155 1.1626
5.3829 -3.6124 1.2228
5.8193 -3.6089 1.2914
6.3084 -3.6051 1.3700
6.8617 -3.6006 1.4608
7.2739 -3.4896 1.5206
7.2718 -3.1724 1.4950
6.1035 -2.4056 1.2360
5.9726 -2.1094 1.1931
5.7930 -1.8147 1.1432
5.9117 -1.6211 1.1541
5.9102 -1.3944 1.1431
5.9087 -1.1717 1.1337
5.8609 -0.9448 1.1170
5.9622 -0.7425 1.1302
6.0479 -0.5334 1.1419
6.3773 -0.3321 1.2008
6.7332 -0.1084 1.2659
7.6077 0.1509 1.4301
7.6059 0.4246 1.4314
7.6041 0.6992 1.4345
7.6022 0.9756 1.4396
7.6004 1.2543 1.4465
7.5985 1.5362 1.4554
7.5966 1.8222 1.4663
7.5946 2.1129 1.4793
7.5927 2.4094 1.4945
7.5906 2.7125 1.5120
7.5886 3.0234 1.5319
7.5864 3.3431 1.5544
7.5842 3.6729 1.5796
7.5820 4.0142 1.6079
7.5754 4.3662 1.6384
7.4152 4.6364 1.6384
7.2452 4.9007 1.6384
7.0658 5.1587 1.6384
6.8772 5.4102 1.6384
6.6796 5.6547 1.6384
6.4733 5.8920 1.6384
6.2585 6.1217 1.6384
6.0355 6.3436 1.6384
5.8047 6.5573 1.6384
5.5662 6.7625 1.6384
5.1643 6.7548 1.5903
-0.7230 2.2396 0.4948
-0.8033 2.2131 0.4950
-3.0178 7.4662 1.6934
-3.2838 7.3525 1.6934
-3.5455 7.2292 1.6934
-3.8025 7.0965 1.6934
-4.0545 6.9547 1.6934
-4.3012 6.8039 1.6934
-4.5423 6.6443 1.6934
-4.7775 6.4761 1.6934
-5.0064 6.2995 1.6934
-5.2288 6.1149 1.6934
-5.4443 5.9223 1.6934
-5.6527 5.7221 1.6934
-5.8538 5.5146 1.6934
-6.0472 5.3000 1.6934
-6.2327 5.0786 1.6934
-6.4101 4.8507 1.6934
-6.5791 4.6166 1.6934
-6.7396 4.3765 1.6934
-6.8610 4.1128 1.6860
-6.8588 3.7835 1.6512
-6.8616 3.4696 1.6211
-6.8664 3.1676 1.5946
-6.9549 2.9102 1.5901
-7.0643 2.6620 1.5925
-7.1432 2.4024 1.5901
-7.2235 2.1439 1.5901
-7.2944 1.8827 1.5901
-7.3559 1.6191 1.5901
-7.4079 1.3535 1.5901
-7.4502 1.0863 1.5901
-7.4829 0.8178 1.5901
-7.5060 0.5484 1.5901
-7.5193 0.2783 1.5901
-7.5229 0.0080 1.5901
-7.5169 -0.2622 1.5901
-7.5011 -0.5320 1.5901
-7.4756 -0.8009 1.5901
-7.4405 -1.0688 1.5901
-7.3959 -1.3351 1.5901
-7.3417 -1.5997 1.5901
-7.2780 -1.8620 1.5901
-7.2050 -2.1219 1.5901
-7.1228 -2.3789 1.5901
-7.0314 -2.6328 1.5901
-6.9309 -2.8831 1.5901
-6.8253 -3.1314 1.5910
-6.8167 -3.4291 1.6170
-6.8087 -3.7374 1.6462
-6.8066 -4.0611 1.6802
-6.7074 -4.3361 1.6934
-6.5462 -4.5736 1.6934
-6.3766 -4.8050 1.6934
-6.1989 -5.0302 1.6934
-6.0132 -5.2489 1.6934
-5.8199 -5.4608 1.6934
-5.6191 -5.6655 1.6934
-5.4111 -5.8629 1.6934
-5.1963 -6.0528 1.6934
-4.9748 -6.2348 1.6934
-4.7470 -6.4087 1.6934
-4.5131 -6.5743 1.6934
-4.2735 -6.7315 1.6934
-4.0284 -6.8800 1.6934
-3.7782 -7.0196 1.6934
-3.5232 -7.1502 1.6934
-3.2638 -7.2715 1.6934
-3.0001 -7.3835 1.6934
-2.7327 -7.4860 1.6934
-2.4618 -7.5788 1.6934
-2.1877 -7.6620 1.6934
-1.9109 -7.7352 1.6934
-1.6316 -7.7985 1.6934
-1.3503 -7.8518 1.6934
-1.0673 -7.8950 1.6934
-0.7828 -7.9280 1.6934
-0.4975 -7.9509 1.6934
-0.2114 -7.9636 1.6934
0.0749 -7.9660 1.6934
0.3611 -7.9582 1.6934
0.6468 -7.9402 1.6934
0.9317 -7.9120 1.6934
1.2154 -7.8736 1.6934
1.4065 -7.3487 1.5903
1.6697 -7.2937 1.5903
1.9308 -7.2293 1.5903
2.1894 -7.1557 1.5903
2.4453 -7.0728 1.5903
1.8086 -4.6795 1.0660
2.9473 -6.8799 1.5903
3.1929 -6.7701 1.5903
3.4344 -6.6516 1.5903
3.6715 -6.5245 1.5903
3.9040 -6.3890 1.5903
4.1315 -6.2453 1.5903
4.3537 -6.0935 1.5903
4.5704 -5.9338 1.5903
4.7812 -5.7665 1.5903
4.7482 -5.3250 1.5144
4.9165 -5.1301 1.5081
5.2820 -5.1292 1.5624
5.3128 -4.8005 1.5193
5.3092 -4.4614 1.4712
4.7265 -3.6903 1.2720
4.9904 -3.6154 1.3069
5.3830 -3.6123 1.3746
5.8194 -3.6088 1.4518
6.3085 -3.6049 1.5402
6.8454 -3.5918 1.6384
6.9712 -3.3442 1.6384
7.0882 -3.0921 1.6384
6.1032 -2.4053 1.3896
5.9725 -2.1092 1.3414
5.7930 -1.8145 1.2854
5.9117 -1.6209 1.2977
5.9102 -1.3943 1.2853
5.9087 -1.1716 1.2747
5.8609 -0.9447 1.2560
5.9623 -0.7424 1.2710
6.0477 -0.5332 1.2840
6.4413 -0.3353 1.3638
6.7331 -0.1082 1.4236
7.6077 0.1511 1.6083
7.6059 0.4248 1.6098
7.6041 0.6994 1.6134
7.6022 0.9758 1.6190
7.6004 1.2545 1.6269
7.5985 1.5365 1.6369
7.5467 1.8104 1.6384
7.4782 2.0807 1.6384
7.4001 2.3485 1.6384
7.3123 2.6133 1.6384
7.2151 2.8748 1.6384
7.1085 3.1327 1.6384
6.9927 3.3867 1.6384
6.8678 3.6363 1.6384
6.7339 3.8814 1.6384
6.5913 4.1215 1.6384
6.4401 4.3563 1.6384
6.2805 4.5856 1.6384
6.1127 4.8090 1.6384
5.9370 5.0262 1.6384
5.7535 5.2371 1.6384
5.5625 5.4411 1.6384
5.3642 5.6382 1.6384
5.0076 5.6570 1.5903
4.8018 5.8340 1.5903
4.5897 6.0034 1.5903
-0.6525 2.0211 0.4967
-0.7249 1.9971 0.4969
-0.7965 1.9706 0.4972
-2.9520 6.6097 1.6934
-3.1872 6.4989 1.6934
-3.4183 6.3797 1.6934
-3.6449 6.2523 1.6934
-3.8668 6.1168 1.6934
-4.0835 5.9733 1.6934
-4.2950 5.8222 1.6934
-4.5008 5.6636 1.6934
-4.7008 5.4976 1.6934
-4.8946 5.3246 1.6934
-5.0821 5.1447 1.6934
-5.2629 4.9582 1.6934
-5.4369 4.7653 1.6934
-5.6037 4.5663 1.6934
-5.7633 4.3615 1.6934
-5.9154 4.1510 1.6934
-6.0597 3.9353 1.6934
-6.1962 3.7145 1.6934
-6.3247 3.4890 1.6934
-6.4449 3.2590 1.6934
-6.5567 3.0249 1.6934
-6.6600 2.7870 1.6934
-6.7547 2.5455 1.6934
-6.8406 2.3009 1.6934
-6.8472 2.0324 1.6761
-6.8454 1.7670 1.6594
-6.8437 1.5065 1.6451
-6.8437 1.2506 1.6335
-6.8443 0.9982 1.6243
-6.8445 0.7482 1.6172
-6.8441 0.5002 1.6122
-6.8433 0.2535 1.6091
-6.8419 0.0075 1.6079
-6.8401 -0.2384 1.6088
-6.8377 -0.4847 1.6116
-6.8348 -0.7321 1.6164
-6.8314 -0.9811 1.6231
-6.8275 -1.2323 1.6320
-6.8237 -1.4866 1.6431
-6.8220 -1.7452 1.6570
-6.8202 -2.0084 1.6733
-6.8184 -2.2771 1.6922
-6.7359 -2.5219 1.6934
-6.6398 -2.7618 1.6934
-6.5352 -2.9981 1.6934
-6.4222 -3.2304 1.6934
-6.3010 -3.4586 1.6934
-6.1717 -3.6821 1.6934
-6.0344 -3.9009 1.6934
-5.8895 -4.1145 1.6934
-5.7370 -4.3229 1.6934
-5.5772 -4.5255 1.6934
-5.4102 -4.7223 1.6934
-5.2363 -4.9130 1.6934
-5.0557 -5.0973 1.6934
-4.8687 -5.2750 1.6934
-4.6754 -5.4459 1.6934
-4.4762 -5.6097 1.6934
-4.2713 -5.7663 1.6934
-4.0609 -5.9154 1.6934
-3.8453 -6.0569 1.6934
-3.6248 -6.1905 1.6934
-3.3998 -6.3162 1.6934
-3.1703 -6.4338 1.6934
-2.9369 -6.5430 1.6934
-2.6997 -6.6438 1.6934
-2.4590 -6.7361 1.6934
-2.2152 -6.8197 1.6934
-1.9686 -6.8945 1.6934
-1.7195 -6.9605 1.6934
-1.4683 -7.0175 1.6934
-1.2151 -7.0655 1.6934
-0.9604 -7.1044 1.6934
-0.7045 -7.1341 1.6934
-0.4476 -7.1547 1.6934
-0.1903 -7.1661 1.6934
0.0674 -7.1683 1.6934
0.3249 -7.1613 1.6934
0.5820 -7.1450 1.6934
0.8384 -7.1196 1.6934
1.0938 -7.0851 1.6934
1.2676 -6.6230 1.5928
1.5025 -6.5632 1.5903
1.7374 -6.5053 1.5903
1.9702 -6.4390 1.5903
2.2004 -6.3644 1.5903
1.8067 -4.6745 1.1834
2.6521 -6.1907 1.5903
2.8731 -6.0918 1.5903
3.0904 -5.9851 1.5903
3.3037 -5.8707 1.5903
3.5129 -5.7488 1.5903
3.7175 -5.6194 1.5903
3.9175 -5.4827 1.5903
4.1124 -5.3390 1.5903
4.3021 -5.1884 1.5903
4.4862 -5.0310 1.5903
4.6647 -4.8672 1.5903
4.8372 -4.6970 1.5903
5.0035 -4.5208 1.5903
5.1370 -4.3165 1.5822
4.7331 -3.6953 1.4157
4.9907 -3.6155 1.4528
5.3831 -3.6122 1.5280
5.8195 -3.6087 1.6137
6.0373 -3.4498 1.6384
6.1583 -3.2311 1.6384
6.2714 -3.0083 1.6384
6.3765 -2.7815 1.6384
6.1029 -2.4050 1.5446
5.9724 -2.1090 1.4912
5.7929 -1.8143 1.4289
5.9117 -1.6207 1.4427
5.9102 -1.3941 1.4289
5.9087 -1.1714 1.4172
5.8610 -0.9445 1.3964
5.9624 -0.7422 1.4131
6.0475 -0.5330 1.4275
6.3707 -0.3314 1.4997
6.4873 -0.1041 1.5250
6.9703 0.1386 1.6384
6.9620 0.3890 1.6384
6.9449 0.6390 1.6384
6.9187 0.8882 1.6384
6.8835 1.1364 1.6384
6.8395 1.3832 1.6384
6.7866 1.6283 1.6384
6.7250 1.8713 1.6384
6.6546 2.1121 1.6384
6.5756 2.3502 1.6384
6.4880 2.5853 1.6384
6.3920 2.8172 1.6384
6.2878 3.0454 1.6384
6.1753 3.2699 1.6384
6.0549 3.4902 1.6384
5.9265 3.7060 1.6384
5.7905 3.9171 1.6384
5.6469 4.1232 1.6384
5.4960 4.3240 1.6384
5.1812 4.3866 1.5903
5.0210 4.5705 1.5903
4.8542 4.7485 1.5903
4.6812 4.9204 1.5903
4.5020 5.0860 1.5903
4.3169 5.2451 1.5903
4.1262 5.3974 1.5903
-0.5939 1.8397 0.4983
-0.6598 1.8178 0.4985
-0.7249 1.7936 0.4987
-0.7892 1.7671 0.4989
-2.8919 5.8970 1.6934
-3.1016 5.7889 1.6934
-3.3073 5.6733 1.6934
-3.5086 5.5503 1.6934
-3.7053 5.4203 1.6934
-3.8972 5.2832 1.6934
-4.0840 5.1393 1.6934
-4.2655 4.9887 1.6934
-4.4415 4.8318 1.6934
-4.6116 4.6686 1.6934
-4.7757 4.4994 1.6934
-4.9337 4.3244 1.6934
-5.0851 4.1439 1.6934
-5.2300 3.9581 1.6934
-5.3681 3.7672 1.6934
-5.4992 3.5714 1.6934
-5.6231 3.3711 1.6934
-5.7397 3.1665 1.6934
-5.8489 2.9578 1.6934
-5.9505 2.7454 1.6934
-6.0443 2.5295 1.6934
-6.1303 2.3104 1.6934
-6.2084 2.0884 1.6934
-6.2784 1.8637 1.6934
-6.3402 1.6367 1.6934
-6.3939 1.4077 1.6934
-6.4393 1.1769 1.6934
-6.4763 0.9447 1.6934
-6.5050 0.7113 1.6934
-6.5252 0.4771 1.6934
-6.5371 0.2423 1.6934
-6.5405 0.0073 1.6934
-6.5354 -0.2276 1.6934
-6.5219 -0.4622 1.6934
-6.5000 -0.6961 1.6934
-6.4697 -0.9290 1.6934
-6.4311 -1.1606 1.6934
-6.3842 -1.3907 1.6934
-6.3291 -1.6189 1.6934
-6.2658 -1.8449 1.6934
-6.1945 -2.0685 1.6934
-6.1152 -2.2894 1.6934
-6.0281 -2.5072 1.6934
-5.9332 -2.7217 1.6934
-5.8307 -2.9327 1.6934
-5.7207 -3.1399 1.6934
-5.6034 -3.3429 1.6934
-5.4788 -3.5416 1.6934
-5.3473 -3.7356 1.6934
-5.2089 -3.9248 1.6934
-5.0639 -4.1089 1.6934
-4.9123 -4.2876 1.6934
-4.7545 -4.4608 1.6934
-4.5906 -4.6282 1.6934
-4.4208 -4.7896 1.6934
-4.2454 -4.9448 1.6934
-4.0645 -5.0936 1.6934
-3.8785 -5.2358 1.6934
-3.6875 -5.3713 1.6934
-3.4918 -5.4998 1.6934
-3.2916 -5.6212 1.6934
-3.0872 -5.7354 1.6934
-2.8789 -5.8422 1.6934
-2.6669 -5.9414 1.6934
-2.4515 -6.0330 1.6934
-2.2330 -6.1168 1.6934
-2.0117 -6.1928 1.6934
-1.7877 -6.2607 1.6934
-1.5615 -6.3207 1.6934
-1.3333 -6.3724 1.6934
-1.1034 -6.4160 1.6934
-0.8721 -6.4514 1.6934
-0.6397 -6.4784 1.6934
-0.4065 -6.4971 1.6934
-0.1728 -6.5075 1.6934
0.0612 -6.5095 1.6934
0.2951 -6.5031 1.6934
0.5286 -6.4883 1.6934
0.7614 -6.4653 1.6934
0.9932 -6.4339 1.6934
1.2238 -6.3942 1.6934
1.3644 -5.9599 1.5903
1.5778 -5.9073 1.5903
1.7891 -5.8471 1.5903
1.7091 -4.9432 1.3602
1.8048 -4.6695 1.3019
2.4084 -5.6215 1.5903
2.6090 -5.5317 1.5903
2.8063 -5.4348 1.5903
3.0000 -5.3308 1.5903
3.1899 -5.2200 1.5903
3.3757 -5.1025 1.5903
3.5572 -4.9784 1.5903
3.7342 -4.8478 1.5903
3.9064 -4.7110 1.5903
4.0736 -4.5681 1.5903
4.2356 -4.4193 1.5903
4.3921 -4.2647 1.5903
4.5431 -4.1046 1.5903
4.6882 -3.9393 1.5903
4.7398 -3.7004 1.5614
4.9603 -3.5933 1.5903
5.0869 -3.4132 1.5903
5.2070 -3.2287 1.5903
5.4813 -3.1319 1.6384
5.5911 -2.9334 1.6384
5.6938 -2.7310 1.6384
5.7891 -2.5251 1.6384
5.8770 -2.3158 1.6384
5.9573 -2.1035 1.6384
5.7929 -1.8142 1.5740
5.7538 -1.5773 1.5467
5.7398 -1.3538 1.5286
5.7716 -1.1441 1.5249
5.8611 -0.9444 1.5383
5.9625 -0.7421 1.5566
6.0473 -0.5328 1.5725
6.2082 -0.3228 1.6100
6.3263 -0.1013 1.6384
6.3269 0.1260 1.6384
6.3194 0.3533 1.6384
6.3037 0.5802 1.6384
6.2798 0.8064 1.6384
6.2478 1.0316 1.6384
6.2078 1.2556 1.6384
6.1597 1.4780 1.6384
6.1036 1.6986 1.6384
6.0396 1.9171 1.6384
5.9678 2.1331 1.6384
5.8883 2.3465 1.6384
5.8011 2.5569 1.6384
5.7064 2.7640 1.6384
5.6043 2.9677 1.6384
5.4949 3.1675 1.6384
5.3783 3.3633 1.6384
5.1006 3.4505 1.5903
4.9740 3.6320 1.5903
4.8410 3.8088 1.5903
4.7017 3.9808 1.5903
4.5563 4.1476 1.5903
4.4049 4.3091 1.5903
4.2478 4.4651 1.5903
4.0851 4.6153 1.5903
3.9172 4.7596 1.5903
3.7441 4.8977 1.5903
-0.5444 1.6865 0.4996
-0.6048 1.6664 0.4998
-0.6645 1.6442 0.5000
-0.7234 1.6198 0.5002
-0.7814 1.5934 0.5005
-2.8358 5.2929 1.6934
-3.0238 5.1873 1.6934
-3.2079 5.0749 1.6934
-3.3878 4.9560 1.6934
-3.5633 4.8307 1.6934
-3.7342 4.6992 1.6934
-3.9002 4.5616 1.6934
-4.0610 4.4181 1.6934
-4.2167 4.2689 1.6934
-4.3668 4.1143 1.6934
-4.5112 3.9543 1.6934
-4.6498 3.7893 1.6934
-4.7823 3.6194 1.6934
-4.9086 3.4449 1.6934
-5.0285 3.2659 1.6934
-5.1419 3.0828 1.6934
-5.2486 2.8957 1.6934
-5.3485 2.7049 1.6934
-5.4414 2.5107 1.6934
-5.5273 2.3133 1.6934
-5.6060 2.1130 1.6934
-5.6775 1.9100 1.6934
-5.7416 1.7045 1.6934
-5.7982 1.4970 1.6934
-5.8474 1.2875 1.6934
-5.8890 1.0765 1.6934
-5.9229 0.8641 1.6934
-5.9492 0.6507 1.6934
-5.9678 0.4365 1.6934
-5.9787 0.2218 1.6934
-5.9819 0.0069 1.6934
-5.9774 -0.2080 1.6934
-5.9651 -0.4226 1.6934
-5.9452 -0.6365 1.6934
-5.9175 -0.8495 1.6934
-5.8823 -1.0614 1.6934
-5.8395 -1.2719 1.6934
-5.7891 -1.4806 1.6934
-5.7313 -1.6874 1.6934
-5.6662 -1.8919 1.6934
-5.5937 -2.0940 1.6934
-5.5141 -2.2933 1.6934
-5.4273 -2.4895 1.6934
-5.3336 -2.6826 1.6934
-5.2331 -2.8721 1.6934
-5.1258 -3.0578 1.6934
-5.0120 -3.2396 1.6934
-4.8917 -3.4171 1.6934
-4.7652 -3.5903 1.6934
-4.6325 -3.7587 1.6934
-4.4939 -3.9222 1.6934
-4.3496 -4.0807 1.6934
-4.1997 -4.2339 1.6934
-4.0444 -4.3816 1.6934
-3.8839 -4.5236 1.6934
-3.7185 -4.6598 1.6934
-3.5483 -4.7900 1.6934
-3.3736 -4.9139 1.6934
-3.1946 -5.0315 1.6934
-3.0115 -5.1427 1.6934
-2.8245 -5.2472 1.6934
-2.6339 -5.3449 1.6934
-2.4400 -5.4357 1.6934
-2.2429 -5.5195 1.6934
-2.0430 -5.5963 1.6934
-1.8405 -5.6658 1.6934
-1.6357 -5.7280 1.6934
-1.4287 -5.7828 1.6934
-1.2199 -5.8302 1.6934
-1.0096 -5.8701 1.6934
-0.7980 -5.9025 1.6934
-0.5853 -5.9272 1.6934
-0.3719 -5.9443 1.6934
-0.1581 -5.9538 1.6934
0.0560 -5.9556 1.6934
0.2700 -5.9498 1.6934
0.4836 -5.9363 1.6934
0.6966 -5.9152 1.6934
0.9088 -5.8864 1.6934
1.1197 -5.8501 1.6934
1.2579 -5.4943 1.6024
1.4436 -5.4046 1.5903
1.6369 -5.3495 1.5903
1.7038 -4.9278 1.4821
1.8029 -4.6645 1.4214
1.9975 -4.6623 1.4416
2.3870 -5.0609 1.5903
2.5675 -4.9722 1.5903
2.7447 -4.8771 1.5903
2.9184 -4.7756 1.5903
3.0884 -4.6681 1.5903
3.2544 -4.5545 1.5903
3.4163 -4.4350 1.5903
3.5738 -4.3098 1.5903
3.7267 -4.1790 1.5903
3.8749 -4.0428 1.5903
4.0181 -3.9014 1.5903
4.1562 -3.7549 1.5903
4.2889 -3.6036 1.5903
4.4161 -3.4475 1.5903
4.5377 -3.2870 1.5903
4.6535 -3.1223 1.5903
4.7633 -2.9534 1.5903
4.8670 -2.7808 1.5903
4.9644 -2.6044 1.5903
5.0555 -2.4247 1.5903
5.1401 -2.2418 1.5903
5.2181 -2.0560 1.5903
5.4493 -1.9239 1.6384
5.5157 -1.7272 1.6384
5.5750 -1.5281 1.6384
5.6272 -1.3270 1.6384
5.6721 -1.1242 1.6384
5.7097 -0.9198 1.6384
5.7399 -0.7142 1.6384
5.7628 -0.5076 1.6384
5.7782 -0.3003 1.6384
5.7861 -0.0925 1.6384
5.7866 0.1154 1.6384
5.7796 0.3233 1.6384
5.7652 0.5308 1.6384
5.7433 0.7376 1.6384
5.7140 0.9436 1.6384
5.6773 1.1484 1.6384
5.6332 1.3519 1.6384
5.5818 1.5536 1.6384
5.5233 1.7533 1.6384
5.4575 1.9509 1.6384
5.3847 2.1460 1.6384
5.1492 2.2697 1.5903
5.0651 2.4536 1.5903
4.9744 2.6343 1.5903
4.8772 2.8116 1.5903
4.7737 2.9854 1.5903
4.6640 3.1554 1.5903
4.5483 3.3213 1.5903
4.4266 3.4829 1.5903
4.2991 3.6401 1.5903
4.1661 3.7926 1.5903
4.0277 3.9402 1.5903
3.8840 4.0828 1.5903
3.7352 4.2201 1.5903
3.5816 4.3520 1.5903
3.4233 4.4783 1.5903
-0.5021 1.5554 0.5008
-0.5578 1.5368 0.5009
-0.6128 1.5162 0.5011
-0.6671 1.4938 0.5013
-0.7206 1.4694 0.5015
-0.7732 1.4431 0.5018
-0.8248 1.4150 0.5020
-2.9518 4.6698 1.6934
-3.1173 4.5604 1.6934
-3.2788 4.4451 1.6934
-3.4360 4.3241 1.6934
-3.5888 4.1976 1.6934
-3.7369 4.0656 1.6934
-3.8801 3.9284 1.6934
-4.0183 3.7861 1.6934
-4.1512 3.6389 1.6934
-4.2788 3.4871 1.6934
-4.4007 3.3308 1.6934
-4.5170 3.1702 1.6934
-4.6274 3.0055 1.6934
-4.7318 2.8371 1.6934
-4.8300 2.6649 1.6934
-4.9220 2.4894 1.6934
-5.0076 2.3107 1.6934
-5.0867 2.1291 1.6934
-5.1592 1.9447 1.6934
-5.2250 1.7579 1.6934
-5.2840 1.5689 1.6934
-5.3362 1.3778 1.6934
-5.3815 1.1851 1.6934
-5.4198 0.9909 1.6934
-5.4512 0.7954 1.6934
-5.4754 0.5990 1.6934
-5.4926 0.4019 1.6934
-5.5027 0.2043 1.6934
-5.5057 0.0065 1.6934
-5.5016 -0.1913 1.6934
-5.4904 -0.3888 1.6934
-5.4721 -0.5857 1.6934
-5.4467 -0.7818 1.6934
-5.4143 -0.9768 1.6934
-5.3750 -1.1705 1.6934
-5.3287 -1.3627 1.6934
-5.2755 -1.5530 1.6934
-5.2156 -1.7413 1.6934
-5.1490 -1.9273 1.6934
-5.0757 -2.1108 1.6934
-4.9959 -2.2915 1.6934
-4.9097 -2.4692 1.6934
-4.8172 -2.6437 1.6934
-4.7185 -2.8147 1.6934
-4.6138 -2.9821 1.6934
-4.5031 -3.1455 1.6934
-4.3867 -3.3049 1.6934
-4.2646 -3.4600 1.6934
-4.1370 -3.6106 1.6934
-4.0042 -3.7565 1.6934
-3.8662 -3.8976 1.6934
-3.7233 -4.0336 1.6934
-3.5756 -4.1643 1.6934
-3.4233 -4.2898 1.6934
-3.2667 -4.4096 1.6934
-3.1059 -4.5238 1.6934
-2.9411 -4.6321 1.6934
-2.7725 -4.7344 1.6934
-2.6004 -4.8306 1.6934
-2.4249 -4.9206 1.6934
-2.2464 -5.0043 1.6934
-2.0650 -5.0815 1.6934
-1.8810 -5.1521 1.6934
-1.6945 -5.2162 1.6934
-1.5059 -5.2735 1.6934
-1.3154 -5.3240 1.6934
-1.1232 -5.3676 1.6934
-0.9295 -5.4044 1.6934
-0.7347 -5.4341 1.6934
-0.5389 -5.4569 1.6934
-0.3424 -5.4727 1.6934
-0.1456 -5.4814 1.6934
0.0515 -5.4831 1.6934
0.2485 -5.4777 1.6934
0.4452 -5.4653 1.6934
0.6414 -5.4459 1.6934
0.8367 -5.4194 1.6934
1.0309 -5.3860 1.6934
1.2238 -5.3456 1.6934
1.3290 -4.9758 1.5903
1.5071 -4.9250 1.5903
1.6831 -4.8679 1.5903
1.8010 -4.6593 1.5423
1.9953 -4.6571 1.5642
2.1976 -4.6592 1.5903
2.3638 -4.5775 1.5903
2.5269 -4.4899 1.5903
2.6868 -4.3965 1.5903
2.8433 -4.2975 1.5903
2.9961 -4.1929 1.5903
3.1451 -4.0828 1.5903
3.2901 -3.9675 1.5903
3.4309 -3.8471 1.5903
3.5673 -3.7217 1.5903
3.6991 -3.5915 1.5903
3.8261 -3.4566 1.5903
3.9483 -3.3172 1.5903
4.0654 -3.1736 1.5903
4.1773 -3.0258 1.5903
4.2838 -2.8741 1.5903
4.3849 -2.7187 1.5903
4.4803 -2.5597 1.5903
4.5699 -2.3973 1.5903
4.6537 -2.2319 1.5903
4.7315 -2.0635 1.5903
4.8032 -1.8924 1.5903
4.8688 -1.7189 1.5903
4.9281 -1.5430 1.5903
4.9810 -1.3652 1.5903
5.0276 -1.1855 1.5903
5.0676 -1.0042 1.5903
5.1012 -0.8216 1.5903
5.1281 -0.6379 1.5903
5.1485 -0.4534 1.5903
5.1622 -0.2681 1.5903
5.1692 -0.0825 1.5903
5.1696 0.1032 1.5903
5.1633 0.2889 1.5903
5.1503 0.4743 1.5903
5.1307 0.6591 1.5903
5.1045 0.8431 1.5903
5.0716 1.0261 1.5903
5.0322 1.2078 1.5903
4.9863 1.3879 1.5903
4.9339 1.5664 1.5903
4.8751 1.7428 1.5903
4.8100 1.9171 1.5903
4.7387 2.0889 1.5903
4.6612 2.2581 1.5903
4.5777 2.4243 1.5903
4.4882 2.5875 1.5903
4.3930 2.7474 1.5903
4.2920 2.9038 1.5903
4.1854 3.0564 1.5903
4.0734 3.2052 1.5903
3.9561 3.3498 1.5903
3.8337 3.4901 1.5903
3.7062 3.6259 1.5903
3.5740 3.7571 1.5903
3.4371 3.8834 1.5903
3.2957 4.0047 1.5903
3.1500 4.1209 1.5903
-0.4654 1.4417 0.5018
-0.5170 1.4245 0.5019
-0.5680 1.4054 0.5021
-0.6183 1.3845 0.5023
-0.6678 1.3619 0.5025
-0.7166 1.3375 0.5027
-0.7644 1.3114 0.5029
-0.8114 1.2837 0.5032
-2.8838 4.2190 1.6934
-3.0332 4.1124 1.6934
-3.1787 4.0004 1.6934
-3.3200 3.8834 1.6934
-3.4571 3.7613 1.6934
-3.5896 3.6344 1.6934
-3.7174 3.5028 1.6934
-3.8405 3.3667 1.6934
-3.9585 3.2262 1.6934
-4.0714 3.0816 1.6934
-4.1790 2.9331 1.6934
-4.2811 2.7808 1.6934
-4.3777 2.6249 1.6934
-4.4687 2.4657 1.6934
-4.5538 2.3033 1.6934
-4.6330 2.1380 1.6934
-4.7062 1.9700 1.6934
-4.7734 1.7994 1.6934
-4.8343 1.6266 1.6934
-4.8890 1.4517 1.6934
-4.9373 1.2750 1.6934
-4.9793 1.0967 1.6934
-5.0148 0.9170 1.6934
-5.0438 0.7361 1.6934
-5.0663 0.5544 1.6934
-5.0823 0.3720 1.6934
-5.0917 0.1892 1.6934
-5.0945 0.0061 1.6934
-5.0907 -0.1769 1.6934
-5.0804 -0.3596 1.6934
-5.0635 -0.5418 1.6934
-5.0401 -0.7233 1.6934
-5.0102 -0.9037 1.6934
-4.9738 -1.0830 1.6934
-4.9310 -1.2609 1.6934
-4.8819 -1.4370 1.6934
-4.8265 -1.6113 1.6934
-4.7649 -1.7834 1.6934
-4.6971 -1.9532 1.6934
-4.6233 -2.1204 1.6934
-4.5436 -2.2849 1.6934
-4.4580 -2.4464 1.6934
-4.3667 -2.6047 1.6934
-4.2698 -2.7596 1.6934
-4.1674 -2.9109 1.6934
-4.0597 -3.0584 1.6934
-3.9467 -3.2020 1.6934
