ply
format ascii 1.0
element vertex 2177
property float32 x
property float32 y
property float32 z
end_header
-7.7626 -3.3909 1.5923
-7.6364 -3.6686 1.5923
-7.5002 -3.9417 1.5923
-7.3543 -4.2096 1.5923
-7.2754 -4.5198 1.6093
-7.2739 -4.8903 1.6466
-7.2805 -5.2850 1.6899
-7.1093 -5.5624 1.6954
-6.9052 -5.8154 1.6954
-6.6922 -6.0610 1.6954
-6.4703 -6.2987 1.6954
-6.2401 -6.5283 1.6954
-6.0017 -6.7495 1.6954
-5.7554 -6.9619 1.6954
-5.5016 -7.1654 1.6954
-5.2406 -7.3596 1.6954
-4.9728 -7.5442 1.6954
-4.6984 -7.7191 1.6954
-4.4179 -7.8841 1.6954
-4.1316 -8.0388 1.6954
-3.8399 -8.1831 1.6954
-3.5431 -8.3168 1.6954
-3.2417 -8.4397 1.6954
-2.9360 -8.5516 1.6954
-2.6265 -8.6525 1.6954
-2.3134 -8.7421 1.6954
-1.9974 -8.8204 1.6954
-1.6787 -8.8872 1.6954
-1.3577 -8.9425 1.6954
-1.0350 -8.9862 1.6954
-0.7108 -9.0182 1.6954
-0.3857 -9.0384 1.6954
-0.0601 -9.0469 1.6954
0.2657 -9.0437 1.6954
0.5911 -9.0287 1.6954
0.8600 -8.4537 1.5922
1.1638 -8.4176 1.5922
1.4661 -8.3705 1.5922
1.7666 -8.3125 1.5922
2.0647 -8.2438 1.5922
2.3602 -8.1643 1.5922
2.6527 -8.0741 1.5922
2.9416 -7.9735 1.5922
3.2268 -7.8625 1.5922
3.5078 -7.7413 1.5922
3.7842 -7.6100 1.5922
4.0557 -7.4688 1.5922
4.3219 -7.3179 1.5922
4.5824 -7.1574 1.5922
4.8735 -7.0404 1.6042
5.1237 -6.8602 1.6042
4.2774 -5.3165 1.2784
4.2835 -4.9483 1.2262
4.2892 -4.6086 1.1796
4.2944 -4.2933 1.1378
4.2993 -3.9993 1.1003
4.3039 -3.7238 1.0665
4.3082 -3.4643 1.0360
4.3123 -3.2190 1.0085
4.3162 -2.9861 0.9837
4.3199 -2.7642 0.9613
4.3234 -2.5519 0.9411
4.3268 -2.3481 0.9228
4.3301 -2.1518 0.9065
4.3333 -1.9621 0.8918
4.3363 -1.7783 0.8788
4.3393 -1.5996 0.8672
4.3422 -1.4253 0.8571
4.3450 -1.2549 0.8482
4.3478 -1.0877 0.8406
4.3506 -0.9233 0.8343
4.3533 -0.7613 0.8291
4.3559 -0.6010 0.8250
4.3586 -0.4422 0.8220
4.3612 -0.2843 0.8202
4.3638 -0.1270 0.8193
4.3664 0.0302 0.8196
4.3691 0.1877 0.8209
4.3717 0.3458 0.8233
4.3744 0.5051 0.8268
4.3770 0.6658 0.8314
4.3797 0.8286 0.8371
4.3825 0.9938 0.8440
4.3853 1.1619 0.8522
4.3881 1.3335 0.8616
4.3911 1.5091 0.8724
4.3941 1.6893 0.8846
4.3972 1.8749 0.8984
4.4004 2.0665 0.9138
4.4037 2.2650 0.9309
4.4071 2.4714 0.9499
4.4107 2.6866 0.9711
4.4144 2.9118 0.9945
4.4184 3.1484 1.0204
4.4225 3.3979 1.0490
4.4269 3.6622 1.0808
4.4316 3.9432 1.1160
4.4366 4.2436 1.1552
4.4420 4.5661 1.1988
4.4478 4.9143 1.2474
4.4541 5.2924 1.3020
1.7553 2.2451 0.5365
4.4685 6.1601 1.4327
4.4769 6.6640 1.5115
4.4595 7.1840 1.5922
4.1975 7.3392 1.5922
3.9302 7.4848 1.5922
3.6578 7.6208 1.5922
3.3807 7.7469 1.5922
3.0993 7.8629 1.5922
2.8139 7.9687 1.5922
0.7872 2.5140 0.4964
0.6959 2.5398 0.4962
0.6038 2.5623 0.4961
0.5110 2.5816 0.4960
0.4176 2.5977 0.4959
0.3237 2.6106 0.4958
0.2294 2.6202 0.4958
0.1350 2.6265 0.4958
0.0403 2.6295 0.4958
-0.0544 2.6293 0.4958
-0.1491 2.6258 0.4959
-0.2435 2.6190 0.4959
-0.3377 2.6090 0.4960
-0.4316 2.5957 0.4962
-5.9037 5.3970 1.6954
-6.0944 5.1811 1.6954
-6.2774 4.9586 1.6954
-6.4521 4.7296 1.6954
-6.6186 4.4944 1.6954
-6.7765 4.2534 1.6954
-6.9257 4.0069 1.6954
-7.0659 3.7551 1.6954
-7.1347 3.4682 1.6807
-7.1398 3.1581 1.6540
-7.1475 2.8584 1.6307
-7.1570 2.5674 1.6106
-7.1658 2.2829 1.5929
-7.2413 2.0228 1.5923
-7.3100 1.7609 1.5923
-7.3693 1.4966 1.5923
-7.4191 1.2304 1.5923
-7.4592 0.9626 1.5923
-7.4897 0.6934 1.5923
-7.5105 0.4234 1.5923
-7.5216 0.1527 1.5923
-7.5230 -0.1183 1.5923
-7.5146 -0.3891 1.5923
-7.4964 -0.6595 1.5923
-7.4686 -0.9291 1.5923
-7.4310 -1.1975 1.5923
-7.3839 -1.4644 1.5923
-7.3271 -1.7295 1.5923
-7.2609 -1.9924 1.5923
-7.2390 -2.2697 1.6043
-7.2394 -2.5595 1.6236
-7.2400 -2.8569 1.6455
-7.2452 -3.1650 1.6714
-7.2299 -3.4735 1.6954
-7.1009 -3.7319 1.6954
-6.9627 -3.9856 1.6954
-6.8154 -4.2341 1.6954
-6.6592 -4.4772 1.6954
-6.4944 -4.7146 1.6954
-6.3211 -4.9459 1.6954
-6.1396 -5.1708 1.6954
-5.9501 -5.3890 1.6954
-5.7528 -5.6003 1.6954
-5.5480 -5.8044 1.6954
-5.3359 -6.0009 1.6954
-5.1169 -6.1898 1.6954
-4.8912 -6.3706 1.6954
-4.6592 -6.5432 1.6954
-4.4210 -6.7073 1.6954
-4.1770 -6.8627 1.6954
-3.9276 -7.0093 1.6954
-3.6730 -7.1467 1.6954
-3.4136 -7.2749 1.6954
-3.1498 -7.3937 1.6954
-2.8818 -7.5029 1.6954
-2.6100 -7.6024 1.6954
-2.3348 -7.6919 1.6954
-2.0565 -7.7716 1.6954
-1.7755 -7.8411 1.6954
-1.4922 -7.9004 1.6954
-1.2069 -7.9495 1.6954
-0.9200 -7.9883 1.6954
-0.6318 -8.0166 1.6954
-0.3428 -8.0346 1.6954
-0.0534 -8.0421 1.6954
0.2362 -8.0392 1.6954
0.5255 -8.0258 1.6954
0.7645 -7.5147 1.5922
1.0346 -7.4825 1.5922
1.3033 -7.4407 1.5922
1.5704 -7.3891 1.5922
1.8354 -7.3280 1.5922
2.0980 -7.2573 1.5922
2.3580 -7.1772 1.5922
2.6148 -7.0877 1.5922
2.8683 -6.9890 1.5922
3.1181 -6.8813 1.5922
3.3638 -6.7646 1.5922
3.6051 -6.6390 1.5922
3.8417 -6.5049 1.5922
4.0734 -6.3623 1.5922
4.2997 -6.2115 1.5922
4.5204 -6.0525 1.5922
4.2774 -5.3166 1.4382
4.2835 -4.9484 1.3795
4.2892 -4.6086 1.3270
4.2944 -4.2934 1.2800
4.2993 -3.9993 1.2378
4.3039 -3.7238 1.1998
4.3082 -3.4644 1.1655
4.3123 -3.2191 1.1345
4.3162 -2.9862 1.1066
4.3199 -2.7642 1.0814
4.3234 -2.5519 1.0586
4.3268 -2.3481 1.0381
4.3301 -2.1518 1.0197
4.3333 -1.9622 1.0032
4.3363 -1.7783 0.9885
4.3393 -1.5996 0.9755
4.3422 -1.4253 0.9641
4.3450 -1.2549 0.9541
4.3478 -1.0878 0.9456
4.3506 -0.9234 0.9384
4.3533 -0.7613 0.9326
4.3559 -0.6011 0.9280
4.3586 -0.4422 0.9246
4.3612 -0.2844 0.9225
4.3638 -0.1270 0.9216
4.3664 0.0302 0.9218
4.3691 0.1876 0.9233
4.3717 0.3458 0.9260
4.3743 0.5050 0.9299
4.3770 0.6658 0.9351
4.3797 0.8285 0.9415
4.3825 0.9937 0.9493
4.3853 1.1618 0.9584
4.3881 1.3334 0.9690
4.3911 1.5090 0.9811
4.3941 1.6892 0.9949
4.3972 1.8748 1.0103
4.4004 2.0664 1.0276
4.4037 2.2650 1.0469
4.4071 2.4713 1.0683
4.4107 2.6865 1.0920
4.4144 2.9117 1.1183
4.4184 3.1483 1.1474
4.4225 3.3978 1.1796
4.4269 3.6621 1.2153
4.4316 3.9431 1.2549
4.4366 4.2435 1.2989
4.4420 4.5660 1.3479
4.4478 4.9142 1.4027
4.4541 5.2923 1.4640
1.7551 2.2447 0.6031
4.4166 6.0883 1.5922
4.1941 6.2428 1.5922
3.9662 6.3892 1.5922
3.7333 6.5273 1.5922
3.4955 6.6569 1.5922
3.2533 6.7779 1.5922
3.0069 6.8901 1.5922
2.7566 6.9933 1.5922
0.7835 2.2188 0.4985
0.7029 2.2447 0.4983
0.6214 2.2678 0.4982
0.5391 2.2880 0.4980
0.4563 2.3053 0.4979
0.3729 2.3198 0.4979
0.2891 2.3313 0.4978
0.2049 2.3399 0.4978
0.1205 2.3455 0.4978
0.0360 2.3483 0.4978
-0.0486 2.3481 0.4978
-0.1331 2.3449 0.4978
-0.2175 2.3388 0.4979
-0.3016 2.3298 0.4980
-0.3854 2.3179 0.4981
-5.3111 4.8553 1.6954
-5.4827 4.6611 1.6954
-5.6473 4.4608 1.6954
-5.8045 4.2547 1.6954
-5.9542 4.0432 1.6954
-6.0962 3.8263 1.6954
-6.2304 3.6045 1.6954
-6.3565 3.3780 1.6954
-6.4744 3.1471 1.6954
-6.5839 2.9122 1.6954
-6.6850 2.6734 1.6954
-6.7773 2.4311 1.6954
-6.8610 2.1856 1.6954
-6.9357 1.9373 1.6954
-7.0015 1.6865 1.6954
-7.0582 1.4334 1.6954
-7.1058 1.1784 1.6954
-7.1442 0.9218 1.6954
-7.1734 0.6641 1.6954
-7.1857 0.4050 1.6937
-7.1900 0.1458 1.6922
-7.1943 -0.1132 1.6929
-7.1969 -0.3728 1.6954
-7.1795 -0.6317 1.6954
-7.1527 -0.8899 1.6954
-7.1167 -1.1469 1.6954
-7.0714 -1.4026 1.6954
-7.0170 -1.6564 1.6954
-6.9535 -1.9082 1.6954
-6.8810 -2.1575 1.6954
-6.7995 -2.4041 1.6954
-6.7092 -2.6476 1.6954
-6.6101 -2.8877 1.6954
-6.5025 -3.1241 1.6954
-6.3864 -3.3565 1.6954
-6.2620 -3.5846 1.6954
-6.1295 -3.8081 1.6954
-5.9890 -4.0267 1.6954
-5.8407 -4.2402 1.6954
-5.6848 -4.4481 1.6954
-5.5215 -4.6503 1.6954
-5.3510 -4.8466 1.6954
-5.1735 -5.0365 1.6954
-4.9893 -5.2200 1.6954
-4.7986 -5.3967 1.6954
-4.6016 -5.5665 1.6954
-4.3986 -5.7290 1.6954
-4.1898 -5.8842 1.6954
-3.9756 -6.0317 1.6954
-3.7562 -6.1714 1.6954
-3.5319 -6.3032 1.6954
-3.3029 -6.4267 1.6954
-3.0696 -6.5420 1.6954
-2.8323 -6.6487 1.6954
-2.5913 -6.7469 1.6954
-2.3469 -6.8363 1.6954
-2.0994 -6.9168 1.6954
-1.8492 -6.9883 1.6954
-1.5965 -7.0508 1.6954
-1.3417 -7.1041 1.6954
-1.0852 -7.1482 1.6954
-0.8272 -7.1830 1.6954
-0.5681 -7.2085 1.6954
-0.3082 -7.2246 1.6954
-0.0479 -7.2313 1.6954
0.2124 -7.2287 1.6954
0.4725 -7.2166 1.6954
0.7320 -7.1952 1.6954
0.9467 -6.8470 1.6203
1.1719 -6.6904 1.5922
1.4120 -6.6440 1.5922
1.6503 -6.5890 1.5922
1.8865 -6.5254 1.5922
2.1202 -6.4534 1.5922
2.3512 -6.3730 1.5922
2.5791 -6.2842 1.5922
2.8036 -6.1873 1.5922
3.0246 -6.0824 1.5922
3.2415 -5.9695 1.5922
3.4543 -5.8489 1.5922
3.6626 -5.7207 1.5922
3.8661 -5.5851 1.5922
4.0646 -5.4422 1.5922
4.2578 -5.2922 1.5922
4.2835 -4.9484 1.5342
4.2892 -4.6086 1.4758
4.2944 -4.2934 1.4236
4.2993 -3.9994 1.3766
4.3039 -3.7238 1.3343
4.3082 -3.4644 1.2961
4.3123 -3.2191 1.2617
4.3162 -2.9862 1.2306
4.3199 -2.7643 1.2026
4.3234 -2.5520 1.1773
4.3268 -2.3482 1.1545
4.3301 -2.1519 1.1340
4.3333 -1.9622 1.1157
4.3363 -1.7784 1.0993
4.3393 -1.5997 1.0848
4.3422 -1.4254 1.0721
4.3450 -1.2550 1.0610
4.3478 -1.0878 1.0515
4.3506 -0.9235 1.0436
4.3533 -0.7614 1.0370
4.3559 -0.6011 1.0319
4.3586 -0.4423 1.0282
4.3612 -0.2844 1.0258
4.3638 -0.1271 1.0248
4.3664 0.0301 1.0251
4.3691 0.1876 1.0267
4.3717 0.3457 1.0297
4.3743 0.5050 1.0340
4.3770 0.6657 1.0397
4.3797 0.8284 1.0469
4.3825 0.9936 1.0555
4.3853 1.1617 1.0657
4.3881 1.3333 1.0775
4.3911 1.5089 1.0909
4.3941 1.6891 1.1062
4.3972 1.8747 1.1233
4.4004 2.0664 1.1425
4.4037 2.2649 1.1639
4.4071 2.4712 1.1877
4.4107 2.6864 1.2141
4.4144 2.9116 1.2433
4.4184 3.1482 1.2757
4.4225 3.3977 1.3115
4.4269 3.6620 1.3512
4.4316 3.9430 1.3952
4.4366 4.2433 1.4441
4.4420 4.5659 1.4985
4.4478 4.9140 1.5594
4.3574 5.1773 1.5922
1.7549 2.2444 0.6704
3.9729 5.4765 1.5922
3.7728 5.6155 1.5922
3.5678 5.7473 1.5922
3.3583 5.8715 1.5922
3.1445 5.9882 1.5922
2.9266 6.0970 1.5922
2.7049 6.1980 1.5922
0.7790 1.9762 0.5002
0.7071 2.0022 0.5000
0.6343 2.0257 0.4999
0.5608 2.0465 0.4997
0.4866 2.0648 0.4996
0.4118 2.0805 0.4995
0.3366 2.0936 0.4995
0.2609 2.1040 0.4994
0.1850 2.1118 0.4994
0.1088 2.1169 0.4994
0.0325 2.1194 0.4994
-0.0438 2.1192 0.4994
-0.1201 2.1164 0.4994
-0.1963 2.1109 0.4995
-0.2722 2.1027 0.4996
-0.3478 2.0919 0.4997
-4.8220 4.4081 1.6954
-4.9778 4.2317 1.6954
-5.1271 4.0499 1.6954
-5.2698 3.8628 1.6954
-5.4057 3.6707 1.6954
-5.5347 3.4738 1.6954
-5.6565 3.2724 1.6954
-5.7709 3.0668 1.6954
-5.8779 2.8572 1.6954
-5.9773 2.6438 1.6954
-6.0690 2.4270 1.6954
-6.1529 2.2070 1.6954
-6.2287 1.9842 1.6954
-6.2966 1.7587 1.6954
-6.3562 1.5310 1.6954
-6.4077 1.3012 1.6954
-6.4509 1.0697 1.6954
-6.4857 0.8368 1.6954
-6.5121 0.6028 1.6954
-6.5301 0.3679 1.6954
-6.5396 0.1326 1.6954
-6.5407 -0.1030 1.6954
-6.5333 -0.3385 1.6954
-6.5174 -0.5735 1.6954
-6.4930 -0.8079 1.6954
-6.4603 -1.0412 1.6954
-6.4192 -1.2733 1.6954
-6.3697 -1.5037 1.6954
-6.3120 -1.7322 1.6954
-6.2461 -1.9585 1.6954
-6.1721 -2.1823 1.6954
-6.0900 -2.4034 1.6954
-6.0001 -2.6213 1.6954
-5.9023 -2.8359 1.6954
-5.7969 -3.0468 1.6954
-5.6840 -3.2539 1.6954
-5.5637 -3.4567 1.6954
-5.4361 -3.6551 1.6954
-5.3014 -3.8488 1.6954
-5.1599 -4.0375 1.6954
-5.0116 -4.2210 1.6954
-4.8568 -4.3991 1.6954
-4.6957 -4.5715 1.6954
-4.5284 -4.7379 1.6954
-4.3553 -4.8983 1.6954
-4.1764 -5.0523 1.6954
-3.9922 -5.1998 1.6954
-3.8027 -5.3406 1.6954
-3.6082 -5.4745 1.6954
-3.4090 -5.6012 1.6954
-3.2054 -5.7208 1.6954
-2.9976 -5.8329 1.6954
-2.7859 -5.9374 1.6954
-2.5705 -6.0343 1.6954
-2.3518 -6.1233 1.6954
-2.1299 -6.2044 1.6954
-1.9053 -6.2774 1.6954
-1.6782 -6.3423 1.6954
-1.4489 -6.3990 1.6954
-1.2176 -6.4473 1.6954
-0.9848 -6.4873 1.6954
-0.7506 -6.5189 1.6954
-0.5155 -6.5420 1.6954
-0.2797 -6.5566 1.6954
-0.0435 -6.5626 1.6954
0.1928 -6.5602 1.6954
0.4289 -6.5492 1.6954
0.6644 -6.5298 1.6954
0.8443 -6.1058 1.5922
1.0635 -6.0716 1.5922
1.2815 -6.0295 1.5922
1.4977 -5.9796 1.5922
1.7120 -5.9219 1.5922
1.9241 -5.8565 1.5922
2.1337 -5.7835 1.5922
2.3405 -5.7030 1.5922
2.5443 -5.6151 1.5922
2.7448 -5.5198 1.5922
2.9417 -5.4174 1.5922
3.1348 -5.3080 1.5922
3.3238 -5.1916 1.5922
3.5085 -5.0685 1.5922
3.6886 -4.9389 1.5922
3.8640 -4.8028 1.5922
4.0343 -4.6605 1.5922
4.1993 -4.5121 1.5922
4.2944 -4.2934 1.5686
4.2993 -3.9994 1.5169
4.3039 -3.7239 1.4702
4.3082 -3.4645 1.4282
4.3123 -3.2191 1.3903
4.3162 -2.9863 1.3560
4.3199 -2.7643 1.3251
4.3234 -2.5520 1.2972
4.3268 -2.3482 1.2721
4.3301 -2.1519 1.2495
4.3333 -1.9623 1.2293
4.3363 -1.7784 1.2113
4.3393 -1.5997 1.1953
4.3422 -1.4254 1.1813
4.3450 -1.2550 1.1691
4.3478 -1.0879 1.1586
4.3506 -0.9235 1.1498
4.3533 -0.7614 1.1426
4.3559 -0.6012 1.1370
4.3586 -0.4424 1.1329
4.3612 -0.2845 1.1302
4.3638 -0.1271 1.1291
4.3664 0.0301 1.1294
4.3691 0.1875 1.1312
4.3717 0.3457 1.1344
4.3743 0.5049 1.1392
4.3770 0.6657 1.1455
4.3797 0.8284 1.1534
4.3825 0.9936 1.1629
4.3853 1.1617 1.1741
4.3881 1.3332 1.1870
4.3911 1.5088 1.2018
4.3941 1.6891 1.2186
4.3972 1.8746 1.2375
4.4004 2.0663 1.2587
4.4037 2.2648 1.2823
4.4071 2.4711 1.3084
4.4107 2.6863 1.3375
4.4144 2.9115 1.3697
4.4184 3.1481 1.4053
4.4225 3.3976 1.4447
4.4269 3.6619 1.4884
4.4316 3.9429 1.5369
4.4366 4.2432 1.5908
4.2844 4.4037 1.5922
4.1227 4.5548 1.5922
3.9557 4.6999 1.5922
1.7547 2.2441 0.7384
3.6067 4.9716 1.5922
3.4250 5.0978 1.5922
3.2390 5.2175 1.5922
3.0488 5.3303 1.5922
2.8547 5.4362 1.5922
0.8373 1.7444 0.5018
0.7737 1.7727 0.5016
0.7090 1.7987 0.5014
0.6436 1.8224 0.5013
0.5774 1.8438 0.5012
0.5105 1.8628 0.5010
0.4429 1.8795 0.5009
0.3749 1.8939 0.5009
0.3064 1.9058 0.5008
0.2375 1.9153 0.5008
0.1684 1.9224 0.5007
0.0991 1.9271 0.5007
0.0296 1.9294 0.5007
-0.0399 1.9292 0.5007
-0.1094 1.9266 0.5008
-0.1787 1.9216 0.5008
-0.2478 1.9141 0.5009
-0.3166 1.9042 0.5010
-4.4110 4.0323 1.6954
-4.5535 3.8710 1.6954
-4.6901 3.7046 1.6954
-4.8206 3.5335 1.6954
-4.9449 3.3577 1.6954
-5.0628 3.1776 1.6954
-5.1742 2.9934 1.6954
-5.2789 2.8053 1.6954
-5.3768 2.6135 1.6954
-5.4677 2.4183 1.6954
-5.5515 2.2200 1.6954
-5.6282 2.0188 1.6954
-5.6976 1.8149 1.6954
-5.7596 1.6087 1.6954
-5.8141 1.4003 1.6954
-5.8612 1.1901 1.6954
-5.9006 0.9784 1.6954
-5.9324 0.7653 1.6954
-5.9565 0.5513 1.6954
-5.9730 0.3365 1.6954
-5.9816 0.1212 1.6954
-5.9826 -0.0943 1.6954
-5.9758 -0.3097 1.6954
-5.9612 -0.5247 1.6954
-5.9389 -0.7390 1.6954
-5.9089 -0.9524 1.6954
-5.8712 -1.1647 1.6954
-5.8260 -1.3754 1.6954
-5.7731 -1.5844 1.6954
-5.7128 -1.7914 1.6954
-5.6451 -1.9961 1.6954
-5.5700 -2.1982 1.6954
-5.4877 -2.3976 1.6954
-5.3983 -2.5938 1.6954
-5.3018 -2.7867 1.6954
-5.1985 -2.9760 1.6954
-5.0884 -3.1615 1.6954
-4.9717 -3.3429 1.6954
-4.8485 -3.5200 1.6954
-4.7190 -3.6926 1.6954
-4.5833 -3.8604 1.6954
-4.4417 -4.0232 1.6954
-4.2944 -4.1809 1.6954
-4.1414 -4.3331 1.6954
-3.9830 -4.4797 1.6954
-3.8194 -4.6206 1.6954
-3.6509 -4.7554 1.6954
-3.4776 -4.8841 1.6954
-3.2997 -5.0065 1.6954
-3.1176 -5.1224 1.6954
-2.9313 -5.2317 1.6954
-2.7413 -5.3342 1.6954
-2.5476 -5.4298 1.6954
-2.3506 -5.5183 1.6954
-2.1506 -5.5997 1.6954
-1.9477 -5.6738 1.6954
-1.7423 -5.7406 1.6954
-1.5346 -5.7999 1.6954
-1.3249 -5.8517 1.6954
-1.1134 -5.8959 1.6954
-0.9005 -5.9324 1.6954
-0.6864 -5.9613 1.6954
-0.4714 -5.9824 1.6954
-0.2557 -5.9957 1.6954
-0.0397 -6.0012 1.6954
0.1763 -5.9990 1.6954
0.3922 -5.9889 1.6954
0.6076 -5.9711 1.6954
0.7735 -5.5937 1.5951
0.9746 -5.5640 1.5956
1.1718 -5.5137 1.5922
1.3696 -5.4680 1.5922
1.5656 -5.4152 1.5922
1.7595 -5.3554 1.5922
1.9512 -5.2887 1.5922
2.1403 -5.2150 1.5922
2.3266 -5.1346 1.5922
2.5100 -5.0475 1.5922
2.6900 -4.9539 1.5922
2.8666 -4.8538 1.5922
3.0394 -4.7474 1.5922
3.2083 -4.6349 1.5922
3.3730 -4.5163 1.5922
3.5334 -4.3919 1.5922
3.6891 -4.2618 1.5922
3.8400 -4.1261 1.5922
3.9860 -3.9851 1.5922
4.1267 -3.8389 1.5922
4.2621 -3.6877 1.5922
4.3082 -3.4645 1.5618
4.3123 -3.2192 1.5204
4.3162 -2.9863 1.4829
4.3199 -2.7644 1.4491
4.3234 -2.5520 1.4186
4.3268 -2.3483 1.3911
4.3301 -2.1520 1.3664
4.3333 -1.9623 1.3443
4.3363 -1.7785 1.3246
4.3393 -1.5998 1.3071
4.3422 -1.4255 1.2918
4.3450 -1.2551 1.2784
4.3478 -1.0879 1.2669
4.3506 -0.9236 1.2573
4.3533 -0.7615 1.2494
4.3559 -0.6013 1.2433
4.3586 -0.4424 1.2388
4.3612 -0.2845 1.2359
4.3638 -0.1272 1.2346
4.3664 0.0300 1.2349
4.3691 0.1875 1.2369
4.3717 0.3456 1.2405
4.3743 0.5048 1.2457
4.3770 0.6656 1.2525
4.3797 0.8283 1.2611
4.3825 0.9935 1.2715
4.3853 1.1616 1.2837
4.3881 1.3332 1.2979
4.3911 1.5088 1.3141
4.3941 1.6890 1.3324
4.3972 1.8746 1.3531
4.4004 2.0662 1.3762
4.4037 2.2647 1.4020
4.4071 2.4710 1.4306
4.4107 2.6862 1.4623
4.4144 2.9114 1.4975
4.4184 3.1480 1.5364
4.4225 3.3975 1.5796
4.3313 3.5827 1.5922
4.1992 3.7360 1.5922
4.0616 3.8845 1.5922
3.9188 4.0279 1.5922
3.7710 4.1661 1.5922
3.6182 4.2988 1.5922
1.7545 2.2437 0.8072
3.2990 4.5474 1.5922
3.1329 4.6629 1.5922
2.9628 4.7723 1.5922
2.7888 4.8756 1.5922
0.8250 1.5710 0.5030
0.7675 1.5990 0.5028
0.7092 1.6249 0.5027
0.6500 1.6488 0.5025
0.5900 1.6706 0.5024
0.5293 1.6902 0.5023
0.4680 1.7078 0.5022
0.4061 1.7231 0.5021
0.3437 1.7363 0.5020
0.2809 1.7472 0.5019
0.2178 1.7560 0.5019
0.1544 1.7625 0.5019
0.0908 1.7668 0.5018
0.0271 1.7689 0.5019
-0.0366 1.7687 0.5019
-0.1002 1.7663 0.5019
-0.1638 1.7617 0.5020
-0.2272 1.7548 0.5020
-0.2902 1.7458 0.5021
-4.0604 3.7118 1.6954
-4.1916 3.5633 1.6954
-4.3173 3.4101 1.6954
-4.4375 3.2526 1.6954
-4.5519 3.0908 1.6954
-4.6604 2.9250 1.6954
-4.7629 2.7554 1.6954
-4.8593 2.5822 1.6954
-4.9494 2.4057 1.6954
-5.0330 2.2260 1.6954
-5.1102 2.0434 1.6954
-5.1807 1.8582 1.6954
-5.2446 1.6705 1.6954
-5.3016 1.4807 1.6954
-5.3518 1.2889 1.6954
-5.3951 1.0954 1.6954
-5.4314 0.9005 1.6954
-5.4606 0.7044 1.6954
-5.4828 0.5074 1.6954
-5.4979 0.3096 1.6954
-5.5058 0.1115 1.6954
-5.5067 -0.0869 1.6954
-5.5004 -0.2851 1.6954
-5.4869 -0.4830 1.6954
-5.4664 -0.6803 1.6954
-5.4387 -0.8767 1.6954
-5.4040 -1.0721 1.6954
-5.3623 -1.2660 1.6954
-5.3137 -1.4584 1.6954
-5.2581 -1.6489 1.6954
-5.1957 -1.8373 1.6954
-5.1266 -2.0233 1.6954
-5.0508 -2.2068 1.6954
-4.9685 -2.3874 1.6954
-4.8797 -2.5649 1.6954
-4.7845 -2.7391 1.6954
-4.6832 -2.9099 1.6954
-4.5757 -3.0768 1.6954
-4.4623 -3.2398 1.6954
-4.3431 -3.3986 1.6954
-4.2183 -3.5530 1.6954
-4.0879 -3.7029 1.6954
-3.9522 -3.8479 1.6954
-3.8114 -3.9880 1.6954
-3.6656 -4.1229 1.6954
-3.5151 -4.2525 1.6954
-3.3600 -4.3766 1.6954
-3.2004 -4.4950 1.6954
-3.0367 -4.6076 1.6954
-2.8691 -4.7143 1.6954
-2.6977 -4.8148 1.6954
-2.5227 -4.9091 1.6954
-2.3445 -4.9971 1.6954
-2.1632 -5.0785 1.6954
-1.9791 -5.1534 1.6954
-1.7924 -5.2216 1.6954
-1.6034 -5.2830 1.6954
-1.4122 -5.3376 1.6954
-1.2192 -5.3852 1.6954
-1.0246 -5.4259 1.6954
-0.8287 -5.4595 1.6954
-0.6316 -5.4860 1.6954
-0.4337 -5.5054 1.6954
-0.2353 -5.5176 1.6954
-0.0365 -5.5227 1.6954
0.1623 -5.5206 1.6954
0.3610 -5.5114 1.6954
0.5591 -5.4950 1.6954
0.7566 -5.4714 1.6954
0.8950 -5.1094 1.5922
1.0784 -5.0740 1.5922
1.2604 -5.0319 1.5922
1.4407 -4.9834 1.5922
1.6192 -4.9283 1.5922
1.7956 -4.8669 1.5922
1.9696 -4.7991 1.5922
2.1411 -4.7251 1.5922
2.3098 -4.6450 1.5922
2.4755 -4.5588 1.5922
2.6380 -4.4667 1.5922
2.7970 -4.3688 1.5922
2.9525 -4.2653 1.5922
3.1040 -4.1562 1.5922
3.2516 -4.0417 1.5922
3.3949 -3.9219 1.5922
3.5338 -3.7971 1.5922
3.6681 -3.6673 1.5922
3.7976 -3.5328 1.5922
3.9222 -3.3937 1.5922
4.0417 -3.2502 1.5922
4.1560 -3.1025 1.5922
4.2648 -2.9508 1.5922
4.3199 -2.7644 1.5746
4.3234 -2.5521 1.5415
4.3268 -2.3483 1.5116
4.3301 -2.1520 1.4848
4.3333 -1.9624 1.4607
4.3363 -1.7785 1.4393
4.3393 -1.5998 1.4203
4.3422 -1.4255 1.4036
4.3450 -1.2551 1.3891
4.3478 -1.0880 1.3767
4.3506 -0.9236 1.3662
4.3533 -0.7616 1.3576
4.3559 -0.6013 1.3509
4.3586 -0.4425 1.3460
4.3612 -0.2846 1.3429
4.3638 -0.1272 1.3415
4.3664 0.0299 1.3418
4.3691 0.1874 1.3440
4.3717 0.3455 1.3478
4.3743 0.5048 1.3535
4.3770 0.6655 1.3609
4.3797 0.8283 1.3703
4.3825 0.9934 1.3815
4.3853 1.1615 1.3948
4.3881 1.3331 1.4102
4.3911 1.5087 1.4278
4.3941 1.6889 1.4477
4.3972 1.8745 1.4701
4.4004 2.0661 1.4952
4.4037 2.2646 1.5232
4.4071 2.4710 1.5543
4.4107 2.6861 1.5888
4.3200 2.8491 1.5922
4.2143 3.0026 1.5922
4.1032 3.1521 1.5922
3.9867 3.2975 1.5922
3.8651 3.4387 1.5922
3.7385 3.5754 1.5922
3.6071 3.7074 1.5922
3.4710 3.8346 1.5922
1.9128 2.2726 0.9145
1.7542 2.2434 0.8768
3.0367 4.1857 1.5922
2.8838 4.2920 1.5922
2.7272 4.3928 1.5922
0.8127 1.4208 0.5041
0.7607 1.4485 0.5039
0.7078 1.4744 0.5037
0.6540 1.4984 0.5036
0.5994 1.5205 0.5034
0.5441 1.5406 0.5033
0.4882 1.5588 0.5032
0.4316 1.5749 0.5031
0.3745 1.5891 0.5030
0.3170 1.6013 0.5029
0.2591 1.6114 0.5029
0.2009 1.6195 0.5029
0.1424 1.6255 0.5028
0.0838 1.6295 0.5028
0.0250 1.6314 0.5028
-0.0337 1.6313 0.5028
-0.0925 1.6291 0.5029
-0.1510 1.6248 0.5029
-0.2095 1.6185 0.5030
-0.2677 1.6101 0.5031
-3.7576 3.4350 1.6954
-3.8790 3.2975 1.6954
-3.9954 3.1558 1.6954
-4.1065 3.0100 1.6954
-4.2124 2.8602 1.6954
-4.3128 2.7068 1.6954
-4.4077 2.5498 1.6954
-4.4968 2.3896 1.6954
-4.5802 2.2262 1.6954
-4.6576 2.0599 1.6954
-4.7290 1.8909 1.6954
-4.7942 1.7195 1.6954
-4.8533 1.5458 1.6954
-4.9061 1.3702 1.6954
-4.9525 1.1927 1.6954
-4.9925 1.0136 1.6954
-5.0261 0.8333 1.6954
-5.0531 0.6518 1.6954
-5.0736 0.4694 1.6954
-5.0876 0.2864 1.6954
-5.0949 0.1031 1.6954
-5.0957 -0.0804 1.6954
-5.0898 -0.2639 1.6954
-5.0773 -0.4470 1.6954
-5.0583 -0.6296 1.6954
-5.0327 -0.8114 1.6954
-5.0006 -0.9921 1.6954
-4.9619 -1.1716 1.6954
-4.9169 -1.3496 1.6954
-4.8655 -1.5259 1.6954
-4.8077 -1.7002 1.6954
-4.7437 -1.8723 1.6954
-4.6736 -2.0420 1.6954
-4.5974 -2.2091 1.6954
-4.5152 -2.3734 1.6954
-4.4271 -2.5346 1.6954
-4.3333 -2.6925 1.6954
-4.2338 -2.8470 1.6954
-4.1289 -2.9978 1.6954
-4.0186 -3.1447 1.6954
-3.9030 -3.2876 1.6954
-3.7824 -3.4262 1.6954
-3.6569 -3.5604 1.6954
-3.5265 -3.6900 1.6954
-3.3916 -3.8148 1.6954
-3.2523 -3.9347 1.6954
-3.1088 -4.0495 1.6954
-2.9611 -4.1591 1.6954
-2.8097 -4.2633 1.6954
-2.6545 -4.3619 1.6954
-2.4959 -4.4549 1.6954
-2.3341 -4.5421 1.6954
-2.1692 -4.6235 1.6954
-2.0014 -4.6988 1.6954
-1.8311 -4.7681 1.6954
-1.6583 -4.8312 1.6954
-1.4834 -4.8880 1.6954
-1.3066 -4.9384 1.6954
-1.1280 -4.9825 1.6954
-0.9479 -5.0201 1.6954
-0.7667 -5.0512 1.6954
-0.5843 -5.0757 1.6954
-0.4013 -5.0936 1.6954
-0.2177 -5.1049 1.6954
-0.0338 -5.1096 1.6954
0.1502 -5.1077 1.6954
0.3340 -5.0991 1.6954
0.5173 -5.0839 1.6954
0.7000 -5.0621 1.6954
0.8281 -4.7272 1.5922
0.9978 -4.6944 1.5922
1.1661 -4.6555 1.5922
1.3330 -4.6106 1.5922
1.4981 -4.5596 1.5922
1.6612 -4.5028 1.5922
1.8223 -4.4401 1.5922
1.9809 -4.3716 1.5922
2.1370 -4.2975 1.5922
2.2903 -4.2178 1.5922
2.4406 -4.1326 1.5922
2.5878 -4.0420 1.5922
2.7316 -3.9462 1.5922
2.8718 -3.8453 1.5922
3.0083 -3.7393 1.5922
3.1409 -3.6286 1.5922
3.2694 -3.5131 1.5922
3.3937 -3.3930 1.5922
3.5136 -3.2686 1.5922
3.6288 -3.1399 1.5922
3.7394 -3.0071 1.5922
3.8451 -2.8705 1.5922
3.9458 -2.7301 1.5922
4.0414 -2.5862 1.5922
4.1317 -2.4390 1.5922
4.2166 -2.2885 1.5922
4.2961 -2.1352 1.5922
4.3333 -1.9624 1.5788
4.3363 -1.7786 1.5556
4.3393 -1.5999 1.5351
4.3422 -1.4256 1.5171
4.3450 -1.2552 1.5014
4.3478 -1.0880 1.4879
4.3506 -0.9237 1.4766
4.3533 -0.7616 1.4673
4.3559 -0.6014 1.4601
4.3586 -0.4425 1.4548
4.3612 -0.2846 1.4514
4.3638 -0.1273 1.4499
4.3664 0.0299 1.4502
4.3691 0.1873 1.4525
4.3717 0.3455 1.4567
4.3743 0.5047 1.4628
4.3770 0.6655 1.4708
4.3797 0.8282 1.4809
4.3825 0.9934 1.4931
4.3853 1.1615 1.5074
4.3881 1.3330 1.5240
4.3911 1.5086 1.5430
4.3941 1.6889 1.5646
4.3972 1.8744 1.5888
4.3358 2.0357 1.5922
4.2594 2.1903 1.5922
4.1774 2.3421 1.5922
4.0901 2.4908 1.5922
3.9975 2.6363 1.5922
3.8997 2.7783 1.5922
3.7969 2.9167 1.5922
3.6891 3.0513 1.5922
3.5766 3.1819 1.5922
3.4595 3.3084 1.5922
3.3379 3.4306 1.5922
3.2120 3.5483 1.5922
1.8067 2.1465 0.9334
1.6931 2.1651 0.9145
1.6821 2.3185 0.9531
2.6686 3.9717 1.5922
0.8005 1.2893 0.5050
0.7532 1.3167 0.5048
0.7050 1.3425 0.5047
0.6560 1.3665 0.5045
0.6062 1.3888 0.5044
0.5556 1.4093 0.5042
0.5043 1.4280 0.5041
0.4525 1.4448 0.5040
0.4001 1.4598 0.5039
0.3472 1.4730 0.5038
0.2939 1.4843 0.5038
0.2402 1.4937 0.5037
0.1862 1.5012 0.5037
0.1320 1.5068 0.5037
0.0777 1.5105 0.5037
0.0232 1.5123 0.5037
-0.0312 1.5122 0.5037
-0.0857 1.5101 0.5037
-0.1400 1.5061 0.5038
-0.1942 1.5002 0.5038
-0.2481 1.4925 0.5039
-3.4932 3.1932 1.6954
-3.6060 3.0654 1.6954
-3.7142 2.9337 1.6954
-3.8175 2.7981 1.6954
-3.9159 2.6589 1.6954
-4.0093 2.5162 1.6954
-4.0975 2.3703 1.6954
-4.1803 2.2213 1.6954
-4.2578 2.0694 1.6954
-4.3297 1.9149 1.6954
-4.3961 1.7578 1.6954
-4.4568 1.5984 1.6954
-4.5116 1.4370 1.6954
-4.5607 1.2737 1.6954
-4.6038 1.1086 1.6954
-4.6410 0.9422 1.6954
-4.6722 0.7745 1.6954
-4.6973 0.6058 1.6954
-4.7164 0.4363 1.6954
-4.7293 0.2662 1.6954
-4.7361 0.0958 1.6954
-4.7368 -0.0749 1.6954
-4.7313 -0.2454 1.6954
-4.7197 -0.4156 1.6954
-4.7020 -0.5853 1.6954
-4.6782 -0.7543 1.6954
-4.6483 -0.9223 1.6954
-4.6124 -1.0891 1.6954
-4.5705 -1.2546 1.6954
-4.5226 -1.4184 1.6954
-4.4689 -1.5804 1.6954
-4.4094 -1.7404 1.6954
-4.3442 -1.8982 1.6954
-4.2733 -2.0535 1.6954
-4.1969 -2.2062 1.6954
-4.1150 -2.3560 1.6954
-4.0278 -2.5028 1.6954
-3.9354 -2.6464 1.6954
-3.8378 -2.7865 1.6954
-3.7352 -2.9231 1.6954
-3.6278 -3.0559 1.6954
-3.5157 -3.1847 1.6954
-3.3990 -3.3094 1.6954
-3.2778 -3.4299 1.6954
-3.1524 -3.5459 1.6954
-3.0229 -3.6573 1.6954
-2.8895 -3.7640 1.6954
-2.7523 -3.8658 1.6954
-2.6115 -3.9626 1.6954
-2.4673 -4.0543 1.6954
-2.3198 -4.1407 1.6954
-2.1694 -4.2218 1.6954
-2.0161 -4.2974 1.6954
-1.8602 -4.3674 1.6954
-1.7019 -4.4317 1.6954
-1.5413 -4.4903 1.6954
-1.3787 -4.5431 1.6954
-1.2143 -4.5900 1.6954
-1.0484 -4.6310 1.6954
-0.8810 -4.6659 1.6954
-0.7125 -4.6948 1.6954
-0.5431 -4.7175 1.6954
-0.3729 -4.7342 1.6954
-0.2023 -4.7447 1.6954
-0.0313 -4.7491 1.6954
0.1396 -4.7472 1.6954
0.3105 -4.7393 1.6954
0.4808 -4.7251 1.6954
0.6506 -4.7049 1.6954
0.7848 -4.4798 1.6234
0.9273 -4.3631 1.5922
1.0838 -4.3269 1.5922
1.2389 -4.2852 1.5922
1.3923 -4.2378 1.5922
1.5440 -4.1850 1.5922
1.6937 -4.1267 1.5922
1.8411 -4.0631 1.5922
1.9862 -3.9942 1.5922
2.1286 -3.9201 1.5922
2.2684 -3.8409 1.5922
2.4051 -3.7567 1.5922
2.5388 -3.6677 1.5922
2.6691 -3.5739 1.5922
2.7960 -3.4754 1.5922
2.9192 -3.3725 1.5922
3.0387 -3.2652 1.5922
3.1542 -3.1536 1.5922
3.2656 -3.0379 1.5922
3.3727 -2.9183 1.5922
3.4755 -2.7949 1.5922
3.5737 -2.6680 1.5922
3.6673 -2.5375 1.5922
3.7562 -2.4037 1.5922
3.8401 -2.2669 1.5922
3.9191 -2.1271 1.5922
3.9930 -1.9846 1.5922
4.0616 -1.8395 1.5922
4.1250 -1.6920 1.5922
4.1831 -1.5423 1.5922
4.2357 -1.3907 1.5922
4.2828 -1.2372 1.5922
4.3243 -1.0822 1.5922
4.3506 -0.9237 1.5886
4.3533 -0.7616 1.5787
4.3559 -0.6014 1.5709
4.3586 -0.4426 1.5651
4.3612 -0.2847 1.5615
4.3638 -0.1274 1.5599
4.3664 0.0298 1.5603
4.3691 0.1873 1.5627
4.3717 0.3454 1.5672
4.3743 0.5046 1.5737
4.3770 0.6654 1.5824
4.3769 0.8276 1.5922
4.3440 0.9846 1.5922
4.3054 1.1402 1.5922
4.2613 1.2944 1.5922
4.2116 1.4469 1.5922
4.1565 1.5975 1.5922
4.0960 1.7460 1.5922
4.0302 1.8922 1.5922
3.9592 2.0359 1.5922
3.8831 2.1770 1.5922
3.8019 2.3152 1.5922
3.7159 2.4505 1.5922
3.6250 2.5825 1.5922
3.5294 2.7112 1.5922
3.4293 2.8363 1.5922
3.3247 2.9577 1.5922
3.2158 3.0753 1.5922
3.1028 3.1889 1.5922
2.9858 3.2984 1.5922
1.8043 2.1436 1.0028
1.6788 2.1468 0.9754
0.8302 1.1443 0.5060
0.7881 1.1729 0.5058
0.7451 1.2000 0.5057
0.7011 1.2256 0.5055
0.6563 1.2496 0.5053
0.6106 1.2720 0.5052
0.5643 1.2928 0.5050
0.5172 1.3119 0.5049
0.4695 1.3293 0.5048
0.4212 1.3450 0.5047
0.3725 1.3590 0.5046
0.3232 1.3713 0.5046
0.2736 1.3818 0.5045
0.2236 1.3906 0.5045
0.1734 1.3976 0.5044
0.1229 1.4028 0.5044
0.0723 1.4063 0.5044
0.0216 1.4079 0.5044
-0.0291 1.4078 0.5044
-0.0798 1.4059 0.5044
-0.1303 1.4022 0.5045
-0.1808 1.3967 0.5045
-0.2310 1.3894 0.5046
-3.2601 2.9800 1.6954
-3.3653 2.8608 1.6954
-3.4663 2.7378 1.6954
-3.5627 2.6113 1.6954
-3.6546 2.4814 1.6954
-3.7417 2.3482 1.6954
-3.8240 2.2121 1.6954
-3.9013 2.0730 1.6954
-3.9736 1.9312 1.6954
-4.0407 1.7870 1.6954
-4.1026 1.6404 1.6954
-4.1592 1.4916 1.6954
-4.2104 1.3410 1.6954
-4.2562 1.1885 1.6954
-4.2964 1.0346 1.6954
-4.3311 0.8792 1.6954
-4.3602 0.7227 1.6954
-4.3836 0.5653 1.6954
-4.4014 0.4071 1.6954
-4.4134 0.2484 1.6954
-4.4198 0.0893 1.6954
-4.4204 -0.0699 1.6954
-4.4152 -0.2290 1.6954
-4.4044 -0.3879 1.6954
-4.3879 -0.5463 1.6954
-4.3656 -0.7039 1.6954
-4.3377 -0.8607 1.6954
-4.3042 -1.0164 1.6954
-4.2651 -1.1708 1.6954
-4.2204 -1.3237 1.6954
-4.1703 -1.4749 1.6954
-4.1147 -1.6242 1.6954
-4.0539 -1.7714 1.6954
-3.9877 -1.9163 1.6954
-3.9164 -2.0588 1.6954
-3.8400 -2.1986 1.6954
-3.7586 -2.3356 1.6954
-3.6723 -2.4695 1.6954
-3.5812 -2.6003 1.6954
-3.4855 -2.7277 1.6954
-3.3852 -2.8516 1.6954
-3.2806 -2.9718 1.6954
-3.1717 -3.0882 1.6954
-3.0586 -3.2006 1.6954
-2.9416 -3.3088 1.6954
-2.8207 -3.4128 1.6954
-2.6962 -3.5123 1.6954
-2.5681 -3.6073 1.6954
-2.4368 -3.6976 1.6954
-2.3022 -3.7832 1.6954
-2.1646 -3.8638 1.6954
-2.0242 -3.9394 1.6954
-1.8812 -4.0099 1.6954
-1.7357 -4.0753 1.6954
-1.5880 -4.1353 1.6954
-1.4381 -4.1900 1.6954
-1.2864 -4.2392 1.6954
-1.1330 -4.2830 1.6954
-0.9782 -4.3211 1.6954
-0.8220 -4.3537 1.6954
-0.6648 -4.3806 1.6954
-0.5067 -4.4019 1.6954
-0.3479 -4.4174 1.6954
-0.1887 -4.4272 1.6954
-0.0292 -4.4313 1.6954
0.1303 -4.4296 1.6954
0.2897 -4.4221 1.6954
0.4487 -4.4089 1.6954
0.6071 -4.3900 1.6954
0.7648 -4.3654 1.6954
0.8653 -4.0711 1.5922
1.0113 -4.0374 1.5922
1.1560 -3.9984 1.5922
1.2992 -3.9542 1.5922
1.4407 -3.9049 1.5922
1.5803 -3.8506 1.5922
1.7179 -3.7912 1.5922
1.8532 -3.7269 1.5922
1.9862 -3.6578 1.5922
2.1166 -3.5839 1.5922
2.2442 -3.5053 1.5922
2.3689 -3.4223 1.5922
2.4905 -3.3347 1.5922
2.6089 -3.2429 1.5922
2.7239 -3.1468 1.5922
2.8353 -3.0467 1.5922
2.9431 -2.9426 1.5922
3.0470 -2.8347 1.5922
3.1470 -2.7231 1.5922
3.2429 -2.6080 1.5922
3.3346 -2.4895 1.5922
3.4219 -2.3677 1.5922
3.5048 -2.2430 1.5922
3.5832 -2.1153 1.5922
3.6569 -1.9848 1.5922
3.7258 -1.8518 1.5922
3.7899 -1.7164 1.5922
3.8490 -1.5788 1.5922
3.9032 -1.4392 1.5922
3.9523 -1.2977 1.5922
3.9963 -1.1545 1.5922
4.0350 -1.0099 1.5922
4.0686 -0.8639 1.5922
4.0968 -0.7168 1.5922
4.1197 -0.5689 1.5922
4.1373 -0.4202 1.5922
4.1495 -0.2709 1.5922
4.1564 -0.1214 1.5922
4.1578 0.0283 1.5922
4.1538 0.1780 1.5922
4.1445 0.3274 1.5922
4.1298 0.4764 1.5922
4.1097 0.6247 1.5922
4.0843 0.7722 1.5922
4.0536 0.9187 1.5922
4.0176 1.0640 1.5922
3.9764 1.2078 1.5922
3.9301 1.3501 1.5922
3.8787 1.4906 1.5922
3.8223 1.6292 1.5922
3.7609 1.7657 1.5922
3.6947 1.8998 1.5922
3.6236 2.0315 1.5922
3.5479 2.1605 1.5922
3.4676 2.2867 1.5922
3.3828 2.4099 1.5922
3.2936 2.5300 1.5922
3.2002 2.6468 1.5922
3.1026 2.7601 1.5922
3.0011 2.8699 1.5922
2.8956 2.9759 1.5922
1.9346 2.1370 1.1054
1.8019 2.1406 1.0731
0.8140 1.0408 0.5068
0.7756 1.0690 0.5066
0.7363 1.0958 0.5064
0.6961 1.1212 0.5062
0.6551 1.1451 0.5061
0.6132 1.1675 0.5059
0.5706 1.1885 0.5058
0.5272 1.2079 0.5057
0.4833 1.2258 0.5055
0.4387 1.2421 0.5054
0.3936 1.2568 0.5054
0.3480 1.2699 0.5053
0.3020 1.2814 0.5052
0.2557 1.2912 0.5052
0.2090 1.2994 0.5051
0.1620 1.3060 0.5051
0.1149 1.3109 0.5051
0.0676 1.3141 0.5050
0.0202 1.3156 0.5050
-0.0272 1.3155 0.5051
-0.0745 1.3137 0.5051
-0.1218 1.3103 0.5051
-0.1689 1.3051 0.5052
-0.2158 1.2983 0.5052
-3.0528 2.7905 1.6954
-3.1514 2.6788 1.6954
-3.2459 2.5637 1.6954
-3.3362 2.4452 1.6954
-3.4222 2.3235 1.6954
-3.5037 2.1989 1.6954
-3.5808 2.0713 1.6954
-3.6532 1.9411 1.6954
-3.7208 1.8084 1.6954
-3.7837 1.6733 1.6954
-3.8417 1.5360 1.6954
-3.8946 1.3967 1.6954
-3.9426 1.2556 1.6954
-3.9854 1.1129 1.6954
-4.0231 0.9687 1.6954
-4.0556 0.8232 1.6954
-4.0828 0.6767 1.6954
-4.1047 0.5293 1.6954
-4.1213 0.3812 1.6954
-4.1326 0.2325 1.6954
-4.1385 0.0836 1.6954
-4.1391 -0.0655 1.6954
-4.1343 -0.2145 1.6954
-4.1241 -0.3633 1.6954
-4.1086 -0.5116 1.6954
-4.0878 -0.6592 1.6954
-4.0616 -0.8060 1.6954
-4.0302 -0.9518 1.6954
-3.9936 -1.0963 1.6954
-3.9517 -1.2395 1.6954
-3.9048 -1.3811 1.6954
-3.8528 -1.5209 1.6954
-3.7957 -1.6587 1.6954
-3.7338 -1.7944 1.6954
-3.6670 -1.9278 1.6954
-3.5954 -2.0587 1.6954
-3.5192 -2.1869 1.6954
-3.4384 -2.3123 1.6954
-3.3531 -2.4348 1.6954
-3.2635 -2.5541 1.6954
-3.1696 -2.6701 1.6954
-3.0716 -2.7826 1.6954
-2.9696 -2.8915 1.6954
-2.8638 -2.9968 1.6954
-2.7542 -3.0981 1.6954
-2.6410 -3.1954 1.6954
-2.5244 -3.2886 1.6954
-2.4045 -3.3775 1.6954
-2.2815 -3.4621 1.6954
-2.1555 -3.5422 1.6954
-2.0267 -3.6176 1.6954
-1.8952 -3.6884 1.6954
-1.7613 -3.7544 1.6954
-1.6251 -3.8156 1.6954
-1.4867 -3.8718 1.6954
-1.3465 -3.9230 1.6954
-1.2044 -3.9691 1.6954
-1.0608 -4.0100 1.6954
-0.9158 -4.0458 1.6954
-0.7696 -4.0763 1.6954
-0.6224 -4.1015 1.6954
-0.4744 -4.1214 1.6954
-0.3257 -4.1359 1.6954
-0.1766 -4.1451 1.6954
-0.0273 -4.1489 1.6954
0.1220 -4.1473 1.6954
0.2712 -4.1403 1.6954
0.4201 -4.1279 1.6954
0.5684 -4.1102 1.6954
0.7160 -4.0871 1.6954
0.8102 -3.8116 1.5922
0.9468 -3.7800 1.5922
1.0823 -3.7435 1.5922
1.2164 -3.7022 1.5922
1.3488 -3.6560 1.5922
1.4796 -3.6051 1.5922
1.6084 -3.5495 1.5922
1.7351 -3.4893 1.5922
1.8596 -3.4246 1.5922
1.9816 -3.3554 1.5922
2.1011 -3.2819 1.5922
2.2179 -3.2041 1.5922
2.3317 -3.1222 1.5922
2.4426 -3.0362 1.5922
2.5502 -2.9462 1.5922
2.6546 -2.8525 1.5922
2.7555 -2.7550 1.5922
2.8528 -2.6540 1.5922
2.9464 -2.5495 1.5922
3.0362 -2.4418 1.5922
3.1220 -2.3308 1.5922
3.2038 -2.2169 1.5922
3.2814 -2.1000 1.5922
3.3548 -1.9805 1.5922
3.4238 -1.8584 1.5922
3.4883 -1.7339 1.5922
3.5484 -1.6071 1.5922
3.6038 -1.4783 1.5922
3.6545 -1.3475 1.5922
3.7005 -1.2150 1.5922
3.7416 -1.0810 1.5922
3.7779 -0.9456 1.5922
3.8093 -0.8089 1.5922
3.8358 -0.6712 1.5922
3.8573 -0.5327 1.5922
3.8738 -0.3935 1.5922
3.8852 -0.2537 1.5922
3.8916 -0.1137 1.5922
3.8930 0.0265 1.5922
3.8893 0.1666 1.5922
3.8805 0.3065 1.5922
3.8668 0.4460 1.5922
3.8479 0.5848 1.5922
3.8242 0.7230 1.5922
3.7954 0.8601 1.5922
3.7618 0.9961 1.5922
3.7233 1.1309 1.5922
3.6799 1.2641 1.5922
3.6318 1.3957 1.5922
3.5790 1.5255 1.5922
3.5215 1.6532 1.5922
3.4595 1.7788 1.5922
3.3930 1.9021 1.5922
3.3221 2.0229 1.5922
3.2469 2.1411 1.5922
3.1675 2.2564 1.5922
3.0840 2.3689 1.5922
2.9966 2.4783 1.5922
2.9052 2.5844 1.5922
2.8101 2.6872 1.5922
2.7114 2.7864 1.5922
0.8318 0.9189 0.5076
0.7978 0.9478 0.5074
0.7629 0.9755 0.5072
0.7270 1.0019 0.5071
0.6902 1.0271 0.5069
0.6525 1.0509 0.5067
0.6140 1.0733 0.5066
0.5748 1.0944 0.5064
0.5348 1.1140 0.5063
0.4942 1.1323 0.5062
0.4530 1.1490 0.5061
0.4113 1.1643 0.5060
0.3690 1.1781 0.5059
0.3263 1.1904 0.5058
0.2831 1.2012 0.5058
0.2397 1.2105 0.5057
0.1959 1.2182 0.5057
0.1519 1.2243 0.5057
0.1077 1.2289 0.5056
0.0634 1.2319 0.5056
0.0190 1.2334 0.5056
-0.0255 1.2333 0.5056
-0.0699 1.2316 0.5057
-0.1142 1.2283 0.5057
-0.1583 1.2235 0.5058
-0.2023 1.2171 0.5058
-2.8670 2.6207 1.6954
-2.9596 2.5158 1.6954
-3.0484 2.4077 1.6954
-3.1332 2.2964 1.6954
-3.2140 2.1821 1.6954
-3.2906 2.0650 1.6954
-3.3629 1.9453 1.6954
-3.4309 1.8230 1.6954
-3.4944 1.6983 1.6954
-3.5535 1.5714 1.6954
-3.6079 1.4425 1.6954
-3.6577 1.3117 1.6954
-3.7027 1.1792 1.6954
-3.7429 1.0451 1.6954
-3.7783 0.9097 1.6954
-3.8088 0.7731 1.6954
-3.8343 0.6355 1.6954
-3.8549 0.4970 1.6954
-3.8705 0.3579 1.6954
-3.8811 0.2183 1.6954
-3.8866 0.0784 1.6954
-3.8871 -0.0616 1.6954
-3.8826 -0.2015 1.6954
-3.8730 -0.3412 1.6954
-3.8585 -0.4805 1.6954
-3.8389 -0.6191 1.6954
-3.8143 -0.7570 1.6954
-3.7848 -0.8939 1.6954
-3.7504 -1.0297 1.6954
-3.7111 -1.1641 1.6954
-3.6670 -1.2970 1.6954
-3.6181 -1.4283 1.6954
-3.5646 -1.5577 1.6954
-3.5064 -1.6852 1.6954
-3.4436 -1.8104 1.6954
-3.3764 -1.9333 1.6954
-3.3048 -2.0538 1.6954
-3.2289 -2.1715 1.6954
-3.1488 -2.2865 1.6954
-3.0646 -2.3985 1.6954
-2.9765 -2.5075 1.6954
-2.8844 -2.6131 1.6954
-2.7887 -2.7154 1.6954
-2.6892 -2.8142 1.6954
-2.5863 -2.9094 1.6954
-2.4800 -3.0008 1.6954
-2.3705 -3.0883 1.6954
-2.2579 -3.1718 1.6954
-2.1424 -3.2512 1.6954
-2.0241 -3.3263 1.6954
-1.9031 -3.3972 1.6954
-1.7797 -3.4637 1.6954
-1.6539 -3.5257 1.6954
-1.5260 -3.5831 1.6954
-1.3961 -3.6358 1.6954
-1.2644 -3.6839 1.6954
-1.1310 -3.7272 1.6954
-0.9961 -3.7656 1.6954
-0.8600 -3.7992 1.6954
-0.7227 -3.8278 1.6954
-0.5844 -3.8515 1.6954
-0.4454 -3.8701 1.6954
-0.3058 -3.8838 1.6954
-0.1658 -3.8924 1.6954
-0.0256 -3.8959 1.6954
0.1146 -3.8944 1.6954
0.2547 -3.8878 1.6954
0.3945 -3.8762 1.6954
0.5338 -3.8596 1.6954
0.6724 -3.8379 1.6954
0.7925 -3.7284 1.6586
0.8891 -3.5496 1.5922
1.0163 -3.5153 1.5922
1.1422 -3.4765 1.5922
1.2666 -3.4331 1.5922
1.3894 -3.3853 1.5922
1.5103 -3.3331 1.5922
1.6293 -3.2766 1.5922
1.7462 -3.2158 1.5922
1.8608 -3.1509 1.5922
1.9730 -3.0818 1.5922
2.0826 -3.0088 1.5922
2.1896 -2.9318 1.5922
2.2936 -2.8511 1.5922
2.3947 -2.7666 1.5922
2.4927 -2.6786 1.5922
2.5875 -2.5871 1.5922
2.6789 -2.4922 1.5922
2.7668 -2.3941 1.5922
2.8511 -2.2929 1.5922
2.9317 -2.1887 1.5922
3.0085 -2.0817 1.5922
3.0814 -1.9720 1.5922
3.1503 -1.8598 1.5922
3.2151 -1.7451 1.5922
3.2757 -1.6282 1.5922
3.3320 -1.5092 1.5922
3.3841 -1.3882 1.5922
3.4317 -1.2654 1.5922
3.4749 -1.1410 1.5922
3.5136 -1.0152 1.5922
3.5477 -0.8880 1.5922
3.5772 -0.7597 1.5922
3.6020 -0.6304 1.5922
3.6222 -0.5003 1.5922
3.6377 -0.3695 1.5922
3.6485 -0.2383 1.5922
3.6545 -0.1068 1.5922
3.6558 0.0248 1.5922
3.6523 0.1564 1.5922
3.6441 0.2878 1.5922
3.6312 0.4187 1.5922
3.6135 0.5492 1.5922
3.5912 0.6789 1.5922
3.5643 0.8077 1.5922
3.5327 0.9354 1.5922
3.4965 1.0619 1.5922
3.4558 1.1870 1.5922
3.4106 1.3106 1.5922
3.3610 1.4325 1.5922
3.3071 1.5525 1.5922
3.2488 1.6704 1.5922
3.1864 1.7862 1.5922
3.1198 1.8997 1.5922
3.0492 2.0106 1.5922
2.9747 2.1190 1.5922
2.8963 2.2246 1.5922
2.8142 2.3273 1.5922
2.7284 2.4270 1.5922
2.6391 2.5235 1.5922
0.8128 0.8352 0.5082
0.7818 0.8636 0.5080
0.7499 0.8908 0.5078
0.7171 0.9169 0.5077
0.6833 0.9417 0.5075
0.6487 0.9654 0.5073
0.6134 0.9878 0.5072
0.5772 1.0089 0.5070
0.5403 1.0287 0.5069
0.5028 1.0472 0.5068
0.4646 1.0644 0.5067
0.4259 1.0801 0.5066
0.3866 1.0946 0.5065
0.3469 1.1075 0.5064
0.3067 1.1191 0.5064
0.2662 1.1293 0.5063
0.2253 1.1380 0.5062
0.1842 1.1452 0.5062
0.1428 1.1510 0.5062
0.1013 1.1553 0.5062
0.0596 1.1582 0.5061
0.0178 1.1596 0.5062
-0.0239 1.1594 0.5062
-0.0657 1.1579 0.5062
-0.1073 1.1548 0.5062
-0.1489 1.1503 0.5063
-0.1902 1.1442 0.5063
-0.8110 0.7413 0.5093
-0.8376 0.7120 0.5096
-2.8703 2.2670 1.6954
-2.9502 2.1622 1.6954
-3.0262 2.0546 1.6954
-3.0983 1.9444 1.6954
-3.1664 1.8316 1.6954
-3.2305 1.7164 1.6954
-3.2903 1.5990 1.6954
-3.3459 1.4796 1.6954
-3.3971 1.3582 1.6954
-3.4439 1.2350 1.6954
-3.4863 1.1102 1.6954
-3.5242 0.9840 1.6954
-3.5575 0.8565 1.6954
-3.5862 0.7279 1.6954
-3.6102 0.5983 1.6954
-3.6296 0.4679 1.6954
-3.6443 0.3369 1.6954
-3.6542 0.2055 1.6954
-3.6595 0.0738 1.6954
-3.6599 -0.0580 1.6954
-3.6556 -0.1898 1.6954
-3.6466 -0.3213 1.6954
-3.6329 -0.4525 1.6954
-3.6144 -0.5830 1.6954
-3.5913 -0.7128 1.6954
-3.5635 -0.8417 1.6954
-3.5311 -0.9695 1.6954
-3.4941 -1.0961 1.6954
-3.4526 -1.2212 1.6954
-3.4065 -1.3448 1.6954
-3.3561 -1.4667 1.6954
-3.3013 -1.5867 1.6954
-3.2422 -1.7046 1.6954
-3.1789 -1.8203 1.6954
-3.1115 -1.9337 1.6954
-3.0400 -2.0446 1.6954
-2.9646 -2.1528 1.6954
-2.8854 -2.2583 1.6954
-2.8023 -2.3608 1.6954
-2.7157 -2.4603 1.6954
-2.6255 -2.5566 1.6954
-2.5319 -2.6496 1.6954
-2.4350 -2.7392 1.6954
-2.3349 -2.8252 1.6954
-2.2318 -2.9076 1.6954
-2.1258 -2.9862 1.6954
-2.0170 -3.0610 1.6954
-1.9056 -3.1317 1.6954
-1.7917 -3.1985 1.6954
-1.6755 -3.2610 1.6954
-1.5571 -3.3194 1.6954
-1.4367 -3.3734 1.6954
-1.3143 -3.4231 1.6954
-1.1903 -3.4683 1.6954
-1.0647 -3.5091 1.6954
-0.9378 -3.5452 1.6954
-0.8096 -3.5768 1.6954
-0.6803 -3.6038 1.6954
-0.5502 -3.6260 1.6954
-0.4193 -3.6436 1.6954
-0.2879 -3.6565 1.6954
-0.1561 -3.6645 1.6954
-0.0241 -3.6679 1.6954
0.1079 -3.6665 1.6954
0.2399 -3.6603 1.6954
0.3714 -3.6493 1.6954
0.5026 -3.6337 1.6954
0.6331 -3.6133 1.6954
0.7627 -3.5882 1.6954
0.8371 -3.3418 1.5922
0.9569 -3.3095 1.5922
1.0753 -3.2730 1.5922
1.1925 -3.2321 1.5922
1.3080 -3.1871 1.5922
1.4219 -3.1380 1.5922
1.5339 -3.0848 1.5922
1.6440 -3.0276 1.5922
1.7519 -2.9664 1.5922
1.8575 -2.9014 1.5922
1.9607 -2.8327 1.5922
2.0614 -2.7602 1.5922
2.1594 -2.6842 1.5922
2.2546 -2.6047 1.5922
2.3468 -2.5218 1.5922
2.4360 -2.4357 1.5922
2.5221 -2.3464 1.5922
2.6048 -2.2540 1.5922
2.6842 -2.1587 1.5922
2.7601 -2.0607 1.5922
2.8324 -1.9599 1.5922
2.9010 -1.8566 1.5922
2.9659 -1.7510 1.5922
3.0269 -1.6430 1.5922
3.0840 -1.5329 1.5922
3.1370 -1.4209 1.5922
3.1860 -1.3070 1.5922
3.2309 -1.1914 1.5922
3.2715 -1.0743 1.5922
3.3080 -0.9558 1.5922
3.3401 -0.8361 1.5922
3.3679 -0.7153 1.5922
3.3913 -0.5935 1.5922
3.4103 -0.4710 1.5922
3.4249 -0.3479 1.5922
3.4350 -0.2244 1.5922
3.4407 -0.1006 1.5922
3.4419 0.0233 1.5922
3.4386 0.1472 1.5922
3.4309 0.2709 1.5922
3.4188 0.3942 1.5922
3.4022 0.5170 1.5922
3.3812 0.6391 1.5922
3.3558 0.7604 1.5922
3.3261 0.8806 1.5922
3.2920 0.9998 1.5922
3.2537 1.1176 1.5922
3.2112 1.2339 1.5922
3.1645 1.3487 1.5922
3.1137 1.4616 1.5922
3.0589 1.5727 1.5922
3.0001 1.6817 1.5922
2.9374 1.7886 1.5922
2.8710 1.8931 1.5922
2.8008 1.9951 1.5922
2.7270 2.0945 1.5922
2.6497 2.1912 1.5922
0.8211 0.7304 0.5089
0.7940 0.7592 0.5087
0.7658 0.7869 0.5086
0.7367 0.8137 0.5084
0.7066 0.8394 0.5082
0.6757 0.8639 0.5080
0.6439 0.8874 0.5079
0.6113 0.9097 0.5077
0.5780 0.9308 0.5076
0.5439 0.9507 0.5075
0.5092 0.9694 0.5073
0.4738 0.9869 0.5072
0.4379 1.0030 0.5071
0.4014 1.0179 0.5070
0.3644 1.0315 0.5070
0.3269 1.0438 0.5069
0.2891 1.0547 0.5068
0.2509 1.0643 0.5068
0.2124 1.0725 0.5067
0.1736 1.0793 0.5067
0.1346 1.0848 0.5066
0.0955 1.0888 0.5066
0.0562 1.0915 0.5066
0.0168 1.0928 0.5066
-0.0225 1.0927 0.5066
-0.0619 1.0912 0.5067
-0.1011 1.0883 0.5067
-0.1403 1.0840 0.5067
-0.1793 1.0784 0.5068
-0.7658 0.7000 0.5096
-0.7908 0.6722 0.5098
-0.8149 0.6436 0.5100
-0.8379 0.6141 0.5103
-2.8559 1.9389 1.6954
-2.9239 1.8349 1.6954
-2.9882 1.7284 1.6954
-3.0486 1.6198 1.6954
-3.1050 1.5090 1.6954
-3.1575 1.3962 1.6954
-3.2058 1.2817 1.6954
-3.2500 1.1654 1.6954
-3.2900 1.0477 1.6954
-3.3258 0.9285 1.6954
-3.3572 0.8082 1.6954
-3.3842 0.6868 1.6954
-3.4069 0.5646 1.6954
-3.4252 0.4415 1.6954
-3.4390 0.3179 1.6954
-3.4484 0.1939 1.6954
-3.4533 0.0696 1.6954
-3.4538 -0.0548 1.6954
-3.4497 -0.1792 1.6954
-3.4412 -0.3033 1.6954
-3.4283 -0.4270 1.6954
-3.4108 -0.5502 1.6954
-3.3890 -0.6727 1.6954
-3.3627 -0.7943 1.6954
-3.3321 -0.9149 1.6954
-3.2972 -1.0344 1.6954
-3.2580 -1.1525 1.6954
-3.2146 -1.2691 1.6954
-3.1670 -1.3841 1.6954
-3.1153 -1.4973 1.6954
-3.0595 -1.6086 1.6954
-2.9998 -1.7178 1.6954
-2.9361 -1.8248 1.6954
-2.8687 -1.9294 1.6954
-2.7975 -2.0315 1.6954
-2.7227 -2.1311 1.6954
-2.6444 -2.2278 1.6954
-2.5626 -2.3217 1.6954
-2.4775 -2.4126 1.6954
-2.3891 -2.5003 1.6954
-2.2977 -2.5848 1.6954
-2.2033 -2.6660 1.6954
-2.1060 -2.7437 1.6954
-2.0059 -2.8179 1.6954
-1.9033 -2.8884 1.6954
-1.7981 -2.9552 1.6954
-1.6907 -3.0182 1.6954
-1.5810 -3.0772 1.6954
-1.4693 -3.1323 1.6954
-1.3556 -3.1832 1.6954
-1.2402 -3.2301 1.6954
-1.1232 -3.2728 1.6954
-1.0047 -3.3112 1.6954
-0.8849 -3.3454 1.6954
-0.7639 -3.3751 1.6954
-0.6419 -3.4006 1.6954
-0.5191 -3.4216 1.6954
-0.3957 -3.4381 1.6954
-0.2716 -3.4503 1.6954
-0.1473 -3.4579 1.6954
-0.0227 -3.4610 1.6954
0.1019 -3.4597 1.6954
0.2263 -3.4539 1.6954
0.3505 -3.4435 1.6954
0.4743 -3.4287 1.6954
0.5974 -3.4095 1.6954
0.7197 -3.3859 1.6954
0.8057 -3.2163 1.6240
0.9029 -3.1229 1.5922
1.0161 -3.0926 1.5944
1.1252 -3.0498 1.5922
1.2343 -3.0074 1.5922
1.3417 -2.9610 1.5922
1.4474 -2.9108 1.5922
1.5513 -2.8568 1.5922
1.6531 -2.7991 1.5922
1.7527 -2.7378 1.5922
1.8501 -2.6729 1.5922
1.9451 -2.6046 1.5922
2.0376 -2.5328 1.5922
2.1274 -2.4578 1.5922
2.2144 -2.3796 1.5922
2.2986 -2.2983 1.5922
2.3798 -2.2140 1.5922
2.4579 -2.1269 1.5922
2.5328 -2.0370 1.5922
2.6044 -1.9445 1.5922
2.6727 -1.8494 1.5922
2.7374 -1.7520 1.5922
2.7986 -1.6522 1.5922
2.8562 -1.5504 1.5922
2.9101 -1.4465 1.5922
2.9601 -1.3408 1.5922
3.0064 -1.2333 1.5922
3.0487 -1.1243 1.5922
3.0871 -1.0138 1.5922
3.1214 -0.9020 1.5922
3.1518 -0.7890 1.5922
3.1780 -0.6750 1.5922
3.2001 -0.5601 1.5922
3.2180 -0.4445 1.5922
3.2318 -0.3284 1.5922
3.2414 -0.2118 1.5922
3.2467 -0.0950 1.5922
3.2479 0.0219 1.5922
3.2448 0.1389 1.5922
3.2376 0.2556 1.5922
3.2261 0.3719 1.5922
3.2104 0.4878 1.5922
3.1906 0.6030 1.5922
3.1667 0.7175 1.5922
3.1386 0.8310 1.5922
3.1065 0.9434 1.5922
3.0704 1.0546 1.5922
3.0302 1.1643 1.5922
2.9862 1.2726 1.5922
2.9383 1.3792 1.5922
2.8866 1.4840 1.5922
2.8311 1.5869 1.5922
2.7720 1.6877 1.5922
2.7093 1.7864 1.5922
2.6430 1.8826 1.5922
0.8237 0.6326 0.5096
0.8000 0.6616 0.5094
0.7754 0.6897 0.5092
0.7497 0.7169 0.5091
0.7231 0.7431 0.5089
0.6956 0.7683 0.5087
0.6673 0.7926 0.5085
0.6381 0.8158 0.5084
0.6081 0.8380 0.5082
0.5773 0.8591 0.5081
0.5458 0.8790 0.5080
0.5137 0.8979 0.5079
0.4809 0.9155 0.5077
0.4475 0.9320 0.5076
0.4135 0.9473 0.5075
0.3791 0.9614 0.5074
0.3442 0.9742 0.5074
0.3088 0.9858 0.5073
0.2731 0.9961 0.5072
0.2370 1.0052 0.5072
0.2006 1.0129 0.5071
0.1640 1.0194 0.5071
0.1271 1.0245 0.5071
0.0901 1.0284 0.5071
0.0531 1.0309 0.5070
0.0159 1.0322 0.5071
-0.0213 1.0321 0.5071
-0.0584 1.0306 0.5071
-0.0955 1.0279 0.5071
-0.1325 1.0239 0.5072
-0.1693 1.0185 0.5072
-0.7245 0.6622 0.5099
-0.7481 0.6359 0.5101
-0.7709 0.6088 0.5103
-0.7926 0.5809 0.5105
-0.8134 0.5522 0.5107
-0.8331 0.5228 0.5109
-2.8256 1.6343 1.6954
-2.8827 1.5316 1.6954
-2.9361 1.4268 1.6954
-2.9856 1.3202 1.6954
-3.0314 1.2119 1.6954
-3.0731 1.1019 1.6954
-3.1109 0.9906 1.6954
-3.1447 0.8780 1.6954
-3.1744 0.7642 1.6954
-3.2000 0.6494 1.6954
-3.2215 0.5338 1.6954
-3.2388 0.4174 1.6954
-3.2518 0.3005 1.6954
-3.2607 0.1833 1.6954
-3.2653 0.0657 1.6954
-3.2657 -0.0519 1.6954
-3.2619 -0.1694 1.6954
-3.2538 -0.2868 1.6954
-3.2416 -0.4038 1.6954
-3.2251 -0.5203 1.6954
-3.2044 -0.6361 1.6954
-3.1796 -0.7511 1.6954
-3.1507 -0.8652 1.6954
-3.1176 -0.9781 1.6954
-3.0806 -1.0898 1.6954
-3.0395 -1.2001 1.6954
-2.9945 -1.3088 1.6954
-2.9456 -1.4158 1.6954
-2.8928 -1.5210 1.6954
-2.8364 -1.6243 1.6954
-2.7762 -1.7254 1.6954
-2.7124 -1.8244 1.6954
-2.6451 -1.9209 1.6954
-2.5744 -2.0150 1.6954
-2.5003 -2.1065 1.6954
-2.4230 -2.1952 1.6954
-2.3425 -2.2812 1.6954
-2.2589 -2.3641 1.6954
-2.1725 -2.4440 1.6954
-2.0832 -2.5208 1.6954
-1.9912 -2.5943 1.6954
-1.8966 -2.6644 1.6954
-1.7995 -2.7311 1.6954
-1.7001 -2.7942 1.6954
-1.5985 -2.8537 1.6954
-1.4948 -2.9095 1.6954
-1.3892 -2.9616 1.6954
-1.2817 -3.0098 1.6954
-1.1726 -3.0541 1.6954
-1.0619 -3.0944 1.6954
-0.9499 -3.1308 1.6954
-0.8366 -3.1630 1.6954
-0.7222 -3.1912 1.6954
-0.6069 -3.2152 1.6954
-0.4908 -3.2351 1.6954
-0.3741 -3.2508 1.6954
-0.2568 -3.2622 1.6954
-0.1392 -3.2694 1.6954
-0.0215 -3.2724 1.6954
0.0963 -3.2711 1.6954
0.2140 -3.2656 1.6954
0.3314 -3.2558 1.6954
0.4484 -3.2418 1.6954
0.5648 -3.2236 1.6954
0.6805 -3.2013 1.6954
0.7953 -3.1747 1.6954
0.8537 -2.9526 1.5922
0.9594 -2.9200 1.5922
1.0639 -2.8836 1.5922
1.1670 -2.8434 1.5922
1.2686 -2.7996 1.5922
1.3685 -2.7521 1.5922
1.4667 -2.7011 1.5922
1.5630 -2.6465 1.5922
1.6572 -2.5885 1.5922
1.7493 -2.5272 1.5922
1.8391 -2.4626 1.5922
1.9265 -2.3948 1.5922
2.0114 -2.3238 1.5922
2.0937 -2.2499 1.5922
2.1733 -2.1730 1.5922
2.2501 -2.0934 1.5922
2.3239 -2.0110 1.5922
2.3947 -1.9260 1.5922
2.4625 -1.8385 1.5922
2.5270 -1.7486 1.5922
2.5882 -1.6565 1.5922
2.6461 -1.5622 1.5922
2.7005 -1.4659 1.5922
2.7514 -1.3677 1.5922
2.7988 -1.2677 1.5922
2.8425 -1.1662 1.5922
2.8825 -1.0630 1.5922
2.9188 -0.9585 1.5922
2.9513 -0.8528 1.5922
2.9800 -0.7460 1.5922
3.0048 -0.6382 1.5922
3.0257 -0.5296 1.5922
3.0427 -0.4203 1.5922
3.0557 -0.3105 1.5922
3.0647 -0.2003 1.5922
3.0698 -0.0899 1.5922
3.0709 0.0207 1.5922
3.0680 0.1312 1.5922
3.0612 0.2416 1.5922
3.0503 0.3516 1.5922
3.0355 0.4612 1.5922
3.0168 0.5701 1.5922
2.9942 0.6783 1.5922
2.9677 0.7856 1.5922
2.9373 0.8919 1.5922
2.9031 0.9971 1.5922
2.8652 1.1009 1.5922
2.8236 1.2033 1.5922
2.7783 1.3041 1.5922
2.7294 1.4032 1.5922
2.6769 1.5004 1.5922
2.6210 1.5958 1.5922
0.8210 0.5413 0.5103
0.8006 0.5703 0.5101
0.7793 0.5985 0.5099
0.7569 0.6259 0.5097
0.7335 0.6525 0.5095
0.7093 0.6782 0.5093
0.6842 0.7030 0.5092
0.6582 0.7269 0.5090
0.6313 0.7499 0.5089
0.6037 0.7719 0.5087
0.5754 0.7929 0.5086
0.5463 0.8128 0.5084
0.5165 0.8317 0.5083
0.4861 0.8496 0.5082
0.4551 0.8663 0.5081
0.4235 0.8819 0.5080
0.3913 0.8964 0.5079
0.3587 0.9097 0.5078
0.3257 0.9219 0.5077
0.2922 0.9328 0.5077
0.2584 0.9426 0.5076
0.2243 0.9512 0.5076
0.1898 0.9585 0.5075
0.1552 0.9646 0.5075
0.1203 0.9695 0.5075
0.0853 0.9732 0.5074
0.0502 0.9756 0.5074
0.0151 0.9767 0.5074
-0.0201 0.9766 0.5075
-0.0553 0.9753 0.5075
-0.0904 0.9727 0.5075
-0.1254 0.9689 0.5075
-0.1602 0.9638 0.5076
-0.6866 0.6275 0.5101
-0.7090 0.6026 0.5103
-0.7305 0.5769 0.5105
-0.7511 0.5505 0.5107
-0.7708 0.5233 0.5109
-0.7895 0.4954 0.5111
-0.8071 0.4668 0.5113
-0.8238 0.4377 0.5115
-0.8394 0.4079 0.5117
-2.8281 1.2505 1.6954
-2.8714 1.1479 1.6954
