ply
format ascii 1.0
element vertex 2115
property float32 x
property float32 y
property float32 z
end_header
-4.0296 30.4966 -1.2592
-4.8830 28.9261 -1.2062
-6.3936 31.0466 -1.3090
-7.6157 31.2616 -1.3344
-8.8487 31.3831 -1.3579
-10.1438 31.5926 -1.3875
-11.4759 31.7784 -1.4185
-12.8494 31.9468 -1.4514
-13.7405 30.9117 -1.4313
-14.5308 29.7656 -1.4067
-16.8951 31.6747 -1.5301
-17.5945 30.3154 -1.4992
-19.2130 30.5273 -1.5480
-21.6868 31.8632 -1.6596
-9.3701 12.7582 -0.6837
-9.4732 11.9737 -0.6615
-9.5694 11.2421 -0.6415
-9.1784 10.0305 -0.5924
-9.5973 9.7612 -0.5980
-9.6761 9.1598 -0.5836
-6.5950 5.8092 -0.3858
-9.9734 8.1690 -0.5673
-10.0428 7.6409 -0.5564
-10.1094 7.1340 -0.5467
-10.1736 6.6460 -0.5379
-10.2724 6.1967 -0.5319
-10.3325 5.7379 -0.5248
-9.3095 4.7413 -0.4646
-9.3605 4.3519 -0.4596
-10.0860 4.2563 -0.4879
-10.3972 3.9546 -0.4963
-10.4500 3.5513 -0.4928
-10.5021 3.1536 -0.4899
-10.5535 2.7606 -0.4876
-10.6045 2.3712 -0.4859
-10.6552 1.9843 -0.4848
-10.7056 1.5988 -0.4841
-10.7560 1.2139 -0.4841
-7.0398 0.5397 -0.3157
-10.8571 0.4415 -0.4856
-10.9081 0.0521 -0.4872
-10.9596 -0.3409 -0.4894
-11.0116 -0.7385 -0.4922
-11.0645 -1.1418 -0.4955
-11.1182 -1.5520 -0.4995
-10.8499 -1.9135 -0.4896
-10.2159 -2.1821 -0.4636
-10.2682 -2.5815 -0.4691
-10.3220 -2.9924 -0.4753
-17.9344 -5.9042 -0.8335
-16.4918 -6.0931 -0.7745
-15.2337 -6.2578 -0.7239
-14.1239 -6.4031 -0.6801
-12.8724 -6.4018 -0.6289
-12.2471 -6.6489 -0.6081
-11.2135 -6.6190 -0.5666
-12.2738 -7.8516 -0.6323
-12.1002 -8.3668 -0.6365
-11.3182 -8.4416 -0.6090
-11.5957 -9.3139 -0.6394
-11.6997 -10.1086 -0.6625
-11.8125 -10.9699 -0.6884
-11.9355 -11.9092 -0.7175
-12.0705 -12.9403 -0.7502
-12.2198 -14.0804 -0.7874
-12.3861 -15.3512 -0.8299
-12.3755 -16.5164 -0.8649
-14.4389 -20.7834 -1.0563
-13.4439 -20.9137 -1.0334
-12.7775 -21.5376 -1.0365
-12.2117 -22.3752 -1.0506
-13.5644 -27.1233 -1.2444
-13.8856 -30.4480 -1.3671
-14.8390 -35.8950 -1.5796
-11.7573 -31.6052 -1.3651
-1.5477 -46.3186 -1.7973
0.0947 -38.5488 -1.4877
1.2839 -33.4932 -1.2873
1.8617 -25.0530 -0.9602
2.3938 -21.6678 -0.8292
4.3792 -29.8040 -1.1403
4.7672 -25.9404 -0.9937
3.4026 -15.3890 -0.5910
3.4156 -13.1859 -0.5084
3.7887 -12.7277 -0.4933
8.9773 -26.6275 -1.0391
3.8181 -10.1119 -0.3979
4.1832 -9.9806 -0.3966
3.7053 -8.0210 -0.3224
3.7782 -7.4638 -0.3039
3.8439 -6.9623 -0.2877
3.9034 -6.5073 -0.2734
3.9579 -6.0918 -0.2607
4.0079 -5.7098 -0.2494
4.0541 -5.3565 -0.2393
4.0971 -5.0281 -0.2302
4.1373 -4.7211 -0.2220
4.1750 -4.4330 -0.2146
4.2106 -4.1612 -0.2080
4.2443 -3.9039 -0.2020
4.2763 -3.6593 -0.1965
4.3069 -3.4258 -0.1916
4.3362 -3.2022 -0.1872
4.3643 -2.9873 -0.1833
4.3915 -2.7801 -0.1797
4.4177 -2.5796 -0.1765
4.4432 -2.3852 -0.1736
4.4679 -2.1959 -0.1711
4.4921 -2.0113 -0.1689
4.5158 -1.8305 -0.1670
4.5390 -1.6530 -0.1654
4.5619 -1.4784 -0.1640
4.5844 -1.3061 -0.1629
4.6068 -1.1356 -0.1621
4.6289 -0.9665 -0.1615
4.6509 -0.7983 -0.1611
4.7216 -0.2590 -0.0550
4.7437 -0.0898 -0.0553
4.7660 0.0807 -0.0557
4.7886 0.2530 -0.0562
4.8114 0.4276 -0.0568
4.8347 0.6050 -0.0575
4.8583 0.7858 -0.0584
4.8825 0.9705 -0.0594
4.9073 1.1597 -0.0605
4.9328 1.3542 -0.0618
4.9590 1.5546 -0.0632
4.9861 1.7618 -0.0647
5.0143 1.9766 -0.0665
5.0435 2.2002 -0.0684
28.8980 19.3759 -0.4527
34.0426 26.5498 -0.5733
33.2739 27.9251 -0.5830
30.5923 27.6032 -0.5590
29.0838 28.1982 -0.5556
28.7223 29.9187 -0.5752
21.1175 27.3547 -0.4960
19.7242 27.5372 -0.4918
18.3834 27.7127 -0.4886
16.9487 27.6534 -0.4821
16.1595 28.6207 -0.4944
16.0157 30.9042 -0.5298
14.7156 31.0745 -0.5295
10.8770 25.2735 -0.4288
10.0825 25.9524 -0.4390
6.1996 17.8263 -0.3011
8.0677 26.1887 -0.4423
7.0849 26.3174 -0.4451
5.9328 25.6716 -0.4352
4.8813 25.2101 -0.4290
4.0693 25.9752 -0.4443
3.1323 26.0785 -0.4488
2.1959 26.1818 -0.4539
1.2578 26.2853 -0.4596
0.3155 26.3892 -0.4659
-0.6231 26.0600 -0.4651
-1.6300 27.2411 -0.4919
-2.6870 28.0138 -0.5125
-4.0332 30.4970 -0.5659
-4.8209 28.5387 -0.5376
-6.3464 30.7999 -0.5898
-7.5451 30.9568 -0.6032
-8.7776 31.1182 -0.6177
-10.0486 31.2846 -0.6333
-11.3635 31.4568 -0.6503
-12.7279 31.6354 -0.6686
-13.7413 30.9053 -0.6686
-14.5346 29.7661 -0.6600
-16.8918 31.6611 -0.7205
-17.5986 30.3159 -0.7091
-19.2171 30.5278 -0.7349
-21.6912 31.8638 -0.7907
-9.3703 12.7563 -0.3268
-9.4734 11.9720 -0.3173
-9.5696 11.2405 -0.3086
-9.1799 10.0308 -0.2859
-9.5975 9.7600 -0.2894
-9.6762 9.1587 -0.2832
-6.5939 5.8075 -0.1877
-9.9735 8.1681 -0.2766
-10.0429 7.6401 -0.2719
-10.1095 7.1333 -0.2677
-10.1737 6.6453 -0.2639
-10.2725 6.1961 -0.2614
-10.3325 5.7374 -0.2584
-9.3095 4.7409 -0.2290
-9.3605 4.3515 -0.2269
-10.0872 4.2564 -0.2412
-10.3969 3.9542 -0.2455
-10.4497 3.5509 -0.2440
-10.5018 3.1534 -0.2427
-10.5532 2.7604 -0.2417
-10.6042 2.3710 -0.2409
-10.6549 1.9842 -0.2404
-10.7053 1.5988 -0.2401
-10.7557 1.2139 -0.2400
-7.0837 0.5431 -0.1575
-10.8568 0.4416 -0.2406
-10.9078 0.0523 -0.2413
-10.9592 -0.3407 -0.2422
-11.0113 -0.7382 -0.2433
-11.0641 -1.1414 -0.2448
-11.1178 -1.5516 -0.2464
-10.8513 -1.9133 -0.2412
-10.2159 -2.1816 -0.2280
-10.2682 -2.5810 -0.2304
-10.3219 -2.9918 -0.2330
-17.9367 -5.9039 -0.4078
-16.4940 -6.0928 -0.3782
-15.2357 -6.2576 -0.3527
-14.1258 -6.4029 -0.3305
-12.8742 -6.4016 -0.3049
-12.2488 -6.6487 -0.2939
-11.2150 -6.6188 -0.2731
-12.2736 -7.8501 -0.3038
-12.1020 -8.3666 -0.3049
-11.3180 -8.4399 -0.2907
-11.5954 -9.3120 -0.3041
-11.6994 -10.1065 -0.3140
-11.8122 -10.9676 -0.3250
-11.9351 -11.9066 -0.3373
-12.0701 -12.9373 -0.3513
-12.2193 -14.0770 -0.3671
-12.3856 -15.3473 -0.3852
-12.3749 -16.5120 -0.3996
-14.4419 -20.7830 -0.4858
-13.4469 -20.9133 -0.4730
-12.7792 -21.5350 -0.4720
-12.2135 -22.3725 -0.4759
-13.5672 -27.1213 -0.5608
-14.4719 -31.7241 -0.6385
-10.8168 -29.0666 -0.5564
-1.6681 -24.0044 -0.3954
0.0909 -38.8476 -0.6237
1.2800 -33.4927 -0.5319
1.8598 -25.0672 -0.3942
2.3913 -21.6674 -0.3379
3.1660 -21.5642 -0.3339
2.7762 -15.1163 -0.2327
2.9862 -13.5128 -0.2070
3.1583 -12.1982 -0.1863
3.3023 -11.0983 -0.1692
3.4249 -10.1622 -0.1549
3.5307 -9.3539 -0.1427
3.6233 -8.6472 -0.1323
3.7050 -8.0226 -0.1233
3.7780 -7.4652 -0.1154
3.8437 -6.9635 -0.1085
3.9033 -6.5084 -0.1024
3.9577 -6.0928 -0.0970
4.0078 -5.7106 -0.0922
4.0540 -5.3573 -0.0879
4.0970 -5.0288 -0.0840
4.1372 -4.7218 -0.0805
4.1750 -4.4335 -0.0774
4.2105 -4.1618 -0.0746
4.2442 -3.9044 -0.0720
4.2763 -3.6597 -0.0697
4.3069 -3.4261 -0.0676
4.3361 -3.2025 -0.0658
4.3643 -2.9876 -0.0641
4.3914 -2.7803 -0.0626
4.4177 -2.5799 -0.0612
4.4431 -2.3854 -0.0600
4.4679 -2.1961 -0.0589
4.4921 -2.0114 -0.0580
4.5158 -1.8306 -0.0572
4.5390 -1.6532 -0.0565
4.5619 -1.4785 -0.0560
4.5844 -1.3062 -0.0555
4.6068 -1.1357 -0.0551
4.6289 -0.9665 -0.0549
4.6509 -0.7983 -0.0548
4.7216 -0.2589 0.0515
4.7437 -0.0898 0.0516
4.7660 0.0808 0.0517
4.7886 0.2531 0.0518
4.8115 0.4277 0.0520
4.8347 0.6052 0.0522
4.8584 0.7860 0.0524
4.8826 0.9707 0.0527
4.9073 1.1600 0.0531
4.9328 1.3545 0.0534
4.9590 1.5549 0.0539
4.9862 1.7621 0.0544
5.0143 1.9770 0.0549
5.0436 2.2006 0.0555
5.5276 2.6516 0.0612
5.2745 2.7671 0.0588
5.0949 2.9104 0.0572
5.0997 3.1609 0.0578
28.8879 19.3726 0.3308
28.5721 22.2874 0.3349
33.2717 27.9285 0.3953
30.5728 27.5908 0.3688
29.0817 28.2015 0.3567
28.7234 29.9257 0.3589
21.1133 27.3553 0.2823
19.7202 27.5377 0.2710
18.3794 27.7132 0.2604
16.9448 27.6539 0.2483
16.1607 28.6304 0.2459
16.0116 30.9048 0.2541
14.7115 31.0750 0.2448
11.4752 26.6719 0.2014
10.2693 26.4423 0.1916
6.2010 17.8372 0.1240
8.0645 26.1892 0.1748
7.0817 26.3178 0.1687
5.9297 25.6720 0.1582
4.8783 25.2107 0.1493
4.0661 25.9755 0.1479
3.1292 26.0789 0.1427
2.1928 26.1821 0.1378
1.2547 26.2856 0.1331
0.3124 26.3895 0.1285
-0.6261 26.0604 0.1220
-1.6334 27.2444 0.1227
-2.6900 28.0107 0.1213
-4.0766 30.7982 0.1282
-4.8345 28.5989 0.1145
-6.4127 31.1040 0.1197
-7.6233 31.2625 0.1156
-8.8680 31.4255 0.1116
-10.1516 31.5936 0.1078
-11.4696 31.7401 0.1040
-12.8574 31.9478 0.1004
-14.7204 33.0983 0.0998
-15.7699 32.2878 0.0933
-16.8944 31.6587 0.0877
-18.1033 31.1786 0.0827
-19.2984 30.6509 0.0779
-21.6957 31.8644 0.0775
-9.3706 12.7544 0.0297
-9.4737 11.9703 0.0266
-9.5698 11.2390 0.0239
-9.1815 10.0310 0.0204
-9.5976 9.7588 0.0189
-9.6764 9.1576 0.0169
-6.5929 5.8058 0.0102
-9.9736 8.1671 0.0138
-10.0430 7.6393 0.0123
-10.1096 7.1326 0.0110
-10.1737 6.6447 0.0098
-10.2726 6.1955 0.0088
-10.3326 5.7369 0.0078
-9.3096 4.7405 0.0063
-9.3606 4.3512 0.0056
-10.0884 4.2566 0.0055
-10.3967 3.9538 0.0051
-10.4495 3.5506 0.0046
-10.5015 3.1531 0.0043
-10.5529 2.7602 0.0040
-10.6039 2.3709 0.0038
-10.6546 1.9841 0.0037
-10.7050 1.5987 0.0037
-10.7554 1.2139 0.0038
-7.2649 0.5571 0.0026
-10.8565 0.4417 0.0041
-10.9075 0.0525 0.0044
-10.9589 -0.3404 0.0048
-11.0109 -0.7379 0.0052
-11.0637 -1.1410 0.0058
-11.1174 -1.5512 0.0064
-10.8527 -1.9131 0.0069
-10.2158 -2.1812 0.0073
-10.2681 -2.5805 0.0081
-10.3219 -2.9912 0.0091
-17.9391 -5.9036 0.0175
-16.4962 -6.0925 0.0179
-15.2377 -6.2573 0.0183
-14.1277 -6.4026 0.0188
-12.8760 -6.4013 0.0190
-12.2505 -6.6484 0.0200
-11.2166 -6.6186 0.0202
-12.2734 -7.8486 0.0244
-12.1038 -8.3663 0.0265
-11.3178 -8.4383 0.0273
-11.5952 -9.3101 0.0308
-11.6992 -10.1044 0.0343
-11.8119 -10.9652 0.0381
-11.9348 -11.9040 0.0424
-12.0697 -12.9343 0.0472
-12.2189 -14.0736 0.0527
-12.3851 -15.3434 0.0590
-12.3743 -16.5076 0.0651
-14.4449 -20.7827 0.0842
-13.4498 -20.9130 0.0870
-12.7809 -21.5325 0.0920
-12.2153 -22.3699 0.0981
-13.5701 -27.1193 0.1222
-14.4705 -31.7113 0.1468
-11.7622 -31.5957 0.1544
0.0793 -35.7136 0.2309
1.0719 -28.1331 0.1873
1.7183 -23.1961 0.1590
2.3658 -21.4595 0.1516
3.1634 -21.5639 0.1570
2.7755 -15.1218 0.1135
2.9856 -13.5173 0.1047
3.1578 -12.2019 0.0975
3.3019 -11.1013 0.0916
3.4246 -10.1647 0.0867
3.5305 -9.3560 0.0825
3.6230 -8.6491 0.0788
3.7048 -8.0242 0.0757
3.7778 -7.4666 0.0730
3.8436 -6.9648 0.0706
3.9032 -6.5096 0.0685
3.9576 -6.0938 0.0666
4.0076 -5.7115 0.0649
4.0539 -5.3581 0.0634
4.0969 -5.0295 0.0621
4.1371 -4.7224 0.0608
4.1749 -4.4341 0.0597
4.2105 -4.1623 0.0588
4.2442 -3.9048 0.0579
4.2762 -3.6601 0.0570
4.3068 -3.4265 0.0563
4.3361 -3.2028 0.0556
4.3642 -2.9879 0.0550
4.3914 -2.7806 0.0545
4.4176 -2.5801 0.0540
4.4431 -2.3856 0.0536
4.4679 -2.1963 0.0532
4.4921 -2.0116 0.0528
4.5158 -1.8307 0.0525
4.5390 -1.6533 0.0523
4.5619 -1.4786 0.0520
4.5844 -1.3063 0.0519
4.6068 -1.1357 0.0517
4.6289 -0.9666 0.0516
4.6509 -0.7983 0.0515
4.7216 -0.2588 0.1580
4.7437 -0.0897 0.1585
4.7660 0.0809 0.1591
4.7886 0.2532 0.1599
4.8115 0.4279 0.1608
4.8347 0.6054 0.1620
4.8584 0.7862 0.1633
4.8826 0.9709 0.1649
4.9074 1.1602 0.1667
4.9328 1.3547 0.1687
4.9591 1.5552 0.1710
4.9862 1.7624 0.1735
5.0144 1.9774 0.1764
5.0437 2.2011 0.1795
5.1512 2.4715 0.1858
5.0053 2.6263 0.1832
4.8429 2.7669 0.1801
4.8143 2.9845 0.1822
4.8347 3.2428 0.1865
28.3443 22.1136 1.1422
31.6616 26.5818 1.3077
21.5641 19.4644 0.9147
28.9904 28.1184 1.2656
28.5770 29.7789 1.2870
21.1092 27.3558 1.0608
19.7161 27.5382 1.0340
18.3754 27.7138 1.0095
12.6589 20.6644 0.7315
16.1620 28.6401 0.9869
16.0074 30.9053 1.0382
14.7074 31.0755 1.0193
11.4606 26.6464 0.8547
10.5481 27.1694 0.8534
6.2025 17.8480 0.5497
8.0612 26.1896 0.7921
7.0785 26.3183 0.7827
5.9265 25.6724 0.7517
4.8753 25.2113 0.7278
4.0630 25.9759 0.7401
3.1260 26.0792 0.7344
2.1897 26.1825 0.7297
1.2516 26.2859 0.7259
0.3093 26.3899 0.7230
-0.6292 26.0608 0.7093
-1.6368 27.2476 0.7376
-2.6929 28.0076 0.7551
-4.0803 30.7987 0.8281
-4.8379 28.5994 0.7679
-6.4164 31.1045 0.8351
-7.6270 31.2630 0.8405
-8.8718 31.4260 0.8472
-10.1554 31.5941 0.8553
-11.4735 31.7406 0.8642
-12.8614 31.9484 0.8762
-13.7490 30.9060 0.8551
-15.7747 32.2897 0.9028
-16.8978 31.6578 0.8960
-18.1074 31.1792 0.8949
-19.2984 30.6448 0.8936
-21.7001 31.8650 0.9459
-9.3708 12.7525 0.3861
-9.4739 11.9686 0.3704
-9.5700 11.2375 0.3563
-9.1830 10.0312 0.3267
-9.5978 9.7576 0.3272
-9.6765 9.1565 0.3170
-6.5918 5.8041 0.2081
-9.9737 8.1662 0.3041
-10.0431 7.6384 0.2965
-10.1097 7.1318 0.2897
-10.1738 6.6440 0.2835
-10.2726 6.1949 0.2790
-10.3327 5.7364 0.2740
-9.3097 4.7401 0.2416
-9.3606 4.3508 0.2381
-10.0896 4.2567 0.2521
-10.3964 3.9534 0.2556
-10.4492 3.5503 0.2532
-10.5012 3.1528 0.2512
-10.5526 2.7600 0.2497
-10.6036 2.3707 0.2486
-10.6543 1.9840 0.2478
-10.7047 1.5987 0.2475
-10.7551 1.2139 0.2476
-10.8055 0.8286 0.2480
-10.8561 0.4419 0.2488
-10.9071 0.0526 0.2501
-10.9585 -0.3401 0.2517
-11.0106 -0.7375 0.2538
-11.0633 -1.1407 0.2563
-11.1170 -1.5507 0.2592
-10.8541 -1.9130 0.2552
-10.2157 -2.1807 0.2425
-10.2680 -2.5799 0.2466
-10.3218 -2.9906 0.2511
-17.9414 -5.9033 0.4429
-16.4984 -6.0922 0.4140
-15.2398 -6.2570 0.3894
-14.1296 -6.4024 0.3682
-12.8777 -6.4011 0.3429
-12.2522 -6.6482 0.3340
-11.2182 -6.6184 0.3136
-12.2732 -7.8471 0.3525
-12.1056 -8.3661 0.3580
-11.3175 -8.4366 0.3453
-11.5949 -9.3083 0.3658
-11.6989 -10.1023 0.3824
-11.8116 -10.9629 0.4011
-11.9344 -11.9013 0.4220
-12.0693 -12.9314 0.4457
-12.2184 -14.0702 0.4725
-12.3846 -15.3395 0.5031
-12.3737 -16.5032 0.5297
-14.4479 -20.7823 0.6543
-13.4528 -20.9126 0.6471
-12.7826 -21.5300 0.6560
-12.2171 -22.3672 0.6722
-13.5729 -27.1173 0.8053
-14.4691 -31.6987 0.9317
-11.7467 -31.5427 0.9124
-4.6360 -25.8886 0.7377
-3.7054 -26.0418 0.7428
-1.9156 -27.4712 0.7881
0.0752 -35.7452 1.0364
1.0693 -28.1527 0.8221
1.7166 -23.2093 0.6834
2.3633 -21.4591 0.6380
3.1609 -21.5636 0.6480
2.7748 -15.1274 0.4600
2.9850 -13.5218 0.4167
3.1574 -12.2055 0.3816
3.3015 -11.1043 0.3526
3.4242 -10.1673 0.3284
3.5302 -9.3582 0.3078
3.6228 -8.6509 0.2902
3.7046 -8.0258 0.2749
3.7777 -7.4680 0.2616
3.8434 -6.9660 0.2499
3.9030 -6.5106 0.2395
3.9575 -6.0947 0.2303
4.0075 -5.7124 0.2221
4.0538 -5.3589 0.2148
4.0969 -5.0302 0.2082
4.1371 -4.7230 0.2023
4.1748 -4.4347 0.1970
4.2104 -4.1628 0.1922
4.2441 -3.9053 0.1878
4.2762 -3.6605 0.1839
4.3068 -3.4269 0.1803
4.3361 -3.2032 0.1771
4.3642 -2.9882 0.1742
4.3913 -2.7809 0.1716
4.4176 -2.5804 0.1693
4.4431 -2.3858 0.1672
4.4679 -2.1965 0.1654
4.4921 -2.0117 0.1637
4.5157 -1.8309 0.1623
4.5390 -1.6534 0.1611
4.5619 -1.4787 0.1601
4.5844 -1.3063 0.1593
4.6067 -1.1358 0.1586
4.6289 -0.9666 0.1581
4.6509 -0.7983 0.1578
4.7216 -0.2588 0.2648
4.7437 -0.0896 0.2655
4.7661 0.0809 0.2666
4.7886 0.2533 0.2681
4.8115 0.4280 0.2698
4.8347 0.6055 0.2719
4.8584 0.7864 0.2744
4.8826 0.9711 0.2772
4.9074 1.1604 0.2805
4.9329 1.3550 0.2842
4.9591 1.5555 0.2883
4.9863 1.7628 0.2929
5.0144 1.9777 0.2980
5.0437 2.2015 0.3037
5.0266 2.4121 0.3071
4.8921 2.5673 0.3037
4.7586 2.7193 0.3006
4.7070 2.9185 0.3031
4.6794 3.1392 0.3077
4.7925 3.4705 0.3223
23.4093 18.2667 1.6134
22.7985 19.1442 1.6134
22.1569 20.0032 1.6134
20.3461 19.7378 1.5279
20.7831 21.6615 1.6134
20.0521 22.4589 1.6134
19.2920 23.2335 1.6134
18.5037 23.9844 1.6134
17.6877 24.7107 1.6134
16.8447 25.4111 1.6134
10.1573 16.5849 1.0258
5.0764 8.9981 0.5431
5.3676 10.3659 0.6115
13.2167 27.9340 1.6134
11.2930 26.2650 1.4874
11.0157 28.3837 1.5783
6.2039 17.8588 0.9765
8.0580 26.1900 1.4102
7.0752 26.3187 1.3974
5.9234 25.6728 1.3460
4.8723 25.2119 1.3070
4.0599 25.9762 1.3332
3.1229 26.0796 1.3269
2.1866 26.1828 1.3223
1.0220 21.5171 1.0800
0.3062 26.3902 1.3183
-0.6323 26.0612 1.2972
-1.6401 27.2508 1.3534
-2.6959 28.0044 1.3896
-4.0839 30.7991 1.5288
-4.8413 28.5998 1.4221
-6.4201 31.1050 1.5514
-7.6308 31.2635 1.5663
-8.8756 31.4265 1.5837
-10.0417 31.2286 1.5852
-11.1936 30.9562 1.5852
-12.3384 30.6399 1.5852
-13.4741 30.2797 1.5852
-14.5990 29.8757 1.5852
-15.7610 29.5214 1.5903
-16.8623 29.0289 1.5903
-17.9470 28.4932 1.5903
-6.2083 9.1147 0.5193
-9.3711 12.7506 0.7429
-9.4741 11.9669 0.7146
-9.5702 11.2359 0.6891
-9.1846 10.0314 0.6334
-9.5980 9.7564 0.6358
-9.6766 9.1554 0.6174
-6.5907 5.8025 0.4060
-9.9739 8.1653 0.5947
-10.0432 7.6376 0.5810
-10.1098 7.1311 0.5686
-10.1739 6.6434 0.5575
-10.2727 6.1943 0.5495
-10.3327 5.7359 0.5405
-9.3097 4.7397 0.4771
-9.3607 4.3505 0.4709
-10.0907 4.2569 0.4991
-10.3961 3.9530 0.5064
-10.4489 3.5499 0.5020
-10.5009 3.1526 0.4985
-10.5524 2.7598 0.4956
-10.6033 2.3706 0.4935
-10.6540 1.9839 0.4922
-10.7044 1.5986 0.4915
-10.7547 1.2139 0.4916
-10.8052 0.8287 0.4923
-10.8558 0.4420 0.4938
-10.9068 0.0528 0.4960
-10.9582 -0.3399 0.4989
-11.0102 -0.7372 0.5026
-11.0630 -1.1403 0.5070
-11.1166 -1.5503 0.5123
-10.8555 -1.9128 0.5038
-10.2157 -2.1802 0.4781
-10.2679 -2.5794 0.4853
-10.3217 -2.9901 0.4934
-17.9437 -5.9030 0.8689
-16.5006 -6.0919 0.8107
-15.2418 -6.2568 0.7609
-14.1316 -6.4021 0.7181
-12.8795 -6.4009 0.6673
-12.2539 -6.6480 0.6483
-11.2198 -6.6182 0.6073
-12.2730 -7.8456 0.6810
-12.1074 -8.3659 0.6899
-11.3173 -8.4349 0.6635
-11.5947 -9.3064 0.7010
-11.6986 -10.1002 0.7309
-11.8113 -10.9606 0.7644
-11.9341 -11.8987 0.8020
-12.0689 -12.9284 0.8444
-12.2180 -14.0668 0.8926
-12.3841 -15.3357 0.9475
-12.3732 -16.4988 0.9947
-13.5415 -19.4740 1.1481
-13.4558 -20.9122 1.2080
-12.7028 -21.3901 1.2128
-12.1410 -22.2218 1.2390
-13.5758 -27.1153 1.4892
-13.3989 -29.3452 1.5901
-12.2924 -29.6959 1.5901
-11.1780 -30.0050 1.5901
-10.7103 -32.2381 1.6934
-9.5118 -32.4789 1.6934
-8.3099 -32.6757 1.6934
-7.1063 -32.8287 1.6934
-4.7488 -26.5000 1.3624
-3.8184 -26.8129 1.3757
-3.5007 -33.0285 1.6934
-1.9188 -27.4707 1.4092
-1.0486 -30.9437 1.5903
0.0613 -30.8484 1.5903
1.0667 -28.1722 1.4586
1.7148 -23.2225 1.2091
2.3607 -21.4588 1.1249
3.1584 -21.5632 1.1396
2.7740 -15.1330 0.8073
2.9844 -13.5262 0.7293
3.1569 -12.2092 0.6662
3.3011 -11.1074 0.6141
3.4239 -10.1698 0.5705
3.5299 -9.3604 0.5336
3.6225 -8.6528 0.5018
3.7044 -8.0275 0.4744
3.7775 -7.4695 0.4505
3.8432 -6.9673 0.4294
3.9029 -6.5118 0.4108
3.9573 -6.0957 0.3943
4.0074 -5.7133 0.3796
4.0537 -5.3596 0.3665
4.0968 -5.0309 0.3546
4.1370 -4.7237 0.3440
4.1748 -4.4353 0.3344
4.2103 -4.1633 0.3258
4.2441 -3.9058 0.3180
4.2761 -3.6609 0.3109
4.3067 -3.4273 0.3045
4.3360 -3.2035 0.2988
4.3642 -2.9885 0.2936
4.3913 -2.7811 0.2889
4.4176 -2.5806 0.2847
4.4430 -2.3860 0.2810
4.4678 -2.1967 0.2777
4.4920 -2.0119 0.2748
4.5157 -1.8310 0.2723
4.5390 -1.6535 0.2701
4.5618 -1.4788 0.2683
4.5844 -1.3064 0.2668
4.6067 -1.1358 0.2657
4.6289 -0.9666 0.2649
4.6509 -0.7983 0.2643
4.7216 -0.2587 0.3717
4.7437 -0.0895 0.3729
4.7661 0.0810 0.3745
4.7886 0.2535 0.3766
4.8115 0.4282 0.3791
4.8348 0.6057 0.3822
4.8584 0.7866 0.3857
4.8826 0.9714 0.3899
4.9074 1.1607 0.3946
4.9329 1.3553 0.3999
4.9592 1.5558 0.4059
4.9863 1.7631 0.4125
5.0145 1.9781 0.4199
5.0438 2.2019 0.4282
4.9759 2.3882 0.4289
4.8409 2.5409 0.4242
4.7067 2.6901 0.4200
4.6449 2.8805 0.4228
4.6196 3.0996 0.4296
4.7017 3.4054 0.4475
9.9165 7.7394 0.9680
16.0841 13.5085 1.6134
15.6190 14.1034 1.6134
15.1329 14.6833 1.6134
14.6262 15.2473 1.6134
9.4338 10.5683 1.0795
13.5526 16.3249 1.6134
9.6809 12.5511 1.2027
12.4023 17.3305 1.6134
11.7997 17.8046 1.6134
5.4773 8.9456 0.7905
5.0752 8.9983 0.7767
5.3662 10.3661 0.8755
9.2201 19.4929 1.6134
8.5362 19.8598 1.6134
7.7501 19.9763 1.5952
6.1935 17.8358 1.4021
6.3305 20.5841 1.5952
5.6027 20.8511 1.5952
4.8489 21.0272 1.5903
4.1052 21.2563 1.5913
3.3521 21.4645 1.5927
2.5894 21.6455 1.5941
1.8179 21.7991 1.5954
1.0182 21.4908 1.5651
0.2523 21.9658 1.5938
-0.5366 22.0105 1.5933
-1.3725 22.7603 1.6458
-2.2566 23.4122 1.6934
-1.2436 9.3702 0.6788
-1.5603 9.2110 0.6692
-1.8701 9.0554 0.6607
-2.1740 8.9027 0.6532
-2.4729 8.7525 0.6467
-2.7678 8.6044 0.6411
-3.0594 8.4580 0.6364
-3.3485 8.3128 0.6326
-3.6359 8.1685 0.6297
-3.9223 8.0248 0.6277
-4.2086 7.8811 0.6265
-4.4953 7.7372 0.6261
-4.7833 7.5927 0.6266
-5.0734 7.4471 0.6279
-5.3663 7.3002 0.6301
-9.4743 11.9652 1.0594
-9.5704 11.2344 1.0226
-9.1862 10.0316 0.9408
-9.5981 9.7551 0.9450
-9.6768 9.1543 0.9183
-6.5897 5.8008 0.6043
-9.9740 8.1644 0.8860
-10.0433 7.6368 0.8661
-10.1099 7.1304 0.8481
-10.1740 6.6427 0.8320
-10.2728 6.1938 0.8205
-10.3328 5.7354 0.8075
-9.3098 4.7393 0.7132
-9.3607 4.3501 0.7041
-10.0919 4.2570 0.7466
-10.3958 3.9526 0.7576
-10.4486 3.5496 0.7513
-10.5006 3.1523 0.7461
-10.5521 2.7596 0.7421
-10.6030 2.3704 0.7390
-10.6536 1.9838 0.7370
-10.7041 1.5986 0.7360
-10.7544 1.2140 0.7361
-10.8049 0.8288 0.7372
-10.8555 0.4422 0.7393
-10.9064 0.0530 0.7424
-10.9578 -0.3396 0.7466
-11.0098 -0.7369 0.7519
-11.0626 -1.1399 0.7583
-11.1162 -1.5498 0.7659
-10.8569 -1.9126 0.7529
-10.2156 -2.1798 0.7141
-10.2679 -2.5789 0.7245
-10.3216 -2.9895 0.7362
-17.9461 -5.9027 1.2959
-16.5028 -6.0917 1.2082
-15.2438 -6.2565 1.1334
-14.1335 -6.4019 1.0688
-12.8813 -6.4006 0.9923
-12.2556 -6.6478 0.9635
-11.2214 -6.6180 0.9018
-12.2728 -7.8442 1.0100
-12.1092 -8.3656 1.0225
-11.3171 -8.4333 0.9824
-11.5944 -9.3045 1.0369
-11.6983 -10.0981 1.0801
-11.8110 -10.9582 1.1284
-11.9338 -11.8961 1.1827
-12.0685 -12.9254 1.2440
-12.2175 -14.0634 1.3135
-12.3836 -15.3318 1.3928
-12.3746 -16.4971 1.4608
-12.7884 -18.3867 1.5903
-12.0916 -18.7875 1.5903
-11.3823 -19.1616 1.5903
-10.6615 -19.5086 1.5903
-9.9302 -19.8282 1.5903
-9.6729 -21.1784 1.6739
-8.9879 -21.7058 1.6934
-8.1829 -21.9573 1.6934
-7.3713 -22.1790 1.6934
-6.5544 -22.3708 1.6934
-5.7332 -22.5327 1.6934
-4.9089 -22.6646 1.6934
-4.0826 -22.7667 1.6934
-3.2552 -22.8389 1.6934
-2.4280 -22.8815 1.6934
-1.5043 -21.4987 1.5901
-0.7306 -21.4836 1.5901
0.0401 -21.4413 1.5901
0.8068 -21.3720 1.5901
1.5686 -21.2760 1.5901
2.3247 -21.1536 1.5901
3.0974 -21.1637 1.6021
2.7733 -15.1387 1.1556
2.9838 -13.5307 1.0428
3.1564 -12.2128 0.9516
3.3007 -11.1104 0.8764
3.4236 -10.1724 0.8134
3.5296 -9.3626 0.7599
3.6223 -8.6547 0.7141
3.7042 -8.0291 0.6745
3.7773 -7.4709 0.6399
3.8431 -6.9685 0.6095
3.9027 -6.5129 0.5826
3.9572 -6.0967 0.5588
4.0073 -5.7141 0.5375
4.0536 -5.3604 0.5185
4.0967 -5.0316 0.5014
4.1369 -4.7243 0.4861
4.1747 -4.4358 0.4722
4.2103 -4.1638 0.4597
4.2440 -3.9062 0.4485
4.2761 -3.6613 0.4383
4.3067 -3.4277 0.4290
4.3360 -3.2038 0.4207
4.3641 -2.9888 0.4132
4.3913 -2.7814 0.4065
4.4175 -2.5808 0.4005
4.4430 -2.3862 0.3951
4.4678 -2.1969 0.3903
4.4920 -2.0120 0.3862
4.5157 -1.8311 0.3825
4.5389 -1.6536 0.3794
4.5618 -1.4789 0.3768
4.5844 -1.3064 0.3747
4.6067 -1.1359 0.3730
4.6289 -0.9667 0.3718
4.6509 -0.7983 0.3711
4.7216 -0.2587 0.4791
4.7437 -0.0895 0.4806
4.7661 0.0812 0.4827
4.7887 0.2536 0.4854
4.8115 0.4283 0.4888
4.8348 0.6059 0.4928
4.8585 0.7867 0.4975
4.8827 0.9716 0.5029
4.9075 1.1609 0.5091
4.9329 1.3555 0.5160
4.9592 1.5561 0.5239
4.9864 1.7634 0.5326
5.0145 1.9785 0.5423
5.0438 2.2023 0.5531
4.9536 2.3780 0.5517
4.8161 2.5283 0.5455
4.6811 2.6759 0.5401
4.6164 2.8633 0.5435
4.5951 3.0837 0.5530
4.6742 3.3861 0.5760
12.7624 9.9623 1.6134
9.7907 8.2244 1.2724
12.0504 10.8831 1.6134
11.6701 11.3255 1.6134
11.2740 11.7551 1.6134
9.4281 10.5640 1.4003
10.4364 12.5738 1.6134
9.6794 12.5519 1.5623
9.5407 13.3349 1.6134
9.0723 13.6925 1.6134
5.4761 8.9458 1.0284
5.0739 8.9984 1.0110
5.3648 10.3663 1.1403
6.9936 14.7900 1.5952
6.4509 15.0129 1.5903
5.9198 15.2638 1.5903
5.3790 15.4962 1.5903
4.8294 15.7097 1.5903
4.2714 15.9040 1.5903
3.7057 16.0787 1.5903
3.1331 16.2334 1.5903
2.5542 16.3678 1.5903
2.0973 17.5501 1.6934
1.4700 17.6529 1.6937
0.8381 17.7342 1.6942
0.2022 17.7928 1.6946
-0.4367 17.8287 1.6951
-1.0780 17.8417 1.6955
-1.7207 17.8311 1.6959
-1.2452 9.3745 0.8936
-1.5621 9.2152 0.8814
-1.8720 9.0595 0.8707
-2.1760 8.9067 0.8614
-2.4751 8.7564 0.8533
-2.7700 8.6082 0.8464
-3.0617 8.4617 0.8408
-3.3509 8.3165 0.8362
-3.6384 8.1721 0.8329
-3.9250 8.0283 0.8306
-4.2114 7.8846 0.8294
-4.4983 7.7406 0.8294
-4.7864 7.5960 0.8304
-5.0766 7.4505 0.8326
-5.3696 7.3035 0.8359
-9.4746 11.9635 1.4053
-9.5706 11.2329 1.3570
-9.1878 10.0318 1.2492
-9.5983 9.7539 1.2551
-9.6769 9.1532 1.2202
-6.5886 5.7991 0.8031
-9.9741 8.1635 1.1781
-10.0434 7.6360 1.1520
-10.1100 7.1297 1.1285
-10.1741 6.6421 1.1074
-10.2729 6.1932 1.0923
-10.3329 5.7348 1.0754
-9.3098 4.7389 0.9499
-9.3608 4.3498 0.9380
-10.0931 4.2572 0.9949
-10.3956 3.9522 1.0097
-10.4483 3.5493 1.0014
-10.5004 3.1520 0.9946
-10.5518 2.7594 0.9892
-10.6027 2.3703 0.9852
-10.6533 1.9837 0.9826
-10.7038 1.5986 0.9813
-10.7541 1.2140 0.9813
-10.8045 0.8289 0.9827
-10.8551 0.4423 0.9855
-10.9061 0.0532 0.9895
-10.9575 -0.3394 0.9950
-11.0094 -0.7366 1.0019
-11.0622 -1.1395 1.0103
-11.1158 -1.5494 1.0202
-10.8584 -1.9124 1.0029
-10.2156 -2.1793 0.9508
-10.2678 -2.5783 0.9644
-10.3216 -2.9889 0.9797
-16.3844 -5.3880 1.5740
-16.1648 -5.9658 1.5740
-14.9509 -6.1352 1.4778
-14.1354 -6.4016 1.4206
-12.8830 -6.4004 1.3185
-12.2573 -6.6475 1.2796
-11.2230 -6.6178 1.1972
-12.2726 -7.8426 1.3401
-12.1110 -8.3654 1.3563
-11.3169 -8.4316 1.3023
-11.5942 -9.3026 1.3737
-11.6981 -10.0960 1.4303
-11.6248 -10.7835 1.4700
-11.7457 -11.7063 1.5399
-11.6692 -12.4952 1.5903
-11.1945 -12.8832 1.5903
-10.7067 -13.2528 1.5903
-10.2065 -13.6037 1.5903
-9.6946 -13.9354 1.5903
-9.1719 -14.2475 1.5903
-8.8534 -14.9005 1.6297
-8.6218 -15.7721 1.6934
-8.0354 -16.0402 1.6934
-7.4408 -16.2863 1.6934
-6.8388 -16.5103 1.6934
-6.2303 -16.7119 1.6934
-5.6161 -16.8910 1.6934
-4.9969 -17.0476 1.6934
-4.3739 -17.1815 1.6934
-3.7476 -17.2927 1.6934
-3.1190 -17.3812 1.6934
-2.4889 -17.4470 1.6934
-1.8580 -17.4902 1.6934
-1.2273 -17.5109 1.6934
-0.5611 -16.4415 1.5901
0.0287 -16.4188 1.5901
0.6162 -16.3754 1.5901
1.2007 -16.3113 1.5901
1.7814 -16.2268 1.5901
2.3576 -16.1221 1.5901
2.7726 -15.1443 1.5053
2.9833 -13.5352 1.3576
3.1559 -12.2165 1.2382
3.3003 -11.1135 1.1397
3.4232 -10.1750 1.0572
3.5293 -9.3648 0.9872
3.6220 -8.6566 0.9272
3.7040 -8.0307 0.8753
3.7771 -7.4723 0.8300
3.8429 -6.9698 0.7902
3.9026 -6.5140 0.7550
3.9571 -6.0977 0.7238
4.0072 -5.7150 0.6960
4.0535 -5.3612 0.6711
4.0966 -5.0323 0.6488
4.1368 -4.7249 0.6287
4.1746 -4.4364 0.6105
4.2102 -4.1643 0.5942
4.2439 -3.9067 0.5794
4.2760 -3.6618 0.5661
4.3066 -3.4280 0.5540
4.3359 -3.2042 0.5431
4.3641 -2.9891 0.5333
4.3912 -2.7817 0.5245
4.4175 -2.5811 0.5166
4.4430 -2.3864 0.5096
4.4678 -2.1970 0.5034
4.4920 -2.0122 0.4979
4.5157 -1.8313 0.4932
4.5389 -1.6537 0.4891
4.5618 -1.4790 0.4857
4.5844 -1.3065 0.4829
4.6067 -1.1359 0.4808
4.6289 -0.9667 0.4792
4.6509 -0.7983 0.4782
4.7216 -0.2586 0.5869
4.7438 -0.0894 0.5888
4.7661 0.0813 0.5914
4.7887 0.2537 0.5948
4.8116 0.4285 0.5990
4.8348 0.6060 0.6039
4.8585 0.7869 0.6097
4.8827 0.9718 0.6164
4.9075 1.1612 0.6241
4.9330 1.3558 0.6327
4.9592 1.5564 0.6424
4.9864 1.7638 0.6532
5.0146 1.9789 0.6653
5.0439 2.2027 0.6787
4.9552 2.3792 0.6772
4.8166 2.5291 0.6696
4.6812 2.6764 0.6631
4.6165 2.8639 0.6674
4.5951 3.0842 0.6792
4.6748 3.3871 0.7077
10.3854 8.1084 1.6134
9.8438 8.2705 1.5725
9.8007 8.8530 1.6134
9.4887 9.2103 1.6134
9.1639 9.5569 1.6134
8.8269 9.8924 1.6134
8.4778 10.2163 1.6134
8.1171 10.5283 1.6134
7.7452 10.8278 1.6134
7.3625 11.1145 1.6134
5.4748 8.9460 1.2674
5.0727 8.9986 1.2464
5.3634 10.3665 1.4062
5.6497 11.9516 1.5903
5.2256 12.1653 1.5903
4.7935 12.3641 1.5903
4.3539 12.5478 1.5903
3.9074 12.7160 1.5903
3.4545 12.8685 1.5903
2.9957 13.0049 1.5903
2.6957 13.9762 1.6934
2.1969 14.0897 1.6938
1.6935 14.1855 1.6942
1.1860 14.2635 1.6945
0.6752 14.3232 1.6949
0.1616 14.3647 1.6953
-0.3541 14.3877 1.6957
-0.8713 14.3920 1.6961
-1.3891 14.3775 1.6964
-1.2469 9.3789 1.1095
-1.5639 9.2195 1.0948
-1.8739 9.0636 1.0819
-2.1376 8.7450 1.0507
-2.4772 8.7603 1.0610
-2.7723 8.6121 1.0528
-3.0641 8.4655 1.0461
-3.3534 8.3202 1.0409
-3.6410 8.1757 1.0370
-3.9277 8.0318 1.0345
-4.2142 7.8880 1.0334
-4.5012 7.7440 1.0337
-4.7895 7.5994 1.0353
-5.0798 7.4538 1.0384
-5.3730 7.3068 1.0428
-8.5978 10.8546 1.5903
-8.9913 10.5513 1.5903
-9.1893 10.0320 1.5590
-9.3582 9.5086 1.5273
-9.4970 8.9818 1.4949
-6.4942 5.7153 0.9885
-9.9742 8.1626 1.4714
-10.0435 7.6352 1.4391
-10.1101 7.1289 1.4100
-10.1742 6.6414 1.3838
-10.2729 6.1926 1.3653
-10.3329 5.7343 1.3443
-9.3099 4.7385 1.1876
-9.3608 4.3494 1.1729
-10.0943 4.2574 1.2444
-10.3953 3.9518 1.2627
-10.4481 3.5489 1.2525
-10.5001 3.1517 1.2440
-10.5515 2.7592 1.2374
-10.6024 2.3701 1.2324
-10.6530 1.9836 1.2291
-10.7034 1.5985 1.2275
-10.7538 1.2140 1.2276
-10.8042 0.8290 1.2293
-10.8548 0.4424 1.2326
-10.9057 0.0534 1.2377
-10.9571 -0.3391 1.2445
-11.0091 -0.7363 1.2530
-11.0618 -1.1391 1.2633
-11.1155 -1.5489 1.2756
-10.8598 -1.9122 1.2539
-10.2155 -2.1788 1.1885
-10.2677 -2.5778 1.2053
-10.3215 -2.9883 1.2243
-13.1142 -4.3118 1.5740
-12.9410 -4.7752 1.5740
-12.7507 -5.2314 1.5740
-12.5438 -5.6798 1.5740
-12.3205 -6.1199 1.5740
-12.0136 -6.5142 1.5652
-11.2246 -6.6176 1.4939
-11.1453 -7.1210 1.5180
-11.2282 -7.7543 1.5679
-11.0860 -8.2581 1.5903
-10.7698 -8.6396 1.5903
-10.4402 -9.0087 1.5903
-10.0976 -9.3650 1.5903
-9.7426 -9.7080 1.5903
-9.3756 -10.0373 1.5903
-8.9974 -10.3525 1.5903
-8.6083 -10.6531 1.5903
-8.3639 -11.1453 1.6203
-8.3058 -11.9364 1.6934
-7.8609 -12.2081 1.6934
-7.4070 -12.4631 1.6934
-6.9449 -12.7010 1.6934
-6.4750 -12.9217 1.6934
-5.9983 -13.1249 1.6934
-5.5152 -13.3103 1.6934
-5.0265 -13.4780 1.6934
-4.5328 -13.6276 1.6934
-4.0348 -13.7591 1.6934
-3.5333 -13.8725 1.6934
-3.0288 -13.9676 1.6934
-2.5220 -14.0445 1.6934
-2.0136 -14.1030 1.6934
-1.5042 -14.1433 1.6934
-0.9946 -14.1653 1.6934
-0.4556 -13.3051 1.5901
0.0217 -13.2917 1.5901
0.4975 -13.2614 1.5901
0.9711 -13.2143 1.5901
0.9151 -8.3446 1.0090
1.9098 -13.0703 1.5901
2.3737 -12.9738 1.5901
2.8331 -12.8611 1.5901
3.1554 -12.2202 1.5262
3.2999 -11.1166 1.4042
3.4229 -10.1775 1.3021
3.5290 -9.3670 1.2156
3.6218 -8.6585 1.1413
3.7038 -8.0324 1.0770
3.7769 -7.4738 1.0210
3.8427 -6.9710 0.9717
3.9024 -6.5151 0.9282
3.9570 -6.0987 0.8896
4.0071 -5.7159 0.8552
4.0534 -5.3620 0.8244
4.0965 -5.0330 0.7968
4.1367 -4.7256 0.7719
4.1745 -4.4370 0.7495
4.2102 -4.1648 0.7293
4.2439 -3.9072 0.7110
4.2760 -3.6622 0.6945
4.3066 -3.4284 0.6796
4.3359 -3.2045 0.6661
4.3640 -2.9894 0.6540
4.3912 -2.7820 0.6431
4.4175 -2.5813 0.6333
4.4430 -2.3867 0.6246
4.4678 -2.1972 0.6169
4.4920 -2.0124 0.6102
4.5157 -1.8314 0.6043
4.5389 -1.6538 0.5993
4.5618 -1.4791 0.5951
4.5844 -1.3066 0.5916
4.6067 -1.1360 0.5890
4.6289 -0.9667 0.5871
4.6509 -0.7984 0.5859
4.7216 -0.2586 0.6954
4.7438 -0.0893 0.6976
4.7661 0.0814 0.7007
4.7887 0.2538 0.7048
4.8116 0.4286 0.7097
4.8348 0.6062 0.7157
4.8585 0.7871 0.7226
4.8827 0.9720 0.7306
4.9075 1.1614 0.7397
4.9330 1.3561 0.7500
4.9593 1.5567 0.7616
4.9864 1.7641 0.7745
5.0146 1.9792 0.7889
5.0439 2.2031 0.8049
4.4571 2.1404 0.7225
4.4494 2.3366 0.7338
4.6785 2.6753 0.7863
4.6166 2.8645 0.7920
4.5951 3.0848 0.8061
4.6752 3.3880 0.8402
8.7471 6.8305 1.6134
8.5049 7.1469 1.6134
8.2515 7.4550 1.6134
7.9872 7.7543 1.6134
7.7122 8.0445 1.6134
7.4270 8.3252 1.6134
7.1318 8.5960 1.6134
6.8268 8.8566 1.6134
6.4193 8.9762 1.5903
6.1006 9.2119 1.5903
5.4735 8.9461 1.5077
5.0715 8.9988 1.4831
5.0951 9.8507 1.5903
4.7447 10.0400 1.5903
4.3873 10.2170 1.5903
4.0234 10.3815 1.5903
3.6534 10.5331 1.5903
3.2778 10.6716 1.5903
2.9039 10.8225 1.5941
0.7739 3.3615 0.4900
0.6526 3.3859 0.4892
0.5307 3.4062 0.4884
0.4081 3.4223 0.4876
0.2851 3.4342 0.4869
0.1618 3.4419 0.4862
0.0383 3.4454 0.4855
-0.0852 3.4448 0.4849
-0.2087 3.4399 0.4843
-0.3319 3.4308 0.4837
-0.4548 3.4175 0.4832
-0.5771 3.4001 0.4827
-0.6989 3.3784 0.4823
-0.8199 3.3527 0.4819
-2.4794 8.7643 1.2700
-2.7746 8.6159 1.2605
-3.0665 8.4693 1.2528
-3.3559 8.3239 1.2468
-3.6437 8.1794 1.2425
-3.9305 8.0354 1.2398
-4.2171 7.8915 1.2387
-4.5042 7.7475 1.2393
-4.7671 7.5623 1.2349
-5.0831 7.4571 1.2454
-5.3764 7.3101 1.2510
-7.1702 9.0507 1.5903
-7.4969 8.7962 1.5903
-7.8143 8.5296 1.5903
-8.1218 8.2511 1.5903
-8.4191 7.9613 1.5903
-6.4840 5.7055 1.1844
-8.9812 7.3490 1.5903
-9.2451 7.0274 1.5903
-9.4971 6.6959 1.5903
-9.7368 6.3552 1.5903
-9.9637 6.0056 1.5903
-10.1777 5.6476 1.5903
-9.3099 4.7381 1.4266
-9.3609 4.3490 1.4090
-10.0954 4.2575 1.4951
-10.3950 3.9514 1.5170
-10.4478 3.5486 1.5048
-10.4998 3.1515 1.4947
-10.5512 2.7589 1.4868
-10.6021 2.3700 1.4808
-10.6527 1.9835 1.4769
-10.7031 1.5985 1.4750
-10.7535 1.2140 1.4751
-10.8039 0.8290 1.4771
-10.8544 0.4426 1.4811
-10.9054 0.0536 1.4871
-10.9567 -0.3389 1.4951
-11.0087 -0.7360 1.5053
-11.0614 -1.1387 1.5176
-11.1151 -1.5485 1.5322
-10.8612 -1.9120 1.5064
-10.2154 -2.1783 1.4274
-10.2677 -2.5773 1.4475
-10.3214 -2.9877 1.4700
-11.0359 -3.6278 1.5903
-10.8916 -4.0182 1.5903
-10.7330 -4.4028 1.5903
-10.5604 -4.7809 1.5903
-10.3741 -5.1521 1.5903
-10.1743 -5.5159 1.5903
-9.9614 -5.8718 1.5903
-9.7357 -6.2193 1.5903
-9.4976 -6.5579 1.5903
-9.2474 -6.8873 1.5903
-8.9855 -7.2069 1.5903
-8.7123 -7.5163 1.5903
-8.4282 -7.8153 1.5903
-8.1575 -8.1270 1.5949
-8.0272 -8.5919 1.6305
-8.0022 -9.2055 1.6934
-7.6580 -9.4751 1.6934
-7.3046 -9.7316 1.6934
-6.9425 -9.9748 1.6934
-6.5723 -10.2044 1.6934
-6.1944 -10.4201 1.6934
-5.8094 -10.6216 1.6934
-5.4179 -10.8089 1.6934
-5.0203 -10.9816 1.6934
-4.6173 -11.1397 1.6934
-4.2093 -11.2828 1.6934
-3.7970 -11.4111 1.6934
-3.3809 -11.5242 1.6934
-2.9616 -11.6221 1.6934
-2.5396 -11.7048 1.6934
-2.1154 -11.7723 1.6934
-1.6897 -11.8244 1.6934
-1.2629 -11.8612 1.6934
-0.8357 -11.8827 1.6934
-0.4086 -11.8889 1.6934
0.0169 -11.1556 1.5901
0.4163 -11.1330 1.5901
0.8141 -11.0962 1.5901
0.9109 -8.3152 1.1971
1.6032 -10.9806 1.5901
1.9934 -10.9021 1.5901
2.3800 -10.8099 1.5901
2.7627 -10.7042 1.5901
3.1410 -10.5853 1.5901
3.4225 -10.1802 1.5486
3.5287 -9.3692 1.4453
3.6215 -8.6604 1.3567
3.7035 -8.0340 1.2800
3.7767 -7.4752 1.2131
3.8426 -6.9723 1.1544
3.9023 -6.5162 1.1025
3.9568 -6.0997 1.0564
4.0070 -5.7168 1.0153
4.0533 -5.3628 0.9786
4.0964 -5.0337 0.9456
4.1367 -4.7262 0.9160
4.1745 -4.4376 0.8892
4.2101 -4.1654 0.8651
4.2438 -3.9076 0.8433
4.2759 -3.6626 0.8236
4.3065 -3.4288 0.8058
4.3358 -3.2049 0.7898
4.3640 -2.9897 0.7753
4.3912 -2.7822 0.7623
4.4174 -2.5816 0.7507
4.4429 -2.3869 0.7403
4.4677 -2.1974 0.7311
4.4920 -2.0125 0.7231
4.5156 -1.8316 0.7161
4.5389 -1.6539 0.7101
4.5618 -1.4792 0.7051
4.5844 -1.3067 0.7010
4.6067 -1.1360 0.6978
4.6289 -0.9667 0.6955
4.6509 -0.7984 0.6941
4.7216 -0.2585 0.8046
4.7438 -0.0892 0.8072
4.7661 0.0815 0.8108
4.7887 0.2539 0.8155
4.8116 0.4287 0.8213
4.8349 0.6064 0.8282
4.8585 0.7873 0.8363
4.8828 0.9722 0.8456
4.9076 1.1617 0.8562
4.9331 1.3564 0.8682
4.9593 1.5570 0.8816
4.9865 1.7645 0.8967
5.0147 1.9796 0.9134
4.4797 1.9570 0.8277
4.2965 2.0636 0.8065
4.2306 2.2222 0.8081
4.6768 2.6749 0.9104
4.6166 2.8650 0.9174
4.5950 3.0853 0.9339
4.6755 3.3889 0.9735
7.5483 5.8955 1.6134
7.3383 6.1677 1.6134
7.1186 6.4327 1.6134
6.8896 6.6901 1.6134
6.6515 6.9394 1.6134
6.4044 7.1805 1.6134
6.0608 7.3068 1.5903
5.8007 7.5271 1.5903
5.5327 7.7383 1.5903
5.2571 7.9401 1.5903
4.9743 8.1323 1.5903
4.6845 8.3145 1.5903
4.3882 8.4865 1.5903
4.0856 8.6480 1.5903
3.7771 8.7989 1.5903
3.4631 8.9389 1.5903
3.1440 9.0678 1.5903
2.8201 9.1854 1.5903
0.7741 2.8865 0.4940
0.6699 2.9114 0.4933
0.5649 2.9327 0.4926
0.4593 2.9504 0.4919
0.3532 2.9645 0.4912
0.2466 2.9749 0.4906
0.1398 2.9816 0.4900
0.0328 2.9847 0.4894
-0.0742 2.9841 0.4888
-0.1811 2.9798 0.4883
-0.2878 2.9719 0.4878
-0.3943 2.9603 0.4874
-0.5003 2.9451 0.4870
-0.6057 2.9262 0.4866
-0.7105 2.9037 0.4862
-0.8144 2.8777 0.4859
-2.7768 8.6198 1.4697
-3.0689 8.4731 1.4610
-3.3584 8.3276 1.4542
-3.6463 8.1830 1.4494
-3.9332 8.0390 1.4465
-4.2199 7.8951 1.4455
-4.5072 7.7509 1.4464
-4.7490 7.5320 1.4350
-5.0864 7.4605 1.4539
-5.3798 7.3134 1.4607
-6.1439 7.7540 1.5903
-6.4230 7.5349 1.5903
-6.6940 7.3056 1.5903
-6.9565 7.0663 1.5903
-7.2103 6.8173 1.5903
-6.4738 5.6958 1.3810
-7.6900 6.2917 1.5903
-7.9151 6.0157 1.5903
-8.1301 5.7315 1.5903
-8.3345 5.4393 1.5903
-8.5281 5.1397 1.5903
-8.7106 4.8331 1.5903
-8.8816 4.5197 1.5903
-9.0411 4.2001 1.5903
-9.1886 3.8748 1.5903
-9.3241 3.5441 1.5903
-9.4472 3.2085 1.5903
-9.5578 2.8686 1.5903
-9.6558 2.5247 1.5903
-9.7411 2.1774 1.5903
-9.8133 1.8272 1.5903
-9.8726 1.4745 1.5903
-9.9188 1.1199 1.5903
-9.9518 0.7638 1.5903
-9.9716 0.4067 1.5903
-9.9781 0.0493 1.5903
-9.9714 -0.3082 1.5903
-9.9515 -0.6650 1.5903
-9.9184 -1.0208 1.5903
-9.8722 -1.3750 1.5903
-9.8129 -1.7271 1.5903
-9.7407 -2.0766 1.5903
-9.6556 -2.4232 1.5903
-9.5579 -2.7661 1.5903
-9.4476 -3.1051 1.5903
-9.3249 -3.4396 1.5903
-9.1901 -3.7692 1.5903
-9.0433 -4.0933 1.5903
-8.8847 -4.4117 1.5903
-8.7147 -4.7238 1.5903
-8.5334 -5.0292 1.5903
-8.3412 -5.3275 1.5903
-8.1383 -5.6183 1.5903
-7.9250 -5.9013 1.5903
-7.7214 -6.1918 1.5943
-7.7784 -6.7094 1.6562
-7.6947 -7.1337 1.6934
-7.4270 -7.3978 1.6934
-7.1501 -7.6516 1.6934
-6.8644 -7.8950 1.6934
-6.5703 -8.1275 1.6934
-6.2682 -8.3490 1.6934
-5.9586 -8.5591 1.6934
-5.6419 -8.7577 1.6934
-5.3185 -8.9444 1.6934
-4.9889 -9.1191 1.6934
-4.6536 -9.2815 1.6934
-4.3130 -9.4316 1.6934
-3.9676 -9.5690 1.6934
-3.6178 -9.6939 1.6934
-3.2642 -9.8058 1.6934
-2.9072 -9.9049 1.6934
-2.5472 -9.9910 1.6934
-2.1848 -10.0640 1.6934
-1.8205 -10.1239 1.6934
-1.4546 -10.1706 1.6934
-1.0878 -10.2041 1.6934
-0.7203 -10.2245 1.6934
-0.3529 -10.2318 1.6934
0.0133 -9.6024 1.5901
0.3573 -9.5847 1.5901
0.6999 -9.5547 1.5901
0.9067 -8.2858 1.3850
1.3798 -9.4586 1.5901
1.7162 -9.3925 1.5901
2.0497 -9.3147 1.5901
2.3799 -9.2253 1.5901
2.7064 -9.1243 1.5901
3.0287 -9.0119 1.5901
3.3466 -8.8884 1.5901
3.6213 -8.6623 1.5735
3.7033 -8.0357 1.4843
3.7765 -7.4767 1.4065
3.8424 -6.9736 1.3382
3.9021 -6.5174 1.2779
3.9567 -6.1007 1.2243
4.0068 -5.7177 1.1766
4.0532 -5.3636 1.1338
4.0963 -5.0345 1.0955
4.1366 -4.7269 1.0610
4.1744 -4.4381 1.0299
4.2100 -4.1659 1.0018
4.2438 -3.9081 0.9765
4.2758 -3.6630 0.9536
4.3065 -3.4292 0.9329
4.3358 -3.2052 0.9143
4.3640 -2.9900 0.8974
4.3911 -2.7825 0.8823
4.4174 -2.5818 0.8688
4.4429 -2.3871 0.8568
4.4677 -2.1976 0.8461
4.4919 -2.0127 0.8367
4.5156 -1.8317 0.8286
4.5389 -1.6540 0.8216
4.5618 -1.4792 0.8158
4.5844 -1.3067 0.8110
4.6067 -1.1361 0.8073
4.6289 -0.9667 0.8047
4.6509 -0.7984 0.8030
4.7216 -0.2585 0.9146
4.7438 -0.0891 0.9176
4.7661 0.0815 0.9217
4.7887 0.2541 0.9271
4.8116 0.4289 0.9337
4.8349 0.6065 0.9415
4.8586 0.7875 0.9508
4.8828 0.9724 0.9614
4.9076 1.1619 0.9735
4.9331 1.3566 0.9872
4.9594 1.5573 1.0026
4.9865 1.7648 1.0197
5.0147 1.9800 1.0388
4.5196 1.9748 0.9498
4.3156 2.0731 0.9215
4.2496 2.2325 0.9234
4.6752 2.6744 1.0354
4.6165 2.8654 1.0438
4.5950 3.0858 1.0626
4.6758 3.3897 1.1079
6.6323 5.1810 1.6134
6.4471 5.4197 1.6134
6.2534 5.6520 1.6134
5.9649 5.7933 1.5903
5.7581 6.0086 1.5903
5.5436 6.2166 1.5903
5.3217 6.4171 1.5903
5.0926 6.6097 1.5903
4.8567 6.7944 1.5903
4.6141 6.9707 1.5903
4.3653 7.1384 1.5903
4.1104 7.2974 1.5903
3.8498 7.4474 1.5903
3.5838 7.5882 1.5903
3.3127 7.7195 1.5903
3.0368 7.8413 1.5903
2.7565 7.9533 1.5903
0.7728 2.5182 0.4971
0.6818 2.5434 0.4965
0.5900 2.5655 0.4958
0.4975 2.5843 0.4952
0.4044 2.6000 0.4945
0.3109 2.6124 0.4940
0.2170 2.6216 0.4934
0.1229 2.6276 0.4929
0.0286 2.6303 0.4923
-0.0657 2.6298 0.4919
-0.1599 2.6260 0.4914
-0.2540 2.6190 0.4910
-0.3478 2.6087 0.4906
-0.4411 2.5952 0.4902
-0.5340 2.5785 0.4899
-0.6263 2.5586 0.4896
-0.7179 2.5355 0.4893
-0.8087 2.5092 0.4890
-3.1126 8.5910 1.6934
-3.4216 8.4818 1.6934
-3.7267 8.3612 1.6934
-4.0275 8.2296 1.6934
-4.3235 8.0869 1.6934
-4.6143 7.9334 1.6934
-4.8132 7.6323 1.6635
-5.1789 7.5947 1.6934
-5.4518 7.4100 1.6934
-5.7180 7.2152 1.6934
-5.9770 7.0107 1.6934
-6.0608 6.6136 1.6478
-6.1179 6.2134 1.6006
-6.2994 5.9552 1.5903
-6.4635 5.6860 1.5783
-6.7173 5.4952 1.5903
-6.9135 5.2538 1.5903
-7.1007 5.0052 1.5903
-7.2788 4.7498 1.5903
-7.4474 4.4879 1.5903
-7.6063 4.2199 1.5903
-7.7553 3.9461 1.5903
-7.8941 3.6670 1.5903
-8.0226 3.3828 1.5903
-8.1406 3.0940 1.5903
-8.2478 2.8010 1.5903
-8.3442 2.5042 1.5903
-8.4296 2.2040 1.5903
-8.5039 1.9008 1.5903
-8.5669 1.5951 1.5903
-8.6187 1.2872 1.5903
-8.6590 0.9777 1.5903
-8.6879 0.6668 1.5903
-8.7053 0.3552 1.5903
-8.7111 0.0432 1.5903
-8.7055 -0.2688 1.5903
-8.6884 -0.5804 1.5903
-8.6598 -0.8910 1.5903
-8.6198 -1.2002 1.5903
-8.5685 -1.5077 1.5903
-8.5059 -1.8130 1.5903
-8.4321 -2.1157 1.5903
-8.3472 -2.4153 1.5903
-8.2515 -2.7115 1.5903
-8.1449 -3.0038 1.5903
-8.0278 -3.2919 1.5903
-7.9002 -3.5753 1.5903
-7.7624 -3.8537 1.5903
-7.6353 -4.1379 1.5946
-7.4878 -4.4121 1.5969
-7.5295 -4.8082 1.6426
-7.5741 -5.2279 1.6934
-7.3764 -5.4918 1.6934
-7.1694 -5.7481 1.6934
-6.9532 -5.9965 1.6934
-6.7284 -6.2366 1.6934
-6.4951 -6.4682 1.6934
-6.2537 -6.6910 1.6934
-6.0046 -6.9047 1.6934
-5.7481 -7.1089 1.6934
-5.4846 -7.3036 1.6934
-5.2144 -7.4884 1.6934
-4.9380 -7.6631 1.6934
-4.6556 -7.8275 1.6934
-4.3678 -7.9815 1.6934
-4.0749 -8.1248 1.6934
-3.7772 -8.2573 1.6934
-3.4753 -8.3788 1.6934
-3.1695 -8.4893 1.6934
-2.8602 -8.5886 1.6934
-2.5478 -8.6766 1.6934
-2.2328 -8.7532 1.6934
-1.9156 -8.8185 1.6934
-1.5965 -8.8722 1.6934
-1.2761 -8.9144 1.6934
-0.9547 -8.9451 1.6934
-0.6327 -8.9643 1.6934
-0.3105 -8.9719 1.6934
0.0114 -8.9680 1.6934
0.3152 -8.4846 1.6048
0.6130 -8.3817 1.5901
0.9025 -8.2564 1.5731
1.2039 -8.2595 1.5824
1.5051 -8.2427 1.5901
1.7980 -8.1755 1.5901
2.0881 -8.0980 1.5901
2.3750 -8.0103 1.5901
2.6583 -7.9127 1.5901
2.9378 -7.8052 1.5901
3.2130 -7.6880 1.5901
3.4837 -7.5612 1.5901
3.7495 -7.4251 1.5901
3.8422 -6.9749 1.5235
3.9020 -6.5185 1.4547
3.9566 -6.1017 1.3935
4.0067 -5.7186 1.3390
4.0531 -5.3644 1.2903
4.0962 -5.0352 1.2465
4.1365 -4.7275 1.2071
4.1743 -4.4387 1.1717
4.2099 -4.1664 1.1397
4.2437 -3.9086 1.1107
4.2758 -3.6635 1.0846
4.3064 -3.4296 1.0610
4.3357 -3.2056 1.0397
4.3639 -2.9903 1.0205
4.3911 -2.7828 1.0033
4.4174 -2.5820 0.9878
4.4429 -2.3873 0.9741
4.4677 -2.1978 0.9619
4.4919 -2.0128 0.9512
4.5156 -1.8318 0.9419
4.5389 -1.6542 0.9340
4.5618 -1.4793 0.9273
4.5844 -1.3068 0.9219
4.6067 -1.1361 0.9177
4.6289 -0.9668 0.9147
4.6509 -0.7984 0.9128
4.7216 -0.2584 1.0256
4.7438 -0.0890 1.0289
4.7662 0.0817 1.0336
4.7887 0.2542 1.0396
4.8116 0.4290 1.0470
4.8349 0.6067 1.0559
4.8586 0.7877 1.0663
4.8828 0.9727 1.0782
4.9076 1.1622 1.0919
4.9331 1.3569 1.1073
4.9594 1.5576 1.1246
4.9866 1.7651 1.1439
5.0148 1.9804 1.1654
4.5299 1.9797 1.0680
4.3208 2.0760 1.0351
4.2547 2.2356 1.0373
4.6735 2.6739 1.1614
4.6163 2.8658 1.1713
4.5949 3.0863 1.1925
4.6759 3.3904 1.2435
5.8244 4.5507 1.5903
5.6612 4.7600 1.5903
5.4907 4.9636 1.5903
5.3129 5.1611 1.5903
5.1282 5.3524 1.5903
4.9367 5.5372 1.5903
4.7386 5.7152 1.5903
4.5342 5.8863 1.5903
4.3237 6.0501 1.5903
4.1073 6.2065 1.5903
3.8853 6.3552 1.5903
3.6581 6.4961 1.5903
3.4257 6.6289 1.5903
3.1886 6.7535 1.5903
2.9470 6.8697 1.5903
2.7012 6.9773 1.5903
0.7702 2.2231 0.4996
0.6897 2.2485 0.4990
0.6085 2.2711 0.4984
0.5265 2.2909 0.4978
0.4440 2.3078 0.4972
0.3609 2.3218 0.4967
0.2774 2.3330 0.4961
0.1935 2.3413 0.4956
0.1095 2.3466 0.4952
0.0253 2.3491 0.4947
-0.0589 2.3486 0.4943
-0.1431 2.3452 0.4939
-0.2271 2.3389 0.4935
-0.3108 2.3297 0.4931
-0.3942 2.3176 0.4928
-0.4772 2.3026 0.4925
-0.5595 2.2847 0.4922
-0.6413 2.2640 0.4920
-0.7223 2.2405 0.4917
-0.8025 2.2142 0.4915
-3.0386 7.5300 1.6934
-3.3091 7.4223 1.6934
-3.5758 7.3047 1.6934
-3.8382 7.1774 1.6934
-4.0959 7.0405 1.6934
-4.3487 6.8943 1.6934
-4.5961 6.7388 1.6934
-4.8379 6.5743 1.6934
-5.0736 6.4010 1.6934
-5.3030 6.2191 1.6934
-5.5258 6.0288 1.6934
-5.7415 5.8304 1.6934
-5.9500 5.6241 1.6934
-6.1508 5.4102 1.6934
-6.2531 5.1147 1.6691
-6.2994 4.7866 1.6339
-6.3441 4.4714 1.6022
-6.4545 4.2114 1.5903
-6.6036 3.9790 1.5903
-6.7442 3.7413 1.5903
-6.8760 3.4984 1.5903
-6.9989 3.2508 1.5903
-7.1126 2.9988 1.5903
-7.2170 2.7428 1.5903
-7.3119 2.4830 1.5903
-7.3972 2.2198 1.5903
-7.4728 1.9537 1.5903
-7.5385 1.6850 1.5903
-7.5944 1.4140 1.5903
-7.6402 1.1411 1.5903
-7.6760 0.8667 1.5903
-7.7017 0.5912 1.5903
-7.7172 0.3150 1.5903
-7.7225 0.0384 1.5903
-7.7177 -0.2382 1.5903
-7.7027 -0.5143 1.5903
-7.6776 -0.7897 1.5903
-7.6424 -1.0638 1.5903
-7.5971 -1.3365 1.5903
-7.5419 -1.6072 1.5903
-7.4768 -1.8756 1.5903
-7.4020 -2.1414 1.5903
-7.3174 -2.4041 1.5903
-7.2602 -2.6770 1.5984
-7.2941 -2.9905 1.6292
-7.3345 -3.3187 1.6646
-7.3317 -3.6393 1.6934
-7.1926 -3.8973 1.6934
-7.0442 -4.1500 1.6934
-6.8867 -4.3970 1.6934
-6.7205 -4.6379 1.6934
-6.5456 -4.8724 1.6934
-6.3625 -5.1002 1.6934
-6.1712 -5.3211 1.6934
-5.9722 -5.5347 1.6934
-5.7657 -5.7407 1.6934
-5.5520 -5.9390 1.6934
-5.3314 -6.1293 1.6934
-5.1042 -6.3112 1.6934
-4.8708 -6.4847 1.6934
-4.6313 -6.6495 1.6934
-4.3863 -6.8053 1.6934
-4.1360 -6.9521 1.6934
-3.8808 -7.0896 1.6934
-3.6209 -7.2176 1.6934
-3.3569 -7.3361 1.6934
-3.0890 -7.4449 1.6934
-2.8175 -7.5439 1.6934
-2.5430 -7.6330 1.6934
-2.2656 -7.7121 1.6934
-1.9858 -7.7811 1.6934
-1.7040 -7.8399 1.6934
-1.4205 -7.8886 1.6934
-1.1357 -7.9270 1.6934
-0.8500 -7.9552 1.6934
-0.5637 -7.9731 1.6934
-0.2772 -7.9808 1.6934
0.0092 -7.9782 1.6934
0.2770 -7.4797 1.5901
0.5445 -7.4582 1.5901
0.8109 -7.4271 1.5901
1.0758 -7.3867 1.5901
1.3388 -7.3368 1.5901
1.5997 -7.2778 1.5901
1.8581 -7.2095 1.5901
2.1138 -7.1322 1.5901
2.3663 -7.0459 1.5901
2.6154 -6.9509 1.5901
2.8607 -6.8471 1.5901
3.1021 -6.7348 1.5901
3.3392 -6.6142 1.5901
3.5717 -6.4853 1.5901
3.7993 -6.3484 1.5901
3.9564 -6.1027 1.5642
4.0066 -5.7195 1.5029
4.0530 -5.3652 1.4481
4.0961 -5.0359 1.3989
4.1364 -4.7282 1.3546
4.1742 -4.4393 1.3147
4.2099 -4.1670 1.2787
4.2436 -3.9091 1.2461
4.2757 -3.6639 1.2168
4.3064 -3.4299 1.1902
4.3357 -3.2059 1.1663
4.3639 -2.9906 1.1447
4.3911 -2.7831 1.1253
4.4174 -2.5823 1.1079
4.4429 -2.3875 1.0925
4.4677 -2.1980 1.0788
4.4919 -2.0130 1.0668
4.5156 -1.8320 1.0563
4.5389 -1.6543 1.0474
4.5618 -1.4794 1.0399
4.5843 -1.3069 1.0338
4.6067 -1.1362 1.0291
4.6289 -0.9668 1.0257
4.6509 -0.7984 1.0236
4.7216 -0.2583 1.1376
4.7438 -0.0890 1.1414
4.7662 0.0818 1.1466
4.7888 0.2543 1.1533
4.8117 0.4292 1.1615
4.8349 0.6069 1.1714
4.8586 0.7879 1.1829
4.8828 0.9729 1.1962
4.9077 1.1624 1.2114
4.9332 1.3572 1.2285
4.9595 1.5580 1.2478
4.9866 1.7655 1.2692
5.0148 1.9808 1.2932
4.5404 1.9846 1.1879
4.3261 2.0790 1.1501
4.2599 2.2388 1.1526
4.6718 2.6735 1.2885
4.6162 2.8663 1.3000
4.5949 3.0869 1.3236
4.6760 3.3911 1.3804
5.2465 4.1000 1.5903
5.0992 4.2882 1.5903
4.9452 4.4713 1.5903
4.7848 4.6490 1.5903
4.6180 4.8209 1.5903
4.4452 4.9870 1.5903
4.2665 5.1469 1.5903
4.0821 5.3006 1.5903
3.8922 5.4477 1.5903
3.6971 5.5880 1.5903
3.4970 5.7215 1.5903
3.2921 5.8478 1.5903
3.0827 5.9669 1.5903
2.8690 6.0785 1.5903
0.8373 1.9526 0.5022
0.7665 1.9806 0.5016
0.6947 2.0061 0.5011
0.6222 2.0292 0.5005
0.5489 2.0496 0.4999
0.4749 2.0675 0.4994
0.4004 2.0828 0.4989
0.3254 2.0955 0.4984
0.2501 2.1056 0.4979
0.1744 2.1131 0.4975
0.0985 2.1180 0.4970
0.0226 2.1202 0.4966
-0.0535 2.1197 0.4962
-0.1294 2.1167 0.4959
-0.2052 2.1110 0.4955
-0.2808 2.1026 0.4952
-0.3561 2.0917 0.4949
-0.4309 2.0781 0.4946
-0.5052 2.0619 0.4944
-0.5790 2.0432 0.4941
-0.6521 2.0218 0.4939
-0.7244 1.9980 0.4938
-0.7959 1.9717 0.4936
-2.9730 6.6665 1.6934
-3.2123 6.5604 1.6934
-3.4476 6.4456 1.6934
-3.6788 6.3222 1.6934
-3.9055 6.1904 1.6934
-4.1274 6.0504 1.6934
-4.3442 5.9023 1.6934
-4.5555 5.7464 1.6934
-4.7612 5.5827 1.6934
-4.9608 5.4116 1.6934
-5.1542 5.2332 1.6934
-5.3410 5.0477 1.6934
-5.5210 4.8555 1.6934
-5.6939 4.6568 1.6934
-5.8595 4.4518 1.6934
-6.0176 4.2407 1.6934
-6.1679 4.0240 1.6934
-6.3102 3.8018 1.6934
-6.4443 3.5745 1.6934
-6.4896 3.3015 1.6727
-6.5271 3.0314 1.6528
-6.5636 2.7671 1.6356
-6.5992 2.5078 1.6207
-6.6337 2.2525 1.6080
-6.6681 2.0009 1.5978
-6.7047 1.7528 1.5903
-6.7636 1.5117 1.5903
-6.8137 1.2686 1.5903
-6.8548 1.0238 1.5903
-6.8869 0.7777 1.5903
-6.9100 0.5305 1.5903
-6.9239 0.2827 1.5903
-6.9288 0.0346 1.5903
-6.9388 -0.2140 1.5936
-6.9694 -0.4651 1.6036
-6.9998 -0.7197 1.6159
-7.0303 -0.9784 1.6304
-7.0626 -1.2421 1.6475
-7.0979 -1.5122 1.6679
-7.1342 -1.7893 1.6909
-7.0733 -2.0459 1.6934
-6.9928 -2.2970 1.6934
-6.9033 -2.5449 1.6934
-6.8047 -2.7893 1.6934
-6.6973 -3.0298 1.6934
-6.5813 -3.2662 1.6934
-6.4568 -3.4980 1.6934
-6.3239 -3.7250 1.6934
-6.1830 -3.9469 1.6934
-6.0341 -4.1634 1.6934
-5.8775 -4.3742 1.6934
-5.7135 -4.5791 1.6934
-5.5422 -4.7777 1.6934
-5.3639 -4.9699 1.6934
-5.1788 -5.1553 1.6934
-4.9873 -5.3338 1.6934
-4.7895 -5.5051 1.6934
-4.5858 -5.6690 1.6934
-4.3765 -5.8253 1.6934
-4.1617 -5.9738 1.6934
-3.9419 -6.1143 1.6934
-3.7173 -6.2467 1.6934
-3.4883 -6.3708 1.6934
-3.2551 -6.4864 1.6934
-3.0181 -6.5935 1.6934
-2.7775 -6.6919 1.6934
-2.5337 -6.7815 1.6934
-2.2871 -6.8622 1.6934
-2.0379 -6.9339 1.6934
-1.7865 -6.9965 1.6934
-1.5333 -7.0501 1.6934
-1.2785 -7.0945 1.6934
-1.0224 -7.1297 1.6934
-0.7655 -7.1557 1.6934
-0.5080 -7.1724 1.6934
-0.2503 -7.1800 1.6934
0.0074 -7.1783 1.6934
0.2645 -7.1674 1.6934
