ply
format ascii 1.0
element vertex 2187
property float32 x
property float32 y
property float32 z
end_header
-18.7529 6.4031 1.0178
-27.3376 8.2477 1.4671
-18.8224 4.9467 1.0002
-27.5369 6.1861 1.4508
-27.6351 5.1705 1.4456
-27.7327 4.1614 1.4422
-22.6582 2.5696 1.1730
-19.1520 1.4758 0.9882
-19.2956 0.7894 0.9937
-19.2856 0.0939 0.9925
-30.8806 -0.9622 1.5901
-30.9891 -2.0846 1.5987
-31.0918 -3.2197 1.6091
-30.9537 -4.3370 1.6091
-30.7761 -5.4486 1.6091
-30.5592 -6.5532 1.6091
-30.3033 -7.6494 1.6091
-30.0086 -8.7357 1.6091
-29.6756 -9.8111 1.6091
18.7222 -13.0571 1.6619
19.5639 -12.6221 1.6947
20.0112 -11.9127 1.6947
20.4325 -11.1874 1.6947
20.8273 -10.4470 1.6947
21.1951 -9.6926 1.6947
21.5353 -8.9252 1.6947
21.8476 -8.1458 1.6947
22.1313 -7.3554 1.6947
22.3862 -6.5550 1.6947
22.6119 -5.7457 1.6947
21.4207 -4.6289 1.5916
21.5769 -3.8552 1.5916
21.7049 -3.0762 1.5916
21.8046 -2.2930 1.5916
21.8756 -1.5065 1.5916
13.5774 -0.4448 0.9859
8.6832 0.0284 0.6301
21.4738 0.8440 1.5594
21.2662 1.6044 1.5475
20.8232 2.3276 1.5203
10.5171 1.5608 0.7714
9.1486 1.6964 0.6751
19.5637 4.3617 1.4542
19.4810 5.0860 1.4607
19.8677 5.9589 1.5049
19.0085 6.4558 1.4565
18.6285 7.0846 1.4461
18.6109 7.8562 1.4658
18.3206 8.5234 1.4663
18.0003 9.1768 1.4663
17.6565 9.8180 1.4663
17.2897 10.4463 1.4663
16.9003 11.0607 1.4663
16.4888 11.6605 1.4663
16.0559 12.2449 1.4663
15.6020 12.8130 1.4663
15.1280 13.3642 1.4663
14.6343 13.8976 1.4663
14.1216 14.4127 1.4663
2.6017 2.8540 0.2807
13.0548 15.4001 1.4677
12.7232 16.1538 1.4952
11.8703 16.2417 1.4632
11.5421 17.0490 1.4978
10.8453 17.3330 1.4879
10.5715 18.3320 1.5404
7.9979 15.1009 1.2442
7.0583 14.5725 1.1793
7.2502 16.4538 1.3099
7.4735 18.7645 1.4719
7.3430 20.5615 1.5916
6.5958 20.8058 1.5916
5.8404 21.0229 1.5916
5.0779 21.2124 1.5916
4.3093 21.3742 1.5916
3.7595 22.8697 1.6924
2.9365 23.0137 1.6947
2.1052 23.0962 1.6947
1.2717 23.1486 1.6947
0.4371 23.1709 1.6947
-0.3974 23.1631 1.6947
-1.2307 23.1251 1.6947
-2.0619 23.0572 1.6947
-2.8897 22.9593 1.6947
-3.7132 22.8318 1.6947
-4.4042 22.0394 1.6472
-5.0172 21.1181 1.5915
-5.7722 20.9159 1.5915
-6.5192 20.6866 1.5915
-7.2571 20.4307 1.5915
-7.9851 20.1486 1.5915
-8.7986 20.0603 1.6091
-9.5117 19.7231 1.6091
-10.2120 19.3606 1.6091
-10.8985 18.9734 1.6091
-11.5705 18.5620 1.6091
-12.2271 18.1268 1.6091
-12.8674 17.6686 1.6091
-13.4906 17.1878 1.6091
-14.0960 16.6852 1.6091
-14.6828 16.1613 1.6091
-15.2502 15.6170 1.6091
-15.7976 15.0529 1.6091
-16.3243 14.4697 1.6091
-6.6839 5.5078 0.6390
-17.3130 13.2493 1.6091
-17.7737 12.6136 1.6091
-18.2113 11.9620 1.6091
-18.6252 11.2954 1.6091
-19.0150 10.6146 1.6091
-18.0976 9.2640 1.5026
-18.4151 8.6042 1.5026
-18.7087 7.9337 1.5026
-18.6071 7.1115 1.4732
-18.7529 6.4033 1.4659
-19.4431 5.8661 1.5026
-18.8221 4.9467 1.4402
-19.8078 4.4500 1.5026
-19.9520 3.7331 1.5026
-20.0705 3.0121 1.5026
-20.1632 2.2868 1.5026
-19.1520 1.4759 1.4225
-19.2956 0.7895 1.4303
-19.2856 0.0939 1.4285
-20.2743 -0.6317 1.5026
-21.6709 -1.4577 1.6091
-21.6032 -2.2371 1.6091
-21.5076 -3.0134 1.6091
-21.3845 -3.7859 1.6091
-21.2340 -4.5535 1.6091
-21.0562 -5.3151 1.6091
-20.8513 -6.0700 1.6091
-20.6197 -6.8171 1.6091
14.5569 -10.1520 1.6947
14.9163 -9.6233 1.6947
15.2563 -9.0819 1.6947
15.5765 -8.5283 1.6947
6.4974 -3.2590 0.6935
16.1560 -7.3880 1.6947
16.4145 -6.8027 1.6947
16.6516 -6.2083 1.6947
16.8670 -5.6056 1.6947
16.0227 -4.6915 1.5916
16.1835 -4.1121 1.5916
16.3232 -3.5272 1.5916
16.4417 -2.9375 1.5916
16.5386 -2.3439 1.5916
16.6140 -1.7470 1.5916
16.6677 -1.1478 1.5916
13.5764 -0.4447 1.2940
8.6828 0.0284 0.8271
16.9402 0.6659 1.6147
16.9061 1.2755 1.6147
16.8499 1.8835 1.6147
10.5170 1.5608 1.0125
9.0952 1.6865 0.8809
8.0643 1.7979 0.7868
15.7898 4.1223 1.5541
15.3084 4.5914 1.5220
15.0863 5.1237 1.5173
14.9257 5.6764 1.5208
14.6599 6.1883 1.5155
14.7227 6.8494 1.5466
14.6514 7.4694 1.5665
14.4024 8.0084 1.5698
14.0606 8.4952 1.5650
13.6551 8.9367 1.5548
13.3889 9.4682 1.5625
12.5873 9.5994 1.5085
12.2297 10.0433 1.5082
12.0364 10.6328 1.5309
11.8586 11.2615 1.5591
11.7007 11.9417 1.5941
2.6014 2.8537 0.3682
10.9473 12.9136 1.6147
10.4733 13.2971 1.6147
9.9859 13.6630 1.6147
6.8552 10.1256 1.1669
6.6937 10.6976 1.2045
6.7993 11.7904 1.2994
6.9231 13.0712 1.4124
7.0707 14.5976 1.5492
6.7181 15.2457 1.5916
6.1633 15.4740 1.5916
5.6008 15.6822 1.5916
5.0312 15.8697 1.5916
4.4554 16.0365 1.5916
3.8741 16.1824 1.5916
3.2880 16.3071 1.5916
2.8727 17.4735 1.6947
2.2410 17.5608 1.6947
1.6068 17.6253 1.6947
0.9708 17.6668 1.6947
0.3339 17.6854 1.6947
-0.3030 17.6809 1.6947
-0.9392 17.6535 1.6947
-1.5738 17.6032 1.6947
-2.2060 17.5300 1.6947
-2.8350 17.4342 1.6947
-3.4600 17.3157 1.6947
-4.0801 17.1749 1.6947
-4.6945 17.0119 1.6947
-5.0087 15.8947 1.6008
-5.5436 15.6077 1.5915
-6.1003 15.3935 1.5915
-6.6488 15.1595 1.5915
-7.1883 14.9060 1.5915
-7.7182 14.6333 1.5915
-8.2378 14.3419 1.5915
-8.7474 14.0335 1.5916
-9.3460 13.8560 1.6091
-9.8362 13.5069 1.6091
-10.3135 13.1404 1.6091
-10.7772 12.7571 1.6091
-11.2267 12.3576 1.6091
-11.6615 11.9423 1.6091
-12.0810 11.5118 1.6091
-12.4847 11.0666 1.6091
-6.6829 5.5071 0.8354
-13.2427 10.1346 1.6091
-13.5961 9.6490 1.6091
-13.9317 9.1512 1.6091
-14.2493 8.6418 1.6091
-14.5483 8.1214 1.6091
-14.8285 7.5908 1.6091
-15.0894 7.0506 1.6091
-15.3309 6.5015 1.6091
-15.5524 5.9442 1.6091
-15.7539 5.3794 1.6091
-15.9350 4.8079 1.6091
-16.0955 4.2303 1.6091
-16.2352 3.6474 1.6091
-16.3540 3.0601 1.6091
-16.4518 2.4688 1.6091
-16.5283 1.8746 1.6091
-16.5835 1.2780 1.6091
-16.6174 0.6800 1.6091
-16.6298 0.0811 1.6091
-16.6209 -0.5178 1.6091
-16.5906 -1.1160 1.6091
-16.5389 -1.7126 1.6091
-16.4660 -2.3070 1.6091
-16.3718 -2.8984 1.6091
-16.2566 -3.4861 1.6091
-16.1205 -4.0693 1.6091
-15.9636 -4.6472 1.6091
-15.7862 -5.2191 1.6091
11.7534 -8.1966 1.6947
12.0430 -7.7694 1.6947
12.3171 -7.3320 1.6947
12.5751 -6.8848 1.6947
12.8169 -6.4286 1.6947
13.0420 -5.9638 1.6947
13.2502 -5.4911 1.6947
8.2739 -3.0847 1.0432
12.7864 -4.2493 1.5916
12.9327 -3.7866 1.5916
13.0622 -3.3189 1.5916
13.1746 -2.8467 1.5916
13.2699 -2.3708 1.5916
13.3479 -1.8916 1.5916
13.4085 -1.4099 1.5916
13.4515 -0.9262 1.5916
13.4771 -0.4413 1.5916
8.6825 0.0285 1.0248
13.6708 0.5374 1.6147
13.6432 1.0294 1.6147
13.5978 1.5200 1.6147
10.5170 1.5608 1.2547
9.1434 1.6955 1.0974
8.0643 1.7979 0.9750
13.0596 3.4095 1.5928
12.8849 3.8645 1.5874
12.7187 4.3196 1.5851
12.5219 4.7621 1.5810
12.3390 5.2085 1.5806
12.1343 5.6452 1.5795
11.9191 6.0764 1.5791
11.6903 6.5003 1.5788
11.4509 6.9183 1.5793
5.2725 3.4506 0.7439
11.0993 7.8489 1.6050
10.8742 8.2928 1.6147
10.5652 8.6763 1.6144
10.2471 9.0520 1.6147
9.9134 9.4140 1.6147
6.9230 7.0655 1.1685
2.6012 2.8533 0.4561
6.3864 7.5334 1.1669
6.4513 8.1905 1.2321
6.5222 8.9236 1.3064
6.6022 9.7518 1.3921
6.6937 10.6973 1.4919
6.7243 11.6599 1.5916
6.2990 11.8924 1.5916
5.8656 12.1093 1.5916
5.4248 12.3103 1.5916
4.9771 12.4953 1.5916
4.5230 12.6639 1.5916
4.0633 12.8160 1.5916
3.5984 12.9514 1.5916
3.1291 13.0698 1.5916
2.8279 14.0243 1.6947
2.3206 14.1140 1.6947
1.8105 14.1853 1.6947
1.2982 14.2381 1.6947
0.7845 14.2724 1.6947
0.2700 14.2881 1.6947
-0.2446 14.2853 1.6947
-0.7586 14.2639 1.6947
-1.2715 14.2240 1.6947
-1.7824 14.1657 1.6947
-2.2908 14.0890 1.6947
-2.7960 13.9941 1.6947
-3.2973 13.8810 1.6947
-3.7941 13.7501 1.6947
-4.2858 13.6013 1.6947
-4.7717 13.4350 1.6947
-5.2306 13.1995 1.6881
-5.3754 12.2568 1.5916
-5.8119 12.0525 1.5916
-6.2407 11.8326 1.5916
-6.6613 11.5976 1.5916
-7.0730 11.3476 1.5916
-7.4754 11.0831 1.5916
-7.8679 10.8044 1.5916
-8.2501 10.5118 1.5916
-8.6214 10.2057 1.5916
-8.9815 9.8865 1.5916
-9.3298 9.5547 1.5916
-9.7719 9.3118 1.6091
-10.0989 8.9521 1.6091
-6.5889 5.4298 1.0182
-10.7131 8.1989 1.6091
-10.9994 7.8064 1.6091
-11.2714 7.4039 1.6091
-11.5288 6.9921 1.6091
-11.7712 6.5713 1.6091
-11.9983 6.1422 1.6091
-12.2099 5.7053 1.6091
-12.4056 5.2611 1.6091
-12.5853 4.8103 1.6091
-12.7487 4.3534 1.6091
-12.8957 3.8910 1.6091
-13.0259 3.4237 1.6091
-13.1393 2.9520 1.6091
-13.2358 2.4767 1.6091
-7.1771 1.0771 0.8673
-13.3774 1.5173 1.6091
-13.4223 1.0345 1.6091
-13.4499 0.5504 1.6091
-13.4602 0.0657 1.6091
-13.4531 -0.4191 1.6091
-13.4287 -0.9032 1.6091
-13.3870 -1.3862 1.6091
-7.1757 -1.0054 0.8663
-13.2519 -2.3461 1.6091
-13.1587 -2.8218 1.6091
-13.0485 -3.2938 1.6091
-6.9319 -2.0179 0.8632
-12.7779 -4.2246 1.6091
9.8469 -6.8668 1.6947
10.0892 -6.5087 1.6947
10.3185 -6.1421 1.6947
10.5344 -5.7674 1.6947
10.7367 -5.3851 1.6947
10.9250 -4.9956 1.6947
11.0991 -4.5996 1.6947
8.2656 -3.0815 1.2442
10.7102 -3.5592 1.5916
10.8325 -3.1716 1.5916
10.9408 -2.7798 1.5916
11.0347 -2.3843 1.5916
11.1144 -1.9856 1.5916
11.1795 -1.5842 1.5916
11.2301 -1.1808 1.5916
11.2661 -0.7757 1.5916
11.2873 -0.3696 1.5916
8.6822 0.0285 1.2236
11.4494 0.4501 1.6147
11.4262 0.8621 1.6147
11.3881 1.2730 1.6147
10.5169 1.5608 1.4982
9.1434 1.6955 1.3103
8.0643 1.7979 1.1642
11.0550 2.8862 1.6099
10.9580 3.2866 1.6120
10.8406 3.6817 1.6132
10.6657 4.0562 1.6079
5.1435 2.1712 0.7867
4.9890 2.3210 0.7754
5.0041 2.5510 0.7916
6.8342 3.8001 1.1021
6.6926 4.0435 1.1021
4.9909 3.2663 0.8407
4.8989 3.4642 0.8458
6.5352 4.9838 1.1586
6.3966 5.2529 1.1669
6.2028 5.4793 1.1669
6.2316 5.9176 1.2118
6.2790 6.4081 1.2652
2.6009 2.8530 0.5445
6.3879 7.5350 1.3934
6.4513 8.1903 1.4708
6.5222 8.9234 1.5595
6.3236 9.3400 1.5916
5.9824 9.5603 1.5916
5.6335 9.7681 1.5916
5.2773 9.9632 1.5916
4.9144 10.1452 1.5916
4.5452 10.3139 1.5916
4.1702 10.4692 1.5916
3.7899 10.6108 1.5916
3.4048 10.7386 1.5916
3.0154 10.8524 1.5916
0.8033 3.3552 0.4876
0.6818 3.3807 0.4875
0.5594 3.4019 0.4874
0.4364 3.4190 0.4874
0.3130 3.4318 0.4874
0.1892 3.4404 0.4874
0.0652 3.4448 0.4875
-0.0589 3.4449 0.4876
-0.1829 3.4408 0.4877
-0.3068 3.4324 0.4879
-0.4303 3.4199 0.4881
-0.5533 3.4031 0.4883
-0.6757 3.3821 0.4886
-0.7973 3.3569 0.4889
-3.1807 11.5279 1.6947
-3.5931 11.4036 1.6947
-4.0006 11.2646 1.6947
-4.4027 11.1110 1.6947
-4.7991 10.9431 1.6947
-5.1890 10.7611 1.6947
-5.4949 10.4189 1.6712
-5.5919 9.7361 1.5933
-5.9314 9.5165 1.5916
-6.2691 9.2950 1.5916
-6.5985 9.0616 1.5916
-6.9193 8.8165 1.5916
-7.2310 8.5600 1.5916
-7.5333 8.2926 1.5916
-7.8257 8.0146 1.5916
-8.1078 7.7263 1.5916
-8.3794 7.4281 1.5916
-6.5774 5.4205 1.2116
-8.8895 6.8035 1.5916
-9.1273 6.4780 1.5916
-9.3533 6.1442 1.5916
-9.5672 5.8025 1.5916
-9.7686 5.4535 1.5916
-9.9573 5.0975 1.5916
-10.2443 4.7870 1.6091
-10.4088 4.4144 1.6091
-10.5598 4.0362 1.6091
-6.8338 2.3337 1.0280
-6.8468 2.0659 1.0182
-6.8606 1.8033 1.0100
-6.8747 1.5446 1.0033
-6.8883 1.2890 0.9980
-6.8994 1.0355 0.9936
-6.9106 0.7839 0.9906
-6.9170 0.5331 0.9881
-6.9196 0.2832 0.9865
-6.9205 0.0338 0.9858
-6.9194 -0.2155 0.9862
-6.9171 -0.4652 0.9876
-6.9103 -0.7155 0.9897
-6.8965 -0.9662 0.9921
-6.8805 -1.2181 0.9955
-6.8551 -1.4700 0.9989
-6.8214 -1.7219 1.0024
-6.7777 -1.9731 1.0057
-6.7313 -2.2255 1.0101
8.4650 -5.9030 1.6947
8.6732 -5.5951 1.6947
8.8701 -5.2798 1.6947
9.0556 -4.9576 1.6947
4.0557 -2.0341 0.7447
3.7210 -1.7014 0.6715
8.9601 -3.7130 1.5916
8.2573 -3.0783 1.4460
9.2059 -3.0592 1.5916
9.3109 -2.7260 1.5916
9.4038 -2.3892 1.5916
9.4845 -2.0492 1.5916
9.5528 -1.7065 1.5916
9.6087 -1.3616 1.5916
9.6521 -1.0148 1.5916
9.6829 -0.6666 1.5916
9.7011 -0.3176 1.5916
8.6818 0.0285 1.4236
9.8402 0.3869 1.6147
9.8202 0.7410 1.6147
9.7874 1.0941 1.6147
9.7419 1.4458 1.6147
9.1434 1.6955 1.5246
8.0643 1.7979 1.3546
9.5294 2.4879 1.6147
9.4336 2.8294 1.6147
9.3254 3.1671 1.6147
9.2052 3.5008 1.6147
5.0844 2.1462 0.9049
4.9035 2.2812 0.8867
4.9268 2.5116 0.9068
6.2195 3.4583 1.1669
6.0907 3.6797 1.1669
5.0120 3.2800 0.9823
4.9245 3.4823 0.9892
6.1099 4.6594 1.2603
6.1475 5.0483 1.3048
6.1879 5.4661 1.3544
6.2316 5.9175 1.4098
6.2790 6.4080 1.4720
2.6007 2.8527 0.6334
6.2720 7.3981 1.5916
6.0009 7.6184 1.5916
5.7221 7.8286 1.5916
5.4359 8.0287 1.5916
5.1427 8.2182 1.5916
4.8429 8.3970 1.5916
4.5368 8.5648 1.5916
4.2249 8.7215 1.5916
3.9076 8.8668 1.5916
3.5853 9.0005 1.5916
3.2585 9.1224 1.5916
2.9274 9.2325 1.5916
0.8003 2.8802 0.4913
0.6958 2.9060 0.4912
0.5905 2.9281 0.4911
0.4846 2.9467 0.4910
0.3781 2.9615 0.4910
0.2712 2.9727 0.4910
0.1639 2.9802 0.4910
0.0565 2.9841 0.4911
-0.0510 2.9842 0.4912
-0.1584 2.9806 0.4913
-0.2657 2.9733 0.4914
-0.3726 2.9623 0.4916
-0.4792 2.9476 0.4918
-0.5852 2.9293 0.4920
-0.6905 2.9073 0.4923
-0.7951 2.8817 0.4925
-3.0903 9.8086 1.6947
-3.4409 9.6893 1.6947
-3.7869 9.5575 1.6947
-4.1280 9.4133 1.6947
-4.4635 9.2570 1.6947
-4.7931 9.0887 1.6947
-5.1165 8.9087 1.6947
-5.4331 8.7173 1.6947
-5.6865 8.4315 1.6782
-5.7598 7.9101 1.6149
-5.9529 7.5853 1.5916
-6.2212 7.3649 1.5916
-6.4814 7.1350 1.5916
-6.7331 6.8959 1.5916
-6.9761 6.6480 1.5916
-7.2099 6.3915 1.5916
-6.5658 5.4110 1.4057
-7.6492 5.8544 1.5916
-7.8540 5.5744 1.5916
-8.0486 5.2873 1.5916
-8.2328 4.9934 1.5916
-8.4063 4.6931 1.5916
-8.5689 4.3868 1.5916
-8.7203 4.0749 1.5916
-8.8605 3.7579 1.5916
-8.9892 3.4360 1.5916
-6.8217 2.3296 1.1923
-6.8276 2.0602 1.1797
-6.8403 1.7980 1.1701
-6.8576 1.5408 1.1629
-6.8739 1.2863 1.1571
-6.8871 1.0336 1.1524
-6.8998 0.7827 1.1491
-6.9073 0.5324 1.1465
-6.9108 0.2829 1.1447
-6.9120 0.0338 1.1440
-6.9107 -0.2152 1.1444
-6.9077 -0.4646 1.1459
-6.8998 -0.7144 1.1482
-6.8850 -0.9646 1.1508
-6.8673 -1.2158 1.1544
-6.8404 -1.4668 1.1580
-6.8051 -1.7178 1.1618
-6.7599 -1.9679 1.1654
-6.7115 -2.2189 1.1701
7.4166 -5.1717 1.6947
7.5988 -4.9018 1.6947
7.7712 -4.6256 1.6947
7.9336 -4.3432 1.6947
6.4900 -3.2549 1.3603
7.7267 -3.5330 1.5916
7.8496 -3.2528 1.5916
7.9623 -2.9683 1.5916
8.0647 -2.6799 1.5916
8.1566 -2.3880 1.5916
8.2379 -2.0929 1.5916
8.3085 -1.7951 1.5916
8.3683 -1.4949 1.5916
8.4172 -1.1927 1.5916
8.4551 -0.8889 1.5916
8.4821 -0.5839 1.5916
8.4980 -0.2782 1.5916
8.5028 0.0280 1.5916
8.6198 0.3390 1.6147
8.6022 0.6491 1.6147
8.5735 0.9584 1.6147
8.5335 1.2665 1.6147
8.4825 1.5730 1.6147
8.0479 1.7943 1.5433
8.3474 2.1793 1.6147
8.2635 2.4784 1.6147
5.9425 2.0182 1.1746
5.8652 2.2305 1.1745
5.0918 2.1493 1.0345
4.9104 2.2844 1.0137
4.9340 2.5153 1.0367
5.9810 3.3256 1.2810
6.0105 3.6313 1.3146
5.0186 3.2843 1.1229
4.9325 3.4879 1.1310
6.1099 4.6593 1.4387
6.1475 5.0482 1.4895
6.1879 5.4660 1.5461
6.1631 5.8523 1.5916
5.9479 6.0699 1.5916
2.6004 2.8523 0.7229
2.3280 2.7459 0.6743
2.3666 3.0044 0.7165
5.0131 6.8585 1.5916
4.7624 7.0338 1.5916
4.5056 7.2000 1.5916
4.2430 7.3567 1.5916
3.9749 7.5039 1.5916
3.7017 7.6412 1.5916
3.4238 7.7686 1.5916
3.1415 7.8859 1.5916
2.8551 7.9929 1.5916
0.7964 2.5117 0.4942
0.7052 2.5377 0.4940
0.6132 2.5606 0.4939
0.5204 2.5802 0.4939
0.4271 2.5966 0.4938
0.3332 2.6098 0.4938
0.2390 2.6197 0.4938
0.1445 2.6263 0.4938
0.0498 2.6297 0.4938
-0.0449 2.6298 0.4939
-0.1396 2.6266 0.4940
-0.2341 2.6202 0.4941
-0.3283 2.6104 0.4943
-0.4222 2.5974 0.4945
-0.5156 2.5812 0.4947
-0.6084 2.5617 0.4949
-0.7005 2.5391 0.4951
-0.7918 2.5132 0.4954
-3.0158 8.4928 1.6947
-3.3192 8.3774 1.6947
-3.6182 8.2512 1.6947
-3.9124 8.1143 1.6947
-4.2014 7.9670 1.6947
-4.4849 7.8094 1.6947
-4.7625 7.6417 1.6947
-5.0339 7.4642 1.6947
-5.2987 7.2770 1.6947
-5.5565 7.0805 1.6947
-5.8071 6.8749 1.6947
-5.8849 6.4785 1.6484
-5.9414 6.0852 1.6020
-6.1160 5.8285 1.5916
-6.3211 5.6038 1.5916
-6.5180 5.3718 1.5916
-6.7064 5.1330 1.5916
-6.8861 4.8876 1.5916
-7.0569 4.6359 1.5916
-7.2185 4.3783 1.5916
-7.3707 4.1151 1.5916
-7.5133 3.8466 1.5916
-7.6463 3.5731 1.5916
-7.7692 3.2951 1.5916
-7.8822 3.0130 1.5916
-7.9849 2.7269 1.5916
-7.9890 2.4107 1.5742
-8.0710 2.1215 1.5744
-8.1416 1.8294 1.5744
-8.2913 1.5517 1.5916
-7.0632 1.0601 1.3477
-8.3806 0.9507 1.5916
-8.4089 0.6482 1.5916
-8.4265 0.3450 1.5916
-8.4331 0.0413 1.5916
-8.4288 -0.2625 1.5916
-8.4136 -0.5658 1.5916
-8.3876 -0.8685 1.5916
-7.0618 -0.9894 1.3460
-8.3031 -1.4699 1.5916
-8.2447 -1.7680 1.5916
-8.1757 -2.0638 1.5916
-6.9319 -2.0180 1.3627
-8.0060 -2.6470 1.5916
6.5941 -4.5981 1.6950
6.7557 -4.3578 1.6949
6.9085 -4.1119 1.6948
6.6234 -3.6258 1.5916
6.4901 -3.2549 1.5303
6.8683 -3.1404 1.5916
6.9775 -2.8913 1.5916
7.0777 -2.6384 1.5916
3.1148 -1.0350 0.6916
7.2502 -2.1225 1.5916
7.3224 -1.8603 1.5916
7.3851 -1.5955 1.5916
7.4382 -1.3287 1.5916
7.4816 -1.0601 1.5916
7.5153 -0.7900 1.5916
7.5392 -0.5190 1.5916
7.5533 -0.2472 1.5916
7.5575 0.0249 1.5916
7.6615 0.3013 1.6147
7.6459 0.5770 1.6147
7.6203 0.8519 1.6147
7.5848 1.1257 1.6147
7.5394 1.3981 1.6147
7.4842 1.6686 1.6147
7.4193 1.9370 1.6147
7.3447 2.2028 1.6147
5.9425 2.0182 1.3216
5.8755 2.2344 1.3237
5.0992 2.1524 1.1656
4.9175 2.2877 1.1422
4.9412 2.5189 1.1680
5.9810 3.3255 1.4413
6.0105 3.6313 1.4790
5.0253 3.2887 1.2650
4.9406 3.4936 1.2745
6.0083 4.5818 1.5916
5.8391 4.7948 1.5916
5.6623 5.0016 1.5916
5.4782 5.2019 1.5916
2.2835 2.3304 0.6874
2.6001 2.8520 0.8132
4.8843 5.7610 1.5916
4.6733 5.9326 1.5916
4.4563 6.0965 1.5916
4.2335 6.2524 1.5916
4.0053 6.4002 1.5916
3.7719 6.5396 1.5916
3.5336 6.6705 1.5916
3.2908 6.7927 1.5916
3.0438 6.9061 1.5916
2.7928 7.0104 1.5916
0.7918 2.2165 0.4965
0.7112 2.2426 0.4963
0.6297 2.2660 0.4962
0.5476 2.2865 0.4961
0.4648 2.3041 0.4960
0.3814 2.3188 0.4960
0.2976 2.3306 0.4960
0.2135 2.3395 0.4960
0.1291 2.3455 0.4960
0.0445 2.3485 0.4960
-0.0401 2.3486 0.4961
-0.1246 2.3457 0.4962
-0.2090 2.3399 0.4963
-0.2932 2.3312 0.4964
-0.3770 2.3195 0.4966
-0.4604 2.3050 0.4968
-0.5432 2.2875 0.4970
-0.6254 2.2672 0.4972
-0.7069 2.2440 0.4974
-0.7876 2.2180 0.4977
-2.9515 7.4497 1.6947
-3.2174 7.3376 1.6947
-3.4791 7.2161 1.6947
-3.7362 7.0852 1.6947
-3.9884 6.9451 1.6947
-4.2354 6.7961 1.6947
-4.4768 6.6383 1.6947
-4.7123 6.4719 1.6947
-4.9417 6.2973 1.6947
-5.1646 6.1145 1.6947
-5.3808 5.9238 1.6947
-5.5900 5.7255 1.6947
-5.7919 5.5198 1.6947
-5.9863 5.3071 1.6947
-6.0324 4.9718 1.6562
-6.0798 4.6536 1.6223
-6.1267 4.3487 1.5921
-6.2768 4.1236 1.5916
-6.4380 3.9050 1.5959
-6.5561 3.6604 1.5916
-6.6831 3.4216 1.5916
-6.8014 3.1784 1.5916
-6.9109 2.9312 1.5916
-7.0114 2.6802 1.5916
-7.1028 2.4257 1.5916
-7.1851 2.1682 1.5916
-7.2580 1.9079 1.5916
-7.3216 1.6452 1.5916
-7.3756 1.3804 1.5916
-7.0632 1.0602 1.5151
-7.4551 0.8458 1.5916
-7.4804 0.5767 1.5916
-7.4960 0.3069 1.5916
-7.5019 0.0367 1.5916
-7.4981 -0.2335 1.5916
-7.4847 -0.5033 1.5916
-7.4616 -0.7726 1.5916
-7.0618 -0.9894 1.5130
-7.3864 -1.3076 1.5916
-7.3345 -1.5728 1.5916
-7.2730 -1.8359 1.5916
-6.9319 -2.0180 1.5319
-7.1221 -2.3547 1.5916
5.9291 -4.1342 1.6949
6.0743 -3.9182 1.6948
6.2117 -3.6971 1.6947
5.9556 -3.2602 1.5916
6.0696 -3.0439 1.5916
6.1757 -2.8236 1.5916
6.2738 -2.5996 1.5916
6.3638 -2.3722 1.5916
3.0910 -1.0271 0.7633
6.5189 -1.9084 1.5916
6.5838 -1.6725 1.5916
2.8876 -0.6238 0.6922
2.8252 -0.5046 0.6724
6.7268 -0.9531 1.5916
6.7570 -0.7103 1.5916
6.7785 -0.4666 1.5916
6.7911 -0.2222 1.5916
6.7950 0.0224 1.5916
6.7899 0.2671 1.5916
6.8743 0.5188 1.6147
6.8513 0.7660 1.6147
6.8194 1.0121 1.6147
6.7786 1.2570 1.6147
6.7290 1.5002 1.6147
6.6706 1.7415 1.6147
6.6036 1.9806 1.6147
5.9426 2.0182 1.4699
5.8755 2.2344 1.4723
5.1068 2.1556 1.2983
4.9247 2.2910 1.2722
4.9486 2.5227 1.3011
5.9385 3.3019 1.5916
5.8156 3.5134 1.5916
5.0321 3.2931 1.4088
4.9488 3.4993 1.4199
5.4022 4.1195 1.5916
2.2395 1.8390 0.6789
5.0912 4.4970 1.5916
4.9257 4.6771 1.5916
2.7291 2.7850 0.9137
2.5999 2.8516 0.9044
2.5213 2.9737 0.9137
4.2021 5.3343 1.5916
4.0070 5.4817 1.5916
3.8067 5.6220 1.5916
3.6015 5.7549 1.5916
3.3917 5.8803 1.5916
3.1775 5.9981 1.5916
2.9592 6.1080 1.5916
2.7371 6.2100 1.5916
0.7864 1.9739 0.4984
0.7145 2.0001 0.4982
0.6418 2.0238 0.4981
0.5683 2.0449 0.4980
0.4942 2.0635 0.4979
0.4195 2.0794 0.4978
0.3443 2.0928 0.4978
0.2686 2.1035 0.4978
0.1927 2.1115 0.4978
0.1165 2.1169 0.4978
0.0402 2.1196 0.4978
-0.0361 2.1197 0.4979
-0.1124 2.1171 0.4980
-0.1886 2.1119 0.4981
-0.2645 2.1040 0.4982
-0.3402 2.0934 0.4983
-0.4154 2.0802 0.4985
-0.4902 2.0644 0.4987
-0.5644 2.0460 0.4989
-0.6379 2.0250 0.4991
-0.7106 2.0014 0.4993
-0.7826 1.9753 0.4996
-2.8938 6.5999 1.6947
-3.1292 6.4906 1.6947
-3.3605 6.3730 1.6947
-3.5874 6.2471 1.6947
-3.8096 6.1131 1.6947
-4.0268 5.9713 1.6947
-4.2387 5.8217 1.6947
-4.4451 5.6646 1.6947
-4.6457 5.5003 1.6947
-4.8402 5.3288 1.6947
-5.0285 5.1505 1.6947
-5.2102 4.9655 1.6947
-5.3850 4.7742 1.6947
-5.5529 4.5767 1.6947
-5.7136 4.3734 1.6947
-5.8668 4.1644 1.6947
-6.0124 3.9500 1.6947
-6.1502 3.7306 1.6947
-6.1917 3.4571 1.6709
-6.2211 3.1852 1.6469
-6.2520 2.9218 1.6263
-6.2808 2.6640 1.6079
-6.3079 2.4113 1.5916
-6.3901 2.1824 1.5916
-6.4642 1.9507 1.5916
-6.5298 1.7166 1.5916
-6.6261 1.4890 1.6011
-6.6432 1.2433 1.5934
-6.6758 1.0021 1.5916
-6.7073 0.7610 1.5916
-6.7301 0.5189 1.5916
-6.7441 0.2762 1.5916
-6.7495 0.0331 1.5916
-6.7461 -0.2100 1.5916
-6.7340 -0.4528 1.5916
-6.7132 -0.6951 1.5916
-6.6837 -0.9364 1.5916
-6.6456 -1.1765 1.5916
-6.5989 -1.4151 1.5916
-6.5436 -1.6518 1.5916
-6.5002 -1.8923 1.5966
-6.4608 -2.1361 1.6048
5.3811 -3.7520 1.6949
5.5126 -3.5557 1.6948
5.2944 -3.1511 1.5916
5.4048 -2.9586 1.5916
4.1293 -2.0708 1.1932
5.6046 -2.5624 1.5916
5.6936 -2.3591 1.5916
5.7752 -2.1527 1.5916
5.8493 -1.9435 1.5916
5.9158 -1.7318 1.5916
5.9747 -1.5178 1.5916
6.0258 -1.3017 1.5916
6.0690 -1.0840 1.5916
6.1044 -0.8648 1.5916
6.1318 -0.6445 1.5916
2.6414 -0.1818 0.6834
2.5964 -0.0849 0.6706
6.1662 0.0204 1.5916
6.1616 0.2424 1.5916
6.1490 0.4640 1.5916
6.1284 0.6851 1.5916
6.0998 0.9053 1.5916
6.0633 1.1244 1.5916
6.1063 1.3614 1.6147
6.0533 1.5804 1.6147
5.9924 1.7973 1.6147
5.8391 1.9830 1.5916
5.7639 2.1919 1.5916
5.1144 2.1588 1.4329
4.9319 2.2943 1.4040
4.9561 2.5264 1.4359
5.3890 2.9963 1.5916
2.2206 1.3415 0.6697
2.1990 1.4390 0.6784
4.9571 3.5052 1.5673
4.9024 3.7383 1.5916
4.7644 3.9122 1.5916
4.6202 4.0810 1.5916
4.4700 4.2444 1.5916
2.7082 2.7636 0.9992
2.5359 2.7814 0.9720
2.5162 2.9677 1.0048
3.8135 4.8409 1.5916
3.6365 4.9747 1.5916
3.4547 5.1020 1.5916
3.2686 5.2227 1.5916
3.0781 5.3365 1.5916
2.8838 5.4434 1.5916
2.6857 5.5433 1.5916
0.7803 1.7703 0.5000
0.7158 1.7966 0.4998
0.6504 1.8205 0.4997
0.5842 1.8421 0.4995
0.5174 1.8614 0.4995
0.4499 1.8784 0.4994
0.3819 1.8929 0.4993
0.3134 1.9051 0.4993
0.2446 1.9148 0.4993
0.1755 1.9222 0.4992
0.1061 1.9271 0.4993
0.0367 1.9296 0.4993
-0.0328 1.9297 0.4994
-0.1023 1.9273 0.4994
-0.1717 1.9225 0.4995
-0.2408 1.9153 0.4996
-0.3096 1.9057 0.4998
-0.3781 1.8936 0.4999
-0.4462 1.8792 0.5001
-0.5137 1.8624 0.5003
-0.5806 1.8432 0.5005
-0.6468 1.8217 0.5007
-0.7122 1.7979 0.5009
-0.7768 1.7717 0.5012
-2.8405 5.8921 1.6947
-3.0505 5.7853 1.6947
-3.2565 5.6711 1.6947
-3.4582 5.5495 1.6947
-3.6554 5.4208 1.6947
-3.8479 5.2851 1.6947
-4.0353 5.1426 1.6947
-4.2174 4.9934 1.6947
-4.3941 4.8378 1.6947
-4.5650 4.6759 1.6947
-4.7300 4.5081 1.6947
-4.8888 4.3344 1.6947
-5.0412 4.1551 1.6947
-5.1871 3.9705 1.6947
-5.3263 3.7808 1.6947
-5.4586 3.5862 1.6947
-5.5839 3.3872 1.6948
-5.7021 3.1838 1.6948
-5.8125 2.9760 1.6948
-5.9154 2.7645 1.6948
-6.0106 2.5495 1.6947
-6.0980 2.3312 1.6947
-6.1775 2.1099 1.6947
-6.2492 1.8859 1.6947
-6.3127 1.6595 1.6947
-6.3435 1.4255 1.6882
-6.3537 1.1892 1.6785
-6.3637 0.9553 1.6710
-6.3752 0.7233 1.6662
-6.3865 0.4924 1.6635
-6.3970 0.2620 1.6627
-6.4067 0.0314 1.6639
-6.4155 -0.1997 1.6670
-6.3940 -0.4300 1.6644
-6.3615 -0.6586 1.6611
-6.3283 -0.8866 1.6597
-6.2944 -1.1143 1.6603
-6.2596 -1.3423 1.6628
-6.2240 -1.5711 1.6673
-6.1878 -1.8014 1.6739
-6.1533 -2.0344 1.6833
4.9206 -3.4308 1.6949
5.0409 -3.2514 1.6947
4.8415 -2.8814 1.5916
4.9425 -2.7054 1.5916
4.0739 -2.0429 1.2873
5.1250 -2.3431 1.5916
5.2064 -2.1572 1.5916
5.2810 -1.9685 1.5916
5.3488 -1.7772 1.5916
5.4096 -1.5835 1.5916
5.4634 -1.3878 1.5916
5.5100 -1.1903 1.5916
5.5496 -0.9912 1.5916
5.5819 -0.7908 1.5916
5.6069 -0.5893 1.5916
5.6247 -0.3871 1.5916
5.6352 -0.1844 1.5916
5.6383 0.0186 1.5916
5.6341 0.2216 1.5916
2.4643 0.1860 0.6976
5.6037 0.6265 1.5916
2.3623 0.3506 0.6741
2.3489 0.4356 0.6743
2.3358 0.5208 0.6755
2.3223 0.6063 0.6775
2.3084 0.6923 0.6803
2.2940 0.7791 0.6839
2.2813 0.8675 0.6889
2.2706 0.9584 0.6957
4.9393 2.2977 1.5377
4.9636 2.5303 1.5727
4.9277 2.7398 1.5916
4.8257 2.9154 1.5916
4.7175 3.0871 1.5916
2.1833 1.5438 0.7549
4.4828 3.4183 1.5916
4.3566 3.5773 1.5916
4.2248 3.7316 1.5916
4.0875 3.8811 1.5916
2.7047 2.7600 1.0913
2.5328 2.7779 1.0616
2.5117 2.9624 1.0969
3.4872 4.4266 1.5916
3.3254 4.5490 1.5916
3.1592 4.6655 1.5916
2.9890 4.7758 1.5916
2.8149 4.8800 1.5916
0.8309 1.5684 0.5015
0.7736 1.5966 0.5013
0.7153 1.6228 0.5012
0.6562 1.6469 0.5010
0.5963 1.6689 0.5009
0.5356 1.6887 0.5008
0.4743 1.7065 0.5007
0.4125 1.7220 0.5006
0.3501 1.7354 0.5006
0.2874 1.7466 0.5005
0.2243 1.7556 0.5005
0.1609 1.7623 0.5005
0.0973 1.7669 0.5005
0.0337 1.7692 0.5006
-0.0301 1.7692 0.5006
-0.0938 1.7670 0.5007
-0.1573 1.7626 0.5008
-0.2207 1.7560 0.5009
-0.2839 1.7471 0.5010
-0.3466 1.7361 0.5011
-0.4090 1.7228 0.5013
-0.4709 1.7073 0.5014
-0.5322 1.6897 0.5016
-0.5929 1.6700 0.5018
-0.6528 1.6481 0.5020
-0.7120 1.6241 0.5023
-0.7704 1.5980 0.5025
-0.8277 1.5699 0.5028
-2.9785 5.1872 1.6947
-3.1631 5.0760 1.6947
-3.3435 4.9584 1.6947
-3.5195 4.8342 1.6947
-3.6910 4.7039 1.6947
-3.8576 4.5675 1.6947
-4.0192 4.4252 1.6947
-4.1756 4.2772 1.6947
-4.3265 4.1237 1.6947
-4.4718 3.9648 1.6947
-4.6113 3.8009 1.6947
-4.7448 3.6321 1.6947
-4.8722 3.4585 1.6947
-4.9935 3.2808 1.6948
-5.1087 3.0990 1.6951
-5.2166 2.9128 1.6950
-5.3176 2.7227 1.6950
-5.4118 2.5292 1.6950
-5.4989 2.3325 1.6949
-5.5789 2.1328 1.6949
-5.6517 1.9304 1.6949
-5.7174 1.7255 1.6949
-5.7759 1.5185 1.6950
-5.8264 1.3094 1.6950
-5.8695 1.0986 1.6950
-5.9049 0.8864 1.6950
-5.9327 0.6732 1.6949
-5.9529 0.4590 1.6949
-5.9654 0.2443 1.6949
-5.9702 0.0293 1.6949
-5.9672 -0.1857 1.6950
-5.9565 -0.4005 1.6949
-5.9381 -0.6148 1.6949
-5.9120 -0.8282 1.6949
-5.8783 -1.0406 1.6949
-5.8370 -1.2517 1.6949
-5.7881 -1.4611 1.6949
-5.7318 -1.6686 1.6950
-5.6681 -1.8740 1.6950
4.5283 -3.1572 1.6948
4.6390 -2.9921 1.6947
4.4555 -2.6516 1.5916
4.5484 -2.4896 1.5916
3.9900 -2.0008 1.3700
4.7163 -2.1562 1.5916
4.7912 -1.9851 1.5916
4.8598 -1.8114 1.5916
4.9221 -1.6354 1.5916
4.9781 -1.4572 1.5916
5.0276 -1.2771 1.5916
5.0705 -1.0953 1.5916
5.1069 -0.9121 1.5916
5.1366 -0.7276 1.5916
5.1596 -0.5423 1.5916
5.1760 -0.3562 1.5916
5.1856 -0.1696 1.5916
5.1885 0.0172 1.5916
5.1846 0.2040 1.5916
2.4421 0.1843 0.7513
2.3714 0.2651 0.7319
5.1326 0.7618 1.5916
5.1019 0.9461 1.5916
5.0645 1.1292 1.5916
5.0206 1.3107 1.5916
4.9701 1.4906 1.5916
4.9132 1.6686 1.5916
4.8499 1.8444 1.5916
4.7803 2.0177 1.5916
4.7045 2.1885 1.5916
4.6225 2.3564 1.5916
4.5346 2.5212 1.5916
4.4408 2.6827 1.5916
4.3412 2.8408 1.5916
2.1901 1.5486 0.8229
4.1252 3.1456 1.5916
4.0091 3.2919 1.5916
3.8878 3.4340 1.5916
3.7615 3.5715 1.5916
2.7012 2.7564 1.1843
2.5296 2.7744 1.1522
2.5072 2.9570 1.1898
3.2092 4.0736 1.5916
3.0602 4.1862 1.5916
2.9074 4.2934 1.5916
2.7507 4.3950 1.5916
0.8181 1.4183 0.5027
0.7662 1.4462 0.5025
0.7134 1.4723 0.5023
0.6597 1.4965 0.5022
0.6051 1.5187 0.5020
0.5499 1.5391 0.5019
0.4940 1.5574 0.5018
0.4375 1.5738 0.5018
0.3804 1.5882 0.5017
0.3230 1.6005 0.5016
0.2651 1.6109 0.5016
0.2069 1.6192 0.5016
0.1484 1.6254 0.5016
0.0898 1.6296 0.5016
0.0311 1.6317 0.5016
-0.0277 1.6318 0.5017
-0.0864 1.6297 0.5017
-0.1451 1.6257 0.5018
-0.2035 1.6195 0.5019
-0.2618 1.6114 0.5020
-0.3197 1.6011 0.5021
-0.3772 1.5889 0.5023
-0.4342 1.5746 0.5024
-0.4908 1.5583 0.5026
-0.5467 1.5400 0.5028
-0.6020 1.5198 0.5030
-0.6566 1.4976 0.5032
-0.7103 1.4736 0.5034
-0.7632 1.4476 0.5037
-0.8152 1.4198 0.5039
-2.9113 4.6723 1.6947
-3.0774 4.5640 1.6947
-3.2395 4.4498 1.6947
-3.3973 4.3299 1.6947
-3.5507 4.2043 1.6947
-3.6995 4.0734 1.6947
-3.8435 3.9372 1.6947
-3.9825 3.7959 1.6947
-4.1163 3.6497 1.6947
-4.2447 3.4988 1.6947
-4.3676 3.3434 1.6947
-4.4853 3.1840 1.6949
-4.5973 3.0206 1.6951
-4.7031 2.8530 1.6952
-4.8024 2.6816 1.6952
-4.8955 2.5067 1.6952
-4.9822 2.3285 1.6951
-5.0624 2.1474 1.6951
-5.1361 1.9636 1.6951
-5.2032 1.7772 1.6951
-5.2642 1.5888 1.6953
-5.3181 1.3982 1.6954
-5.3647 1.2056 1.6954
-5.4043 1.0116 1.6953
-5.4370 0.8162 1.6953
-5.4626 0.6199 1.6953
-5.4812 0.4227 1.6953
-5.4927 0.2250 1.6953
-5.4971 0.0270 1.6953
-5.4944 -0.1710 1.6953
-5.4846 -0.3688 1.6953
-5.4676 -0.5660 1.6953
-5.4436 -0.7626 1.6953
-5.4126 -0.9582 1.6953
-5.3745 -1.1525 1.6953
-5.3296 -1.3453 1.6953
-5.2777 -1.5364 1.6953
-5.2190 -1.7256 1.6953
4.1895 -2.9209 1.6948
4.2921 -2.7683 1.6947
4.1222 -2.4532 1.5916
4.2082 -2.3034 1.5916
3.9899 -2.0007 1.4808
4.3635 -1.9948 1.5916
4.4328 -1.8365 1.5916
3.3315 -1.2417 1.1793
4.5539 -1.5130 1.5916
4.6056 -1.3481 1.5916
4.6514 -1.1815 1.5916
4.6911 -1.0133 1.5916
4.7247 -0.8438 1.5916
4.7522 -0.6732 1.5916
4.7735 -0.5017 1.5916
4.7886 -0.3295 1.5916
4.7975 -0.1569 1.5916
4.8001 0.0159 1.5916
4.7966 0.1887 1.5916
4.7867 0.3613 1.5916
4.7707 0.5334 1.5916
4.7484 0.7048 1.5916
4.7200 0.8753 1.5916
4.6855 1.0446 1.5916
4.6448 1.2126 1.5916
4.5981 1.3791 1.5916
4.5455 1.5437 1.5916
4.4869 1.7063 1.5916
4.4225 1.8667 1.5916
4.3524 2.0247 1.5916
4.2766 2.1800 1.5916
4.1952 2.3325 1.5916
4.1084 2.4819 1.5916
4.0163 2.6282 1.5916
2.1905 1.5488 0.8896
3.8165 2.9101 1.5916
3.7091 3.0455 1.5916
3.5969 3.1770 1.5916
3.4801 3.3042 1.5916
2.6977 2.7527 1.2784
2.5264 2.7708 1.2437
2.3235 2.7403 1.1918
2.3683 3.0062 1.2696
2.8314 3.8730 1.5916
2.6899 3.9722 1.5916
0.8054 1.2868 0.5037
0.7582 1.3144 0.5035
0.7102 1.3403 0.5034
0.6612 1.3645 0.5032
0.6114 1.3870 0.5031
0.5609 1.4077 0.5029
0.5097 1.4265 0.5028
0.4579 1.4436 0.5027
0.4055 1.4588 0.5027
0.3527 1.4722 0.5026
0.2994 1.4836 0.5026
0.2457 1.4932 0.5025
0.1918 1.5009 0.5025
0.1376 1.5067 0.5025
0.0833 1.5106 0.5025
0.0288 1.5126 0.5026
-0.0257 1.5126 0.5026
-0.0801 1.5108 0.5027
-0.1345 1.5070 0.5027
-0.1887 1.5013 0.5028
-0.2426 1.4937 0.5029
-0.2963 1.4842 0.5030
-0.3496 1.4728 0.5032
-0.4025 1.4595 0.5033
-0.4549 1.4444 0.5035
-0.5067 1.4275 0.5036
-0.5579 1.4087 0.5038
-0.6085 1.3881 0.5040
-0.6583 1.3657 0.5042
-0.7073 1.3416 0.5045
-0.7555 1.3158 0.5047
-0.8027 1.2883 0.5050
-2.8477 4.2234 1.6947
-2.9977 4.1178 1.6947
-3.1437 4.0068 1.6947
-3.2857 3.8907 1.6947
-3.4234 3.7695 1.6947
-3.5567 3.6435 1.6947
-3.6853 3.5127 1.6947
-3.8091 3.3775 1.6947
-3.9281 3.2380 1.6948
-4.0423 3.0945 1.6949
-4.1513 2.9470 1.6951
-4.2549 2.7957 1.6953
-4.3527 2.6405 1.6953
-4.4446 2.4819 1.6953
-4.5307 2.3200 1.6953
-4.6110 2.1551 1.6953
-4.6853 1.9875 1.6952
-4.7535 1.8174 1.6952
-4.8161 1.6451 1.6954
-4.8725 1.4706 1.6956
-4.9225 1.2942 1.6957
-4.9656 1.1160 1.6957
-5.0023 0.9364 1.6956
-5.0326 0.7556 1.6956
-5.0563 0.5738 1.6956
-5.0736 0.3913 1.6956
-5.0842 0.2083 1.6956
-5.0883 0.0250 1.6956
-5.0858 -0.1582 1.6956
-5.0767 -0.3413 1.6956
-5.0610 -0.5240 1.6956
-5.0388 -0.7059 1.6956
-5.0101 -0.8869 1.6956
-4.9749 -1.0668 1.6956
-4.9332 -1.2453 1.6956
-4.8852 -1.4222 1.6956
-4.8309 -1.5973 1.6957
3.8940 -2.7148 1.6948
3.9892 -2.5729 1.6947
3.9862 -2.3722 1.6559
3.9112 -2.1407 1.5916
3.9860 -1.9987 1.5916
4.0556 -1.8540 1.5916
4.1199 -1.7068 1.5916
4.1789 -1.5575 1.5916
4.2325 -1.4061 1.5916
4.2805 -1.2529 1.5916
4.3230 -1.0980 1.5916
4.3599 -0.9417 1.5916
4.3912 -0.7842 1.5916
4.4167 -0.6256 1.5916
4.4365 -0.4662 1.5916
4.4505 -0.3062 1.5916
4.4588 -0.1458 1.5916
4.4612 0.0148 1.5916
4.4579 0.1754 1.5916
4.4488 0.3358 1.5916
4.4338 0.4957 1.5916
4.4132 0.6550 1.5916
4.3868 0.8135 1.5916
4.3546 0.9709 1.5916
4.3169 1.1270 1.5916
4.2735 1.2817 1.5916
4.2246 1.4347 1.5916
4.1701 1.5858 1.5916
4.1103 1.7349 1.5916
4.0451 1.8817 1.5916
3.9747 2.0261 1.5916
3.8991 2.1678 1.5916
3.8184 2.3067 1.5916
3.7328 2.4426 1.5916
2.1905 1.5488 0.9572
3.5471 2.7047 1.5916
3.4473 2.8305 1.5916
3.3431 2.9527 1.5916
3.2345 3.0710 1.5916
2.3035 2.3505 1.1745
2.5231 2.7671 1.3365
2.4981 2.9461 1.3786
2.3781 3.0185 1.3716
0.8346 1.1417 0.5048
0.7927 1.1705 0.5046
0.7497 1.1978 0.5044
0.7058 1.2235 0.5043
0.6611 1.2476 0.5041
0.6155 1.2702 0.5040
0.5692 1.2911 0.5038
0.5222 1.3104 0.5037
0.4745 1.3280 0.5036
0.4263 1.3439 0.5036
0.3776 1.3581 0.5035
0.3284 1.3705 0.5034
0.2788 1.3812 0.5034
0.2288 1.3902 0.5033
0.1786 1.3973 0.5033
0.1281 1.4028 0.5033
0.0776 1.4064 0.5033
0.0269 1.4082 0.5034
-0.0239 1.4082 0.5034
-0.0746 1.4065 0.5035
-0.1252 1.4030 0.5035
-0.1756 1.3977 0.5036
-0.2258 1.3906 0.5037
-0.2758 1.3817 0.5038
-0.3254 1.3711 0.5039
-0.3747 1.3587 0.5041
-0.4234 1.3446 0.5042
-0.4717 1.3288 0.5044
-0.5194 1.3113 0.5045
-0.5664 1.2921 0.5047
-0.6128 1.2713 0.5049
-0.6584 1.2488 0.5051
-0.7032 1.2247 0.5054
-0.7471 1.1991 0.5056
-0.7901 1.1719 0.5058
-0.8322 1.1431 0.5061
-2.9223 3.7247 1.6947
-3.0543 3.6168 1.6947
-3.1823 3.5041 1.6947
-3.3062 3.3870 1.6947
-3.4258 3.2655 1.6947
-3.5412 3.1400 1.6948
-3.6521 3.0105 1.6950
-3.7582 2.8771 1.6952
-3.8595 2.7400 1.6953
-3.9558 2.5993 1.6955
-4.0466 2.4549 1.6955
-4.1320 2.3074 1.6954
-4.2122 2.1569 1.6954
-4.2868 2.0037 1.6954
-4.3559 1.8479 1.6954
-4.4197 1.6898 1.6955
-4.4779 1.5296 1.6956
-4.5304 1.3674 1.6958
-4.5769 1.2034 1.6960
-4.6170 1.0377 1.6959
-4.6512 0.8707 1.6959
-4.6793 0.7026 1.6959
-4.7014 0.5335 1.6959
-4.7174 0.3638 1.6959
-4.7273 0.1937 1.6959
-4.7311 0.0233 1.6959
-4.7288 -0.1471 1.6959
-4.7204 -0.3173 1.6959
-4.7058 -0.4872 1.6959
-4.6851 -0.6563 1.6959
-4.6584 -0.8247 1.6959
-4.6257 -0.9919 1.6959
-4.5870 -1.1579 1.6959
-4.5423 -1.3224 1.6959
-4.4918 -1.4851 1.6959
3.6336 -2.5332 1.6949
3.7224 -2.4007 1.6948
3.8066 -2.2652 1.6947
3.6495 -1.9974 1.5916
3.7559 -1.8832 1.6073
3.7842 -1.7299 1.5916
3.8442 -1.5926 1.5916
3.8992 -1.4532 1.5916
3.1130 -1.0342 1.2546
3.0317 -0.8873 1.2081
2.9778 -0.7563 1.1750
4.0681 -0.8786 1.5916
4.0972 -0.7317 1.5916
4.1211 -0.5837 1.5916
4.1395 -0.4350 1.5916
4.1526 -0.2857 1.5916
4.1603 -0.1360 1.5916
4.1626 0.0138 1.5916
4.1595 0.1637 1.5916
4.1509 0.3133 1.5916
4.1370 0.4626 1.5916
4.1177 0.6112 1.5916
4.0931 0.7590 1.5916
4.0631 0.9059 1.5916
4.0279 1.0516 1.5916
3.9874 1.1959 1.5916
3.9417 1.3386 1.5916
3.8910 1.4796 1.5916
3.8351 1.6187 1.5916
3.7743 1.7557 1.5916
3.7086 1.8904 1.5916
3.6381 2.0227 1.5916
3.5628 2.1523 1.5916
3.4829 2.2791 1.5916
2.1906 1.5488 1.0259
3.3097 2.5236 1.5916
3.2166 2.6410 1.5916
3.1193 2.7550 1.5916
2.2661 2.1515 1.1951
2.6905 2.7453 1.4702
2.5198 2.7634 1.4304
2.4935 2.9406 1.4747
0.8180 1.0383 0.5056
0.7798 1.0666 0.5054
0.7406 1.0935 0.5053
0.7004 1.1190 0.5051
0.6595 1.1431 0.5049
0.6177 1.1657 0.5048
0.5751 1.1868 0.5047
0.5319 1.2064 0.5045
0.4879 1.2244 0.5044
0.4434 1.2409 0.5043
0.3984 1.2557 0.5043
0.3528 1.2690 0.5042
0.3069 1.2807 0.5041
0.2605 1.2907 0.5041
0.2138 1.2990 0.5041
0.1669 1.3058 0.5041
0.1198 1.3108 0.5040
0.0725 1.3142 0.5041
0.0251 1.3159 0.5041
-0.0223 1.3160 0.5041
-0.0696 1.3143 0.5042
-0.1169 1.3110 0.5042
-0.1641 1.3061 0.5043
-0.2110 1.2994 0.5044
-0.2577 1.2911 0.5045
-0.3041 1.2812 0.5046
-0.3501 1.2696 0.5047
-0.3956 1.2564 0.5049
-0.4407 1.2416 0.5050
-0.4853 1.2253 0.5052
-0.5292 1.2073 0.5054
-0.5725 1.1878 0.5056
-0.6151 1.1668 0.5057
-0.6569 1.1443 0.5060
-0.6980 1.1203 0.5062
-0.7381 1.0948 0.5064
-0.7774 1.0679 0.5066
-0.8157 1.0397 0.5069
-2.8503 3.3753 1.6947
-2.9698 3.2702 1.6947
-3.0855 3.1610 1.6948
-3.1974 3.0478 1.6949
-3.3051 2.9308 1.6950
-3.4086 2.8099 1.6952
-3.5077 2.6854 1.6954
-3.6022 2.5574 1.6955
-3.6920 2.4260 1.6956
-3.7767 2.2912 1.6956
-3.8565 2.1536 1.6955
-3.9313 2.0131 1.6955
-4.0009 1.8701 1.6955
-4.0657 1.7248 1.6956
-4.1253 1.5773 1.6957
-4.1797 1.4278 1.6959
-4.2286 1.2764 1.6960
-4.2721 1.1233 1.6962
-4.3095 0.9686 1.6962
-4.3414 0.8127 1.6962
-4.3677 0.6558 1.6961
-4.3883 0.4980 1.6961
-4.4033 0.3396 1.6961
-4.4125 0.1808 1.6961
-4.4161 0.0218 1.6961
-4.4139 -0.1373 1.6961
-4.4060 -0.2962 1.6961
-4.3925 -0.4547 1.6961
-4.3732 -0.6126 1.6961
-4.3483 -0.7697 1.6961
-4.3177 -0.9259 1.6961
-4.2816 -1.0808 1.6961
-4.2399 -1.2343 1.6961
-4.1928 -1.3863 1.6962
3.4021 -2.3717 1.6949
3.4853 -2.2477 1.6948
3.5640 -2.1208 1.6947
3.5106 -1.9213 1.6352
3.4822 -1.7460 1.5916
3.5430 -1.6195 1.5916
3.5992 -1.4910 1.5916
3.6507 -1.3605 1.5916
3.1006 -1.0300 1.3347
3.7394 -1.0944 1.5916
3.7765 -0.9591 1.5916
3.8087 -0.8226 1.5916
2.8355 -0.5063 1.1765
3.8583 -0.5465 1.5916
3.8756 -0.4072 1.5916
3.8878 -0.2674 1.5916
3.8950 -0.1273 1.5916
3.8972 0.0130 1.5916
3.8942 0.1533 1.5916
3.8863 0.2934 1.5916
3.8732 0.4331 1.5916
3.8551 0.5722 1.5916
3.8321 0.7106 1.5916
3.8040 0.8481 1.5916
3.7710 0.9845 1.5916
3.7331 1.1196 1.5916
3.6904 1.2533 1.5916
3.6428 1.3853 1.5916
3.5906 1.5155 1.5916
3.5336 1.6438 1.5916
3.4721 1.7699 1.5916
3.4061 1.8937 1.5916
3.3356 2.0150 1.5916
3.2609 2.1337 1.5916
2.1906 1.5488 1.0958
3.0987 2.3627 1.5916
2.2498 1.8472 1.1890
2.9205 2.5793 1.5916
2.8256 2.6827 1.5916
2.6868 2.7414 1.5681
2.5164 2.7597 1.5258
0.8016 0.9453 0.5064
0.7667 0.9731 0.5062
0.7309 0.9997 0.5060
0.6942 1.0250 0.5058
0.6566 1.0489 0.5057
0.6182 1.0715 0.5055
0.5790 1.0927 0.5054
0.5391 1.1125 0.5053
0.4986 1.1309 0.5052
0.4574 1.1478 0.5051
0.4157 1.1632 0.5050
0.3735 1.1772 0.5049
0.3308 1.1896 0.5048
0.2877 1.2006 0.5048
0.2442 1.2100 0.5047
0.2005 1.2178 0.5047
0.1565 1.2241 0.5047
0.1123 1.2289 0.5047
0.0680 1.2321 0.5047
0.0236 1.2337 0.5047
-0.0209 1.2337 0.5048
-0.0653 1.2322 0.5048
-0.1096 1.2291 0.5049
-0.1538 1.2244 0.5049
-0.1978 1.2182 0.5050
-0.2416 1.2104 0.5051
-0.2850 1.2011 0.5052
-0.3281 1.1902 0.5053
-0.3709 1.1779 0.5055
-0.4131 1.1640 0.5056
-0.4549 1.1486 0.5058
-0.4960 1.1317 0.5059
-0.5366 1.1134 0.5061
-0.5765 1.0937 0.5063
-0.6157 1.0726 0.5065
-0.6542 1.0500 0.5067
-0.6918 1.0262 0.5069
-0.7286 1.0010 0.5071
-0.7645 0.9745 0.5074
-0.7994 0.9467 0.5076
-0.8333 0.9177 0.5079
-2.8895 2.9603 1.6950
-2.9943 2.8544 1.6951
-3.0952 2.7447 1.6952
-3.1921 2.6315 1.6954
-3.2849 2.5149 1.6955
-3.3734 2.3950 1.6957
-3.4573 2.2718 1.6957
-3.5366 2.1457 1.6957
-3.6114 2.0168 1.6956
-3.6814 1.8853 1.6956
-3.7469 1.7514 1.6957
-3.8077 1.6154 1.6958
-3.8635 1.4773 1.6959
-3.9144 1.3372 1.6961
-3.9602 1.1954 1.6962
-4.0009 1.0520 1.6964
-4.0360 0.9072 1.6964
-4.0659 0.7612 1.6964
-4.0905 0.6142 1.6964
-4.1099 0.4665 1.6964
-4.1239 0.3181 1.6963
-4.1326 0.1694 1.6963
-4.1359 0.0204 1.6963
-4.1339 -0.1286 1.6963
-4.1265 -0.2774 1.6963
-4.1138 -0.4259 1.6963
-4.0957 -0.5737 1.6963
-4.0724 -0.7209 1.6963
-4.0438 -0.8671 1.6963
-4.0099 -1.0122 1.6964
-3.9709 -1.1560 1.6964
-3.9267 -1.2983 1.6964
3.1948 -2.2271 1.6949
3.2729 -2.1107 1.6948
3.3468 -1.9915 1.6947
3.4496 -1.8879 1.7111
3.2699 -1.6395 1.5916
3.3270 -1.5208 1.5916
3.3797 -1.4001 1.5916
3.4281 -1.2775 1.5916
3.1004 -1.0299 1.4213
3.5114 -1.0277 1.5916
3.5462 -0.9006 1.5916
3.5765 -0.7724 1.5916
3.6021 -0.6432 1.5916
3.6230 -0.5131 1.5916
2.7024 -0.2839 1.1819
3.6507 -0.2511 1.5916
3.6575 -0.1195 1.5916
3.6595 0.0122 1.5916
3.6567 0.1439 1.5916
3.6492 0.2755 1.5916
3.6370 0.4067 1.5916
3.6200 0.5373 1.5916
3.5984 0.6673 1.5916
3.5720 0.7964 1.5916
3.5410 0.9244 1.5916
3.5054 1.0513 1.5916
3.4653 1.1768 1.5916
3.4207 1.3008 1.5916
3.3716 1.4231 1.5916
3.3181 1.5435 1.5916
3.2604 1.6619 1.5916
3.1984 1.7782 1.5916
3.1322 1.8921 1.5916
3.0620 2.0036 1.5916
2.1906 1.5488 1.1669
2.9098 2.2186 1.5916
2.8279 2.3218 1.5916
2.7424 2.4220 1.5916
2.6533 2.5191 1.5916
0.8161 0.8327 0.5072
0.7852 0.8611 0.5070
0.7534 0.8885 0.5068
0.7207 0.9147 0.5067
0.6870 0.9397 0.5065
0.6525 0.9634 0.5063
0.6172 0.9860 0.5062
0.5811 1.0072 0.5060
0.5443 1.0272 0.5059
0.5068 1.0458 0.5058
0.4687 1.0631 0.5057
0.4300 1.0790 0.5056
0.3908 1.0935 0.5055
0.3511 1.1067 0.5055
0.3110 1.1184 0.5054
0.2705 1.1287 0.5053
0.2296 1.1375 0.5053
0.1885 1.1449 0.5053
0.1471 1.1509 0.5053
0.1056 1.1553 0.5053
0.0639 1.1583 0.5053
0.0222 1.1598 0.5053
-0.0196 1.1599 0.5053
-0.0613 1.1584 0.5054
-0.1030 1.1555 0.5054
-0.1446 1.1511 0.5055
-0.1859 1.1453 0.5056
-0.2271 1.1379 0.5057
-0.2679 1.1292 0.5058
-0.3085 1.1189 0.5059
-0.3486 1.1073 0.5060
-0.3883 1.0942 0.5061
-0.4276 1.0798 0.5063
-0.4663 1.0639 0.5064
-0.5044 1.0467 0.5066
-0.5419 1.0281 0.5068
-0.5788 1.0082 0.5070
-0.6149 0.9870 0.5071
-0.6503 0.9646 0.5073
-0.6848 0.9408 0.5076
-0.7185 0.9159 0.5078
-0.7513 0.8898 0.5080
-0.7832 0.8625 0.5082
-0.8141 0.8341 0.5085
-2.8123 2.6810 1.6953
-2.9071 2.5780 1.6954
-2.9981 2.4717 1.6955
-3.0853 2.3621 1.6957
-3.1684 2.2495 1.6958
-3.2471 2.1338 1.6958
-3.3216 2.0153 1.6957
-3.3918 1.8942 1.6957
-3.4578 1.7708 1.6958
-3.5194 1.6451 1.6959
-3.5765 1.5174 1.6960
-3.6289 1.3876 1.6961
-3.6767 1.2560 1.6963
-3.7197 1.1228 1.6964
-3.7579 0.9882 1.6966
-3.7910 0.8521 1.6966
-3.8190 0.7150 1.6966
-3.8422 0.5770 1.6966
-3.8603 0.4382 1.6965
-3.8735 0.2988 1.6965
-3.8817 0.1591 1.6965
-3.8848 0.0192 1.6965
-3.8829 -0.1208 1.6965
-3.8760 -0.2605 1.6965
-3.8640 -0.4000 1.6965
-3.8471 -0.5389 1.6965
-3.8252 -0.6771 1.6965
-3.7983 -0.8145 1.6965
-3.7665 -0.9508 1.6965
-3.7298 -1.0858 1.6966
-3.6884 -1.2195 1.6966
3.0079 -2.0967 1.6949
3.0814 -1.9871 1.6948
3.1510 -1.8749 1.6948
3.2165 -1.7603 1.6947
3.1880 -1.5983 1.6482
3.1322 -1.4317 1.5916
3.1819 -1.3181 1.5916
3.2274 -1.2027 1.5916
3.1004 -1.0299 1.5096
3.3058 -0.9675 1.5916
3.3386 -0.8479 1.5916
3.3671 -0.7271 1.5916
3.3912 -0.6055 1.5916
3.4109 -0.4830 1.5916
3.4262 -0.3600 1.5916
3.4370 -0.2364 1.5916
2.5872 -0.0845 1.1959
2.5484 0.0085 1.1773
3.4426 0.1355 1.5916
3.4356 0.2594 1.5916
3.4240 0.3829 1.5916
3.4081 0.5059 1.5916
3.3877 0.6282 1.5916
3.3628 0.7498 1.5916
3.3337 0.8703 1.5916
3.3002 0.9898 1.5916
3.2624 1.1079 1.5916
3.2204 1.2246 1.5916
3.1742 1.3397 1.5916
3.1239 1.4531 1.5916
3.0695 1.5646 1.5916
2.2314 1.2405 1.1795
2.2109 1.3356 1.1933
2.2071 1.4441 1.2186
2.1906 1.5488 1.2395
2.7394 2.0887 1.5916
2.6624 2.1858 1.5916
0.8241 0.7278 0.5080
0.7970 0.7567 0.5078
0.7689 0.7846 0.5076
0.7399 0.8114 0.5074
0.7099 0.8372 0.5073
0.6791 0.8619 0.5071
0.6474 0.8854 0.5069
0.6149 0.9079 0.5068
0.5816 0.9291 0.5067
0.5476 0.9492 0.5065
0.5129 0.9680 0.5064
0.4776 0.9855 0.5063
0.4417 1.0018 0.5062
0.4053 1.0169 0.5061
0.3683 1.0306 0.5060
0.3309 1.0430 0.5060
0.2931 1.0540 0.5059
0.2549 1.0637 0.5059
0.2164 1.0721 0.5058
0.1777 1.0791 0.5058
0.1387 1.0847 0.5058
0.0996 1.0889 0.5058
0.0603 1.0917 0.5058
0.0209 1.0931 0.5058
-0.0184 1.0932 0.5059
-0.0578 1.0918 0.5059
-0.0971 1.0890 0.5059
-0.1362 1.0849 0.5060
-0.1752 1.0794 0.5061
-0.2140 1.0725 0.5062
-0.2525 1.0642 0.5063
-0.2907 1.0545 0.5064
-0.3285 1.0435 0.5065
-0.3660 1.0312 0.5066
-0.4029 1.0176 0.5067
-0.4394 1.0026 0.5069
-0.4753 0.9864 0.5070
-0.5107 0.9689 0.5072
-0.5454 0.9501 0.5074
-0.5794 0.9301 0.5076
-0.6127 0.9089 0.5078
-0.6453 0.8866 0.5080
-0.6770 0.8630 0.5082
-0.7079 0.8384 0.5084
-0.7379 0.8127 0.5086
-0.7670 0.7859 0.5088
-0.7951 0.7580 0.5091
-0.8223 0.7292 0.5093
-2.8231 2.3275 1.6957
-2.9052 2.2243 1.6958
-2.9833 2.1182 1.6959
-3.0575 2.0092 1.6958
-3.1277 1.8977 1.6958
-3.1939 1.7838 1.6959
-3.2561 1.6676 1.6960
-3.3142 1.5493 1.6961
-3.3679 1.4289 1.6962
-3.4173 1.3067 1.6963
-3.4623 1.1828 1.6965
-3.5028 1.0574 1.6966
-3.5387 0.9306 1.6967
-3.5699 0.8025 1.6968
-3.5963 0.6733 1.6967
-3.6181 0.5434 1.6967
-3.6353 0.4127 1.6967
-3.6477 0.2814 1.6967
-3.6553 0.1499 1.6967
-3.6583 0.0181 1.6967
-3.6565 -0.1137 1.6967
-3.6500 -0.2453 1.6967
-3.6387 -0.3767 1.6967
-3.6228 -0.5075 1.6967
-3.6021 -0.6376 1.6967
-3.5768 -0.7670 1.6967
-3.5469 -0.8954 1.6967
-3.5124 -1.0225 1.6967
-3.4733 -1.1484 1.6967
2.8383 -1.9785 1.6950
2.9077 -1.8750 1.6949
2.9734 -1.7691 1.6948
3.0351 -1.6610 1.6947
3.0931 -1.5507 1.6947
3.0637 -1.4003 1.6498
3.0025 -1.2437 1.5916
3.0454 -1.1348 1.5916
3.0844 -1.0245 1.5916
3.1194 -0.9129 1.5916
3.1503 -0.8000 1.5916
3.1772 -0.6861 1.5916
3.1999 -0.5713 1.5916
3.2185 -0.4558 1.5916
3.2329 -0.3396 1.5916
3.2431 -0.2230 1.5916
3.2491 -0.1061 1.5916
3.2509 0.0109 1.5916
3.2484 0.1279 1.5916
3.2417 0.2447 1.5916
3.2309 0.3613 1.5916
3.2158 0.4773 1.5916
2.3605 0.4377 1.1753
2.3453 0.5229 1.1764
2.3284 0.6079 1.1781
2.3112 0.6932 1.1813
2.2960 0.7797 1.1871
2.2802 0.8671 1.1943
2.2721 0.9590 1.2074
2.9476 1.3711 1.5916
2.8963 1.4763 1.5916
2.8413 1.5796 1.5916
2.7825 1.6808 1.5916
2.7201 1.7798 1.5916
2.1907 1.5488 1.3136
0.8263 0.6300 0.5088
0.8027 0.6591 0.5086
0.7782 0.6872 0.5084
0.7526 0.7145 0.5082
0.7261 0.7408 0.5080
0.6987 0.7662 0.5078
0.6704 0.7906 0.5077
0.6413 0.8139 0.5075
0.6114 0.8362 0.5074
0.5807 0.8574 0.5072
0.5493 0.8774 0.5071
0.5172 0.8964 0.5070
0.4845 0.9142 0.5068
0.4511 0.9308 0.5067
0.4172 0.9462 0.5067
0.3828 0.9604 0.5066
0.3479 0.9734 0.5065
0.3126 0.9851 0.5064
0.2769 0.9955 0.5064
0.2408 1.0047 0.5063
0.2045 1.0126 0.5063
0.1678 1.0192 0.5063
0.1310 1.0245 0.5063
0.0941 1.0285 0.5063
0.0570 1.0311 0.5063
0.0198 1.0325 0.5063
-0.0174 1.0325 0.5063
-0.0546 1.0312 0.5064
-0.0917 1.0286 0.5064
-0.1286 1.0247 0.5065
-0.1655 1.0195 0.5065
-0.2021 1.0129 0.5066
-0.2385 1.0051 0.5067
-0.2745 0.9960 0.5068
-0.3103 0.9856 0.5069
-0.3456 0.9739 0.5070
-0.3805 0.9611 0.5072
-0.4150 0.9469 0.5073
-0.4489 0.9316 0.5074
-0.4823 0.9150 0.5076
-0.5150 0.8973 0.5078
-0.5472 0.8784 0.5079
-0.5786 0.8584 0.5081
-0.6093 0.8372 0.5083
-0.6393 0.8150 0.5085
-0.6685 0.7917 0.5087
-0.6968 0.7674 0.5089
-0.7242 0.7421 0.5091
-0.7508 0.7158 0.5094
-0.7764 0.6885 0.5096
-0.8010 0.6604 0.5098
-0.8246 0.6314 0.5101
-2.8154 1.9991 1.6959
-2.8854 1.8962 1.6959
-2.9518 1.7910 1.6959
-3.0144 1.6836 1.6960
-3.0731 1.5739 1.6961
-3.1279 1.4622 1.6963
-3.1786 1.3487 1.6964
-3.2252 1.2333 1.6965
-3.2677 1.1164 1.6966
-3.3059 0.9980 1.6967
-3.3398 0.8783 1.6969
-3.3693 0.7574 1.6969
-3.3942 0.6355 1.6969
-3.4148 0.5128 1.6969
-3.4310 0.3895 1.6969
-3.4427 0.2656 1.6969
-3.4499 0.1415 1.6969
-3.4527 0.0171 1.6969
-3.4510 -0.1073 1.6968
-3.4449 -0.2315 1.6968
-3.4343 -0.3555 1.6968
-3.4192 -0.4790 1.6969
-3.3997 -0.6018 1.6969
-3.3759 -0.7239 1.6969
-3.3476 -0.8450 1.6969
-3.3150 -0.9651 1.6969
-3.2781 -1.0839 1.6969
2.6837 -1.8707 1.6950
2.7494 -1.7728 1.6949
2.8114 -1.6727 1.6949
2.8698 -1.5705 1.6948
2.9245 -1.4661 1.6947
2.9755 -1.3600 1.6947
2.9512 -1.2224 1.6546
2.8794 -1.0729 1.5916
2.9163 -0.9686 1.5916
2.9601 -0.8662 1.5974
2.9786 -0.7564 1.5916
3.0040 -0.6487 1.5916
3.0255 -0.5401 1.5916
3.0430 -0.4309 1.5916
3.0566 -0.3211 1.5916
3.0663 -0.2109 1.5916
3.0719 -0.1003 1.5916
3.0736 0.0103 1.5916
3.0713 0.1209 1.5916
2.4559 0.1854 1.2754
3.0547 0.3416 1.5916
3.0404 0.4513 1.5916
3.0223 0.5605 1.5916
3.0001 0.6689 1.5916
2.9741 0.7764 1.5916
2.9442 0.8830 1.5916
2.9105 0.9884 1.5916
2.8730 1.0925 1.5916
2.8318 1.1952 1.5916
2.7869 1.2963 1.5916
2.7384 1.3958 1.5916
2.6864 1.4934 1.5916
2.6308 1.5891 1.5916
0.8233 0.5387 0.5095
0.8030 0.5677 0.5093
0.7817 0.5960 0.5091
0.7594 0.6235 0.5089
0.7362 0.6502 0.5087
0.7121 0.6760 0.5085
0.6870 0.7009 0.5083
0.6611 0.7249 0.5082
0.6343 0.7480 0.5080
0.6068 0.7701 0.5079
0.5785 0.7912 0.5077
0.5495 0.8112 0.5076
0.5198 0.8302 0.5075
0.4894 0.8482 0.5074
0.4584 0.8650 0.5073
0.4269 0.8808 0.5072
0.3948 0.8953 0.5071
0.3622 0.9088 0.5070
0.3292 0.9211 0.5069
0.2958 0.9322 0.5069
0.2620 0.9420 0.5068
0.2279 0.9507 0.5068
0.1935 0.9582 0.5067
0.1589 0.9645 0.5067
0.1240 0.9695 0.5067
0.0890 0.9732 0.5067
0.0539 0.9758 0.5067
0.0188 0.9770 0.5067
-0.0164 0.9771 0.5068
-0.0516 0.9759 0.5068
-0.0867 0.9734 0.5068
-0.1217 0.9697 0.5069
-0.1566 0.9647 0.5070
-0.1912 0.9586 0.5070
-0.2256 0.9511 0.5071
-0.2598 0.9425 0.5072
-0.2936 0.9327 0.5073
-0.3270 0.9216 0.5074
-0.3601 0.9094 0.5076
-0.3926 0.8960 0.5077
-0.4247 0.8815 0.5078
-0.4563 0.8658 0.5080
-0.4873 0.8490 0.5081
-0.5177 0.8311 0.5083
-0.5475 0.8122 0.5085
-0.5765 0.7922 0.5086
-0.6049 0.7711 0.5088
-0.6324 0.7491 0.5090
-0.6592 0.7260 0.5092
-0.6852 0.7021 0.5094
-0.7103 0.6772 0.5096
-0.7345 0.6514 0.5099
-0.7578 0.6248 0.5101
-0.7801 0.5973 0.5103
-0.8014 0.5691 0.5105
-0.8218 0.5401 0.5108
-0.8410 0.5103 0.5110
-2.8506 1.5921 1.6962
-2.9062 1.4885 1.6963
-2.9579 1.3828 1.6964
-3.0059 1.2754 1.6965
-3.0500 1.1663 1.6966
-3.0901 1.0558 1.6968
-3.1262 0.9438 1.6969
-3.1583 0.8306 1.6970
-3.1862 0.7163 1.6971
-3.2098 0.6010 1.6970
-3.2293 0.4850 1.6970
-3.2446 0.3684 1.6970
-3.2557 0.2512 1.6970
-3.2625 0.1338 1.6970
-3.2651 0.0162 1.6970
-3.2635 -0.1015 1.6970
-3.2577 -0.2189 1.6970
-3.2477 -0.3362 1.6970
-3.2335 -0.4529 1.6970
-3.2150 -0.5691 1.6970
-3.1925 -0.6846 1.6970
-3.1657 -0.7991 1.6970
-3.1349 -0.9127 1.6970
-3.1000 -1.0250 1.6970
2.5420 -1.7718 1.6950
0.7954 -0.5129 0.5177
