ply
format ascii 1.0
element vertex 2104
property float32 x
property float32 y
property float32 z
end_header
5.8532 0.9004 -0.4914
5.8619 1.1192 -0.4955
6.0096 1.3735 -0.5122
6.2023 1.6548 -0.5338
6.7397 2.0609 -0.5865
7.3974 2.5568 -0.6518
10.1362 3.9177 -0.9057
10.0377 4.3014 -0.9109
9.9377 4.6892 -0.9174
9.9859 5.1596 -0.9392
10.0097 5.6378 -0.9608
9.9656 6.0960 -0.9779
9.9391 6.5832 -0.9988
-40.0396 9.6725 -2.6428
-39.9785 8.1454 -2.6164
-39.9240 6.6460 -2.5941
-39.8759 5.1692 -2.5757
-39.8336 3.7102 -2.5611
-6.6525 -1.0695 -0.4291
-12.8911 -6.7727 -0.9187
-39.7083 -22.7240 -2.8829
-36.2353 -22.5071 -2.6847
-33.6743 -22.6375 -2.5507
-31.1349 -22.6006 -2.4155
-28.9949 -22.6862 -2.3085
-26.5488 -22.3602 -2.1738
-24.9804 -22.6269 -2.1081
-23.0917 -22.4828 -2.0132
-21.4630 -22.4592 -1.9380
-19.9898 -22.4865 -1.8745
-18.5257 -22.4165 -1.8094
-17.3329 -22.5832 -1.7689
-17.3077 -24.3165 -1.8521
-14.0280 -21.2928 -1.5802
-12.9755 -21.3303 -1.5452
-11.9324 -21.3085 -1.5094
-10.9120 -21.2475 -1.4743
-9.9656 -21.2561 -1.4471
-9.0364 -21.2324 -1.4205
-8.1363 -21.2072 -1.3965
-7.2606 -21.1764 -1.3745
-6.4064 -21.1383 -1.3544
-5.5918 -21.1703 -1.3410
-4.8272 -21.3653 -1.3397
-4.0303 -21.3977 -1.3301
-3.2312 -21.3596 -1.3180
-2.4452 -21.3364 -1.3087
-1.6676 -21.3157 -1.3014
-0.8959 -21.2976 -1.2959
-0.1279 -21.2819 -1.2924
0.6388 -21.2686 -1.2907
1.4103 -21.3187 -1.2946
2.1769 -21.2491 -1.2929
2.9528 -21.2428 -1.2968
3.7366 -21.2389 -1.3027
4.5071 -21.1270 -1.3037
4.3684 -17.3821 -1.0806
4.8944 -16.8781 -1.0586
5.3406 -16.2094 -1.0272
5.9581 -16.1065 -1.0328
6.4505 -15.6773 -1.0187
5.4189 -11.9298 -0.7868
5.9960 -12.0295 -0.8065
5.8304 -10.7124 -0.7314
6.3946 -10.8030 -0.7523
6.6951 -10.4340 -0.7425
7.0085 -10.1023 -0.7361
7.5143 -10.0388 -0.7503
7.4298 -9.2145 -0.7080
7.2893 -8.4019 -0.6651
7.7717 -8.3316 -0.6810
9.3645 -9.3406 -0.7903
25.9444 -24.0775 -2.1145
25.6754 -22.1610 -2.0258
25.4942 -20.4495 -1.9518
25.3144 -18.8478 -1.8847
25.1043 -17.3216 -1.8213
24.7980 -15.8229 -1.7566
24.2460 -14.2685 -1.6801
23.7442 -12.8448 -1.6124
23.1919 -11.4861 -1.5460
22.2455 -10.0364 -1.4582
19.8624 -8.1133 -1.2823
17.4981 -6.4223 -1.1143
2.8023 -0.9154 -0.1763
14.9254 -4.2870 -0.9291
14.2196 -3.5351 -0.8771
13.5903 -2.8631 -0.8318
13.0685 -2.2649 -0.7947
12.6226 -1.7219 -0.7638
12.2437 -1.2229 -0.7382
7.1195 -0.4528 -0.4283
6.8939 -0.1895 -0.4143
6.6120 0.0565 -0.3976
6.1821 0.2758 -0.3724
5.9650 0.4819 -0.3604
5.8582 0.6864 -0.3555
5.7714 0.8880 -0.3523
5.8214 1.1117 -0.3579
5.9623 1.3630 -0.3697
6.1567 1.6428 -0.3856
6.7430 2.0622 -0.4271
7.3408 2.5376 -0.4710
7.9676 3.0799 -0.5186
9.6182 4.1221 -0.6360
9.5405 4.5023 -0.6419
9.6747 4.9994 -0.6634
9.7535 5.4940 -0.6828
9.7130 5.9420 -0.6953
9.6845 6.4152 -0.7103
-38.5987 9.3252 -1.6509
-38.5530 7.8558 -1.6345
-38.5112 6.4116 -1.6206
-38.4730 4.9883 -1.6090
-38.4383 3.5812 -1.5996
-38.4070 2.1862 -1.5924
-37.9976 -3.3253 -1.5716
-37.9885 -4.7089 -1.5752
-6.6516 -1.0691 -0.2769
-12.8900 -6.7714 -0.5898
-39.7127 -22.7240 -1.8499
-36.2353 -22.5048 -1.7214
-33.6778 -22.6375 -1.6345
-31.1381 -22.6006 -1.5468
-28.8872 -22.5996 -1.4717
-26.5488 -22.3580 -1.3899
-24.8526 -22.5089 -1.3401
-23.0246 -22.4152 -1.2817
-21.4415 -22.4344 -1.2352
-19.9480 -22.4372 -1.1926
-18.5277 -22.4166 -1.1528
-17.3329 -22.5808 -1.1261
-17.3077 -24.3139 -1.1781
-14.0296 -21.2928 -1.0045
-12.9446 -21.2770 -0.9790
-11.9078 -21.2620 -0.9560
-10.9134 -21.2476 -0.9351
-9.8181 -20.9386 -0.9034
-8.9070 -20.9254 -0.8866
-8.0245 -20.9126 -0.8714
-7.1671 -20.9001 -0.8578
-6.3317 -20.8880 -0.8456
-5.5152 -20.8762 -0.8349
-4.8273 -21.3608 -0.8450
-3.9760 -21.1039 -0.8270
-3.1918 -21.0925 -0.8199
-2.4170 -21.0813 -0.8140
-1.6493 -21.0701 -0.8092
-0.8868 -21.0590 -0.8056
-0.1274 -21.0480 -0.8030
0.6309 -21.0370 -0.8015
1.3900 -21.0260 -0.8011
2.1520 -21.0150 -0.8017
2.9188 -21.0038 -0.8035
3.6925 -20.9926 -0.8064
4.4752 -20.9812 -0.8103
4.4411 -17.6741 -0.6873
4.9498 -17.0713 -0.6694
5.6149 -17.0436 -0.6749
5.7555 -15.5604 -0.6232
6.4828 -15.7572 -0.6392
5.4072 -11.9049 -0.4900
5.8645 -11.7664 -0.4921
5.8920 -10.8262 -0.4609
6.1468 -10.3849 -0.4508
6.7349 -10.4965 -0.4655
6.9778 -10.0585 -0.4565
7.4015 -9.8885 -0.4603
7.1825 -8.9080 -0.4261
7.3164 -8.4333 -0.4155
8.3191 -8.9187 -0.4537
9.8132 -9.7884 -0.5153
24.1210 -22.3856 -1.2230
24.1138 -20.8134 -1.1835
24.0510 -19.2920 -1.1453
23.8234 -17.7377 -1.1032
23.5170 -16.2264 -1.0612
23.0574 -14.7122 -1.0159
22.7252 -13.3734 -0.9794
22.2983 -12.0625 -0.9419
21.5342 -10.6649 -0.8930
19.7215 -8.8974 -0.8043
17.2661 -7.0525 -0.6936
15.6685 -5.7505 -0.6210
2.8021 -0.9153 -0.1097
13.8517 -3.9784 -0.5369
13.2007 -3.2816 -0.5071
12.6941 -2.6741 -0.4841
12.2424 -2.1215 -0.4640
11.8710 -1.6191 -0.4479
7.0944 -0.7084 -0.2668
6.9079 -0.4392 -0.2593
6.6443 -0.1825 -0.2493
6.2670 0.0537 -0.2353
6.0557 0.2703 -0.2279
5.8732 0.4746 -0.2219
5.7779 0.6772 -0.2193
5.7134 0.8793 -0.2183
5.7815 1.1043 -0.2226
5.9148 1.3523 -0.2298
6.1119 1.6311 -0.2400
6.7463 2.0635 -0.2681
7.2853 2.5188 -0.2934
7.9007 3.0544 -0.3230
9.2207 3.9522 -0.3832
7.2169 3.4061 -0.3054
6.9738 3.6041 -0.3010
6.7892 3.8247 -0.2994
6.6625 4.0763 -0.3006
6.6756 4.4225 -0.3088
-38.2752 9.2478 -0.7494
-38.2541 7.7957 -0.7418
-38.2334 6.3662 -0.7352
-38.2129 4.9555 -0.7295
-38.1926 3.5593 -0.7247
-38.1725 2.1739 -0.7208
-38.0005 -3.3243 -0.7119
-37.9876 -4.7075 -0.7123
-6.6507 -1.0687 -0.1250
-12.8889 -6.7701 -0.2615
-39.1916 -22.4234 -0.8078
-36.0361 -22.3787 -0.7557
-33.2358 -22.3381 -0.7104
-30.7294 -22.3017 -0.6706
-28.4673 -22.2688 -0.6356
-26.4090 -22.2379 -0.6044
-24.5258 -22.2106 -0.5766
-22.7909 -22.1854 -0.5517
-21.1834 -22.1621 -0.5293
-19.6861 -22.1404 -0.5091
-18.2845 -22.1200 -0.4908
-17.3329 -22.5784 -0.4844
-17.3078 -24.3113 -0.5054
-13.8362 -20.9970 -0.4238
-12.8741 -21.1587 -0.4154
-11.9092 -21.2620 -0.4067
-10.9148 -21.2476 -0.3967
-9.9577 -21.2337 -0.3876
-9.0337 -21.2203 -0.3793
-8.1388 -21.2073 -0.3717
-7.2693 -21.1946 -0.3649
-6.4220 -21.1823 -0.3587
-5.5940 -21.1703 -0.3531
-4.8273 -21.3563 -0.3514
-4.0324 -21.3977 -0.3478
-3.2373 -21.3862 -0.3439
-2.4516 -21.3748 -0.3405
-1.6732 -21.3635 -0.3376
-0.9001 -21.3523 -0.3351
-0.1301 -21.3411 -0.3332
0.6388 -21.3299 -0.3317
1.4085 -21.3188 -0.3307
2.1811 -21.3075 -0.3302
2.9586 -21.2963 -0.3301
3.7431 -21.2849 -0.3305
3.9492 -18.5183 -0.2885
4.4442 -17.6889 -0.2769
5.0346 -17.3659 -0.2735
5.4968 -16.6868 -0.2648
6.0127 -16.2572 -0.2604
6.4943 -15.7864 -0.2557
5.3618 -11.8058 -0.1937
5.9909 -12.0207 -0.2000
5.9548 -10.9423 -0.1851
6.3150 -10.6697 -0.1837
6.5475 -10.2048 -0.1793
6.8326 -9.8494 -0.1769
7.0221 -9.3819 -0.1726
7.4410 -9.2290 -0.1743
7.3436 -8.4649 -0.1645
8.4800 -9.0913 -0.1822
8.8683 -8.8461 -0.1834
22.3170 -20.7117 -0.4454
22.4242 -19.3553 -0.4330
22.3459 -17.9244 -0.4185
22.2041 -16.5321 -0.4043
21.8981 -15.1093 -0.3885
21.6870 -13.8377 -0.3757
21.3890 -12.5870 -0.3626
20.7735 -11.2375 -0.3452
19.3468 -9.5814 -0.3158
8.8947 -4.0128 -0.1428
8.2367 -3.3643 -0.1304
8.0049 -2.9378 -0.1251
2.8018 -0.9151 -0.0433
8.2433 -2.3674 -0.1262
12.3166 -3.0616 -0.1872
11.8703 -2.5003 -0.1792
11.5196 -1.9960 -0.1731
7.2076 -0.9829 -0.1080
6.9183 -0.6906 -0.1035
6.7728 -0.4304 -0.1013
6.5137 -0.1787 -0.0975
6.0853 0.0524 -0.0914
5.9549 0.2660 -0.0898
5.7946 0.4685 -0.0879
5.7014 0.6684 -0.0871
5.6753 0.8736 -0.0874
5.7422 1.0970 -0.0893
5.8671 1.3416 -0.0923
6.0678 1.6196 -0.0967
6.6970 2.0487 -0.1083
7.2307 2.5002 -0.1188
8.9317 3.4534 -0.1493
7.3842 3.1654 -0.1258
7.0060 3.3070 -0.1219
6.8394 3.5350 -0.1217
6.6740 3.7602 -0.1216
6.4756 3.9624 -0.1211
6.4362 4.2643 -0.1238
-38.6708 9.3441 0.1389
-38.6495 7.8770 0.1389
-38.2334 6.3671 0.1378
-38.6079 5.0076 0.1398
-38.1926 3.5602 0.1392
-38.1725 2.1749 0.1404
-6.6498 -1.0683 0.0267
-12.8878 -6.7688 0.0663
-39.7214 -22.7241 0.2119
-36.5231 -22.6788 0.2023
-33.6849 -22.6376 0.1941
-31.1446 -22.6007 0.1870
-28.8183 -22.5412 0.1806
-26.7658 -22.5361 0.1755
-24.8571 -22.5084 0.1709
-23.0988 -22.4829 0.1669
-21.4696 -22.4593 0.1634
-19.9522 -22.4372 0.1603
-18.5100 -22.3905 0.1575
-17.3330 -22.5761 0.1566
-17.3078 -24.3087 0.1667
-14.0327 -21.2928 0.1445
-12.9477 -21.2771 0.1432
-11.9107 -21.2620 0.1422
-10.9162 -21.2476 0.1413
-9.9591 -21.2337 0.1406
-9.0350 -21.2203 0.1402
-8.1400 -21.2073 0.1399
-7.2705 -21.1947 0.1398
-6.4153 -21.1565 0.1397
-5.5951 -21.1703 0.1400
-4.8274 -21.3519 0.1417
-4.0335 -21.3977 0.1426
-3.2383 -21.3862 0.1433
-2.4526 -21.3748 0.1441
-1.6742 -21.3635 0.1451
-0.9010 -21.3523 0.1462
-0.1310 -21.3411 0.1475
0.6379 -21.3299 0.1489
1.4077 -21.3188 0.1505
2.1803 -21.3076 0.1522
2.9542 -21.2705 0.1539
3.7378 -21.2592 0.1560
4.5360 -21.2734 0.1585
4.8052 -19.1289 0.1448
5.1806 -17.8715 0.1376
5.5234 -16.7693 0.1315
6.0924 -16.4740 0.1317
5.8424 -14.2030 0.1158
5.4756 -12.0572 0.1005
6.1227 -12.2861 0.1047
6.4510 -11.8546 0.1035
6.5233 -11.0222 0.0987
6.7409 -10.5067 0.0966
6.8499 -9.8749 0.0933
7.1411 -9.5412 0.0929
7.5194 -9.3264 0.0937
7.3710 -8.4967 0.0882
8.4617 -9.0719 0.0975
8.0503 -8.0302 0.0896
8.1951 -7.6057 0.0883
8.3016 -7.1655 0.0867
8.5355 -6.8466 0.0866
20.7026 -15.4143 0.2043
20.5399 -14.1722 0.1976
20.3176 -12.9639 0.1908
7.3610 -4.3317 0.0676
7.0536 -3.8156 0.0634
7.2059 -3.5686 0.0635
7.3592 -3.3200 0.0636
7.5079 -3.0665 0.0638
7.6078 -2.7919 0.0636
2.8015 -0.9150 0.0231
7.7443 -2.2240 0.0629
6.8365 -1.6992 0.0548
6.7497 -1.4216 0.0534
6.7215 -1.1645 0.0526
6.7590 -0.9216 0.0524
6.7555 -0.6742 0.0518
6.6315 -0.4213 0.0505
6.3094 -0.1729 0.0477
5.9278 0.0512 0.0445
5.8135 0.2599 0.0434
5.7301 0.4634 0.0426
5.6538 0.6630 0.0419
5.6566 0.8710 0.0418
5.7081 1.0908 0.0421
5.8201 1.3311 0.0429
6.0303 1.6099 0.0444
6.5417 2.0015 0.0483
7.1769 2.4820 0.0531
8.5818 3.3186 0.0637
7.1921 3.0835 0.0537
6.9220 3.2677 0.0520
6.7603 3.4945 0.0511
6.6106 3.7249 0.0504
6.4268 3.9329 0.0495
6.3649 4.2176 0.0496
-38.2752 9.2493 1.0245
-38.2541 7.7973 1.0169
-38.2334 6.3679 1.0109
-38.2129 4.9573 1.0064
-38.1926 3.5612 1.0033
-38.1725 2.1759 1.0016
-43.0395 -0.6510 1.1315
-43.4435 -5.3806 1.1574
-6.6488 -1.0679 0.1784
-12.8867 -6.7674 0.3942
-39.7259 -22.7242 1.2429
-36.5270 -22.6789 1.1709
-33.6885 -22.6377 1.1084
-31.1479 -22.6008 1.0539
-28.8213 -22.5412 1.0049
-26.7685 -22.5362 0.9638
-24.8597 -22.5085 0.9264
-23.1012 -22.4829 0.8931
-21.4719 -22.4593 0.8633
-19.9542 -22.4373 0.8367
-18.5120 -22.3906 0.8120
-17.3330 -22.5737 0.7978
-17.3079 -24.3061 0.8389
-14.0343 -21.2929 0.7191
-12.9492 -21.2771 0.7044
-11.9121 -21.2621 0.6912
-10.9175 -21.2476 0.6794
-9.9604 -21.2337 0.6690
-9.0363 -21.2203 0.6598
-8.1412 -21.2073 0.6516
-7.2716 -21.1947 0.6446
-6.4165 -21.1565 0.6377
-5.5962 -21.1703 0.6334
-4.8274 -21.3474 0.6347
-4.0345 -21.3977 0.6331
-3.2393 -21.3862 0.6306
-2.4536 -21.3748 0.6288
-1.6752 -21.3635 0.6278
-0.9020 -21.3523 0.6276
-0.1319 -21.3411 0.6282
0.6370 -21.3300 0.6296
1.4068 -21.3188 0.6318
2.1794 -21.3076 0.6347
2.9534 -21.2705 0.6377
3.7370 -21.2592 0.6423
4.5352 -21.2734 0.6485
5.7328 -22.8244 0.7030
5.1221 -17.6719 0.5506
5.6243 -17.0776 0.5390
6.0546 -16.3734 0.5241
5.8264 -14.1651 0.4606
5.9830 -13.1754 0.4358
6.3382 -12.7191 0.4286
6.1201 -11.2472 0.3866
6.6428 -11.2246 0.3943
6.5990 -10.2861 0.3699
6.7380 -9.7138 0.3582
6.8827 -9.1964 0.3484
7.0961 -8.8017 0.3432
7.3232 -8.4419 0.3395
7.5220 -8.0645 0.3352
7.6885 -7.6695 0.3303
7.9562 -7.3841 0.3303
8.1423 -7.0281 0.3274
8.2859 -6.6465 0.3234
8.4135 -6.2643 0.3194
7.6178 -5.2562 0.2818
7.0759 -4.5149 0.2556
6.9976 -4.1179 0.2472
6.9925 -3.7825 0.2420
7.0818 -3.5071 0.2404
7.2319 -3.2625 0.2413
7.3130 -2.9868 0.2401
7.3857 -2.7103 0.2390
2.8012 -0.9149 0.0895
7.5812 -2.1770 0.2392
6.6312 -1.6481 0.2071
6.5438 -1.3781 0.2025
6.5476 -1.1342 0.2010
6.6249 -0.9031 0.2020
6.5308 -0.6516 0.1980
6.3547 -0.4035 0.1918
5.9952 -0.1642 0.1804
5.8112 0.0503 0.1746
5.7485 0.2571 0.1726
5.7018 0.4613 0.1713
5.6262 0.6600 0.1693
5.6536 0.8707 0.1706
5.6899 1.0875 0.1725
5.7776 1.3217 0.1761
6.0472 1.6146 0.1856
6.1728 1.8889 0.1910
7.1239 2.4640 0.2225
8.2997 3.2099 0.2621
7.0701 3.0315 0.2261
6.8537 3.2358 0.2222
6.6971 3.4623 0.2205
6.5442 3.6879 0.2191
6.3790 3.9041 0.2176
6.3030 4.1770 0.2194
-32.2913 7.8039 1.6135
-31.5628 6.4340 1.5655
-31.5457 5.2548 1.5553
-31.5288 4.0909 1.5474
-31.5121 2.9391 1.5416
-31.4955 1.7962 1.5379
-33.0611 0.6923 1.6135
-33.0331 -0.4987 1.6135
-32.9607 -1.6867 1.6135
-32.8441 -2.8700 1.6135
-32.2129 -3.9886 1.5903
-6.6479 -1.0675 0.3303
-31.7684 -6.2830 1.5903
-31.4830 -7.4143 1.5903
-33.1790 -9.0869 1.6935
-32.7875 -10.2629 1.6935
-32.3533 -11.4222 1.6935
-31.8772 -12.5631 1.6935
-31.3601 -13.6842 1.6935
-30.8026 -14.7839 1.6935
-12.8856 -6.7661 0.7224
-27.8262 -15.9156 1.5936
-27.1398 -16.8488 1.5904
-26.4747 -17.7884 1.5904
-25.7768 -18.7016 1.5904
-25.0169 -19.5639 1.5885
-24.2575 -20.4201 1.5885
-23.4686 -21.2468 1.5885
-22.6515 -22.0431 1.5885
-21.4741 -22.4593 1.5643
-19.9563 -22.4373 1.5141
-18.5139 -22.3906 1.4673
-17.3330 -22.5714 1.4396
-17.3079 -24.3035 1.5118
-14.0359 -21.2929 1.2943
-12.9507 -21.2771 1.2662
-11.9136 -21.2621 1.2410
-10.9189 -21.2476 1.2183
-9.9617 -21.2337 1.1981
-9.0375 -21.2203 1.1801
-8.1424 -21.2073 1.1641
-7.2728 -21.1947 1.1500
-6.4176 -21.1565 1.1364
-5.5973 -21.1704 1.1273
-4.8275 -21.3430 1.1282
-4.0356 -21.3978 1.1243
-3.2403 -21.3862 1.1185
-2.4546 -21.3748 1.1141
-1.6761 -21.3635 1.1112
-0.9029 -21.3523 1.1098
-0.1328 -21.3411 1.1097
0.6362 -21.3300 1.1110
1.4059 -21.3188 1.1138
2.1786 -21.3076 1.1179
2.9526 -21.2706 1.1222
3.7362 -21.2592 1.1293
4.5344 -21.2734 1.1392
5.5532 -22.1127 1.1954
5.2832 -18.2299 0.9962
5.8413 -17.7384 0.9811
6.4175 -17.3564 0.9731
5.7744 -14.0399 0.7990
5.8816 -12.9529 0.7493
6.2395 -12.5219 0.7375
6.3593 -11.6875 0.7020
6.5297 -11.0340 0.6769
7.1893 -11.2067 0.7034
6.5294 -9.4135 0.6056
6.7333 -8.9970 0.5943
6.9221 -8.5861 0.5836
7.1253 -8.2139 0.5756
7.3165 -7.8444 0.5680
7.4787 -7.4603 0.5596
7.7941 -7.2337 0.5634
7.8768 -6.7990 0.5514
7.8586 -6.3038 0.5340
7.5789 -5.6429 0.5009
7.1540 -4.9361 0.4607
6.9515 -4.4355 0.4371
6.9305 -4.0784 0.4262
6.9387 -3.7534 0.4181
6.9617 -3.4476 0.4116
7.0727 -3.1906 0.4110
7.2142 -2.9464 0.4127
7.3211 -2.6865 0.4128
2.8009 -0.9147 0.1559
6.9654 -2.0001 0.3833
6.4807 -1.6105 0.3530
6.4143 -1.3507 0.3463
6.4622 -1.1193 0.3463
6.5426 -0.8917 0.3484
6.2698 -0.6254 0.3322
6.0102 -0.3815 0.3173
5.8580 -0.1602 0.3085
5.7620 0.0501 0.3031
5.7006 0.2552 0.2999
5.6713 0.4591 0.2987
5.6007 0.6572 0.2957
5.6487 0.8702 0.2994
5.6799 1.0858 0.3026
5.7672 1.3195 0.3092
5.8076 1.5509 0.3138
5.8652 1.7951 0.3199
6.0252 2.0842 0.3320
8.1053 3.1351 0.4520
7.0258 3.0129 0.3971
6.8506 3.2347 0.3930
6.7270 3.4781 0.3923
6.5814 3.7093 0.3908
6.4470 3.9461 0.3904
6.3769 4.2263 0.3946
-22.0365 5.3260 1.6135
-22.2044 4.5268 1.6135
-22.3426 3.7223 1.6135
-22.4507 2.9136 1.6135
-22.5287 2.1018 1.6135
-22.5767 1.2881 1.6135
-22.5945 0.4737 1.6135
-22.5822 -0.3402 1.6135
-22.5398 -1.1527 1.6135
-22.4675 -1.9625 1.6135
-22.3655 -2.7685 1.6135
-6.6470 -1.0672 0.4824
-21.7573 -4.3022 1.5904
-21.5700 -5.0789 1.5904
-21.3546 -5.8476 1.5904
-21.1113 -6.6072 1.5904
-20.8405 -7.3566 1.5904
-21.8741 -8.6197 1.6935
-21.5286 -9.3930 1.6935
-21.1554 -10.1525 1.6935
-12.8119 -6.7266 1.0454
-20.3283 -11.6258 1.6935
-19.8756 -12.3378 1.6935
-19.3978 -13.0320 1.6935
-18.8955 -13.7077 1.6935
-18.3695 -14.3640 1.6935
-17.8207 -15.0000 1.6935
-17.2497 -15.6151 1.6935
-16.1492 -15.7138 1.6419
-15.0680 -15.7578 1.5904
-14.4743 -16.2721 1.5904
-13.8631 -16.7641 1.5904
-13.2351 -17.2332 1.5904
-12.5914 -17.6788 1.5904
-11.9329 -18.1005 1.5904
-11.2603 -18.4977 1.5904
-10.5746 -18.8702 1.5904
-9.8650 -19.1943 1.5885
-9.1568 -19.5155 1.5885
-8.4384 -19.8108 1.5885
-7.7107 -20.0799 1.5885
-6.9747 -20.3226 1.5885
-6.2313 -20.5386 1.5885
-5.4814 -20.7277 1.5885
-4.7261 -20.8899 1.5885
-3.9663 -21.0250 1.5885
-3.2030 -21.1327 1.5885
-2.4370 -21.2133 1.5885
-1.6695 -21.2666 1.5885
-0.9013 -21.2926 1.5885
-0.1334 -21.2914 1.5885
0.6333 -21.2630 1.5885
1.3977 -21.2076 1.5885
2.1591 -21.1253 1.5885
2.9164 -21.0163 1.5885
3.6688 -20.8807 1.5885
4.4154 -20.7188 1.5885
5.1552 -20.5309 1.5885
5.8874 -20.3172 1.5885
6.6458 -20.1835 1.5969
5.6851 -15.3771 1.2328
5.6946 -13.8470 1.1266
5.8434 -12.8698 1.0642
6.2287 -12.5012 1.0521
6.7415 -12.3906 1.0632
6.8127 -11.5128 1.0087
7.0403 -10.9749 0.9837
7.4471 -10.7370 0.9862
6.6125 -8.8359 0.8333
6.8088 -8.4459 0.8194
6.9928 -8.0613 0.8062
7.1425 -7.6581 0.7914
7.2424 -7.2248 0.7732
7.4358 -6.9014 0.7670
7.6561 -6.6086 0.7647
7.5707 -6.0729 0.7339
7.3156 -5.4469 0.6897
7.0037 -4.8325 0.6435
6.8661 -4.3809 0.6159
6.8750 -4.0457 0.6032
6.8834 -3.7234 0.5917
6.9266 -3.4301 0.5843
7.0584 -3.1840 0.5853
7.1808 -2.9326 0.5862
7.2307 -2.6532 0.5819
2.8006 -0.9146 0.2225
7.3575 -2.1125 0.5780
6.3465 -1.5771 0.4936
6.3149 -1.3296 0.4869
6.3960 -1.1077 0.4895
6.3767 -0.8690 0.4851
6.1083 -0.6092 0.4625
5.9421 -0.3770 0.4483
5.8000 -0.1585 0.4366
5.7090 0.0498 0.4294
5.6534 0.2532 0.4253
5.6297 0.4559 0.4242
5.5977 0.6570 0.4230
5.6217 0.8662 0.4266
5.6699 1.0841 0.4326
5.7264 1.3104 0.4399
5.7431 1.5339 0.4448
5.7583 1.7626 0.4502
5.7737 1.9975 0.4563
7.9194 3.0636 0.6337
7.0074 3.0054 0.5685
6.8555 3.2374 0.5647
6.7421 3.4863 0.5648
6.6444 3.7452 0.5670
6.5349 4.0004 0.5690
6.4243 4.2582 0.5718
-16.7121 4.0395 1.6135
-16.8412 3.4338 1.6135
-16.9479 2.8239 1.6135
-17.0319 2.2107 1.6135
-17.0934 1.5951 1.6135
-17.1322 0.9780 1.6135
-17.1482 0.3600 1.6135
-17.1416 -0.2578 1.6135
-17.1122 -0.8746 1.6135
-17.0603 -1.4896 1.6135
-16.9858 -2.1020 1.6135
-6.6461 -1.0668 0.6349
-16.7701 -3.3154 1.6135
-16.3913 -3.8589 1.5904
-16.2309 -4.4439 1.5904
-16.0494 -5.0222 1.5904
-15.8470 -5.5932 1.5904
-15.6240 -6.1560 1.5904
-15.3808 -6.7099 1.5904
-15.1177 -7.2541 1.5904
-12.7981 -6.7187 1.3721
-15.4757 -8.8496 1.6935
-15.1348 -9.3939 1.6935
-14.7746 -9.9250 1.6935
-14.3958 -10.4423 1.6935
-13.9987 -10.9451 1.6935
-13.5839 -11.4327 1.6935
-13.1521 -11.9046 1.6935
-12.7039 -12.3602 1.6935
-12.2399 -12.7989 1.6935
-11.7608 -13.2202 1.6935
-11.2709 -13.6280 1.6941
-10.7631 -14.0128 1.6941
-10.2415 -14.3779 1.6939
-9.7094 -14.7261 1.6941
-9.1631 -15.0509 1.6938
-8.6062 -15.3556 1.6936
-7.9513 -15.4690 1.6748
-7.1711 -15.2814 1.6268
-6.4624 -15.1696 1.5904
-5.9067 -15.3796 1.5904
-5.3443 -15.5695 1.5904
-4.7759 -15.7389 1.5904
-4.2023 -15.8878 1.5904
-3.6242 -16.0160 1.5904
-3.0424 -16.1234 1.5904
-2.4576 -16.2099 1.5904
-1.8705 -16.2755 1.5904
-1.2819 -16.3200 1.5904
-0.6925 -16.3436 1.5904
-0.1040 -16.4808 1.6035
0.4896 -16.4623 1.6035
1.0817 -16.4228 1.6035
1.6717 -16.3622 1.6035
2.2587 -16.2809 1.6035
2.8421 -16.1789 1.6035
3.4212 -16.0564 1.6035
3.9952 -15.9135 1.6035
4.5635 -15.7505 1.6035
5.1254 -15.5676 1.6035
5.6127 -15.1826 1.5845
5.6302 -13.6915 1.4498
5.8604 -12.9081 1.3890
6.2267 -12.4978 1.3687
6.7375 -12.3839 1.3825
7.1796 -12.1335 1.3830
6.8969 -10.7518 1.2535
7.2951 -10.5182 1.2565
6.5712 -8.7810 1.0769
6.7461 -8.3683 1.0557
6.9221 -7.9800 1.0378
7.0073 -7.5133 1.0095
7.0998 -7.0826 0.9856
7.2790 -6.7559 0.9761
7.3755 -6.3664 0.9578
7.4078 -5.9423 0.9336
7.0665 -5.2615 0.8662
6.8844 -4.7501 0.8223
6.8072 -4.3433 0.7939
6.8172 -4.0117 0.7776
6.8678 -3.7149 0.7676
6.9212 -3.4274 0.7591
7.0410 -3.1761 0.7591
7.0968 -2.8982 0.7533
7.1663 -2.6295 0.7499
2.8004 -0.9145 0.2894
6.4670 -1.8567 0.6607
6.2709 -1.5582 0.6343
6.2746 -1.3210 0.6293
6.3602 -1.1013 0.6333
6.2169 -0.8471 0.6153
6.0012 -0.5983 0.5912
5.8460 -0.3707 0.5740
5.7429 -0.1568 0.5627
5.6569 0.0495 0.5538
5.6068 0.2513 0.5492
5.5887 0.4527 0.5484
5.5829 0.6555 0.5495
5.5949 0.8623 0.5530
5.6466 1.0799 0.5613
5.6646 1.2965 0.5670
5.6797 1.5172 0.5733
5.6940 1.7431 0.5803
5.7107 1.9760 0.5885
5.9383 2.2975 0.6196
7.0410 3.0201 0.7450
6.8954 3.2566 0.7410
6.7999 3.5166 0.7433
6.7308 3.7942 0.7497
6.6445 4.0678 0.7553
6.5281 4.3275 0.7587
-13.4488 3.2510 1.6135
-13.5536 2.7637 1.6135
-13.6404 2.2731 1.6135
-13.7091 1.7798 1.6135
-13.7597 1.2844 1.6135
-13.7921 0.7877 1.6135
-13.8063 0.2903 1.6135
-13.8022 -0.2071 1.6135
-13.7800 -0.7038 1.6135
-13.7396 -1.1992 1.6135
-13.6811 -1.6926 1.6135
-6.6451 -1.0664 0.7881
-13.5105 -2.6705 1.6135
-13.3986 -3.1538 1.6135
-13.2692 -3.6324 1.6135
-12.9348 -4.0470 1.5904
-12.7734 -4.5078 1.5904
-12.5954 -4.9621 1.5904
-12.4011 -5.4093 1.5904
-12.1908 -5.8490 1.5904
-11.9647 -6.2804 1.5904
-11.7233 -6.7031 1.5904
-11.4668 -7.1165 1.5904
-11.9214 -8.0075 1.6935
-11.6192 -8.4274 1.6938
-11.3018 -8.8356 1.6940
-10.9697 -9.2316 1.6941
-10.6238 -9.6151 1.6943
-10.2655 -9.9867 1.6946
-9.8957 -10.3466 1.6953
-9.5134 -10.6928 1.6959
-9.1183 -11.0241 1.6964
-8.7103 -11.3390 1.6966
-8.2889 -11.6354 1.6963
-7.8576 -11.9162 1.6961
-7.4167 -12.1809 1.6958
-6.9670 -12.4294 1.6955
-6.5091 -12.6615 1.6952
-6.0434 -12.8766 1.6949
-5.5707 -13.0746 1.6946
-5.0917 -13.2555 1.6943
-4.6069 -13.4189 1.6940
-4.1169 -13.5647 1.6937
-3.6226 -13.6935 1.6935
-3.0313 -13.3928 1.6428
-2.4656 -13.0631 1.5915
-1.9932 -13.1424 1.5924
-1.5183 -13.2052 1.5933
-1.0415 -13.2513 1.5943
-0.5633 -13.2791 1.5951
-0.0844 -13.2891 1.5958
0.3943 -13.2754 1.5958
0.8714 -13.2386 1.5950
1.3465 -13.1846 1.5941
1.8188 -13.1137 1.5933
2.2877 -13.0259 1.5924
2.7528 -12.9215 1.5915
3.2132 -12.8006 1.5906
3.7006 -12.7737 1.6035
4.1567 -12.6266 1.6035
4.6071 -12.4635 1.6035
5.0512 -12.2846 1.6035
5.4886 -12.0901 1.6035
5.9186 -11.8803 1.6035
6.6840 -12.2863 1.6903
7.1293 -12.0491 1.6925
7.8740 -12.2756 1.7635
8.3091 -11.9808 1.7635
6.7485 -9.0182 1.3627
6.7384 -8.3590 1.2993
6.8600 -7.9086 1.2671
6.9273 -7.4277 1.2295
7.0187 -7.0019 1.2003
7.1153 -6.6040 1.1755
7.2335 -6.2439 1.1571
7.3246 -5.8756 1.1371
6.8600 -5.1078 1.0358
6.7818 -4.6794 0.9979
6.7515 -4.3078 0.9699
6.8096 -4.0071 0.9568
6.8667 -3.7143 0.9454
6.9229 -3.4281 0.9354
6.9950 -3.1553 0.9291
7.0723 -2.8882 0.9248
7.1494 -2.6232 0.9217
2.8001 -0.9143 0.3565
6.3860 -1.8334 0.8038
6.2411 -1.5507 0.7779
6.2687 -1.3196 0.7747
6.3401 -1.0977 0.7779
6.0593 -0.8254 0.7391
5.8974 -0.5878 0.7161
5.7525 -0.3647 0.6962
5.6637 -0.1544 0.6841
5.6268 0.0494 0.6791
5.5929 0.2509 0.6754
5.5858 0.4527 0.6758
5.5686 0.6540 0.6758
5.5682 0.8584 0.6788
5.5867 1.0686 0.6850
5.6039 1.2828 0.6919
5.6175 1.5009 0.6995
5.6331 1.7248 0.7083
5.6526 1.9561 0.7188
5.8216 2.2526 0.7497
7.0784 3.0365 0.9245
6.9379 3.2771 0.9204
6.8586 3.5473 0.9257
6.7771 3.8208 0.9321
6.7107 4.1088 0.9422
6.6330 4.3975 0.9523
-11.2420 2.7178 1.6135
-11.3301 2.3106 1.6135
-11.4032 1.9005 1.6135
-11.4612 1.4882 1.6135
-11.5042 1.0741 1.6135
-11.5319 0.6589 1.6135
-11.5445 0.2430 1.6135
-11.5418 -0.1729 1.6135
-11.5240 -0.5883 1.6135
-11.4911 -1.0026 1.6135
-11.4431 -1.4153 1.6135
-6.5833 -1.0562 0.9334
-11.3021 -2.2335 1.6135
-11.2095 -2.6380 1.6135
-11.1022 -3.0387 1.6135
-10.8233 -3.3859 1.5904
-10.6893 -3.7718 1.5904
-10.5413 -4.1523 1.5904
-10.3797 -4.5271 1.5904
-10.2046 -4.8955 1.5904
-10.0164 -5.2572 1.5904
-9.8153 -5.6116 1.5904
-9.6016 -5.9583 1.5904
-9.3756 -6.2968 1.5904
-9.1803 -6.6578 1.5979
-9.4650 -7.3988 1.6937
-9.1886 -7.7319 1.6940
-8.9005 -8.0546 1.6943
-8.6011 -8.3666 1.6946
-8.2906 -8.6674 1.6949
-7.9695 -8.9566 1.6951
-7.6383 -9.2338 1.6954
-7.2974 -9.4987 1.6956
-6.9474 -9.7511 1.6959
-6.5887 -9.9907 1.6962
-6.2217 -10.2171 1.6964
-5.8467 -10.4295 1.6966
-5.4630 -10.6253 1.6963
-5.0728 -10.8070 1.6960
-4.6766 -10.9746 1.6957
-4.2750 -11.1276 1.6954
-3.8684 -11.2660 1.6951
-3.4574 -11.3897 1.6948
-3.0426 -11.4986 1.6946
-2.6244 -11.5925 1.6943
-2.2035 -11.6715 1.6941
-1.7803 -11.7353 1.6938
-1.3554 -11.7839 1.6936
-0.9069 -11.5328 1.6526
-0.4729 -11.1360 1.5930
-0.0712 -11.1353 1.5923
0.3298 -11.1204 1.5916
0.7296 -11.0910 1.5909
1.1280 -11.0494 1.5904
1.5247 -10.9967 1.5904
1.9192 -10.9300 1.5904
2.3109 -10.8493 1.5904
2.6993 -10.7547 1.5904
3.0839 -10.6463 1.5904
3.4643 -10.5245 1.5904
3.8399 -10.3892 1.5904
4.2105 -10.2406 1.5904
4.5753 -10.0791 1.5904
4.9747 -9.9863 1.6035
5.3299 -9.7978 1.6035
5.6781 -9.5969 1.6035
6.0188 -9.3838 1.6035
6.9854 -10.0726 1.7635
7.3424 -9.8123 1.7635
6.7905 -8.4239 1.5573
6.8619 -7.9111 1.5075
6.9077 -7.4068 1.4581
6.9576 -6.9410 1.4151
7.0063 -6.5030 1.3765
7.1308 -6.1553 1.3566
7.0190 -5.6305 1.2959
6.6547 -4.9550 1.1949
6.6216 -4.5689 1.1587
6.6098 -4.2174 1.1292
6.8081 -4.0062 1.1377
6.9058 -3.7354 1.1307
6.9619 -3.4474 1.1187
7.0373 -3.1743 1.1116
7.1149 -2.9055 1.1065
7.1799 -2.6343 1.1009
2.7998 -0.9142 0.4239
6.2958 -1.8074 0.9426
6.2262 -1.5468 0.9230
6.2748 -1.3208 0.9224
6.1508 -1.0648 0.8977
5.9086 -0.8048 0.8574
5.7640 -0.5744 0.8326
5.6903 -0.3606 0.8193
5.6295 -0.1534 0.8090
5.6183 0.0495 0.8068
5.5865 0.2508 0.8028
5.5912 0.4533 0.8050
5.5649 0.6538 0.8038
5.5613 0.8575 0.8069
5.5445 1.0608 0.8091
5.5437 1.2693 0.8148
5.5585 1.4853 0.8240
5.5734 1.7067 0.8344
5.6097 1.9416 0.8493
5.7468 2.2240 0.8813
7.1325 3.0601 1.1094
6.9651 3.2903 1.1005
6.8448 3.5406 1.1004
6.7484 3.8050 1.1057
6.6922 4.0980 1.1194
6.7011 4.4431 1.1463
-9.5108 2.2994 1.5904
-9.5856 1.9550 1.5904
-9.6477 1.6082 1.5904
-9.6972 1.2594 1.5904
-9.7339 0.9091 1.5904
-9.7578 0.5578 1.5904
-9.7688 0.2059 1.5904
-9.7671 -0.1460 1.5904
-9.7525 -0.4975 1.5904
-9.7251 -0.8482 1.5904
-9.6850 -1.1975 1.5904
-6.5768 -1.0549 1.0860
-9.5668 -1.8902 1.5904
-9.4890 -2.2327 1.5904
-9.3987 -2.5721 1.5904
-9.2962 -2.9078 1.5904
-9.1817 -3.2394 1.5904
-9.0552 -3.5665 1.5904
-8.9170 -3.8887 1.5904
-8.7673 -4.2055 1.5904
-8.6062 -4.5165 1.5904
-8.4340 -4.8213 1.5904
-8.2510 -5.1196 1.5904
-8.0574 -5.4109 1.5904
-7.8535 -5.6949 1.5904
-8.1348 -6.3583 1.6936
-7.8977 -6.6449 1.6938
-7.6505 -6.9227 1.6941
-7.3935 -7.1912 1.6943
-7.1270 -7.4502 1.6945
-6.8515 -7.6993 1.6948
-6.5673 -7.9382 1.6950
-6.2747 -8.1666 1.6953
-5.9742 -8.3843 1.6955
-5.6662 -8.5908 1.6958
-5.3510 -8.7861 1.6960
-5.0291 -8.9699 1.6962
-4.7009 -9.1418 1.6965
-4.3665 -9.3010 1.6966
-4.0259 -9.4461 1.6963
-3.6805 -9.5788 1.6960
-3.3308 -9.6988 1.6958
-2.9773 -9.8061 1.6955
-2.6203 -9.9007 1.6952
-2.2604 -9.9824 1.6950
-1.8981 -10.0511 1.6947
-1.5338 -10.1068 1.6945
-1.1679 -10.1494 1.6942
-0.8009 -10.1789 1.6940
-0.4334 -10.1953 1.6938
-0.0657 -10.1986 1.6935
0.2924 -9.8737 1.6410
0.6278 -9.5495 1.5904
0.9711 -9.5169 1.5904
1.3129 -9.4721 1.5904
1.6528 -9.4151 1.5904
1.9903 -9.3461 1.5904
2.3250 -9.2651 1.5904
2.6565 -9.1722 1.5904
2.9844 -9.0677 1.5904
3.3083 -8.9515 1.5904
3.6277 -8.8240 1.5904
3.9423 -8.6851 1.5904
4.2516 -8.5352 1.5904
4.5554 -8.3745 1.5904
4.8531 -8.2030 1.5904
5.1446 -8.0211 1.5904
5.4293 -7.8290 1.5904
5.7539 -7.6897 1.6035
6.0263 -7.4762 1.6035
6.9062 -7.9623 1.7604
6.8941 -7.3924 1.6884
6.9323 -6.9159 1.6358
6.9865 -6.4848 1.5925
7.1148 -6.1416 1.5703
6.6576 -5.3407 1.4261
6.4973 -4.8378 1.3535
6.4660 -4.4615 1.3126
6.4632 -4.1239 1.2810
6.6560 -3.9167 1.2904
6.8504 -3.7054 1.3013
7.0021 -3.4673 1.3054
7.0675 -3.1878 1.2952
7.1250 -2.9095 1.2855
7.1817 -2.6348 1.2777
2.7995 -0.9140 0.4918
6.2520 -1.7947 1.0861
6.2482 -1.5522 1.0748
6.1674 -1.2980 1.0520
5.9363 -1.0275 1.0054
5.7862 -0.7880 0.9743
5.6821 -0.5661 0.9525
5.6344 -0.3569 0.9415
5.5955 -0.1523 0.9332
5.5837 0.0494 0.9307
5.5815 0.2507 0.9309
5.5967 0.4539 0.9353
5.5638 0.6538 0.9328
5.5551 0.8568 0.9356
5.5383 1.0598 0.9383
5.5090 1.2615 0.9401
5.5143 1.4737 0.9490
5.5194 1.6904 0.9594
5.5672 1.9271 0.9788
5.7017 2.2068 1.0153
7.0692 3.0334 1.2770
7.0391 3.3257 1.2918
6.8851 3.5618 1.2857
6.7624 3.8134 1.2870
6.7315 4.1225 1.3080
6.8080 4.5144 1.3529
-8.3226 2.0123 1.5904
-8.3883 1.7110 1.5904
-8.4429 1.4075 1.5904
-8.4864 1.1023 1.5904
-8.5188 0.7958 1.5904
-8.5399 0.4884 1.5904
-8.5499 0.1805 1.5904
-8.5486 -0.1275 1.5904
-8.5362 -0.4352 1.5904
-8.5126 -0.7421 1.5904
-8.4778 -1.0479 1.5904
-6.5704 -1.0536 1.2393
-8.3751 -1.6544 1.5904
-8.3073 -1.9544 1.5904
-8.2287 -2.2515 1.5904
-8.1394 -2.5455 1.5904
-8.0395 -2.8360 1.5904
-7.9292 -3.1226 1.5904
-7.8086 -3.4048 1.5904
-7.6779 -3.6825 1.5904
-7.5372 -3.9550 1.5904
-7.3869 -4.2222 1.5904
-7.2270 -4.4837 1.5904
-7.0578 -4.7392 1.5904
-7.3016 -5.2942 1.6880
-7.1268 -5.5699 1.6937
-6.9194 -5.8212 1.6939
-6.7031 -6.0648 1.6941
-6.4782 -6.3003 1.6943
-6.2450 -6.5275 1.6945
-6.0039 -6.7461 1.6947
-5.7551 -6.9557 1.6949
-5.4990 -7.1562 1.6952
-5.2359 -7.3473 1.6954
-4.9662 -7.5287 1.6956
-4.6902 -7.7003 1.6958
-4.4083 -7.8617 1.6960
-4.1208 -8.0128 1.6962
-3.8282 -8.1534 1.6965
-3.5307 -8.2830 1.6966
-3.2281 -8.3999 1.6963
-2.9216 -8.5059 1.6961
-2.6117 -8.6007 1.6959
-2.2988 -8.6843 1.6956
-1.9833 -8.7565 1.6954
-1.6656 -8.8174 1.6952
-1.3460 -8.8668 1.6949
-1.0251 -8.9047 1.6947
-0.7032 -8.9311 1.6945
-0.3807 -8.9460 1.6942
-0.0580 -8.9493 1.6940
0.2644 -8.9411 1.6938
0.5861 -8.9215 1.6936
0.8993 -8.8162 1.6792
1.1517 -8.3111 1.5904
1.4536 -8.2822 1.5944
1.7462 -8.2012 1.5904
2.0400 -8.1305 1.5904
2.3310 -8.0493 1.5904
2.6189 -7.9579 1.5904
2.9032 -7.8562 1.5904
3.1837 -7.7445 1.5904
3.4599 -7.6229 1.5904
3.7315 -7.4916 1.5904
3.9982 -7.3507 1.5904
4.2597 -7.2004 1.5904
4.5157 -7.0409 1.5904
4.7657 -6.8724 1.5904
5.0095 -6.6951 1.5904
5.2468 -6.5094 1.5904
5.4774 -6.3152 1.5904
5.7008 -6.1131 1.5904
5.9169 -5.9031 1.5904
6.6922 -6.2117 1.7376
6.5303 -5.6372 1.6418
6.5122 -5.2241 1.5890
6.3461 -4.7252 1.5059
6.3199 -4.3607 1.4614
6.3479 -4.0502 1.4332
6.5520 -3.8554 1.4469
6.7597 -3.6563 1.4626
6.9875 -3.4600 1.4839
7.0693 -3.1886 1.4758
7.1268 -2.9101 1.4648
7.1447 -2.6212 1.4479
2.7992 -0.9139 0.5602
6.2523 -1.7946 1.2373
6.2668 -1.5567 1.2280
5.9525 -1.2527 1.1567
5.7796 -1.0003 1.1151
5.6937 -0.7752 1.0922
5.6044 -0.5582 1.0703
5.5595 -0.3520 1.0584
5.5506 -0.1509 1.0547
5.5492 0.0492 1.0539
5.5775 0.2507 1.0600
5.5963 0.4541 1.0657
5.5668 0.6544 1.0636
5.5488 0.8560 1.0650
5.5073 1.0541 1.0633
5.4827 1.2557 1.0663
5.4877 1.4669 1.0765
5.4974 1.6839 1.0892
5.5703 1.9284 1.1163
5.6816 2.1993 1.1533
6.8431 2.9367 1.4092
7.0987 3.3542 1.4851
7.0658 3.6558 1.5043
6.9115 3.8978 1.4998
6.9944 4.2839 1.5496
7.3884 4.8999 1.6743
-7.3915 1.7873 1.5904
-7.4499 1.5198 1.5904
-7.4985 1.2503 1.5904
-7.5373 0.9793 1.5904
-7.5663 0.7071 1.5904
-7.5853 0.4340 1.5904
-7.5943 0.1605 1.5904
-7.5934 -0.1130 1.5904
-7.5826 -0.3863 1.5904
-7.5618 -0.6590 1.5904
-7.5312 -0.9306 1.5904
-6.5638 -1.0523 1.3936
-7.4404 -1.4695 1.5904
-7.3805 -1.7360 1.5904
-7.3109 -2.0001 1.5904
-7.2319 -2.2614 1.5904
-7.1434 -2.5196 1.5904
-7.0457 -2.7743 1.5904
-6.9388 -3.0252 1.5904
-6.8229 -3.2720 1.5904
-6.6982 -3.5144 1.5904
-6.5649 -3.7520 1.5904
-6.5471 -4.0615 1.6212
-6.7093 -4.5046 1.7010
-6.5117 -4.7209 1.6936
-6.3357 -4.9511 1.6938
-6.1515 -5.1746 1.6940
-5.9594 -5.3913 1.6942
-5.7596 -5.6009 1.6944
-5.5525 -5.8031 1.6946
-5.3383 -5.9976 1.6948
-5.1173 -6.1842 1.6950
-4.8897 -6.3627 1.6952
-4.6560 -6.5328 1.6954
-4.4163 -6.6943 1.6956
-4.1711 -6.8471 1.6957
-3.9205 -6.9909 1.6959
-3.6650 -7.1256 1.6961
-3.4049 -7.2509 1.6963
-3.1406 -7.3668 1.6965
-2.8719 -7.4721 1.6965
-2.5995 -7.5667 1.6963
-2.3239 -7.6515 1.6961
-2.0457 -7.7263 1.6958
-1.7650 -7.7910 1.6956
-1.4824 -7.8456 1.6954
-1.1981 -7.8901 1.6952
-0.9126 -7.9243 1.6950
-0.6261 -7.9482 1.6948
-0.3392 -7.9619 1.6946
-0.0520 -7.9652 1.6944
0.2350 -7.9583 1.6942
0.5214 -7.9411 1.6939
0.8069 -7.9137 1.6937
1.0911 -7.8762 1.6935
1.3522 -7.7063 1.6669
1.5539 -7.2995 1.5904
1.8393 -7.3316 1.6113
2.0746 -7.1647 1.5904
2.3309 -7.0835 1.5904
2.5840 -6.9932 1.5904
2.8338 -6.8940 1.5904
3.0797 -6.7859 1.5904
3.3216 -6.6691 1.5904
3.5592 -6.5438 1.5904
3.7920 -6.4102 1.5904
4.0200 -6.2683 1.5904
4.2426 -6.1184 1.5904
4.4598 -5.9607 1.5904
4.6712 -5.7953 1.5904
4.8765 -5.6226 1.5904
5.0755 -5.4426 1.5904
5.2679 -5.2557 1.5904
5.4536 -5.0621 1.5904
5.6322 -4.8620 1.5904
5.8036 -4.6556 1.5904
5.9675 -4.4433 1.5904
6.2616 -4.3204 1.6263
6.3175 -4.0309 1.6020
6.5005 -3.8251 1.6123
6.5982 -3.5688 1.6035
6.6146 -3.2752 1.5777
6.6246 -2.9879 1.5533
6.6285 -2.7065 1.5302
6.6137 -2.4262 1.5054
2.7989 -0.9138 0.6291
6.3275 -1.8161 1.4065
6.3118 -1.5677 1.3893
5.8083 -1.2222 1.2678
5.6451 -0.9769 1.2235
5.5756 -0.7590 1.2015
5.5231 -0.5500 1.1849
5.4871 -0.3472 1.1735
5.5077 -0.1496 1.1757
5.5294 0.0492 1.1797
5.5736 0.2507 1.1900
5.6038 0.4549 1.1989
5.5706 0.6550 1.1957
5.5186 0.8515 1.1901
5.4728 1.0477 1.1872
5.4565 1.2500 1.1923
5.4667 1.4615 1.2049
5.4847 1.6803 1.2211
5.5828 1.9331 1.2573
5.7031 2.2079 1.3010
6.6293 2.8453 1.5342
6.8763 3.2495 1.6168
7.0438 3.6448 1.6854
7.2041 4.0633 1.7571
7.1118 4.3563 1.7711
7.0173 4.6543 1.7875
-6.6414 1.6061 1.5904
-6.6940 1.3657 1.5904
-6.7378 1.1236 1.5904
-6.7728 0.8801 1.5904
-6.7989 0.6355 1.5904
-6.8161 0.3902 1.5904
-6.8244 0.1445 1.5904
-6.8237 -0.1014 1.5904
-6.8141 -0.3470 1.5904
-6.7956 -0.5920 1.5904
-6.7683 -0.8361 1.5904
-6.5572 -1.0510 1.5491
-6.6871 -1.3205 1.5904
-6.6334 -1.5600 1.5904
-6.5711 -1.7974 1.5904
-6.5002 -2.0323 1.5904
-6.4209 -2.2644 1.5904
-6.3333 -2.4934 1.5904
-6.2374 -2.7191 1.5904
-6.1335 -2.9410 1.5904
-6.2291 -3.2679 1.6453
-6.2845 -3.5914 1.6935
-6.1493 -3.8143 1.6936
-6.0064 -4.0323 1.6938
-5.8558 -4.2450 1.6939
-5.6976 -4.4520 1.6941
-5.5321 -4.6531 1.6943
-5.3595 -4.8481 1.6944
-5.1800 -5.0367 1.6946
-4.9939 -5.2186 1.6947
-4.8013 -5.3937 1.6949
-4.6027 -5.5616 1.6951
-4.3981 -5.7223 1.6952
-4.1880 -5.8755 1.6954
-3.9725 -6.0209 1.6956
-3.7520 -6.1585 1.6958
-3.5268 -6.2880 1.6959
-3.2971 -6.4093 1.6961
-3.0632 -6.5222 1.6963
-2.8255 -6.6267 1.6965
-2.5841 -6.7222 1.6966
-2.3391 -6.8077 1.6964
-2.0913 -6.8843 1.6962
-1.8410 -6.9519 1.6960
-1.5886 -7.0105 1.6958
-1.3343 -7.0599 1.6956
-1.0785 -7.1002 1.6954
-0.8216 -7.1313 1.6952
-0.5639 -7.1531 1.6950
-0.3056 -7.1657 1.6948
-0.0471 -7.1690 1.6946
0.2112 -7.1631 1.6944
0.4690 -7.1480 1.6942
0.7260 -7.1236 1.6940
0.9819 -7.0901 1.6939
1.2363 -7.0475 1.6937
1.4890 -6.9959 1.6935
1.7019 -6.7850 1.6567
1.8671 -6.4491 1.5904
2.1081 -6.4071 1.5982
2.3258 -6.2950 1.5904
2.5507 -6.2058 1.5904
2.7722 -6.1087 1.5904
2.9900 -6.0037 1.5904
3.2039 -5.8910 1.5904
3.4136 -5.7707 1.5904
3.6188 -5.6431 1.5904
3.8194 -5.5082 1.5904
4.0149 -5.3663 1.5904
4.2053 -5.2175 1.5904
4.3902 -5.0620 1.5904
4.5694 -4.9001 1.5904
4.7427 -4.7318 1.5904
4.9099 -4.5575 1.5904
5.0708 -4.3774 1.5904
5.2251 -4.1916 1.5904
5.3726 -4.0004 1.5904
5.5133 -3.8041 1.5904
5.6469 -3.6029 1.5904
5.7732 -3.3971 1.5904
5.8921 -3.1869 1.5904
6.0034 -2.9726 1.5904
6.1070 -2.7544 1.5904
6.1334 -2.5043 1.5727
6.1443 -2.2540 1.5535
2.7986 -0.9136 0.6987
6.1544 -1.7663 1.5195
5.9352 -1.4741 1.4511
5.6549 -1.1898 1.3710
5.5155 -0.9543 1.3278
5.4613 -0.7433 1.3073
5.4433 -0.5419 1.2972
5.4599 -0.3454 1.2971
5.4884 -0.1489 1.3015
5.5096 0.0492 1.3058
5.5672 0.2506 1.3205
5.6021 0.4550 1.3315
5.5414 0.6518 1.3215
5.4883 0.8471 1.3149
5.4385 1.0413 1.3108
5.4366 1.2456 1.3200
5.4542 1.4584 1.3358
5.4900 1.6822 1.3582
5.6008 1.9395 1.4015
5.7398 2.2224 1.4550
6.4114 2.7521 1.6488
6.0867 2.8767 1.5904
5.9810 3.0952 1.5904
5.8675 3.3098 1.5904
5.7463 3.5202 1.5904
5.6176 3.7263 1.5904
-6.0236 1.4568 1.5904
-6.0714 1.2388 1.5904
-6.1266 1.0218 1.5944
-6.1430 0.7984 1.5904
-6.1668 0.5766 1.5904
-6.1825 0.3541 1.5904
-6.1901 0.1312 1.5904
-6.1897 -0.0917 1.5904
-6.1811 -0.3145 1.5904
-6.1645 -0.5368 1.5904
-6.1398 -0.7583 1.5904
-6.1276 -0.9819 1.5958
-6.0664 -1.1976 1.5904
-6.0179 -1.4150 1.5904
-5.9720 -1.6333 1.5933
-5.9978 -1.8749 1.6175
-6.0240 -2.1241 1.6446
-6.0507 -2.3819 1.6747
-6.0262 -2.6267 1.6935
-5.9260 -2.8412 1.6936
-5.8183 -3.0520 1.6936
-5.7035 -3.2590 1.6938
-5.5811 -3.4615 1.6939
-5.4516 -3.6594 1.6941
-5.3150 -3.8525 1.6942
-5.1715 -4.0405 1.6944
-5.0214 -4.2231 1.6945
-4.8648 -4.4001 1.6946
-4.7020 -4.5714 1.6948
-4.5332 -4.7367 1.6949
-4.3585 -4.8957 1.6951
-4.1783 -5.0483 1.6953
-3.9927 -5.1943 1.6954
-3.8021 -5.3334 1.6956
-3.6066 -5.4656 1.6957
-3.4065 -5.5906 1.6959
-3.2020 -5.7083 1.6960
-2.9936 -5.8186 1.6962
-2.7813 -5.9212 1.6964
-2.5656 -6.0162 1.6965
-2.3463 -6.1027 1.6965
-2.1240 -6.1806 1.6964
-1.8991 -6.2504 1.6962
-1.6719 -6.3121 1.6960
-1.4428 -6.3656 1.6958
-1.2119 -6.4107 1.6956
-0.9797 -6.4476 1.6955
-0.7464 -6.4761 1.6953
-0.5124 -6.4961 1.6951
-0.2778 -6.5078 1.6949
-0.0431 -6.5111 1.6948
0.1915 -6.5059 1.6946
0.4257 -6.4924 1.6944
0.6592 -6.4705 1.6942
0.8917 -6.4403 1.6941
1.1228 -6.4017 1.6939
1.3524 -6.3550 1.6938
1.5800 -6.3001 1.6936
1.8056 -6.2375 1.6935
1.9321 -5.8728 1.6127
2.1124 -5.7181 1.5904
2.3167 -5.6371 1.5904
2.5180 -5.5490 1.5904
2.7159 -5.4537 1.5904
2.9102 -5.3514 1.5904
3.1008 -5.2422 1.5904
3.2873 -5.1263 1.5904
3.4695 -5.0039 1.5904
3.6472 -4.8750 1.5904
3.8202 -4.7399 1.5904
3.9882 -4.5986 1.5904
4.1510 -4.4515 1.5904
4.3085 -4.2987 1.5904
4.4604 -4.1404 1.5904
4.6066 -3.9767 1.5904
4.7468 -3.8079 1.5904
4.8809 -3.6343 1.5904
5.0087 -3.4559 1.5904
5.1300 -3.2732 1.5904
5.2448 -3.0861 1.5904
5.3528 -2.8952 1.5904
5.4539 -2.7004 1.5904
5.5480 -2.5022 1.5904
5.6349 -2.3007 1.5904
5.7147 -2.0963 1.5904
2.7983 -0.9135 0.7691
5.7553 -1.6516 1.5642
5.6353 -1.3995 1.5167
5.5080 -1.1588 1.4700
5.4131 -0.9365 1.4346
5.4120 -0.7365 1.4261
5.4000 -0.5374 1.4167
5.4097 -0.3420 1.4149
5.4515 -0.1477 1.4232
5.4969 0.0493 1.4343
5.5563 0.2503 1.4509
5.5632 0.4520 1.4558
5.5100 0.6483 1.4467
5.4452 0.8406 1.4364
5.3766 1.0297 1.4268
5.4096 1.2397 1.4461
5.4416 1.4553 1.4674
5.5052 1.6871 1.4996
5.6308 1.9502 1.5516
5.6732 2.1969 1.5836
5.6161 2.4110 1.5904
5.5272 2.6126 1.5904
5.4310 2.8109 1.5904
5.3278 3.0057 1.5904
5.2176 3.1967 1.5904
5.1006 3.3837 1.5904
-5.8624 1.4179 1.6935
-5.9090 1.2058 1.6935
-5.9342 0.9899 1.6897
-5.9320 0.7711 1.6803
-5.9304 0.5547 1.6733
-5.9285 0.3397 1.6685
-5.9300 0.1259 1.6668
-5.9316 -0.0877 1.6674
-5.9329 -0.3017 1.6701
-5.9341 -0.5165 1.6749
-5.9350 -0.7327 1.6818
-5.9353 -0.9509 1.6909
-5.9051 -1.1656 1.6935
-5.8580 -1.3771 1.6935
-5.8032 -1.5868 1.6935
-5.7410 -1.7944 1.6936
-5.6714 -1.9995 1.6936
-5.5944 -2.2019 1.6936
-5.5101 -2.4014 1.6937
-5.4187 -2.5977 1.6937
-5.3203 -2.7904 1.6938
-5.2150 -2.9795 1.6938
-5.1036 -3.1650 1.6941
-4.9857 -3.3463 1.6943
-4.8609 -3.5229 1.6945
-4.7298 -3.6949 1.6946
-4.5926 -3.8621 1.6948
-4.4495 -4.0241 1.6949
-4.3007 -4.1808 1.6950
-4.1463 -4.3320 1.6951
-3.9866 -4.4775 1.6953
-3.8218 -4.6171 1.6954
-3.6522 -4.7507 1.6955
-3.4778 -4.8781 1.6957
-3.2991 -4.9990 1.6958
-3.1161 -5.1135 1.6960
-2.9292 -5.2213 1.6961
-2.7386 -5.3222 1.6963
-2.5445 -5.4163 1.6964
-2.3472 -5.5032 1.6966
-2.1466 -5.5822 1.6965
-1.9433 -5.6537 1.6963
-1.7376 -5.7177 1.6962
-1.5298 -5.7744 1.6960
-1.3202 -5.8235 1.6958
-1.1091 -5.8650 1.6957
-0.8967 -5.8989 1.6955
-0.6832 -5.9251 1.6953
-0.4691 -5.9437 1.6952
-0.2545 -5.9546 1.6950
-0.0397 -5.9577 1.6949
0.1750 -5.9532 1.6947
0.3893 -5.9410 1.6945
0.6030 -5.9211 1.6944
0.8157 -5.8936 1.6942
1.0273 -5.8585 1.6941
1.2374 -5.8159 1.6939
1.4458 -5.7658 1.6938
1.6522 -5.7083 1.6936
1.8564 -5.6436 1.6935
2.0130 -5.4495 1.6563
2.1200 -5.1588 1.5904
2.3540 -5.1880 1.6248
2.4853 -4.9910 1.5904
2.6632 -4.8975 1.5904
2.8377 -4.7976 1.5904
3.0084 -4.6916 1.5904
3.1752 -4.5796 1.5904
3.3379 -4.4617 1.5904
3.4962 -4.3380 1.5904
3.6500 -4.2088 1.5904
3.7991 -4.0742 1.5904
3.9432 -3.9343 1.5904
4.0823 -3.7894 1.5904
4.2161 -3.6396 1.5904
4.3444 -3.4852 1.5904
4.4672 -3.3262 1.5904
4.5841 -3.1630 1.5904
4.6952 -2.9957 1.5904
4.8002 -2.8245 1.5904
4.8991 -2.6497 1.5904
4.9916 -2.4715 1.5904
5.0777 -2.2900 1.5904
5.1573 -2.1056 1.5904
5.2302 -1.9185 1.5904
2.7980 -0.9133 0.8402
5.3558 -1.5369 1.5904
5.4082 -1.3430 1.5904
5.4226 -1.1407 1.5814
5.3390 -0.9235 1.5461
5.3475 -0.7276 1.5397
5.3549 -0.5328 1.5351
5.3600 -0.3387 1.5318
5.4299 -0.1470 1.5490
5.4920 0.0494 1.5659
5.5386 0.2497 1.5805
5.5251 0.4491 1.5799
5.4780 0.6447 1.5718
5.3665 0.8287 1.5470
5.2993 1.0151 1.5369
5.3341 1.2226 1.5584
5.3870 1.4409 1.5876
5.3423 1.6374 1.5904
5.2812 1.8294 1.5904
5.2131 2.0190 1.5904
5.1383 2.2062 1.5904
5.0568 2.3906 1.5904
4.9687 2.5720 1.5904
4.8742 2.7501 1.5904
4.7733 2.9248 1.5904
4.6661 3.0958 1.5904
-5.3927 1.3045 1.6935
-5.4356 1.1093 1.6935
-5.4714 0.9128 1.6935
-5.5000 0.7151 1.6935
-5.5214 0.5166 1.6935
-5.5356 0.3174 1.6935
-5.5426 0.1178 1.6935
-5.5423 -0.0818 1.6935
-5.5348 -0.2813 1.6935
-5.5201 -0.4803 1.6935
-5.4981 -0.6786 1.6935
-5.4690 -0.8760 1.6935
-5.4328 -1.0721 1.6935
-5.3895 -1.2668 1.6935
-5.3393 -1.4597 1.6935
-5.2826 -1.6509 1.6937
-5.2186 -1.8396 1.6938
-5.1479 -2.0259 1.6938
-5.0704 -2.2095 1.6938
-4.9864 -2.3901 1.6939
-4.8960 -2.5676 1.6939
-4.7992 -2.7416 1.6940
-4.6962 -2.9120 1.6940
-4.5876 -3.0788 1.6942
-4.4731 -3.2416 1.6945
-4.3529 -3.4001 1.6947
-4.2270 -3.5542 1.6949
-4.0954 -3.7034 1.6951
-3.9585 -3.8477 1.6952
-3.8165 -3.9870 1.6953
-3.6696 -4.1210 1.6955
-3.5180 -4.2496 1.6956
-3.3619 -4.3726 1.6957
-3.2015 -4.4899 1.6958
-3.0370 -4.6013 1.6960
-2.8686 -4.7068 1.6961
-2.6966 -4.8060 1.6962
-2.5212 -4.8991 1.6964
-2.3425 -4.9857 1.6965
-2.1608 -5.0656 1.6966
-1.9762 -5.1382 1.6964
-1.7891 -5.2042 1.6963
-1.5998 -5.2633 1.6961
-1.4086 -5.3156 1.6960
-1.2157 -5.3610 1.6959
-1.0213 -5.3994 1.6957
-0.8258 -5.4307 1.6955
-0.6293 -5.4551 1.6954
-0.4322 -5.4723 1.6952
-0.2346 -5.4825 1.6951
-0.0368 -5.4855 1.6950
0.1609 -5.4815 1.6948
0.3582 -5.4704 1.6947
0.5550 -5.4522 1.6945
0.7509 -5.4271 1.6944
0.9458 -5.3949 1.6942
1.1393 -5.3557 1.6941
1.3312 -5.3097 1.6940
1.5214 -5.2569 1.6938
1.7094 -5.1973 1.6937
1.8952 -5.1310 1.6936
2.0785 -5.0584 1.6935
2.1281 -4.6906 1.5953
2.2885 -4.5961 1.5904
2.4524 -4.5100 1.5904
2.6130 -4.4181 1.5904
2.7703 -4.3205 1.5904
2.9239 -4.2174 1.5904
3.0738 -4.1088 1.5904
3.2196 -3.9950 1.5904
3.3613 -3.8760 1.5904
3.4986 -3.7520 1.5904
3.6314 -3.6232 1.5904
3.7595 -3.4898 1.5904
3.8827 -3.3519 1.5904
4.0009 -3.2096 1.5904
4.1139 -3.0632 1.5904
4.2217 -2.9129 1.5904
4.3240 -2.7588 1.5904
4.4207 -2.6012 1.5904
4.5117 -2.4402 1.5904
4.5969 -2.2760 1.5904
4.6762 -2.1089 1.5904
4.7494 -1.9390 1.5904
2.7636 -1.0137 0.9126
2.7977 -0.9132 0.9123
2.8299 -0.8120 0.9126
4.9805 -1.2366 1.5904
5.0223 -1.0564 1.5904
5.0577 -0.8747 1.5904
5.0866 -0.6919 1.5904
5.1090 -0.5082 1.5904
5.1247 -0.3237 1.5904
5.1338 -0.1388 1.5904
5.1363 0.0464 1.5904
5.1322 0.2315 1.5904
5.1214 0.4165 1.5904
5.1040 0.6009 1.5904
5.0801 0.7847 1.5904
5.0495 0.9675 1.5904
5.0124 1.1491 1.5904
4.9688 1.3293 1.5904
4.9188 1.5079 1.5904
4.8624 1.6846 1.5904
4.7996 1.8591 1.5904
4.7307 2.0314 1.5904
4.6555 2.2011 1.5904
4.5743 2.3681 1.5904
4.4872 2.5321 1.5904
4.3942 2.6929 1.5904
4.2955 2.8502 1.5904
-4.9876 1.2066 1.6935
-5.0273 1.0261 1.6935
-5.0604 0.8444 1.6935
-5.0869 0.6615 1.6935
-5.1067 0.4779 1.6935
-5.1199 0.2937 1.6935
-5.1264 0.1091 1.6935
-5.1262 -0.0755 1.6935
-5.1194 -0.2600 1.6935
-5.1058 -0.4440 1.6935
-5.0856 -0.6275 1.6935
-5.0588 -0.8101 1.6935
-5.0253 -0.9915 1.6935
-4.9854 -1.1716 1.6935
-4.9389 -1.3500 1.6935
-4.8863 -1.5268 1.6936
-4.8276 -1.7016 1.6938
-4.7625 -1.8740 1.6939
-4.6909 -2.0439 1.6940
-4.6133 -2.2110 1.6940
-4.5297 -2.3752 1.6940
-4.4402 -2.5362 1.6941
-4.3450 -2.6939 1.6941
-4.2442 -2.8480 1.6942
-4.1382 -2.9985 1.6943
-4.0270 -3.1452 1.6946
-3.9106 -3.2878 1.6948
-3.7891 -3.4261 1.6950
-3.6627 -3.5598 1.6952
-3.5316 -3.6890 1.6955
-3.3958 -3.8131 1.6956
-3.2556 -3.9322 1.6957
-3.1112 -4.0461 1.6959
-2.9628 -4.1547 1.6960
-2.8106 -4.2579 1.6961
-2.6549 -4.3555 1.6962
-2.4957 -4.4474 1.6964
-2.3334 -4.5336 1.6965
-2.1681 -4.6138 1.6966
-1.9998 -4.6874 1.6965
-1.8290 -4.7547 1.6964
-1.6559 -4.8159 1.6962
-1.4808 -4.8707 1.6961
-1.3038 -4.9193 1.6960
-1.1253 -4.9614 1.6958
-0.9455 -4.9970 1.6957
-0.7645 -5.0262 1.6956
-0.5827 -5.0488 1.6954
-0.4002 -5.0649 1.6953
-0.2174 -5.0745 1.6951
-0.0343 -5.0774 1.6950
0.1487 -5.0738 1.6949
0.3314 -5.0636 1.6947
0.5135 -5.0469 1.6946
0.6949 -5.0237 1.6945
0.8753 -4.9940 1.6943
1.0545 -4.9579 1.6942
1.2322 -4.9154 1.6941
1.4082 -4.8665 1.6940
1.5823 -4.8114 1.6938
1.7543 -4.7501 1.6937
1.9240 -4.6827 1.6936
2.0912 -4.6095 1.6935
2.1394 -4.2969 1.6062
2.2701 -4.1750 1.5904
2.4189 -4.0900 1.5904
2.5645 -3.9997 1.5904
2.7067 -3.9042 1.5904
2.8454 -3.8038 1.5904
2.9805 -3.6984 1.5904
3.1117 -3.5883 1.5904
3.2388 -3.4735 1.5904
3.3617 -3.3543 1.5904
3.4803 -3.2308 1.5904
3.5944 -3.1031 1.5904
3.7039 -2.9714 1.5904
3.8085 -2.8359 1.5904
3.9083 -2.6967 1.5904
4.0030 -2.5540 1.5904
4.0925 -2.4081 1.5904
4.1768 -2.2590 1.5904
4.2557 -2.1070 1.5904
4.3290 -1.9523 1.5904
4.3968 -1.7950 1.5904
2.7321 -1.0021 0.9745
2.7311 -0.8914 0.9620
2.7814 -0.7980 0.9688
4.6106 -1.1447 1.5904
4.6494 -0.9778 1.5904
4.6821 -0.8097 1.5904
4.7088 -0.6404 1.5904
4.7294 -0.4703 1.5904
4.7440 -0.2995 1.5904
4.7524 -0.1283 1.5904
4.7546 0.0431 1.5904
4.7507 0.2145 1.5904
4.7407 0.3857 1.5904
4.7246 0.5564 1.5904
4.7023 0.7265 1.5904
4.6739 0.8957 1.5904
4.6396 1.0638 1.5904
4.5991 1.2306 1.5904
4.5527 1.3959 1.5904
4.5005 1.5594 1.5904
4.4423 1.7210 1.5904
4.3784 1.8804 1.5904
4.3088 2.0375 1.5904
4.2336 2.1920 1.5904
4.1528 2.3437 1.5904
4.0667 2.4924 1.5904
3.9752 2.6380 1.5904
-4.6342 1.1212 1.6935
-4.6711 0.9535 1.6935
-4.7019 0.7847 1.6935
-4.7266 0.6148 1.6935
-4.7451 0.4442 1.6935
-4.7574 0.2730 1.6935
-4.7634 0.1016 1.6935
-4.7633 -0.0700 1.6935
-4.7570 -0.2414 1.6935
-4.7444 -0.4124 1.6935
-4.7257 -0.5829 1.6935
-4.7008 -0.7525 1.6935
-4.6698 -0.9211 1.6935
-4.6327 -1.0885 1.6935
-4.5896 -1.2544 1.6935
-4.5406 -1.4185 1.6935
-4.4860 -1.5809 1.6937
-4.4257 -1.7412 1.6939
-4.3596 -1.8993 1.6940
-4.2876 -2.0547 1.6941
-4.2100 -2.2073 1.6941
-4.1269 -2.3570 1.6942
-4.0385 -2.5035 1.6942
-3.9448 -2.6468 1.6943
-3.8461 -2.7865 1.6943
-3.7426 -2.9228 1.6944
-3.6344 -3.0553 1.6946
-3.5216 -3.1838 1.6948
-3.4041 -3.3081 1.6951
-3.2823 -3.4282 1.6953
-3.1563 -3.5437 1.6955
-3.0261 -3.6546 1.6957
-2.8921 -3.7607 1.6959
-2.7543 -3.8618 1.6960
-2.6130 -3.9579 1.6962
-2.4682 -4.0487 1.6963
-2.3203 -4.1342 1.6964
-2.1694 -4.2144 1.6966
-2.0157 -4.2887 1.6966
-1.8592 -4.3571 1.6964
-1.7004 -4.4198 1.6963
-1.5396 -4.4768 1.6962
-1.3768 -4.5279 1.6961
-1.2123 -4.5731 1.6959
-1.0464 -4.6123 1.6958
-0.8792 -4.6456 1.6957
-0.7110 -4.6728 1.6956
-0.5420 -4.6940 1.6954
-0.3723 -4.7090 1.6953
-0.2023 -4.7180 1.6952
-0.0321 -4.7208 1.6951
0.1380 -4.7176 1.6949
0.3079 -4.7082 1.6948
0.4773 -4.6928 1.6947
0.6459 -4.6712 1.6945
0.8137 -4.6437 1.6944
0.9803 -4.6102 1.6943
1.1456 -4.5707 1.6942
1.3093 -4.5253 1.6940
1.4712 -4.4741 1.6939
1.6312 -4.4172 1.6938
1.7890 -4.3546 1.6937
1.9444 -4.2864 1.6936
2.0974 -4.2129 1.6935
2.1482 -3.9510 1.6186
2.2492 -3.8033 1.5904
2.4140 -3.7652 1.6101
2.5169 -3.6306 1.5904
2.6459 -3.5372 1.5904
2.7715 -3.4392 1.5904
2.8935 -3.3368 1.5904
3.0118 -3.2301 1.5904
3.1261 -3.1192 1.5904
3.2364 -3.0044 1.5904
3.3425 -2.8856 1.5904
3.4443 -2.7632 1.5904
3.5416 -2.6371 1.5904
3.6344 -2.5077 1.5904
3.7225 -2.3750 1.5904
3.8057 -2.2393 1.5904
3.8841 -2.1007 1.5904
3.9574 -1.9593 1.5904
4.0257 -1.8154 1.5904
4.0887 -1.6692 1.5904
2.7291 -1.0009 1.0468
2.7280 -0.8903 1.0333
2.7718 -0.7952 1.0383
4.2874 -1.0644 1.5904
4.3234 -0.9092 1.5904
4.3538 -0.7528 1.5904
4.3786 -0.5954 1.5904
4.3978 -0.4372 1.5904
4.4113 -0.2784 1.5904
4.4190 -0.1192 1.5904
4.4211 0.0402 1.5904
4.4174 0.1996 1.5904
4.4081 0.3588 1.5904
4.3930 0.5175 1.5904
4.3722 0.6757 1.5904
4.3458 0.8330 1.5904
4.3138 0.9893 1.5904
4.2761 1.1444 1.5904
4.2330 1.2980 1.5904
4.1843 1.4501 1.5904
4.1302 1.6003 1.5904
4.0707 1.7485 1.5904
4.0059 1.8945 1.5904
3.9359 2.0381 1.5904
3.8608 2.1791 1.5904
3.7806 2.3174 1.5904
3.6955 2.4527 1.5904
-4.3230 1.0460 1.6935
-4.3574 0.8896 1.6935
-4.3862 0.7321 1.6935
-4.4092 0.5736 1.6935
-4.4265 0.4145 1.6935
-4.4380 0.2548 1.6935
-4.4437 0.0949 1.6935
-4.4436 -0.0651 1.6935
-4.4377 -0.2250 1.6935
-4.4261 -0.3846 1.6935
-4.4087 -0.5436 1.6935
-4.3855 -0.7019 1.6935
-4.3566 -0.8592 1.6935
-4.3221 -1.0153 1.6935
-4.2819 -1.1701 1.6935
-4.2362 -1.3232 1.6935
-4.1851 -1.4746 1.6936
-4.1288 -1.6242 1.6937
-4.0672 -1.7716 1.6939
-4.0004 -1.9167 1.6941
-3.9283 -2.0593 1.6942
-3.8508 -2.1990 1.6943
-3.7683 -2.3358 1.6943
-3.6810 -2.4695 1.6944
-3.5889 -2.5999 1.6944
-3.4922 -2.7269 1.6944
-3.3911 -2.8504 1.6945
-3.2858 -2.9703 1.6947
-3.1763 -3.0864 1.6949
-3.0627 -3.1984 1.6951
-2.9451 -3.3062 1.6953
-2.8237 -3.4096 1.6955
-2.6986 -3.5087 1.6956
-2.5701 -3.6031 1.6958
-2.4383 -3.6928 1.6960
-2.3033 -3.7777 1.6962
-2.1654 -3.8577 1.6963
-2.0246 -3.9325 1.6965
-1.8812 -4.0020 1.6965
-1.7352 -4.0660 1.6964
-1.5871 -4.1246 1.6963
-1.4370 -4.1778 1.6961
