ply
format ascii 1.0
element vertex 2153
property float32 x
property float32 y
property float32 z
end_header
-1.8815 30.6221 1.7765
-3.0935 31.6574 1.8412
-4.2531 31.6800 1.8492
-5.3957 31.5279 1.8492
-6.5339 31.3396 1.8492
-7.6667 31.1151 1.8492
-8.7933 30.8546 1.8492
-9.9126 30.5582 1.8492
-11.0236 30.2259 1.8492
-12.1254 29.8578 1.8492
-13.2172 29.4542 1.8492
-14.2977 29.0151 1.8492
-15.3661 28.5408 1.8492
-16.4213 28.0313 1.8492
-17.5686 27.6543 1.8605
-18.6008 27.0718 1.8605
-19.6166 26.4547 1.8605
-20.4438 25.5888 1.8450
-20.4161 23.7464 1.7589
-20.3907 22.0566 1.6819
-20.3672 20.4975 1.6127
-20.3455 19.0508 1.5504
-20.3252 17.7014 1.4941
-20.3061 16.4366 1.4430
-21.1696 15.9080 1.4572
-22.8036 15.8834 1.5234
-23.6761 15.2545 1.5378
-24.1490 14.3551 1.5277
-26.2026 14.3243 1.6172
-28.3422 14.1924 1.7092
-28.9610 13.2196 1.7092
-29.5496 12.2219 1.7092
-30.1069 11.2001 1.7092
-30.6320 10.1549 1.7092
-31.1237 9.0874 1.7092
-19.9120 5.0430 1.0777
-31.6518 6.8130 1.6905
-32.0329 5.6962 1.6905
-32.3180 4.5527 1.6874
-32.6237 3.4025 1.6874
-30.3962 2.0668 1.5594
-35.1406 1.1200 1.7905
-35.3382 -0.1473 1.7905
-24.6358 -0.9908 1.2428
-23.7091 -1.8107 1.1924
-23.0101 -2.5938 1.1552
-22.4367 -3.3515 1.1260
-21.9763 -4.0969 1.1038
-21.5761 -4.8324 1.0861
-21.2339 -5.5660 1.0728
-20.9431 -6.3042 1.0634
-20.7004 -7.0537 1.0579
-20.4459 -7.7996 1.0533
-20.4045 -8.6379 1.0611
-20.3145 -9.4766 1.0682
-20.2579 -10.3543 1.0789
-20.2108 -11.2661 1.0920
-30.7298 -18.6111 1.6874
-30.1803 -19.7981 1.6874
-20.0995 -14.2462 1.1465
-28.9384 -22.1190 1.6874
-28.6092 -23.5470 1.7091
-8.0373 -7.1159 0.4930
-7.4608 -7.1009 0.4711
-7.4530 -7.6235 0.4856
-7.3657 -8.0982 0.4967
-7.4484 -8.8063 0.5214
-7.4255 -9.4495 0.5413
-23.5015 -32.2323 1.7905
-22.3996 -33.1674 1.7905
-7.7878 -12.4780 0.6560
-7.3748 -12.8223 0.6577
-7.2803 -13.7839 0.6912
-16.5925 -34.3567 1.6872
4.4830 -3.8549 0.4057
19.3500 -15.4624 1.7049
19.8347 -14.7114 1.7049
20.2893 -13.9447 1.7049
20.4729 -13.0110 1.6851
20.2059 -11.8420 1.6321
19.4607 -10.4826 1.5454
19.3415 -9.5362 1.5127
19.3917 -8.7075 1.4961
19.5617 -7.9502 1.4912
19.8500 -7.2459 1.4975
20.2132 -6.5637 1.5113
20.4638 -5.8392 1.5186
20.5029 -5.0594 1.5123
20.3812 -4.2569 1.4963
20.2177 -3.4680 1.4794
19.7169 -2.6551 1.4400
18.7722 -1.8423 1.3701
18.2797 -1.1311 1.3351
17.9995 -0.4640 1.3172
18.1163 0.1858 1.3301
19.0162 0.8808 1.4026
19.8126 1.6346 1.4699
19.6661 2.3384 1.4694
19.6074 3.0513 1.4774
19.3196 3.7238 1.4699
19.0170 4.3815 1.4629
18.6046 4.9987 1.4490
18.4228 5.6689 1.4546
18.2133 6.3312 1.4599
18.0365 7.0078 1.4698
17.8555 7.6889 1.4813
17.6025 8.3441 1.4890
17.5199 9.0921 1.5133
19.1352 10.8227 1.6905
18.8373 11.5693 1.7049
18.3560 12.2059 1.7049
4.3405 3.1175 0.4144
4.0720 3.1531 0.4005
3.8023 3.1699 0.3859
3.7987 3.4063 0.3988
3.7949 3.6580 0.4130
15.0759 15.6183 1.7048
14.1665 15.7764 1.6690
13.3343 15.9719 1.6413
12.5937 16.2404 1.6245
11.8305 16.4476 1.6046
11.0768 16.6331 1.5857
10.3423 16.8136 1.5691
9.6325 17.0040 1.5560
8.9359 17.1910 1.5450
8.2173 17.3055 1.5299
7.4540 17.2792 1.5048
6.6933 17.1948 1.4773
6.0052 17.2409 1.4633
5.3450 17.3329 1.4553
4.7127 17.4987 1.4553
4.0831 17.6754 1.4579
3.4561 17.8769 1.4643
2.8404 18.1875 1.4812
2.2133 18.5306 1.5023
1.5744 18.9655 1.5325
0.9096 19.4326 1.5669
0.2148 20.0268 1.6132
-0.5296 20.9056 1.6844
-1.4866 24.1919 1.9520
-2.2342 22.8592 1.8492
-3.0578 22.7725 1.8492
-3.8785 22.6588 1.8492
-4.6955 22.5180 1.8492
-5.5081 22.3504 1.8492
-6.3153 22.1560 1.8492
-7.1165 21.9349 1.8492
-7.9109 21.6873 1.8492
-8.6976 21.4133 1.8492
-9.4759 21.1131 1.8492
-10.2450 20.7869 1.8492
-11.0040 20.4349 1.8492
-11.7523 20.0573 1.8492
-12.4889 19.6544 1.8492
-13.2130 19.2265 1.8492
-13.9241 18.7738 1.8492
-14.6210 18.2967 1.8492
-15.3032 17.7955 1.8492
-15.9698 17.2706 1.8492
-15.3224 15.4168 1.7049
-15.9060 14.8902 1.7049
-16.4730 14.3429 1.7049
-17.0227 13.7753 1.7049
-17.5544 13.1878 1.7049
-18.0674 12.5809 1.7049
-18.5609 11.9552 1.7049
-19.0832 11.3402 1.7092
-19.5368 10.6766 1.7092
-19.9689 9.9959 1.7092
-20.3788 9.2985 1.7092
-20.7656 8.5851 1.7092
-21.1442 7.8622 1.7105
-21.4834 7.1184 1.7105
-21.7976 6.3607 1.7105
-19.9060 5.0381 1.5416
-22.3489 4.8069 1.7105
-22.5847 4.0123 1.7105
-22.6599 3.1884 1.7005
-22.8395 2.3783 1.7005
-22.8536 1.5502 1.6903
-22.9900 0.7290 1.6914
-23.0983 -0.1000 1.6925
-23.1622 -0.9353 1.6925
-23.1760 -1.7738 1.6911
-23.1539 -2.6139 1.6892
-23.1022 -3.4547 1.6874
-24.4692 -4.5657 1.7917
-24.3794 -5.4643 1.7920
-24.2560 -6.3622 1.7923
-24.0975 -7.2577 1.7925
-23.9043 -8.1495 1.7925
-23.6764 -9.0361 1.7925
-23.4138 -9.9160 1.7924
-23.1078 -10.7837 1.7915
-22.7765 -11.6458 1.7912
-22.4071 -12.4946 1.7905
-22.0134 -13.3363 1.7905
-20.3441 -13.3495 1.6874
-19.9117 -14.1172 1.6874
-19.4493 -14.8700 1.6874
-18.9571 -15.6067 1.6874
-8.0192 -7.1016 0.7340
-7.4608 -7.1026 0.7039
-7.4529 -7.6252 0.7266
-7.3657 -8.0999 0.7441
-7.4468 -8.8063 0.7819
-7.4255 -9.4514 0.8129
-14.8834 -20.4167 1.7049
-14.1699 -20.9856 1.7049
-7.7261 -12.3815 0.9806
-7.3748 -12.8246 0.9920
-7.2802 -13.7863 1.0435
-11.0954 -22.9784 1.7049
4.4819 -3.8549 0.5397
14.5551 -11.6338 1.7049
14.9307 -11.0771 1.7049
15.2844 -10.5079 1.7049
15.6158 -9.9272 1.7049
15.9246 -9.3359 1.7049
16.2104 -8.7348 1.7049
16.4731 -8.1250 1.7049
16.7125 -7.5074 1.7049
16.9283 -6.8829 1.7049
17.1204 -6.2524 1.7049
17.2888 -5.6170 1.7049
17.4334 -4.9774 1.7049
17.5542 -4.3347 1.7049
17.6513 -3.6897 1.7049
17.7246 -3.0433 1.7049
17.7743 -2.3964 1.7049
17.8005 -1.7498 1.7049
17.8033 -1.1045 1.7049
17.7830 -0.4613 1.7049
17.7397 0.1791 1.7049
17.6737 0.8158 1.7049
17.5853 1.4480 1.7049
17.4747 2.0750 1.7049
17.3423 2.6959 1.7049
17.1884 3.3102 1.7049
17.0133 3.9170 1.7049
16.8175 4.5157 1.7049
16.6014 5.1056 1.7049
16.3653 5.6860 1.7049
16.1097 6.2564 1.7049
15.8350 6.8161 1.7049
15.5417 7.3645 1.7049
15.2304 7.9011 1.7049
14.9013 8.4253 1.7049
14.5552 8.9366 1.7049
14.1924 9.4345 1.7049
4.3405 3.1166 0.5357
4.0731 3.1531 0.5175
3.8023 3.1691 0.4983
3.7987 3.4054 0.5146
3.7950 3.6571 0.5326
11.6969 12.1150 1.7049
11.2329 12.5067 1.7049
10.7568 12.8818 1.7049
10.2690 13.2398 1.7049
9.7702 13.5805 1.7049
9.2608 13.9036 1.7049
8.7417 14.2088 1.7049
8.2132 14.4959 1.7049
7.6760 14.7645 1.7049
7.1308 15.0147 1.7049
6.5781 15.2460 1.7049
6.0185 15.4583 1.7049
5.4526 15.6516 1.7049
4.8810 15.8255 1.7049
4.4594 16.5558 1.7663
3.8534 16.6783 1.7645
3.2516 16.8162 1.7664
2.6522 16.9797 1.7731
2.0477 17.1419 1.7818
1.4397 17.3398 1.7963
0.8232 17.5834 1.8175
0.1908 17.7837 1.8365
-0.4592 18.1255 1.8722
-1.1332 18.4377 1.9072
-1.8479 18.9042 1.9607
-2.3852 17.7606 1.8492
-3.0251 17.6699 1.8492
-3.6618 17.5578 1.8492
-4.2948 17.4243 1.8492
-4.9234 17.2695 1.8492
-5.1137 15.7592 1.7049
-5.6832 15.5776 1.7049
-6.2467 15.3767 1.7049
-6.8038 15.1568 1.7049
-7.3537 14.9180 1.7049
-7.8960 14.6605 1.7049
-8.4298 14.3844 1.7049
-8.9548 14.0901 1.7049
-9.4703 13.7778 1.7049
-9.9756 13.4476 1.7049
-10.4703 13.0999 1.7049
-10.9537 12.7350 1.7049
-11.4252 12.3532 1.7049
-11.8843 11.9548 1.7049
-12.3304 11.5402 1.7049
-12.7628 11.1098 1.7049
-13.1812 10.6638 1.7049
-13.5848 10.2029 1.7049
-13.9732 9.7273 1.7049
-14.3458 9.2375 1.7049
-14.7021 8.7340 1.7049
-15.0416 8.2173 1.7049
-15.3638 7.6879 1.7049
-15.6681 7.1463 1.7049
-15.9541 6.5931 1.7049
-16.2213 6.0289 1.7049
-16.4692 5.4541 1.7049
-16.6975 4.8696 1.7049
-16.9056 4.2759 1.7049
-17.0493 3.6642 1.7005
-17.2156 3.0556 1.7005
-17.3605 2.4399 1.7005
-17.4839 1.8178 1.7005
-17.5854 1.1900 1.7005
-17.6646 0.5572 1.7005
-17.7213 -0.0796 1.7005
-17.7553 -0.7198 1.7005
-17.7662 -1.3627 1.7005
-17.7540 -2.0072 1.7005
-17.7184 -2.6525 1.7005
-17.6592 -3.2979 1.7005
-17.5765 -3.9425 1.7005
-17.4700 -4.5852 1.7005
-17.3398 -5.2254 1.7005
-17.1858 -5.8620 1.7005
-17.0081 -6.4941 1.7005
-16.8301 -7.1307 1.7029
-16.6245 -7.7611 1.7049
-16.3755 -8.3759 1.7049
-16.1032 -8.9824 1.7049
-15.8078 -9.5798 1.7049
-15.4896 -10.1671 1.7049
-15.1489 -10.7434 1.7049
-14.7861 -11.3077 1.7049
-14.4014 -11.8592 1.7049
-7.9679 -7.0579 0.9706
-7.4608 -7.1042 0.9374
-7.4529 -7.6269 0.9684
-7.3657 -8.1017 0.9924
-7.4452 -8.8063 1.0432
-7.4255 -9.4533 1.0854
-11.1402 -15.2849 1.7049
-10.6003 -15.7021 1.7049
-7.7323 -12.3937 1.3125
-7.3748 -12.8270 1.3274
-7.2802 -13.7888 1.3969
-4.0157 -8.3180 0.8264
4.4808 -3.8549 0.6742
11.6545 -9.3179 1.7049
11.9607 -8.8761 1.7049
12.2496 -8.4240 1.7049
12.5211 -7.9622 1.7049
12.7747 -7.4916 1.7049
13.0103 -7.0129 1.7049
13.2276 -6.5266 1.7049
13.4265 -6.0337 1.7049
13.6066 -5.5347 1.7049
13.7681 -5.0306 1.7049
13.9106 -4.5218 1.7049
14.0342 -4.0093 1.7049
14.1388 -3.4937 1.7049
14.2243 -2.9757 1.7049
14.2909 -2.4561 1.7049
14.3384 -1.9355 1.7049
14.3670 -1.4147 1.7049
14.3768 -0.8943 1.7049
14.3678 -0.3750 1.7049
14.3403 0.1424 1.7049
14.2943 0.6574 1.7049
14.2300 1.1694 1.7049
14.1478 1.6776 1.7049
14.0476 2.1814 1.7049
13.9299 2.6803 1.7049
13.7948 3.1737 1.7049
13.6426 3.6609 1.7049
13.4737 4.1414 1.7049
13.2884 4.6147 1.7049
13.0869 5.0802 1.7049
12.8696 5.5373 1.7049
12.6369 5.9857 1.7049
12.3891 6.4248 1.7049
12.1266 6.8542 1.7049
11.8498 7.2733 1.7049
11.5592 7.6818 1.7049
4.3406 3.1158 0.6575
4.0742 3.1531 0.6350
3.8023 3.1683 0.6111
3.7988 3.4046 0.6308
3.7950 3.6563 0.6527
9.5474 9.8865 1.7049
9.1717 10.2095 1.7049
8.7856 10.5189 1.7049
8.3896 10.8145 1.7049
7.9843 11.0959 1.7049
7.5701 11.3629 1.7049
7.1474 11.6153 1.7049
6.7169 11.8528 1.7049
6.2790 12.0752 1.7049
5.8342 12.2823 1.7049
5.3829 12.4739 1.7049
4.9259 12.6498 1.7049
4.4634 12.8100 1.7049
3.9961 12.9542 1.7049
3.5244 13.0823 1.7049
3.0490 13.1943 1.7049
2.5702 13.2899 1.7049
2.0886 13.3692 1.7049
1.6048 13.4320 1.7049
1.1193 13.4784 1.7049
0.6325 13.5082 1.7049
0.1451 13.5215 1.7049
-0.3425 13.5183 1.7049
-0.8298 13.4984 1.7049
-1.3161 13.4620 1.7049
-1.8011 13.4091 1.7049
-2.2841 13.3397 1.7049
-2.7646 13.2539 1.7049
-3.2422 13.1518 1.7049
-3.7163 13.0334 1.7049
-4.1863 12.8989 1.7049
-4.6518 12.7483 1.7049
-5.1122 12.5819 1.7049
-5.5671 12.3997 1.7049
-6.0159 12.2019 1.7049
-6.4581 11.9886 1.7049
-6.8932 11.7602 1.7049
-7.3208 11.5168 1.7049
-7.7402 11.2585 1.7049
-8.1510 10.9856 1.7049
-8.5527 10.6985 1.7049
-8.9449 10.3973 1.7049
-9.3270 10.0824 1.7049
-9.6987 9.7540 1.7049
-10.0593 9.4124 1.7049
-10.4084 9.0581 1.7049
-10.7457 8.6912 1.7049
-11.0706 8.3123 1.7049
-11.3827 7.9216 1.7049
-11.6815 7.5196 1.7049
-11.9668 7.1067 1.7049
-12.2379 6.6833 1.7049
-12.4947 6.2499 1.7049
-12.7365 5.8069 1.7049
-12.9632 5.3548 1.7049
-13.1742 4.8941 1.7049
-13.3693 4.4252 1.7049
-13.5482 3.9489 1.7049
-13.7104 3.4654 1.7049
-13.8558 2.9755 1.7049
-13.9840 2.4797 1.7049
-14.0947 1.9786 1.7049
-14.1877 1.4728 1.7049
-14.2628 0.9628 1.7049
-14.3197 0.4494 1.7049
-14.3582 -0.0669 1.7049
-14.3783 -0.5853 1.7049
-14.3797 -1.1053 1.7049
-14.3623 -1.6261 1.7049
-14.3260 -2.1470 1.7049
-14.2707 -2.6675 1.7049
-14.1964 -3.1867 1.7049
-14.1031 -3.7039 1.7049
-13.9908 -4.2185 1.7049
-13.8594 -4.7298 1.7049
-13.7092 -5.2369 1.7049
-13.5400 -5.7391 1.7049
-13.3521 -6.2359 1.7049
-13.1457 -6.7263 1.7049
-12.9208 -7.2097 1.7049
-12.6777 -7.6854 1.7049
-12.4167 -8.1525 1.7049
-12.1380 -8.6105 1.7049
-11.8419 -9.0586 1.7049
-11.5287 -9.4961 1.7049
-7.9762 -7.0670 1.2143
-7.4608 -7.1059 1.1720
-7.4529 -7.6286 1.2112
-7.3657 -8.1034 1.2417
-7.4436 -8.8063 1.3054
-7.4254 -9.4553 1.3591
-8.3383 -11.4429 1.5984
-7.9315 -11.7512 1.5984
-7.5128 -12.0443 1.5984
-7.0829 -12.3216 1.5984
-6.8947 -13.0610 1.6592
-3.9718 -8.2286 1.0254
4.4797 -3.8549 0.8092
9.7093 -7.7647 1.7049
9.9673 -7.3988 1.7049
10.2112 -7.0242 1.7049
10.4408 -6.6414 1.7049
10.6557 -6.2510 1.7049
10.8557 -5.8535 1.7049
11.0407 -5.4496 1.7049
11.2104 -5.0398 1.7049
11.3647 -4.6248 1.7049
11.5035 -4.2051 1.7049
11.6266 -3.7814 1.7049
11.7340 -3.3542 1.7049
11.8256 -2.9241 1.7049
11.9013 -2.4917 1.7049
11.9612 -2.0577 1.7049
12.0053 -1.6226 1.7049
12.0335 -1.1869 1.7049
12.0459 -0.7513 1.7049
12.0427 -0.3163 1.7049
12.0238 0.1174 1.7049
11.9895 0.5495 1.7049
11.9397 0.9792 1.7049
11.8748 1.4061 1.7049
11.7948 1.8296 1.7049
11.6999 2.2493 1.7049
11.5904 2.6646 1.7049
11.4663 3.0749 1.7049
11.3281 3.4799 1.7049
11.1759 3.8791 1.7049
11.0099 4.2720 1.7049
10.8305 4.6580 1.7049
10.6379 5.0369 1.7049
10.4324 5.4082 1.7049
10.2144 5.7714 1.7049
9.9841 6.1262 1.7049
9.7419 6.4722 1.7049
4.3406 3.1149 0.7799
4.0753 3.1531 0.7533
3.8023 3.1675 0.7245
3.7988 3.4038 0.7478
3.7950 3.6554 0.7735
8.0586 8.3429 1.7049
7.7432 8.6174 1.7049
7.4188 8.8805 1.7049
7.0858 9.1320 1.7049
6.7448 9.3715 1.7049
6.3960 9.5988 1.7049
6.0400 9.8137 1.7049
5.6771 10.0160 1.7049
5.3078 10.2055 1.7049
4.9325 10.3821 1.7049
4.5516 10.5455 1.7049
4.1656 10.6955 1.7049
3.7749 10.8321 1.7049
3.3800 10.9552 1.7049
2.9813 11.0645 1.7049
0.7760 3.3576 0.5129
0.6542 3.3821 0.5129
0.5316 3.4024 0.5129
0.4085 3.4185 0.5129
0.2849 3.4304 0.5129
0.1610 3.4381 0.5129
0.0369 3.4415 0.5129
-0.0872 3.4407 0.5129
-0.2112 3.4356 0.5129
-0.3350 3.4263 0.5129
-0.4585 3.4128 0.5129
-0.5814 3.3950 0.5129
-0.7037 3.3730 0.5129
-0.8252 3.3469 0.5130
-3.1435 11.0226 1.7049
-3.5407 10.9078 1.7049
-3.9340 10.7794 1.7049
-4.3229 10.6374 1.7049
-4.7070 10.4820 1.7049
-5.0857 10.3133 1.7049
-5.4588 10.1316 1.7049
-5.8256 9.9369 1.7049
-6.1859 9.7295 1.7049
-6.5391 9.5096 1.7049
-6.8849 9.2773 1.7049
-7.2228 9.0330 1.7049
-7.5525 8.7768 1.7049
-7.8734 8.5091 1.7049
-8.1852 8.2300 1.7049
-8.4876 7.9399 1.7049
-8.7801 7.6390 1.7049
-9.0623 7.3277 1.7049
-9.3338 7.0063 1.7049
-9.5944 6.6752 1.7049
-9.8436 6.3346 1.7049
-10.0811 5.9849 1.7049
-10.3065 5.6266 1.7049
-10.5196 5.2600 1.7049
-10.7200 4.8856 1.7049
-10.9074 4.5036 1.7049
-11.0814 4.1147 1.7049
-11.2420 3.7191 1.7049
-11.3886 3.3175 1.7049
-11.5212 2.9101 1.7049
-11.6395 2.4976 1.7049
-11.7432 2.0804 1.7049
-11.8321 1.6590 1.7049
-11.9061 1.2340 1.7049
-11.9649 0.8057 1.7049
-12.0085 0.3749 1.7049
-12.0366 -0.0580 1.7049
-12.0491 -0.4925 1.7049
-12.0460 -0.9279 1.7049
-12.0272 -1.3637 1.7049
-11.9925 -1.7993 1.7049
-11.9420 -2.2342 1.7049
-11.8757 -2.6677 1.7049
-11.7935 -3.0994 1.7049
-11.6955 -3.5284 1.7049
-11.5816 -3.9544 1.7049
-11.4521 -4.3767 1.7049
-11.3070 -4.7946 1.7049
-11.1463 -5.2077 1.7049
-10.9703 -5.6152 1.7049
-10.7791 -6.0167 1.7049
-10.5729 -6.4114 1.7049
-10.3520 -6.7989 1.7049
-10.1165 -7.1785 1.7049
-9.8667 -7.5497 1.7049
-9.6030 -7.9119 1.7049
-7.9845 -7.0761 1.4597
-7.4607 -7.1075 1.4078
-7.4529 -7.6303 1.4553
-7.3656 -8.1052 1.4923
-7.4420 -8.8063 1.5690
-7.2623 -9.2495 1.5984
-6.9477 -9.5364 1.6018
-6.9365 -10.2791 1.6816
-6.6597 -10.6786 1.7049
-6.2773 -10.9222 1.7049
-4.3947 -8.3267 1.2730
-4.0126 -8.3145 1.2471
4.4786 -3.8550 0.9451
8.3129 -6.6497 1.7049
8.5357 -6.3379 1.7049
8.7465 -6.0184 1.7049
8.9451 -5.6918 1.7049
9.1313 -5.3585 1.7049
9.3049 -5.0191 1.7049
9.4657 -4.6740 1.7049
9.6136 -4.3237 1.7049
9.7483 -3.9687 1.7049
9.8697 -3.6097 1.7049
9.9778 -3.2469 1.7049
10.0725 -2.8810 1.7049
10.1537 -2.5124 1.7049
10.2213 -2.1417 1.7049
10.2754 -1.7694 1.7049
10.3159 -1.3960 1.7049
10.3428 -1.0219 1.7049
10.3562 -0.6476 1.7049
10.3560 -0.2737 1.7049
10.3425 0.0993 1.7049
10.3155 0.4710 1.7049
10.2754 0.8410 1.7049
10.2220 1.2087 1.7049
10.1557 1.5737 1.7049
10.0765 1.9355 1.7049
9.9846 2.2937 1.7049
9.8801 2.6479 1.7049
9.7634 2.9976 1.7049
9.6344 3.3424 1.7049
9.4935 3.6819 1.7049
9.3410 4.0157 1.7049
9.1769 4.3435 1.7049
9.0016 4.6648 1.7049
8.8154 4.9793 1.7049
8.6185 5.2866 1.7049
8.4112 5.5864 1.7049
4.3406 3.1140 0.9032
4.0764 3.1531 0.8724
3.8023 3.1667 0.8386
3.7988 3.4030 0.8654
3.7950 3.6546 0.8950
6.9655 7.2095 1.7049
6.6939 7.4480 1.7049
6.4144 7.6767 1.7049
6.1275 7.8953 1.7049
5.8334 8.1035 1.7049
5.5325 8.3012 1.7049
5.2252 8.4882 1.7049
4.9119 8.6643 1.7049
4.5928 8.8292 1.7049
4.2685 8.9829 1.7049
3.9393 9.1252 1.7049
3.6055 9.2559 1.7049
3.2676 9.3749 1.7049
2.9260 9.4821 1.7049
0.7768 2.8825 0.5131
0.6721 2.9075 0.5131
0.5666 2.9289 0.5131
0.4605 2.9466 0.5131
0.3538 2.9607 0.5131
0.2468 2.9710 0.5131
0.1395 2.9777 0.5131
0.0320 2.9807 0.5131
-0.0755 2.9800 0.5131
-0.1830 2.9756 0.5131
-0.2902 2.9674 0.5131
-0.3971 2.9556 0.5131
-0.5036 2.9401 0.5131
-0.6095 2.9210 0.5131
-0.7147 2.8981 0.5131
-0.8191 2.8717 0.5132
-3.0650 9.4408 1.7049
-3.4052 9.3288 1.7049
-3.7415 9.2051 1.7049
-4.0736 9.0698 1.7049
-4.4009 8.9229 1.7049
-4.7232 8.7647 1.7049
-5.0401 8.5953 1.7049
-5.3511 8.4148 1.7049
-5.6559 8.2235 1.7049
-5.9542 8.0215 1.7049
-6.2455 7.8091 1.7049
-6.5295 7.5864 1.7049
-6.8059 7.3537 1.7049
-7.0743 7.1113 1.7049
-7.3343 6.8594 1.7049
-7.5857 6.5982 1.7049
-7.8281 6.3281 1.7049
-8.0611 6.0493 1.7049
-8.2845 5.7622 1.7049
-8.4980 5.4669 1.7049
-8.7012 5.1641 1.7049
-8.8939 4.8537 1.7049
-9.0758 4.5364 1.7049
-9.2466 4.2124 1.7049
-9.4061 3.8821 1.7049
-9.5541 3.5459 1.7049
-9.6902 3.2041 1.7049
-9.8143 2.8572 1.7049
-9.9262 2.5055 1.7049
-10.0256 2.1496 1.7049
-10.1124 1.7898 1.7049
-10.1865 1.4266 1.7049
-10.2476 1.0604 1.7049
-10.2956 0.6916 1.7049
-10.3304 0.3208 1.7049
-10.3520 -0.0516 1.7049
-10.3601 -0.4251 1.7049
-10.3548 -0.7993 1.7049
-10.3359 -1.1737 1.7049
-10.3035 -1.5476 1.7049
-10.2575 -1.9208 1.7049
-10.1979 -2.2926 1.7049
-10.1248 -2.6625 1.7049
-10.0381 -3.0302 1.7049
-9.9379 -3.3949 1.7049
-9.8243 -3.7563 1.7049
-9.6974 -4.1139 1.7049
-9.5573 -4.4670 1.7049
-9.4042 -4.8153 1.7049
-9.2381 -5.1582 1.7049
-9.0593 -5.4953 1.7049
-8.8679 -5.8260 1.7049
-8.4529 -5.9998 1.6633
-7.9209 -6.0625 1.5984
-7.7075 -6.3519 1.5984
-7.4833 -6.6335 1.5984
-7.2485 -6.9070 1.5984
-7.0035 -7.1719 1.5984
-6.9756 -7.6777 1.6522
-6.9158 -8.1854 1.7049
-6.6237 -8.4379 1.7049
-6.3221 -8.6795 1.7049
-6.0114 -8.9099 1.7049
-5.6920 -9.1288 1.7049
-5.3644 -9.3357 1.7049
-5.0291 -9.5303 1.7049
-4.0284 -8.3489 1.4655
4.4775 -3.8550 1.0820
7.2609 -5.8098 1.7049
7.4567 -5.5382 1.7049
7.6421 -5.2600 1.7049
7.8170 -4.9755 1.7049
7.9811 -4.6850 1.7049
8.1342 -4.3891 1.7049
8.2763 -4.0882 1.7049
8.4071 -3.7826 1.7049
8.5265 -3.4729 1.7049
8.6343 -3.1594 1.7049
8.7305 -2.8426 1.7049
8.8151 -2.5229 1.7049
8.8878 -2.2007 1.7049
8.9487 -1.8766 1.7049
8.9978 -1.5509 1.7049
9.0350 -1.2242 1.7049
9.0604 -0.8967 1.7049
9.0738 -0.5690 1.7049
9.0755 -0.2414 1.7049
9.0653 0.0855 1.7049
9.0435 0.4114 1.7049
9.0100 0.7359 1.7049
8.9650 1.0585 1.7049
8.9085 1.3789 1.7049
8.8407 1.6966 1.7049
8.7617 2.0113 1.7049
8.6716 2.3225 1.7049
8.5707 2.6299 1.7049
8.4590 2.9331 1.7049
8.3368 3.2318 1.7049
8.2042 3.5256 1.7049
8.0615 3.8141 1.7049
7.9089 4.0970 1.7049
7.7465 4.3741 1.7049
7.5747 4.6449 1.7049
7.3936 4.9091 1.7049
4.3406 3.1131 1.0273
4.0775 3.1531 0.9924
3.8023 3.1658 0.9536
3.7988 3.4021 0.9839
3.7950 3.6537 1.0175
6.1280 6.3412 1.7049
5.8898 6.5519 1.7049
5.6446 6.7539 1.7049
5.3927 6.9470 1.7049
5.1344 7.1311 1.7049
4.8701 7.3059 1.7049
4.6001 7.4712 1.7049
4.3246 7.6269 1.7049
4.0440 7.7728 1.7049
3.7588 7.9088 1.7049
3.4691 8.0346 1.7049
3.1754 8.1503 1.7049
2.8780 8.2556 1.7049
0.7759 2.5140 0.5133
0.6845 2.5393 0.5133
0.5922 2.5615 0.5133
0.4993 2.5804 0.5132
0.4058 2.5961 0.5132
0.3118 2.6086 0.5132
0.2175 2.6178 0.5132
0.1229 2.6237 0.5132
0.0282 2.6263 0.5132
-0.0666 2.6257 0.5132
-0.1613 2.6218 0.5132
-0.2557 2.6146 0.5132
-0.3500 2.6041 0.5133
-0.4438 2.5903 0.5133
-0.5371 2.5734 0.5133
-0.6297 2.5532 0.5133
-0.7217 2.5298 0.5133
-0.8128 2.5031 0.5133
-2.9991 8.2147 1.7049
-3.2951 8.1053 1.7049
-3.5873 7.9855 1.7049
-3.8752 7.8556 1.7049
-4.1587 7.7156 1.7049
-4.4372 7.5658 1.7049
-4.7106 7.4062 1.7049
-4.9785 7.2370 1.7049
-5.2404 7.0585 1.7049
-5.4962 6.8707 1.7049
-5.7455 6.6740 1.7049
-5.9880 6.4685 1.7049
-6.2233 6.2544 1.7049
-6.4512 6.0320 1.7049
-6.6714 5.8015 1.7049
-6.8836 5.5631 1.7049
-7.0875 5.3172 1.7049
-7.2828 5.0640 1.7049
-7.4693 4.8037 1.7049
-7.6467 4.5367 1.7049
-7.8148 4.2634 1.7049
-7.9733 3.9839 1.7049
-8.1220 3.6986 1.7049
-8.2607 3.4079 1.7049
-8.3891 3.1120 1.7049
-8.5071 2.8114 1.7049
-8.6145 2.5064 1.7049
-8.7111 2.1973 1.7049
-8.7968 1.8846 1.7049
-8.8713 1.5686 1.7049
-8.9345 1.2498 1.7049
-8.9864 0.9284 1.7049
-9.0268 0.6049 1.7049
-9.0556 0.2797 1.7049
-9.0727 -0.0467 1.7049
-9.0781 -0.3741 1.7049
-9.0716 -0.7018 1.7049
-9.0534 -1.0295 1.7049
-9.0232 -1.3569 1.7049
-8.9812 -1.6833 1.7049
-8.9273 -2.0085 1.7049
-8.8616 -2.3319 1.7049
-8.7840 -2.6531 1.7049
-8.6947 -2.9718 1.7049
-8.5937 -3.2873 1.7049
-8.4811 -3.5994 1.7049
-8.3571 -3.9076 1.7049
-8.2217 -4.2114 1.7049
-8.0750 -4.5104 1.7049
-7.9174 -4.8042 1.7049
-7.7488 -5.0923 1.7049
-7.5696 -5.3743 1.7049
-7.3799 -5.6499 1.7049
-7.1799 -5.9186 1.7049
-6.9700 -6.1800 1.7049
-6.7503 -6.4338 1.7049
-6.5211 -6.6795 1.7049
-6.2828 -6.9167 1.7049
-6.0357 -7.1453 1.7049
-5.7800 -7.3646 1.7049
-5.5161 -7.5745 1.7049
-5.2444 -7.7746 1.7049
-4.9652 -7.9647 1.7049
-4.6789 -8.1443 1.7049
-4.3860 -8.3132 1.7049
-3.9622 -8.2130 1.6529
4.4763 -3.8550 1.2199
6.4391 -5.1536 1.7049
6.6135 -4.9134 1.7049
6.7789 -4.6672 1.7049
6.9349 -4.4154 1.7049
7.0815 -4.1583 1.7049
7.2184 -3.8963 1.7049
7.3455 -3.6297 1.7049
7.4626 -3.3590 1.7049
7.5696 -3.0845 1.7049
7.6665 -2.8066 1.7049
7.7531 -2.5257 1.7049
7.8293 -2.2421 1.7049
7.8951 -1.9563 1.7049
7.9505 -1.6686 1.7049
7.9953 -1.3795 1.7049
8.0296 -1.0893 1.7049
8.0533 -0.7984 1.7049
8.0665 -0.5072 1.7049
8.0692 -0.2160 1.7049
8.0614 0.0747 1.7049
8.0432 0.3646 1.7049
8.0147 0.6533 1.7049
7.9758 0.9404 1.7049
7.9267 1.2256 1.7049
7.8676 1.5085 1.7049
7.7984 1.7888 1.7049
7.7194 2.0661 1.7049
7.6306 2.3401 1.7049
7.5323 2.6104 1.7049
7.4245 2.8768 1.7049
7.3074 3.1389 1.7049
7.1813 3.3963 1.7049
7.0462 3.6488 1.7049
6.9025 3.8961 1.7049
6.7502 4.1380 1.7049
6.5897 4.3740 1.7049
4.3406 3.1123 1.1525
4.0787 3.1532 1.1135
3.8024 3.1650 1.0696
3.7988 3.4013 1.1035
3.7950 3.6528 1.1410
5.4653 5.6542 1.7049
5.2534 5.8426 1.7049
5.0352 6.0234 1.7049
4.8109 6.1962 1.7049
4.5809 6.3610 1.7049
4.3454 6.5174 1.7049
4.1048 6.6655 1.7049
3.8592 6.8049 1.7049
3.6091 6.9356 1.7049
3.3547 7.0574 1.7049
3.0964 7.1701 1.7049
2.8344 7.2737 1.7049
0.7736 2.2188 0.5134
0.6928 2.2443 0.5134
0.6112 2.2671 0.5134
0.5288 2.2869 0.5134
0.4459 2.3039 0.5134
0.3624 2.3180 0.5134
0.2785 2.3291 0.5134
0.1942 2.3374 0.5134
0.1098 2.3427 0.5134
0.0252 2.3451 0.5134
-0.0595 2.3445 0.5134
-0.1440 2.3410 0.5134
-0.2284 2.3345 0.5134
-0.3125 2.3251 0.5134
-0.3963 2.3128 0.5134
-0.4796 2.2975 0.5134
-0.5623 2.2794 0.5134
-0.6444 2.2584 0.5134
-0.7257 2.2346 0.5134
-0.8062 2.2079 0.5134
-2.9412 7.2333 1.7049
-3.2017 7.1260 1.7049
-3.4586 7.0096 1.7049
-3.7113 6.8843 1.7049
-3.9596 6.7501 1.7049
-4.2033 6.6072 1.7049
-4.4419 6.4557 1.7049
-4.6752 6.2959 1.7049
-4.9030 6.1279 1.7049
-5.1249 5.9518 1.7049
-5.3407 5.7679 1.7049
-5.5500 5.5764 1.7049
-5.7527 5.3775 1.7049
-5.9484 5.1714 1.7049
-6.1369 4.9583 1.7049
-6.3179 4.7385 1.7049
-6.4913 4.5122 1.7049
-6.6567 4.2798 1.7049
-6.8139 4.0413 1.7049
-6.9628 3.7972 1.7049
-7.1031 3.5477 1.7049
-7.2346 3.2932 1.7049
-7.3572 3.0338 1.7049
-7.4705 2.7699 1.7049
-7.5745 2.5019 1.7049
-7.6691 2.2300 1.7049
-7.7539 1.9546 1.7049
-7.8290 1.6760 1.7049
-7.8942 1.3945 1.7049
-7.9493 1.1106 1.7049
-7.9942 0.8245 1.7049
-8.0289 0.5367 1.7049
-8.0533 0.2474 1.7049
-8.0673 -0.0429 1.7049
-8.0709 -0.3339 1.7049
-8.0639 -0.6252 1.7049
-8.0464 -0.9164 1.7049
-8.0184 -1.2071 1.7049
-7.9799 -1.4970 1.7049
-7.9308 -1.7856 1.7049
-7.8712 -2.0726 1.7049
-7.8011 -2.3576 1.7049
-7.7206 -2.6402 1.7049
-7.6299 -2.9200 1.7049
-7.5288 -3.1966 1.7049
-7.4176 -3.4697 1.7049
-7.2964 -3.7388 1.7049
-7.1653 -4.0036 1.7049
-7.0244 -4.2637 1.7049
-6.8739 -4.5187 1.7049
-6.7141 -4.7683 1.7049
-6.5450 -5.0121 1.7049
-6.3668 -5.2497 1.7049
-6.1799 -5.4809 1.7049
-5.9844 -5.7052 1.7049
-5.7806 -5.9224 1.7049
-5.5688 -6.1320 1.7049
-5.3491 -6.3339 1.7049
-5.1220 -6.5276 1.7049
-4.8877 -6.7130 1.7049
-4.6465 -6.8896 1.7049
-4.3987 -7.0574 1.7049
-4.1448 -7.2159 1.7049
-3.8850 -7.3650 1.7049
-3.6196 -7.5044 1.7049
4.4752 -3.8550 1.3591
5.7787 -4.6263 1.7049
5.9359 -4.4112 1.7049
6.0849 -4.1907 1.7049
6.2257 -3.9651 1.7049
6.3579 -3.7347 1.7049
6.4816 -3.4999 1.7049
6.5964 -3.2609 1.7049
6.7024 -3.0181 1.7049
6.7993 -2.7719 1.7049
6.8872 -2.5225 1.7049
6.9658 -2.2704 1.7049
7.0351 -2.0159 1.7049
7.0951 -1.7593 1.7049
7.1457 -1.5010 1.7049
7.1869 -1.2413 1.7049
7.2186 -0.9805 1.7049
7.2408 -0.7191 1.7049
7.2536 -0.4573 1.7049
7.2569 -0.1955 1.7049
7.2508 0.0660 1.7049
7.2353 0.3267 1.7049
7.2105 0.5865 1.7049
7.1764 0.8449 1.7049
7.1331 1.1017 1.7049
7.0807 1.3564 1.7049
7.0193 1.6089 1.7049
6.9490 1.8587 1.7049
6.8699 2.1056 1.7049
6.7821 2.3493 1.7049
6.6858 2.5894 1.7049
6.5811 2.8257 1.7049
6.4682 3.0579 1.7049
6.3473 3.2857 1.7049
6.2184 3.5088 1.7049
6.0819 3.7271 1.7049
5.9378 3.9401 1.7049
4.3406 3.1114 1.2789
4.0798 3.1532 1.2359
3.8024 3.1642 1.1867
3.7988 3.4004 1.2241
3.7950 3.6519 1.2656
4.6221 4.7806 1.5992
4.4432 4.9404 1.5992
4.2589 5.0937 1.5992
4.0695 5.2402 1.5992
4.1312 5.7354 1.7049
3.9191 5.8769 1.7049
3.7023 6.0108 1.7049
3.4811 6.1369 1.7049
3.2557 6.2551 1.7049
3.0263 6.3653 1.7049
2.7934 6.4673 1.7049
0.7702 1.9761 0.5135
0.6981 2.0018 0.5135
0.6252 2.0250 0.5135
0.5516 2.0456 0.5135
0.4772 2.0635 0.5135
0.4024 2.0789 0.5135
0.3270 2.0917 0.5135
0.2513 2.1018 0.5134
0.1753 2.1092 0.5134
0.0991 2.1140 0.5134
0.0227 2.1162 0.5134
-0.0537 2.1156 0.5134
-0.1300 2.1124 0.5135
-0.2061 2.1066 0.5135
-0.2821 2.0981 0.5135
-0.3576 2.0869 0.5135
-0.4328 2.0731 0.5135
-0.5075 2.0567 0.5135
-0.5815 2.0377 0.5135
-0.6549 2.0161 0.5135
-0.7275 1.9920 0.5135
-0.7992 1.9653 0.5135
-2.8884 6.4274 1.7049
-3.1199 6.3221 1.7049
-3.3477 6.2087 1.7049
-3.5715 6.0872 1.7049
-3.7910 5.9580 1.7049
-4.0060 5.8210 1.7049
-4.2162 5.6765 1.7049
-4.4213 5.5245 1.7049
-4.6210 5.3654 1.7049
-4.8152 5.1992 1.7049
-5.0035 5.0261 1.7049
-5.1858 4.8464 1.7049
-5.3617 4.6602 1.7049
-5.5311 4.4677 1.7049
-5.6938 4.2692 1.7049
-5.8494 4.0649 1.7049
-5.9979 3.8550 1.7049
-6.1390 3.6398 1.7049
-6.2725 3.4195 1.7049
-6.3982 3.1944 1.7049
-6.5159 2.9648 1.7049
-6.6255 2.7309 1.7049
-6.7269 2.4930 1.7049
-6.8198 2.2513 1.7049
-6.9041 2.0063 1.7049
-6.9797 1.7582 1.7049
-7.0464 1.5072 1.7049
-7.1042 1.2537 1.7049
-7.1529 0.9981 1.7049
-7.1925 0.7406 1.7049
-7.2229 0.4815 1.7049
-7.2439 0.2213 1.7049
-7.2556 -0.0398 1.7049
-7.2579 -0.3015 1.7049
-7.2507 -0.5634 1.7049
-7.2341 -0.8251 1.7049
-7.2081 -1.0864 1.7049
-7.1725 -1.3468 1.7049
-7.1275 -1.6060 1.7049
-7.0731 -1.8637 1.7049
-7.0093 -2.1196 1.7049
-6.9362 -2.3732 1.7049
-6.8538 -2.6243 1.7049
-6.7622 -2.8724 1.7049
-6.6616 -3.1173 1.7049
-6.5520 -3.3586 1.7049
-6.4335 -3.5960 1.7049
-6.3064 -3.8291 1.7049
-6.1706 -4.0576 1.7049
-6.0264 -4.2812 1.7049
-5.8741 -4.4996 1.7049
-5.7136 -4.7124 1.7049
-5.5453 -4.9194 1.7049
-5.3694 -5.1202 1.7049
-5.1861 -5.3145 1.7049
-4.9956 -5.5021 1.7049
-4.7981 -5.6827 1.7049
-4.5940 -5.8560 1.7049
-4.3835 -6.0218 1.7049
-4.1669 -6.1798 1.7049
-3.9444 -6.3297 1.7049
-3.7165 -6.4715 1.7049
-3.4833 -6.6048 1.7049
-3.2452 -6.7294 1.7049
4.4740 -3.8550 1.4997
4.9116 -3.9332 1.5992
5.0456 -3.7507 1.5992
5.5145 -3.7990 1.7049
5.6425 -3.5948 1.7049
5.7629 -3.3863 1.7049
5.8755 -3.1737 1.7049
5.9802 -2.9574 1.7049
6.0768 -2.7375 1.7049
6.1653 -2.5145 1.7049
6.2455 -2.2887 1.7049
6.3174 -2.0603 1.7049
6.3809 -1.8296 1.7049
6.4360 -1.5970 1.7049
6.4825 -1.3628 1.7049
6.5205 -1.1273 1.7049
6.5500 -0.8908 1.7049
6.5708 -0.6537 1.7049
6.5831 -0.4161 1.7049
6.5867 -0.1786 1.7049
6.5819 0.0588 1.7049
6.5685 0.2955 1.7049
6.5466 0.5314 1.7049
6.5163 0.7661 1.7049
6.4777 0.9993 1.7049
6.4307 1.2308 1.7049
6.3756 1.4602 1.7049
6.3123 1.6873 1.7049
6.2411 1.9117 1.7049
6.1619 2.1333 1.7049
6.0750 2.3517 1.7049
5.9804 2.5666 1.7049
5.8784 2.7779 1.7049
5.7689 2.9852 1.7049
5.6523 3.1883 1.7049
5.5287 3.3869 1.7049
5.3982 3.5809 1.7049
4.3406 3.1104 1.4066
4.0810 3.1532 1.3596
3.8024 3.1633 1.3050
3.7988 3.3996 1.3461
3.7951 3.6511 1.3916
4.2039 4.3471 1.5992
4.0414 4.4927 1.5992
3.8741 4.6324 1.5992
3.7020 4.7660 1.5992
3.5255 4.8934 1.5992
3.3447 5.0144 1.5992
3.1880 5.1747 1.6135
3.1674 5.5828 1.7049
2.9624 5.6906 1.7049
0.8296 1.7446 0.5136
0.7658 1.7726 0.5136
0.7010 1.7983 0.5136
0.6354 1.8217 0.5136
0.5691 1.8429 0.5135
0.5021 1.8616 0.5135
0.4344 1.8781 0.5135
0.3663 1.8921 0.5135
0.2977 1.9037 0.5135
0.2288 1.9130 0.5135
0.1596 1.9198 0.5135
0.0902 1.9242 0.5135
0.0207 1.9261 0.5135
-0.0489 1.9256 0.5135
-0.1183 1.9227 0.5135
-0.1876 1.9174 0.5135
-0.2568 1.9096 0.5135
-0.3256 1.8994 0.5135
-0.3940 1.8868 0.5136
-0.4619 1.8718 0.5136
-0.5293 1.8545 0.5136
-0.5961 1.8348 0.5136
-0.6622 1.8127 0.5136
-0.7274 1.7884 0.5136
-0.7918 1.7617 0.5136
-2.8390 5.7517 1.7049
-3.0461 5.6482 1.7049
-3.2496 5.5375 1.7049
-3.4492 5.4196 1.7049
-3.6446 5.2947 1.7049
-3.8355 5.1629 1.7049
-4.0219 5.0244 1.7049
-4.2033 4.8793 1.7049
-4.3797 4.7278 1.7049
-4.5506 4.5701 1.7049
-4.7161 4.4063 1.7049
-4.8757 4.2366 1.7049
-5.0294 4.0613 1.7049
-5.1769 3.8805 1.7049
-5.3180 3.6945 1.7049
-5.4525 3.5034 1.7049
-5.5803 3.3075 1.7049
-5.7012 3.1069 1.7049
-5.8149 2.9021 1.7049
-5.9214 2.6932 1.7049
-6.0205 2.4804 1.7049
-6.1120 2.2640 1.7049
-6.1958 2.0442 1.7049
-6.2718 1.8214 1.7049
-6.3398 1.5959 1.7049
-6.3998 1.3678 1.7049
-6.4517 1.1375 1.7049
-6.4953 0.9052 1.7049
-6.5306 0.6713 1.7049
-6.5575 0.4361 1.7049
-6.5759 0.1998 1.7049
-6.5859 -0.0373 1.7049
-6.5873 -0.2748 1.7049
-6.5801 -0.5124 1.7049
-6.5644 -0.7498 1.7049
-6.5401 -0.9868 1.7049
-6.5072 -1.2230 1.7049
-6.4657 -1.4580 1.7049
-6.4157 -1.6916 1.7049
-6.3572 -1.9235 1.7049
-6.2902 -2.1533 1.7049
-6.2149 -2.3808 1.7049
-6.1313 -2.6055 1.7049
-6.0395 -2.8273 1.7049
-5.9396 -3.0458 1.7049
-5.8316 -3.2607 1.7049
-5.7158 -3.4717 1.7049
-5.5923 -3.6785 1.7049
-5.4612 -3.8808 1.7049
-5.3226 -4.0783 1.7049
-5.1768 -4.2708 1.7049
-5.0240 -4.4580 1.7049
-4.8642 -4.6395 1.7049
-4.6978 -4.8152 1.7049
-4.5249 -4.9848 1.7049
-4.3457 -5.1480 1.7049
-4.1606 -5.3047 1.7049
-3.9697 -5.4544 1.7049
-3.7733 -5.5972 1.7049
-3.5716 -5.7327 1.7049
-3.3650 -5.8607 1.7049
-3.1537 -5.9810 1.7049
-2.9380 -6.0936 1.7049
4.3567 -3.7549 1.5992
4.4855 -3.5930 1.5992
4.6082 -3.4265 1.5992
4.7246 -3.2559 1.5992
4.8347 -3.0812 1.5992
4.9382 -2.9027 1.5992
5.0350 -2.7208 1.5992
5.4637 -2.7030 1.7049
5.5524 -2.5024 1.7049
5.6337 -2.2988 1.7049
5.7075 -2.0926 1.7049
5.7737 -1.8840 1.7049
5.8322 -1.6733 1.7049
5.8831 -1.4609 1.7049
5.9261 -1.2469 1.7049
5.9613 -1.0317 1.7049
5.9888 -0.8155 1.7049
6.0083 -0.5987 1.7049
6.0201 -0.3816 1.7049
6.0239 -0.1644 1.7049
6.0200 0.0527 1.7049
6.0083 0.2692 1.7049
5.9888 0.4851 1.7049
5.9616 0.6998 1.7049
5.9267 0.9133 1.7049
5.8842 1.1252 1.7049
5.8343 1.3352 1.7049
5.7768 1.5431 1.7049
5.7121 1.7487 1.7049
5.6401 1.9516 1.7049
5.5610 2.1517 1.7049
5.4748 2.3486 1.7049
5.3818 2.5422 1.7049
4.9547 2.5629 1.5992
4.8549 2.7375 1.5992
4.7490 2.9083 1.5992
4.6373 3.0752 1.5992
4.3407 3.1095 1.5359
4.0822 3.1532 1.4849
3.8024 3.1625 1.4248
3.7988 3.3987 1.4695
3.7951 3.6502 1.5191
3.8513 3.9815 1.5992
3.7027 4.1152 1.5992
3.5496 4.2434 1.5992
3.3921 4.3660 1.5992
3.2305 4.4830 1.5992
3.1618 4.7393 1.6498
3.0870 5.0097 1.7049
2.9028 5.1153 1.7049
0.8180 1.5710 0.5137
0.7604 1.5988 0.5136
0.7019 1.6245 0.5136
0.6426 1.6482 0.5136
0.5825 1.6697 0.5136
0.5217 1.6891 0.5136
0.4603 1.7064 0.5136
0.3983 1.7215 0.5136
0.3358 1.7344 0.5136
0.2729 1.7451 0.5136
0.2098 1.7535 0.5136
0.1463 1.7598 0.5136
0.0827 1.7638 0.5136
0.0190 1.7656 0.5136
-0.0448 1.7652 0.5136
-0.1085 1.7625 0.5136
-0.1720 1.7576 0.5136
-0.2354 1.7504 0.5136
-0.2985 1.7411 0.5136
-0.3612 1.7295 0.5136
-0.4235 1.7157 0.5136
-0.4853 1.6998 0.5136
-0.5465 1.6817 0.5136
-0.6070 1.6614 0.5137
-0.6668 1.6390 0.5137
-0.7258 1.6145 0.5137
-0.7840 1.5880 0.5137
-2.7917 5.1754 1.7049
-2.9780 5.0737 1.7049
-3.1608 4.9655 1.7049
-3.3397 4.8508 1.7049
-3.5145 4.7298 1.7049
-3.6851 4.6026 1.7049
-3.8511 4.4695 1.7049
-4.0125 4.3304 1.7049
-4.1689 4.1857 1.7049
-4.3202 4.0354 1.7049
-4.4662 3.8797 1.7049
-4.6067 3.7189 1.7049
-4.7414 3.5531 1.7049
-4.8703 3.3824 1.7049
-4.9932 3.2072 1.7049
-5.1099 3.0276 1.7049
-5.2201 2.8438 1.7049
-5.3239 2.6560 1.7049
-5.4210 2.4645 1.7049
-5.5112 2.2695 1.7049
-5.5946 2.0713 1.7049
-5.6709 1.8700 1.7049
-5.7400 1.6659 1.7049
-5.8018 1.4594 1.7049
-5.8562 1.2506 1.7049
-5.9032 1.0397 1.7049
-5.9426 0.8271 1.7049
-5.9743 0.6131 1.7049
-5.9984 0.3978 1.7049
-6.0148 0.1817 1.7049
-6.0234 -0.0352 1.7049
-6.0242 -0.2523 1.7049
-6.0171 -0.4696 1.7049
-6.0022 -0.6867 1.7049
-5.9794 -0.9033 1.7049
-5.9488 -1.1191 1.7049
-5.9104 -1.3339 1.7049
-5.8642 -1.5473 1.7049
-5.8103 -1.7591 1.7049
-5.7486 -1.9690 1.7049
-5.6793 -2.1766 1.7049
-5.6025 -2.3819 1.7049
-5.5181 -2.5843 1.7049
-5.4264 -2.7837 1.7049
-5.3274 -2.9798 1.7049
-5.2212 -3.1723 1.7049
-5.1080 -3.3610 1.7049
-4.9878 -3.5455 1.7049
-4.8610 -3.7257 1.7049
-4.7275 -3.9012 1.7049
-4.5876 -4.0718 1.7049
-4.4414 -4.2373 1.7049
-4.2892 -4.3975 1.7049
-4.1310 -4.5520 1.7049
-3.9673 -4.7008 1.7049
-3.7980 -4.8435 1.7049
-3.6236 -4.9799 1.7049
-3.4441 -5.1100 1.7049
-3.2599 -5.2334 1.7049
-3.0712 -5.3500 1.7049
-2.8782 -5.4596 1.7049
-2.6813 -5.5621 1.7049
4.0045 -3.4523 1.5992
4.1231 -3.3037 1.5992
4.2362 -3.1509 1.5992
4.3435 -2.9941 1.5992
4.4449 -2.8337 1.5992
4.5404 -2.6698 1.5992
4.6298 -2.5027 1.5992
4.7129 -2.3325 1.5992
4.7898 -2.1596 1.5992
4.8602 -1.9841 1.5992
4.9242 -1.8063 1.5992
4.9817 -1.6265 1.5992
5.0325 -1.4448 1.5992
5.4121 -1.3449 1.7049
5.4521 -1.1481 1.7049
5.4849 -0.9502 1.7049
5.5105 -0.7514 1.7049
5.5290 -0.5520 1.7049
5.5402 -0.3522 1.7049
5.5441 -0.1522 1.7049
5.5409 0.0475 1.7049
5.5305 0.2469 1.7049
5.5130 0.4456 1.7049
5.4883 0.6433 1.7049
5.4566 0.8399 1.7049
5.4179 1.0350 1.7049
5.3723 1.2285 1.7049
4.9901 1.3320 1.5992
4.9345 1.5097 1.5992
4.8727 1.6851 1.5992
4.8046 1.8581 1.5992
4.7305 2.0284 1.5992
4.6504 2.1958 1.5992
4.5645 2.3601 1.5992
4.4728 2.5212 1.5992
4.3756 2.6787 1.5992
4.2728 2.8326 1.5992
4.1648 2.9826 1.5992
4.0515 3.1286 1.5992
3.8024 3.1616 1.5460
3.7989 3.3978 1.5945
3.6822 3.5407 1.5992
3.5498 3.6689 1.5992
3.4130 3.7923 1.5992
3.2720 3.9106 1.5992
3.1717 4.0814 1.6221
3.1670 4.3939 1.7006
3.0123 4.5142 1.7049
2.8460 4.6178 1.7049
0.8064 1.4208 0.5137
0.7543 1.4484 0.5137
0.7012 1.4740 0.5137
0.6473 1.4978 0.5137
0.5926 1.5196 0.5137
0.5372 1.5395 0.5137
0.4811 1.5575 0.5137
0.4245 1.5734 0.5137
0.3673 1.5874 0.5137
0.3097 1.5993 0.5137
0.2517 1.6092 0.5137
0.1935 1.6170 0.5137
0.1349 1.6228 0.5136
0.0763 1.6265 0.5136
0.0175 1.6282 0.5137
-0.0413 1.6277 0.5137
-0.1001 1.6253 0.5137
-0.1587 1.6207 0.5137
-0.2171 1.6141 0.5137
-0.2753 1.6055 0.5137
-0.3331 1.5948 0.5137
-0.3906 1.5821 0.5137
-0.4475 1.5673 0.5137
-0.5040 1.5506 0.5137
-0.5598 1.5319 0.5137
-0.6149 1.5112 0.5137
-0.6693 1.4886 0.5137
-0.7229 1.4640 0.5137
-0.7756 1.4376 0.5137
-0.8274 1.4093 0.5138
-2.9140 4.5768 1.7049
-3.0788 4.4709 1.7049
-3.2399 4.3592 1.7049
-3.3970 4.2418 1.7049
-3.5499 4.1189 1.7049
-3.6984 3.9905 1.7049
-3.8424 3.8569 1.7049
-3.9817 3.7182 1.7049
-4.1160 3.5746 1.7049
-4.2452 3.4262 1.7049
-4.3692 3.2732 1.7049
-4.4877 3.1157 1.7049
-4.6007 2.9541 1.7049
-4.7079 2.7884 1.7049
-4.8092 2.6189 1.7049
-4.9044 2.4458 1.7049
-4.9936 2.2692 1.7049
-5.0764 2.0895 1.7049
-5.1528 1.9067 1.7049
-5.2227 1.7212 1.7049
-5.2860 1.5332 1.7049
-5.3425 1.3429 1.7049
-5.3923 1.1505 1.7049
-5.4351 0.9563 1.7049
-5.4710 0.7605 1.7049
-5.4999 0.5634 1.7049
-5.5217 0.3652 1.7049
-5.5363 0.1662 1.7049
-5.5438 -0.0333 1.7049
-5.5441 -0.2332 1.7049
-5.5372 -0.4331 1.7049
-5.5231 -0.6329 1.7049
-5.5018 -0.8321 1.7049
-5.4732 -1.0306 1.7049
-5.4375 -1.2281 1.7049
-5.3946 -1.4244 1.7049
-5.3446 -1.6191 1.7049
-5.2875 -1.8120 1.7049
-5.2234 -2.0029 1.7049
-5.1523 -2.1915 1.7049
-5.0744 -2.3775 1.7049
-4.9897 -2.5607 1.7049
-4.8984 -2.7408 1.7049
-4.8004 -2.9177 1.7049
-4.6960 -3.0909 1.7049
-4.5853 -3.2604 1.7049
-4.4684 -3.4258 1.7049
-4.3455 -3.5869 1.7049
-4.2166 -3.7435 1.7049
-4.0820 -3.8955 1.7049
-3.9419 -4.0424 1.7049
-3.7964 -4.1843 1.7049
-3.6457 -4.3207 1.7049
-3.4900 -4.4517 1.7049
-3.3296 -4.5769 1.7049
-3.1645 -4.6961 1.7049
-2.9951 -4.8093 1.7049
-2.8216 -4.9163 1.7049
-2.6443 -5.0168 1.7049
-2.4632 -5.1108 1.7049
3.7011 -3.1917 1.5992
3.8110 -3.0544 1.5992
3.9156 -2.9133 1.5992
4.0150 -2.7686 1.5992
4.1091 -2.6205 1.5992
4.1975 -2.4691 1.5992
4.2804 -2.3147 1.5992
4.3575 -2.1575 1.5992
4.4288 -1.9977 1.5992
4.4943 -1.8356 1.5992
4.5537 -1.6713 1.5992
4.6071 -1.5051 1.5992
4.6544 -1.3371 1.5992
4.6956 -1.1677 1.5992
4.7306 -0.9971 1.5992
4.7594 -0.8254 1.5992
4.7819 -0.6529 1.5992
4.7982 -0.4799 1.5992
4.8082 -0.3065 1.5992
4.8120 -0.1330 1.5992
4.8095 0.0404 1.5992
4.8007 0.2134 1.5992
4.7858 0.3859 1.5992
4.7647 0.5576 1.5992
4.7375 0.7283 1.5992
4.7042 0.8978 1.5992
4.6648 1.0658 1.5992
4.6195 1.2323 1.5992
4.5683 1.3968 1.5992
4.5113 1.5593 1.5992
4.4486 1.7196 1.5992
4.3802 1.8773 1.5992
4.3063 2.0325 1.5992
4.2270 2.1847 1.5992
4.1423 2.3340 1.5992
4.0524 2.4800 1.5992
3.9575 2.6227 1.5992
3.8576 2.7618 1.5992
3.7529 2.8972 1.5992
3.6435 3.0287 1.5992
3.5296 3.1561 1.5992
3.4113 3.2794 1.5992
3.2888 3.3983 1.5992
3.1800 3.5325 1.6082
3.1760 3.7950 1.6754
3.0888 3.9738 1.7049
2.9418 4.0806 1.7049
2.7913 4.1821 1.7049
0.7948 1.2893 0.5138
0.7474 1.3165 0.5138
0.6991 1.3421 0.5138
0.6499 1.3659 0.5137
0.6000 1.3880 0.5137
0.5493 1.4082 0.5137
0.4979 1.4267 0.5137
0.4460 1.4434 0.5137
0.3935 1.4582 0.5137
0.3405 1.4711 0.5137
0.2871 1.4822 0.5137
0.2334 1.4914 0.5137
0.1793 1.4986 0.5137
0.1251 1.5040 0.5137
0.0707 1.5075 0.5137
0.0162 1.5090 0.5137
-0.0383 1.5086 0.5137
-0.0927 1.5063 0.5137
-0.1471 1.5021 0.5137
-0.2013 1.4960 0.5137
-0.2552 1.4879 0.5137
-0.3088 1.4780 0.5137
-0.3620 1.4662 0.5137
-0.4148 1.4525 0.5137
-0.4671 1.4370 0.5137
-0.5189 1.4196 0.5137
-0.5700 1.4004 0.5138
-0.6204 1.3794 0.5138
-0.6700 1.3566 0.5138
-0.7188 1.3321 0.5138
-0.7668 1.3058 0.5138
-0.8138 1.2779 0.5138
-2.8529 4.1419 1.7049
-3.0020 4.0383 1.7049
-3.1475 3.9294 1.7049
-3.2890 3.8153 1.7049
-3.4265 3.6962 1.7049
-3.5598 3.5723 1.7049
-3.6886 3.4436 1.7049
-3.8129 3.3104 1.7049
-3.9324 3.1728 1.7049
-4.0470 3.0309 1.7049
-4.1566 2.8850 1.7049
-4.2610 2.7351 1.7049
-4.3601 2.5815 1.7049
-4.4537 2.4244 1.7049
-4.5416 2.2639 1.7049
-4.6239 2.1003 1.7049
-4.7003 1.9338 1.7049
-4.7708 1.7645 1.7049
-4.8352 1.5926 1.7049
-4.8935 1.4185 1.7049
-4.9456 1.2422 1.7049
-4.9913 1.0641 1.7049
-5.0307 0.8842 1.7049
-5.0636 0.7030 1.7049
-5.0900 0.5205 1.7049
-5.1098 0.3371 1.7049
-5.1231 0.1529 1.7049
-5.1297 -0.0318 1.7049
-5.1297 -0.2167 1.7049
-5.1229 -0.4016 1.7049
-5.1096 -0.5864 1.7049
-5.0895 -0.7706 1.7049
-5.0628 -0.9542 1.7049
-5.0294 -1.1369 1.7049
-4.9894 -1.3183 1.7049
-4.9429 -1.4983 1.7049
-4.8898 -1.6766 1.7049
-4.8302 -1.8530 1.7049
-4.7642 -2.0273 1.7049
-4.6919 -2.1992 1.7049
-4.6133 -2.3685 1.7049
-4.5286 -2.5349 1.7049
-4.4378 -2.6982 1.7049
-4.3411 -2.8582 1.7049
-4.2385 -3.0147 1.7049
-4.1302 -3.1674 1.7049
-4.0164 -3.3162 1.7049
-3.8971 -3.4608 1.7049
-3.7725 -3.6010 1.7049
-3.6428 -3.7367 1.7049
-3.5082 -3.8676 1.7049
-3.3688 -3.9935 1.7049
-3.2248 -4.1143 1.7049
-3.0764 -4.2299 1.7049
-2.9238 -4.3399 1.7049
-2.7673 -4.4443 1.7049
-2.6069 -4.5430 1.7049
-2.4429 -4.6357 1.7049
-2.2756 -4.7224 1.7049
3.4369 -2.9646 1.5992
3.5390 -2.8372 1.5992
3.6364 -2.7064 1.5992
3.7288 -2.5721 1.5992
3.8163 -2.4346 1.5992
3.8987 -2.2941 1.5992
3.9759 -2.1509 1.5992
4.0477 -2.0049 1.5992
4.1142 -1.8566 1.5992
4.1751 -1.7061 1.5992
4.2306 -1.5535 1.5992
4.2804 -1.3992 1.5992
4.3246 -1.2432 1.5992
4.3631 -1.0859 1.5992
4.3959 -0.9273 1.5992
4.4229 -0.7678 1.5992
4.4440 -0.6076 1.5992
4.4594 -0.4468 1.5992
4.4690 -0.2857 1.5992
4.4727 -0.1244 1.5992
4.4706 0.0367 1.5992
4.4628 0.1976 1.5992
4.4491 0.3579 1.5992
4.4297 0.5176 1.5992
4.4047 0.6763 1.5992
4.3739 0.8340 1.5992
4.3376 0.9903 1.5992
4.2957 1.1451 1.5992
4.2483 1.2982 1.5992
4.1955 1.4493 1.5992
4.1373 1.5984 1.5992
4.0740 1.7453 1.5992
4.0054 1.8897 1.5992
3.9318 2.0314 1.5992
3.8533 2.1703 1.5992
3.7698 2.3063 1.5992
3.6817 2.4391 1.5992
3.5889 2.5686 1.5992
3.4916 2.6947 1.5992
3.3900 2.8172 1.5992
3.2841 2.9358 1.5992
3.1870 3.0630 1.6057
3.1836 3.2888 1.6637
3.1370 3.4839 1.7049
3.0076 3.5930 1.7049
2.8745 3.6973 1.7049
0.8252 1.1443 0.5138
0.7829 1.1728 0.5138
0.7398 1.1998 0.5138
0.6957 1.2252 0.5138
0.6507 1.2490 0.5138
0.6050 1.2712 0.5138
0.5585 1.2918 0.5138
0.5113 1.3107 0.5138
0.4635 1.3279 0.5138
0.4152 1.3434 0.5138
0.3663 1.3572 0.5138
0.3170 1.3693 0.5138
0.2673 1.3796 0.5137
0.2172 1.3882 0.5137
0.1670 1.3950 0.5137
0.1165 1.4000 0.5137
0.0658 1.4032 0.5137
0.0151 1.4046 0.5137
-0.0357 1.4043 0.5137
-0.0863 1.4021 0.5137
-0.1369 1.3982 0.5137
-0.1874 1.3925 0.5138
-0.2376 1.3850 0.5138
-0.2875 1.3757 0.5138
-0.3370 1.3647 0.5138
-0.3862 1.3519 0.5138
-0.4349 1.3374 0.5138
-0.4830 1.3212 0.5138
-0.5306 1.3033 0.5138
-0.5775 1.2838 0.5138
-0.6237 1.2625 0.5138
-0.6691 1.2397 0.5138
-0.7137 1.2152 0.5138
-0.7575 1.1892 0.5139
-0.8003 1.1616 0.5139
-2.7938 3.7574 1.7049
-2.9291 3.6559 1.7049
-3.0607 3.5496 1.7049
-3.1885 3.4387 1.7049
-3.3124 3.3232 1.7049
-3.4322 3.2034 1.7049
-3.5477 3.0793 1.7049
-3.6587 2.9511 1.7049
-3.7652 2.8190 1.7049
-3.8670 2.6831 1.7049
-3.9639 2.5436 1.7049
-4.0559 2.4006 1.7049
-4.1428 2.2543 1.7049
-4.2244 2.1050 1.7049
-4.3007 1.9527 1.7049
-4.3716 1.7977 1.7049
-4.4369 1.6401 1.7049
-4.4966 1.4803 1.7049
-4.5506 1.3182 1.7049
-4.5987 1.1542 1.7049
-4.6410 0.9885 1.7049
-4.6774 0.8213 1.7049
-4.7077 0.6527 1.7049
-4.7320 0.4830 1.7049
-4.7502 0.3125 1.7049
-4.7623 0.1413 1.7049
-4.7681 -0.0304 1.7049
-4.7678 -0.2023 1.7049
-4.7613 -0.3741 1.7049
-4.7487 -0.5458 1.7049
-4.7298 -0.7171 1.7049
-4.7047 -0.8876 1.7049
-4.6734 -1.0572 1.7049
-4.6360 -1.2258 1.7049
-4.5925 -1.3930 1.7049
-4.5429 -1.5586 1.7049
-4.4873 -1.7224 1.7049
-4.4258 -1.8842 1.7049
-4.3584 -2.0437 1.7049
-4.2852 -2.2009 1.7049
-4.2063 -2.3553 1.7049
-4.1218 -2.5069 1.7049
-4.0317 -2.6554 1.7049
-3.9363 -2.8006 1.7049
-3.8356 -2.9423 1.7049
-3.7296 -3.0803 1.7049
-3.6187 -3.2145 1.7049
-3.5029 -3.3446 1.7049
-3.3824 -3.4704 1.7049
-3.2572 -3.5918 1.7049
-3.1277 -3.7086 1.7049
-2.9939 -3.8206 1.7049
-2.8561 -3.9277 1.7049
-2.7143 -4.0297 1.7049
-2.5689 -4.1266 1.7049
-2.4199 -4.2180 1.7049
-2.2676 -4.3040 1.7049
-2.1123 -4.3843 1.7049
3.2756 -2.8262 1.6348
3.2997 -2.6462 1.5992
3.3906 -2.5242 1.5992
3.4770 -2.3991 1.5992
3.5587 -2.2710 1.5992
3.6357 -2.1401 1.5992
3.7078 -2.0066 1.5992
3.7749 -1.8706 1.5992
3.8371 -1.7323 1.5992
3.8941 -1.5920 1.5992
3.9460 -1.4498 1.5992
3.9927 -1.3059 1.5992
4.0341 -1.1605 1.5992
4.0702 -1.0137 1.5992
4.1010 -0.8659 1.5992
4.1263 -0.7171 1.5992
4.1463 -0.5677 1.5992
4.1608 -0.4177 1.5992
4.1700 -0.2674 1.5992
4.1737 -0.1169 1.5992
4.1719 0.0335 1.5992
4.1648 0.1836 1.5992
4.1523 0.3333 1.5992
4.1344 0.4823 1.5992
4.1112 0.6305 1.5992
4.0826 0.7777 1.5992
4.0489 0.9236 1.5992
4.0100 1.0681 1.5992
3.9659 1.2111 1.5992
3.9168 1.3523 1.5992
3.8627 1.4916 1.5992
3.8037 1.6287 1.5992
3.7399 1.7636 1.5992
3.6713 1.8960 1.5992
3.5981 2.0259 1.5992
3.5204 2.1529 1.5992
3.4382 2.2770 1.5992
3.3517 2.3981 1.5992
3.2610 2.5159 1.5992
3.1932 2.6528 1.6129
3.1902 2.8511 1.6633
3.1606 3.0368 1.7049
3.0473 3.1472 1.7049
2.9302 3.2535 1.7049
2.8095 3.3555 1.7049
0.8094 1.0408 0.5139
0.7709 1.0688 0.5139
0.7315 1.0955 0.5139
0.6911 1.1207 0.5138
0.6500 1.1444 0.5138
0.6080 1.1667 0.5138
0.5653 1.1875 0.5138
0.5218 1.2067 0.5138
0.4778 1.2244 0.5138
0.4331 1.2406 0.5138
0.3879 1.2551 0.5138
0.3423 1.2680 0.5138
0.2962 1.2793 0.5138
0.2497 1.2889 0.5138
0.2030 1.2969 0.5138
0.1560 1.3033 0.5138
0.1088 1.3080 0.5138
0.0615 1.3110 0.5138
0.0141 1.3123 0.5138
-0.0333 1.3120 0.5138
-0.0807 1.3100 0.5138
-0.1280 1.3063 0.5138
-0.1751 1.3010 0.5138
-0.2220 1.2939 0.5138
-0.2686 1.2853 0.5138
-0.3149 1.2750 0.5138
-0.3609 1.2630 0.5138
-0.4063 1.2495 0.5138
-0.4513 1.2343 0.5138
-0.4957 1.2175 0.5138
-0.5396 1.1993 0.5138
-0.5827 1.1794 0.5139
-0.6252 1.1580 0.5139
-0.6668 1.1351 0.5139
-0.7077 1.1108 0.5139
-0.7477 1.0850 0.5139
-0.7867 1.0578 0.5139
-0.8248 1.0292 0.5139
-2.8590 3.3149 1.7049
-2.9783 3.2112 1.7049
-3.0939 3.1032 1.7049
-3.2057 2.9912 1.7049
-3.3134 2.8752 1.7049
-3.4170 2.7554 1.7049
-3.5164 2.6319 1.7049
-3.6113 2.5049 1.7049
-3.7017 2.3745 1.7049
-3.7874 2.2409 1.7049
-3.8684 2.1042 1.7049
-3.9444 1.9646 1.7049
-4.0155 1.8224 1.7049
-4.0815 1.6776 1.7049
-4.1423 1.5304 1.7049
-4.1978 1.3811 1.7049
-4.2480 1.2298 1.7049
-4.2928 1.0766 1.7049
-4.3321 0.9219 1.7049
-4.3658 0.7658 1.7049
-4.3939 0.6084 1.7049
-4.4164 0.4500 1.7049
-4.4331 0.2908 1.7049
-4.4442 0.1310 1.7049
-4.4494 -0.0292 1.7049
-4.4490 -0.1895 1.7049
-4.4427 -0.3499 1.7049
-4.4306 -0.5101 1.7049
-4.4128 -0.6698 1.7049
-4.3892 -0.8289 1.7049
-4.3598 -0.9871 1.7049
-4.3247 -1.1443 1.7049
-4.2839 -1.3002 1.7049
-4.2375 -1.4546 1.7049
-4.1854 -1.6073 1.7049
-4.1279 -1.7581 1.7049
-4.0648 -1.9069 1.7049
-3.9964 -2.0533 1.7049
-3.9226 -2.1973 1.7049
-3.8436 -2.3385 1.7049
-3.7595 -2.4769 1.7049
-3.6703 -2.6122 1.7049
-3.5763 -2.7442 1.7049
-3.4774 -2.8728 1.7049
-3.3738 -2.9978 1.7049
-3.2657 -3.1189 1.7049
-3.1533 -3.2361 1.7049
-3.0365 -3.3492 1.7049
-2.9156 -3.4579 1.7049
-2.7908 -3.5623 1.7049
-2.6622 -3.6620 1.7049
-2.5300 -3.7570 1.7049
-2.3944 -3.8471 1.7049
-2.2555 -3.9323 1.7049
-2.1135 -4.0123 1.7049
-1.9687 -4.0871 1.7049
3.1960 -2.7584 1.7049
3.2725 -2.6252 1.6952
3.2697 -2.4350 1.6482
3.2670 -2.2550 1.6059
3.3300 -2.1258 1.5992
3.4021 -2.0034 1.5992
3.4697 -1.8785 1.5992
3.5327 -1.7513 1.5992
3.5910 -1.6220 1.5992
3.6446 -1.4907 1.5992
3.6933 -1.3577 1.5992
3.7371 -1.2230 1.5992
3.7761 -1.0870 1.5992
3.8100 -0.9497 1.5992
3.8390 -0.8113 1.5992
3.8629 -0.6721 1.5992
3.8817 -0.5322 1.5992
3.8955 -0.3918 1.5992
3.9042 -0.2510 1.5992
3.9078 -0.1102 1.5992
3.9064 0.0306 1.5992
3.8999 0.1712 1.5992
3.8883 0.3114 1.5992
3.8717 0.4509 1.5992
3.8501 0.5897 1.5992
3.8236 0.7276 1.5992
3.7922 0.8643 1.5992
3.7559 0.9997 1.5992
3.7147 1.1337 1.5992
3.6689 1.2660 1.5992
3.6184 1.3965 1.5992
3.5632 1.5250 1.5992
3.5036 1.6514 1.5992
3.4395 1.7756 1.5992
3.3710 1.8973 1.5992
3.2983 2.0164 1.5992
3.2214 2.1327 1.5992
3.1987 2.2879 1.6289
3.1960 2.4651 1.6727
3.1628 2.6268 1.7049
3.0642 2.7378 1.7049
2.9618 2.8451 1.7049
2.8557 2.9486 1.7049
0.8278 0.9189 0.5139
0.7937 0.9477 0.5139
0.7586 0.9753 0.5139
0.7225 1.0016 0.5139
0.6856 1.0266 0.5139
0.6478 1.0502 0.5139
0.6092 1.0725 0.5139
0.5699 1.0934 0.5139
0.5299 1.1129 0.5139
0.4892 1.1310 0.5138
0.4479 1.1476 0.5138
0.4060 1.1627 0.5138
0.3637 1.1763 0.5138
0.3209 1.1885 0.5138
0.2777 1.1991 0.5138
0.2341 1.2081 0.5138
0.1903 1.2156 0.5138
0.1463 1.2216 0.5138
0.1020 1.2260 0.5138
0.0576 1.2288 0.5138
0.0132 1.2301 0.5138
-0.0312 1.2298 0.5138
-0.0756 1.2279 0.5138
-0.1200 1.2244 0.5138
-0.1641 1.2194 0.5138
-0.2081 1.2128 0.5138
-0.2518 1.2047 0.5138
-0.2952 1.1950 0.5138
-0.3383 1.1838 0.5138
-0.3809 1.1711 0.5138
-0.4231 1.1568 0.5139
-0.4647 1.1411 0.5139
-0.5058 1.1239 0.5139
-0.5462 1.1053 0.5139
-0.5860 1.0852 0.5139
-0.6250 1.0638 0.5139
-0.6633 1.0409 0.5139
-0.7008 1.0167 0.5139
-0.7374 0.9912 0.5139
-0.7730 0.9644 0.5139
-0.8077 0.9363 0.5140
-2.7911 3.0085 1.7049
-2.8994 2.9073 1.7049
-3.0040 2.8022 1.7049
-3.1049 2.6935 1.7049
-3.2019 2.5811 1.7049
-3.2948 2.4653 1.7049
-3.3837 2.3462 1.7049
-3.4682 2.2239 1.7049
-3.5484 2.0987 1.7049
-3.6241 1.9706 1.7049
-3.6953 1.8398 1.7049
-3.7617 1.7064 1.7049
-3.8234 1.5707 1.7049
-3.8802 1.4328 1.7049
-3.9320 1.2929 1.7049
-3.9789 1.1511 1.7049
-4.0207 1.0076 1.7049
-4.0573 0.8626 1.7049
-4.0887 0.7164 1.7049
-4.1148 0.5690 1.7049
-4.1357 0.4206 1.7049
-4.1512 0.2716 1.7049
-4.1614 0.1219 1.7049
-4.1661 -0.0281 1.7049
-4.1655 -0.1783 1.7049
-4.1594 -0.3284 1.7049
-4.1480 -0.4783 1.7049
-4.1311 -0.6278 1.7049
-4.1088 -0.7767 1.7049
-4.0811 -0.9248 1.7049
-4.0481 -1.0719 1.7049
-4.0098 -1.2178 1.7049
-3.9661 -1.3622 1.7049
-3.9173 -1.5051 1.7049
-3.8632 -1.6462 1.7049
-3.8041 -1.7854 1.7049
-3.7399 -1.9223 1.7049
-3.6707 -2.0570 1.7049
-3.5966 -2.1891 1.7049
-3.5178 -2.3185 1.7049
-3.4343 -2.4450 1.7049
-3.3461 -2.5684 1.7049
-3.2535 -2.6886 1.7049
-3.1565 -2.8055 1.7049
-3.0553 -2.9187 1.7049
-2.9499 -3.0282 1.7049
-2.8406 -3.1339 1.7049
-2.7275 -3.2356 1.7049
-2.6107 -3.3331 1.7049
