ply
format ascii 1.0
element vertex 2070
property float32 x
property float32 y
property float32 z
end_header
0.6446 -0.1777 -0.1159
0.6515 -0.1545 -0.1160
13.3022 -2.6492 -2.3474
13.4438 -2.1750 -2.3537
13.5868 -1.6963 -2.3624
13.7314 -1.2118 -2.3736
13.8782 -0.7200 -2.3873
27.5055 12.2214 -4.8734
26.6454 13.0106 -4.7691
25.1005 13.3991 -4.5443
23.4530 13.6291 -4.3009
22.9662 14.4791 -4.2723
22.4670 15.3239 -4.2461
21.2379 15.6369 -4.0845
20.1891 16.0185 -3.9580
19.1167 16.3242 -3.8274
16.8418 15.4652 -3.4504
16.0152 15.8068 -3.3646
15.5941 16.5417 -3.3673
15.5857 17.7739 -3.4679
13.4884 16.5479 -3.1010
12.7251 16.8128 -3.0319
12.1877 17.3680 -3.0194
11.9575 18.4153 -3.0918
11.2001 18.6879 -3.0350
10.4543 18.9581 -2.9830
9.6756 19.1430 -2.9226
8.9646 19.4424 -2.8843
8.1907 19.5864 -2.8274
7.4579 19.8051 -2.7858
6.3357 18.8524 -2.5873
5.5565 18.7376 -2.5123
4.9119 19.0485 -2.4984
4.3950 19.9865 -2.5676
3.7184 20.3713 -2.5666
2.8864 19.8154 -2.4514
2.1615 19.7968 -2.4079
1.4706 20.1465 -2.4122
0.8063 21.7911 -2.5716
0.0244 22.0246 -2.5651
-0.7724 22.2084 -2.5559
-1.5924 22.5073 -2.5630
-2.4268 22.7023 -2.5614
-3.2987 23.0167 -2.5764
-4.0178 22.3076 -2.4808
-4.7877 22.0245 -2.4369
-5.6515 22.1430 -2.4411
-7.0552 24.0161 -2.6420
-7.7294 23.2023 -2.5510
-8.5866 22.9933 -2.5307
-10.4317 25.1464 -2.7752
-11.6973 25.5688 -2.8345
-13.0239 25.9676 -2.8967
-33.0061 2.5680 -2.1903
-33.1039 1.3850 -2.2056
-44.3134 -1.3233 -2.9943
-40.2119 -2.6453 -2.7445
-33.1565 -3.3778 -2.2902
-39.0592 -5.3992 -2.7357
-9.1960 -1.6089 -0.6544
-42.3219 -8.9780 -3.0653
-44.1334 -11.0285 -3.2598
-34.1262 -11.1788 -2.6362
-32.1279 -11.8150 -2.5451
-32.7443 -13.3925 -2.6651
-30.4969 -13.7689 -2.5551
-35.0330 -17.3542 -3.0271
-23.4578 -12.6870 -2.0943
-23.1838 -13.6348 -2.1429
-22.2474 -14.1812 -2.1331
-26.2626 -18.0965 -2.6173
-24.4674 -18.1868 -2.5397
-23.5305 -18.8368 -2.5495
-30.6589 -26.4017 -3.4751
-29.8395 -27.6202 -3.5466
-29.9618 -29.7984 -3.7433
-24.6565 -26.3473 -3.2465
-23.9566 -27.5146 -3.3337
-23.3700 -28.8700 -3.4471
-22.6345 -30.1093 -3.5504
-21.2840 -30.5353 -3.5628
-26.1250 -40.5053 -4.6851
-2.3556 -33.7102 -4.0040
-0.5655 -16.7311 -2.0083
0.0333 -15.1124 -1.8352
0.5860 -15.3340 -1.8856
1.1556 -15.5461 -1.9379
1.7450 -15.7695 -1.9946
2.3929 -16.2479 -2.0874
3.0294 -16.4379 -2.1472
3.6899 -16.6351 -2.2116
4.3776 -16.8404 -2.2811
3.6497 -12.2142 -1.6874
3.8665 -11.4219 -1.6112
4.0827 -10.7659 -1.5523
4.2696 -10.1400 -1.4962
4.4408 -9.5665 -1.4463
3.9889 -7.8394 -1.2158
4.8393 -8.7175 -1.3887
5.2164 -8.6462 -1.4167
5.3725 -8.2188 -1.3871
5.8183 -8.2357 -1.4339
6.4108 -8.4126 -1.5134
6.9878 -8.5136 -1.5852
7.1219 -8.0646 -1.5570
0.7202 -0.7585 -0.1521
0.7442 -0.7291 -0.1523
0.7904 -0.7202 -0.1570
7.6058 -6.4437 -1.4692
7.7166 -6.0726 -1.4526
7.8243 -5.7118 -1.4377
7.9293 -5.3602 -1.4246
8.0320 -5.0165 -1.4131
8.1326 -4.6795 -1.4032
8.2315 -4.3482 -1.3947
8.3290 -4.0215 -1.3876
8.4572 -3.7127 -1.3872
8.5800 -3.4022 -1.3872
0.8901 -0.3162 -0.1420
0.6447 -0.2031 -0.1016
0.6517 -0.1797 -0.1016
0.6587 -0.1562 -0.1016
13.3017 -2.6509 -2.0339
13.4432 -2.1771 -2.0390
13.5860 -1.6989 -2.0460
13.7305 -1.2149 -2.0551
13.8771 -0.7237 -2.0662
33.9062 10.8306 -5.0494
33.3486 11.9952 -4.9941
31.4072 12.5946 -4.7348
27.5958 12.2398 -4.1930
26.6585 12.9944 -4.0873
24.9477 13.2948 -3.8646
23.4679 13.6149 -3.6779
23.0275 14.4935 -3.6562
22.4930 15.3162 -3.6234
21.3996 15.7297 -3.5031
20.1787 15.9835 -3.3623
19.1406 16.3171 -3.2521
16.8558 15.4517 -2.9260
16.0293 15.7934 -2.8486
15.6012 16.5202 -2.8448
15.5712 17.7254 -2.9205
13.5177 16.5533 -2.6147
12.6357 16.6629 -2.5281
12.0795 17.1799 -2.5080
11.9511 18.3678 -2.5844
11.1743 18.6050 -2.5269
10.4090 18.8335 -2.4730
9.6678 19.0824 -2.4259
8.9248 19.3074 -2.3797
8.0928 19.3000 -2.3093
7.4586 19.7490 -2.2970
6.3383 18.8001 -2.1283
5.5873 18.7749 -2.0712
4.9462 19.1056 -2.0565
4.4040 19.9364 -2.0963
3.7433 20.3971 -2.0977
2.9138 19.8714 -2.0012
2.1869 19.8568 -1.9605
1.4942 20.2108 -1.9587
0.8241 21.7301 -2.0696
0.0437 21.6637 -2.0302
-0.7534 22.2391 -2.0533
-1.5706 22.4832 -2.0476
-2.4101 22.7339 -2.0450
-3.2751 22.9921 -2.0455
-4.0215 22.4359 -1.9768
-4.7827 22.0893 -1.9302
-5.5348 21.7590 -1.8884
-7.0209 23.9687 -2.0690
-7.7287 23.2595 -2.0002
-8.6022 23.0873 -1.9811
-10.3811 25.0755 -2.1507
-11.6191 25.4447 -2.1851
-12.9371 25.8378 -2.2257
-14.7213 3.3055 -0.6409
-41.9986 -2.7783 -1.9156
-41.5840 -4.2532 -1.9281
-46.0427 -6.3848 -2.1748
-9.1868 -1.6116 -0.4430
-39.6969 -13.0290 -2.1228
-34.1464 -12.5807 -1.8831
-33.7251 -13.8185 -1.9218
-44.1731 -21.9195 -2.7032
-39.1123 -24.9727 -2.7023
-37.3855 -25.8033 -2.7002
-24.6640 -18.3632 -1.8660
-23.7041 -19.0073 -1.8825
-31.3201 -27.0162 -2.6165
-30.3008 -28.0947 -2.6689
-25.0865 -26.8539 -2.4741
-23.8166 -27.4029 -2.4953
-23.8374 -29.5017 -2.6608
-22.2761 -29.6888 -2.6574
-27.3926 -39.3765 -3.5044
-1.4265 -20.6912 -1.9854
-0.6743 -20.5101 -1.9947
0.0485 -15.5921 -1.5383
0.5750 -14.7006 -1.4726
1.1227 -14.9246 -1.5194
1.6874 -15.1282 -1.5666
2.4078 -16.2523 -1.7135
3.0445 -16.4424 -1.7666
3.7052 -16.6397 -1.8236
4.3932 -16.8451 -1.8848
3.6549 -12.1968 -1.3946
3.8819 -11.4387 -1.3380
4.0868 -10.7526 -1.2880
4.2732 -10.1282 -1.2436
4.4441 -9.5561 -1.2042
3.9913 -7.8312 -1.0139
4.8450 -8.7145 -1.1606
5.2253 -8.6488 -1.1864
5.7666 -8.8104 -1.2465
6.3564 -8.9865 -1.3132
6.8927 -9.0349 -1.3657
7.0481 -8.5782 -1.3435
7.3318 -8.2944 -1.3484
0.7205 -0.7580 -0.1281
0.7444 -0.7286 -0.1284
0.7908 -0.7201 -0.1325
7.8293 -6.6283 -1.2767
7.9432 -6.2467 -1.2630
8.0539 -5.8759 -1.2509
8.1619 -5.5144 -1.2401
8.2674 -5.1610 -1.2307
8.3708 -4.8145 -1.2225
8.4725 -4.4738 -1.2155
8.5728 -4.1380 -1.2097
8.6719 -3.8061 -1.2049
8.7701 -3.4771 -1.2013
0.8900 -0.3162 -0.1203
0.6518 -0.2053 -0.0870
0.6588 -0.1817 -0.0870
0.6659 -0.1580 -0.0870
13.3012 -2.6526 -1.7226
13.4426 -2.1793 -1.7264
13.5852 -1.7015 -1.7317
13.7296 -1.2180 -1.7387
13.8761 -0.7273 -1.7473
38.0378 9.1653 -4.7230
35.5482 9.9351 -4.4241
34.1493 10.8866 -4.2640
33.5045 12.0285 -4.2015
31.5259 12.6192 -3.9745
27.8045 12.3106 -3.5278
26.8036 13.0426 -3.4265
26.6120 14.1577 -3.4317
23.4828 13.6007 -3.0584
23.0618 14.4910 -3.0376
22.5189 15.3084 -3.0037
21.4248 15.7222 -2.8984
20.1752 15.9541 -2.7724
19.1643 16.3100 -2.6796
16.8806 15.4482 -2.4060
16.0063 15.7436 -2.3301
15.5030 16.3874 -2.3100
15.4749 17.5842 -2.3657
13.4962 16.4966 -2.1221
12.6797 16.6892 -2.0565
12.1484 17.2440 -2.0388
11.8786 18.2192 -2.0700
11.0625 18.3797 -2.0097
10.4642 18.8912 -1.9907
9.7154 19.1311 -1.9454
8.9497 19.3129 -1.8976
8.2117 19.5309 -1.8565
7.4971 19.7935 -1.8223
6.3828 18.8722 -1.6847
5.6546 18.9348 -1.6409
4.9730 19.1337 -1.6114
4.4701 20.1443 -1.6505
3.8124 20.6632 -1.6488
2.9354 19.8883 -1.5473
2.2173 19.9611 -1.5157
1.5118 20.1941 -1.4982
0.8460 21.7793 -1.5805
0.0643 21.9704 -1.5612
-0.7358 22.3104 -1.5541
-1.5487 22.4542 -1.5351
-2.3978 22.8066 -1.5321
-3.2567 23.0042 -1.5204
-4.0287 22.5854 -1.4704
-4.7644 22.0926 -1.4187
-5.6564 22.3119 -1.4151
-7.0344 24.0847 -1.5109
-7.7482 23.3777 -1.4528
-8.6238 23.1979 -1.4303
-10.3833 25.1319 -1.5399
-11.6550 25.5705 -1.5598
-12.9794 25.9659 -1.5797
-14.5613 4.3861 -0.2998
-13.9584 3.6635 -0.2857
-13.8518 3.1088 -0.2830
-14.1505 2.6462 -0.2898
-14.8158 2.2236 -0.3053
-35.6133 4.0440 -0.7411
-42.9255 0.2306 -0.9399
-16.9172 -0.5166 -0.3792
-16.5018 -1.0978 -0.3798
-16.4890 -1.6932 -0.3908
-21.3778 -2.9739 -0.5232
-25.8567 -5.5117 -0.6797
-19.0133 -9.4509 -0.6850
-38.5324 -26.6387 -1.7277
-29.7436 -29.6831 -1.8226
-28.2402 -40.6745 -2.4991
-1.4077 -20.6968 -1.5157
-0.7883 -24.6663 -1.8394
0.0626 -15.5818 -1.1840
0.5638 -14.0928 -1.0919
1.0895 -14.3149 -1.1317
1.6344 -14.5395 -1.1738
2.1957 -14.7342 -1.2155
3.0484 -16.3873 -1.3825
3.7428 -16.7439 -1.4456
4.4088 -16.8498 -1.4900
3.6600 -12.1796 -1.1040
3.8865 -11.4237 -1.0623
4.0908 -10.7395 -1.0254
4.2768 -10.1166 -0.9928
4.4473 -9.5457 -0.9637
3.9937 -7.8230 -0.8133
4.8506 -8.7114 -0.9337
5.2342 -8.6515 -0.9570
5.7758 -8.8132 -1.0074
6.3660 -8.9894 -1.0633
6.8981 -9.0320 -1.1069
7.0577 -8.5811 -1.0914
7.3336 -8.2885 -1.0957
0.7207 -0.7576 -0.1043
0.7446 -0.7282 -0.1046
0.7912 -0.7199 -0.1081
7.8304 -6.6245 -1.0425
7.9442 -6.2435 -1.0324
8.0548 -5.8730 -1.0233
8.1626 -5.5119 -1.0153
8.2680 -5.1589 -1.0082
8.4260 -4.8442 -1.0086
8.5283 -4.5017 -1.0033
8.6291 -4.1640 -0.9989
8.7288 -3.8302 -0.9952
8.7703 -3.4767 -0.9860
0.8900 -0.3161 -0.0987
0.6589 -0.2076 -0.0722
0.6661 -0.1837 -0.0722
0.6732 -0.1598 -0.0722
13.4254 -2.6791 -1.4263
13.5665 -2.2016 -1.4287
13.7089 -1.7197 -1.4323
13.8531 -1.2322 -1.4370
13.9993 -0.7374 -1.4430
49.1061 6.3074 -4.9598
45.0712 7.4499 -4.5443
43.9630 8.9059 -4.4284
38.0991 9.1594 -3.8373
35.4721 9.8931 -3.5751
11.0506 3.5159 -1.1155
33.5389 12.0182 -3.3937
31.5587 12.6095 -3.2039
27.8337 12.3019 -2.8379
26.8103 13.0235 -2.7480
26.6035 14.1293 -2.7441
23.4508 13.5595 -2.4370
22.9307 14.3848 -2.4035
22.4874 15.2618 -2.3803
21.3093 15.6116 -2.2809
20.1970 15.9450 -2.1891
19.1395 16.2617 -2.1039
16.9689 15.5028 -1.8949
16.0651 15.7744 -1.8257
15.5583 16.4172 -1.8029
15.5599 17.6493 -1.8425
13.5869 16.5771 -1.6480
12.7910 16.8041 -1.5933
12.1335 17.1894 -1.5567
11.9526 18.2955 -1.5847
11.2609 18.6697 -1.5486
10.5269 18.9623 -1.5080
9.7352 19.1252 -1.4598
9.0184 19.4127 -1.4237
8.2350 19.5342 -1.3777
7.5165 19.7877 -1.3434
6.4023 18.8705 -1.2343
5.6727 18.9294 -1.1939
4.9886 19.1188 -1.1637
4.4910 20.1481 -1.1845
3.8453 20.7319 -1.1780
2.9550 19.8919 -1.0933
2.2356 19.9556 -1.0617
1.5293 20.1774 -1.0399
0.8657 21.7734 -1.0879
0.0841 21.9655 -1.0648
-0.7159 22.3120 -1.0501
-1.5285 22.4493 -1.0267
-2.3776 22.8048 -1.0143
-3.2359 22.9980 -0.9956
-4.0116 22.5985 -0.9530
-4.7463 22.0959 -0.9086
-5.6359 22.3058 -0.8953
-7.0217 24.1112 -0.9457
-7.7325 23.3898 -0.8974
-8.6019 23.1913 -0.8715
-10.3593 25.1248 -0.9260
-11.6353 25.5743 -0.9258
-12.9538 25.9582 -0.9244
-39.8879 15.2150 0.1201
-11.1804 3.8105 0.0335
-19.2092 5.0402 0.0541
-44.2024 9.9155 0.1172
-11.6672 2.1802 0.0284
-46.4264 1.9045 0.0504
-12.2991 0.0623 0.0077
-42.1453 -1.3012 0.0049
-12.8109 -1.7877 -0.0222
-13.4989 -3.3956 -0.0556
-13.4414 -3.8995 -0.0678
-13.9954 -5.7550 -0.1159
-23.9446 -10.8673 -0.2283
-20.3355 -10.1252 -0.2213
-18.0779 -9.8266 -0.2231
-23.3611 -16.1768 -0.4080
-3.2654 -31.6095 -1.5571
-1.3889 -20.7024 -1.0473
-0.7640 -24.6069 -1.2787
0.0767 -15.5860 -0.8321
0.5536 -13.5351 -0.7426
1.0578 -13.7386 -0.7747
1.5805 -13.9508 -0.8089
2.1243 -14.1728 -0.8452
3.0633 -16.3917 -1.0058
3.7581 -16.7485 -1.0579
4.4243 -16.8544 -1.0963
3.6652 -12.1624 -0.8151
3.8911 -11.4088 -0.7883
4.0948 -10.7264 -0.7645
4.2804 -10.1050 -0.7434
4.4505 -9.5354 -0.7246
3.9962 -7.8149 -0.6139
4.8562 -8.7084 -0.7077
5.2431 -8.6541 -0.7283
5.7850 -8.8159 -0.7691
6.3755 -8.9922 -0.8140
6.9034 -9.0291 -0.8492
7.0672 -8.5839 -0.8399
7.3354 -8.2826 -0.8444
0.7209 -0.7572 -0.0806
0.7448 -0.7278 -0.0809
0.7917 -0.7198 -0.0838
7.8315 -6.6208 -0.8096
7.9452 -6.2402 -0.8029
8.0556 -5.8702 -0.7969
8.1633 -5.5095 -0.7916
8.2686 -5.1568 -0.7869
8.4265 -4.8425 -0.7879
8.5287 -4.5003 -0.7843
8.6294 -4.1629 -0.7812
8.7290 -3.8295 -0.7787
8.7704 -3.4763 -0.7717
0.8900 -0.3161 -0.0773
0.6663 -0.2100 -0.0572
0.6735 -0.1858 -0.0571
0.6807 -0.1617 -0.0571
13.4249 -2.6808 -1.1153
13.5657 -2.2037 -1.1165
13.7080 -1.7224 -1.1184
13.8520 -1.2352 -1.1211
13.9981 -0.7410 -1.1245
49.3859 6.3222 -3.8578
45.2591 7.4599 -3.5221
43.8992 8.8709 -3.4055
38.0879 9.1360 -2.9472
35.5223 9.8864 -2.7434
34.1188 10.8340 -2.6316
33.5733 12.0080 -2.5880
31.5021 12.5641 -2.4286
27.4388 12.1060 -2.1172
26.6870 12.9414 -2.0625
26.5460 14.0750 -2.0565
23.5222 13.5783 -1.8282
22.9919 14.3994 -1.7945
22.5704 15.2930 -1.7706
21.3478 15.6142 -1.6850
20.3275 16.0215 -1.6162
19.2116 16.2959 -1.5404
16.9410 15.4513 -1.3717
16.0672 15.7496 -1.3157
15.6544 16.4898 -1.2983
15.5458 17.6020 -1.3082
13.6161 16.5824 -1.1648
12.8106 16.7983 -1.1165
12.1438 17.1705 -1.0809
11.9464 18.2492 -1.0890
11.2810 18.6637 -1.0565
10.5400 18.9438 -1.0179
9.7550 19.1193 -0.9756
9.0321 19.3940 -0.9401
8.2540 19.5273 -0.8994
7.5359 19.7819 -0.8659
6.4146 18.8477 -0.7841
5.6908 18.9240 -0.7482
5.0042 19.1040 -0.7178
4.5089 20.1385 -0.7188
3.8784 20.8009 -0.7051
2.9746 19.8955 -0.6402
2.2538 19.9502 -0.6090
1.5467 20.1607 -0.5834
0.8854 21.7675 -0.5967
0.1039 21.9606 -0.5697
-0.6956 22.2983 -0.5468
-1.5083 22.4444 -0.5196
-2.3566 22.7943 -0.4974
-3.0728 21.9745 -0.4513
-3.9945 22.6116 -0.4362
-4.7281 22.0993 -0.3996
-5.6154 22.2996 -0.3769
-7.0090 24.1376 -0.3804
-7.6663 23.2488 -0.3404
-8.5256 23.0377 -0.3123
-9.8961 24.0502 -0.3005
-11.6055 25.5557 -0.2927
-12.3233 24.7361 -0.2582
-39.0347 18.2045 1.0821
-36.9237 15.6290 1.0128
-39.8875 15.2164 1.0817
-11.1803 3.8105 0.2996
-31.5016 9.4864 0.8335
-19.2133 5.0399 0.5015
-32.0059 7.1761 0.8236
-11.6676 2.1786 0.2958
-40.7096 6.0955 1.0155
-45.4588 5.1432 1.1149
-34.8438 2.6775 0.8392
-39.4381 1.6071 0.9318
-12.3001 0.0586 0.2847
-41.9610 -1.3097 0.9503
-47.9575 -3.2258 1.0610
-20.8620 -2.1590 0.4501
-12.8546 -1.7995 0.2700
-23.3497 -4.1294 0.4763
-13.5405 -3.4136 0.2587
-14.0456 -5.7860 0.2256
-14.5873 -7.2755 0.2081
-23.3314 -16.1827 0.2314
-16.2328 -13.0810 0.1176
-19.6923 -24.5061 -0.0796
-21.1049 -28.2880 -0.1401
-3.2203 -31.4585 -0.8369
-1.3702 -20.7080 -0.5798
-0.7401 -24.5573 -0.7223
0.0907 -15.5902 -0.4808
0.5775 -13.8203 -0.4464
1.3604 -17.4695 -0.5901
1.8359 -16.0816 -0.5675
2.4520 -16.2655 -0.5991
3.0782 -16.3962 -0.6299
3.7734 -16.7531 -0.6709
4.4398 -16.8590 -0.7034
3.6703 -12.1454 -0.5278
3.8956 -11.3940 -0.5156
4.0989 -10.7133 -0.5048
4.2839 -10.0934 -0.4951
4.4536 -9.5251 -0.4865
3.9986 -7.8069 -0.4153
4.8618 -8.7054 -0.4824
5.2519 -8.6567 -0.5000
5.7942 -8.8187 -0.5311
6.3851 -8.9951 -0.5653
6.9088 -9.0262 -0.5924
7.0768 -8.5868 -0.5890
7.3371 -8.2767 -0.5940
0.7211 -0.7567 -0.0569
0.7449 -0.7274 -0.0574
0.7921 -0.7196 -0.0597
7.8326 -6.6171 -0.5775
7.9461 -6.2369 -0.5743
8.0565 -5.8673 -0.5713
8.1641 -5.5070 -0.5687
8.2692 -5.1547 -0.5663
8.4271 -4.8407 -0.5679
8.5291 -4.4989 -0.5660
8.6297 -4.1619 -0.5644
8.7292 -3.8288 -0.5630
8.7705 -3.4759 -0.5581
0.8899 -0.3161 -0.0559
0.6741 -0.2124 -0.0418
0.6814 -0.1880 -0.0418
0.6887 -0.1636 -0.0418
13.4244 -2.6824 -0.8054
13.5651 -2.2059 -0.8054
13.7071 -1.7249 -0.8057
13.8509 -1.2383 -0.8064
13.9968 -0.7446 -0.8073
49.3930 6.3019 -2.7320
45.0834 7.4101 -2.4750
43.9348 8.8561 -2.3945
38.1049 9.1196 -2.0623
34.9758 9.7140 -1.8802
34.1895 10.8351 -1.8260
33.6076 11.9977 -1.7837
31.5715 12.5691 -1.6656
27.9069 12.2910 -1.4638
26.8332 12.9901 -1.3997
26.6044 14.0823 -1.3805
23.5369 13.5642 -1.2152
23.0915 14.4380 -1.1865
22.5962 15.2854 -1.1559
21.4726 15.6797 -1.0938
20.3230 15.9917 -1.0312
19.2105 16.2679 -0.9712
17.0404 15.5159 -0.8588
16.0594 15.7151 -0.8071
15.6617 16.4690 -0.7852
15.5317 17.5549 -0.7771
13.6453 16.5878 -0.6818
12.8302 16.7924 -0.6405
12.1539 17.1516 -0.6066
11.9402 18.2030 -0.5963
11.3011 18.6577 -0.5653
10.5599 18.9378 -0.5296
9.7747 19.1134 -0.4921
9.0517 19.3881 -0.4582
8.2730 19.5205 -0.4219
7.5552 19.7761 -0.3892
6.4295 18.8324 -0.3356
5.6656 18.7756 -0.3010
5.0197 19.0892 -0.2730
4.4461 19.7703 -0.2496
3.8406 20.4909 -0.2254
2.9785 19.7943 -0.1864
2.2549 19.7954 -0.1558
1.5641 20.1442 -0.1282
0.9050 21.7613 -0.1063
0.1185 21.0203 -0.0722
-0.6755 22.2924 -0.0446
-1.4247 21.4816 -0.0127
-2.3361 22.7881 0.0183
-3.0172 21.7112 0.0475
-3.9773 22.6246 0.0806
-4.7099 22.1026 0.1091
-5.5950 22.2935 0.1406
-6.9985 24.1717 0.1856
-7.6497 23.2578 0.2106
-8.5052 23.0350 0.2406
-9.8122 23.8949 0.2830
-10.8837 24.0103 0.3185
-12.2705 24.6715 0.3628
-31.6282 14.7542 1.6639
-32.0484 13.5679 1.6639
-11.2511 4.2925 0.5767
-11.1800 3.8103 0.5659
-13.6318 4.1045 0.6817
-11.5861 3.0383 0.5725
-33.4289 7.4915 1.6328
-11.6677 2.1769 0.5634
-13.9661 2.0887 0.6668
-36.5027 4.1223 1.7235
-36.7789 2.8174 1.7176
-34.3013 1.3884 1.5845
-12.3012 0.0549 0.5621
-16.1603 -0.5098 0.7305
-17.5697 -1.1883 0.7857
-17.6224 -1.8309 0.7796
-12.8563 -1.8054 0.5627
-22.9451 -4.0688 0.9933
-33.2580 -7.1405 1.4241
-13.5269 -3.4176 0.5729
-13.6809 -3.9852 0.5729
-39.8883 -13.1936 1.6515
-26.2824 -9.7554 1.0756
-14.0486 -5.7976 0.5681
-19.4041 -8.8372 0.7752
-14.5718 -7.2801 0.5749
-14.9227 -8.1387 0.5812
-41.6044 -24.6716 1.5986
-23.3018 -16.1886 0.8701
-16.2286 -13.0992 0.5872
-19.1467 -22.1877 0.6270
-19.6877 -24.5453 0.6285
-22.1855 -32.1421 0.6671
-23.1381 -36.2419 0.6713
-25.3638 -43.0649 0.7061
-9.9727 -47.0475 0.0254
-5.2961 -38.4112 -0.0958
-2.4366 -24.0223 -0.0956
-1.3242 -20.2965 -0.1104
-0.5173 -17.6993 -0.1220
0.1037 -15.4387 -0.1286
0.5883 -13.7843 -0.1346
1.3725 -17.4288 -0.1951
1.8236 -15.8532 -0.2002
2.4667 -16.2699 -0.2288
3.0931 -16.4006 -0.2543
3.7525 -16.5975 -0.2815
4.4553 -16.8637 -0.3109
3.6754 -12.1284 -0.2417
3.9001 -11.3793 -0.2440
4.1028 -10.7003 -0.2461
4.2875 -10.0819 -0.2478
4.4568 -9.5149 -0.2493
4.0010 -7.7989 -0.2174
4.8674 -8.7024 -0.2576
5.2607 -8.6594 -0.2719
5.8034 -8.8214 -0.2934
6.3946 -8.9979 -0.3168
6.9141 -9.0233 -0.3360
7.0863 -8.5896 -0.3383
7.3389 -8.2709 -0.3445
0.7213 -0.7563 -0.0333
0.7451 -0.7270 -0.0339
0.7925 -0.7195 -0.0355
7.8337 -6.6134 -0.3461
7.9471 -6.2336 -0.3463
8.0001 -5.8229 -0.3439
8.1648 -5.5046 -0.3464
8.2699 -5.1527 -0.3464
8.4276 -4.8390 -0.3485
8.5295 -4.4975 -0.3484
8.6301 -4.1608 -0.3481
8.7294 -3.8280 -0.3478
8.7706 -3.4754 -0.3452
0.8899 -0.3161 -0.0346
0.6887 -0.2171 -0.0264
0.6962 -0.1922 -0.0264
0.7037 -0.1672 -0.0264
13.4239 -2.6841 -0.4964
13.5645 -2.2080 -0.4952
13.7063 -1.7275 -0.4939
13.8498 -1.2414 -0.4925
13.9956 -0.7482 -0.4909
49.4108 6.2831 -1.6092
45.2835 7.4220 -1.4506
44.0064 8.8486 -1.3857
38.1505 9.1099 -1.1798
36.0557 9.9930 -1.0942
34.2649 10.8377 -1.0193
10.6030 3.7781 -0.3086
31.6566 12.5802 -0.9017
27.9360 12.2823 -0.7770
26.8399 12.9711 -0.7277
26.6010 14.0569 -0.7017
23.5516 13.5502 -0.6031
23.0984 14.4186 -0.5728
22.6218 15.2777 -0.5416
21.4975 15.6722 -0.4951
20.3131 15.9576 -0.4482
19.2260 16.2541 -0.4044
17.0762 15.5225 -0.3402
16.0777 15.7063 -0.3012
15.5501 16.3234 -0.2712
15.5178 17.5081 -0.2489
13.5756 16.4731 -0.1970
12.7553 16.6632 -0.1636
12.1641 17.1328 -0.1334
11.9341 18.1572 -0.1061
10.8202 17.8263 -0.0710
10.5825 18.9366 -0.0416
9.1528 17.8559 -0.0084
9.0713 19.3823 0.0233
7.8071 18.3727 0.0519
7.5743 19.7697 0.0872
6.4540 18.8457 0.1123
5.7268 18.9132 0.1414
5.0351 19.0745 0.1711
4.4599 19.7446 0.2062
3.9644 21.0420 0.2503
3.0061 19.8518 0.2648
2.2733 19.7930 0.2925
1.5815 20.1276 0.3262
0.9246 21.7554 0.3837
0.1378 21.0756 0.4020
-0.6555 22.2864 0.4572
-1.3913 21.2611 0.4670
-2.2942 22.5721 0.5288
-3.0172 21.8470 0.5442
-3.9315 22.4737 0.5937
-4.6918 22.1059 0.6178
-5.5745 22.2874 0.6577
-6.9881 24.2064 0.7531
-7.6853 23.4258 0.7672
-8.4849 23.0323 0.7932
-10.2871 25.1025 0.9082
-10.8757 24.0371 0.9130
-11.2599 22.6775 0.9037
-21.4540 10.0107 1.6637
-21.5914 9.1426 1.6509
-11.2511 4.2929 0.8489
-11.1797 3.8102 0.8329
-13.7029 4.1254 1.0087
-11.5860 3.0374 0.8432
-23.2210 5.2013 1.6720
-11.6678 2.1753 0.8316
-14.0372 2.0969 0.9909
-21.4721 2.4204 1.5021
-21.4979 1.6417 1.4911
-21.6001 0.8684 1.4862
-12.3020 0.0511 0.8401
-17.9670 -0.5729 1.2183
-23.3867 -1.5904 1.5754
-18.2575 -1.9043 1.2224
-12.8580 -1.8113 0.8560
-25.7335 -4.5755 1.7044
-25.4510 -5.4774 1.6778
-13.5134 -3.4217 0.8871
-13.6748 -3.9916 0.8943
-26.1311 -8.6599 1.7035
-26.1507 -9.7244 1.7001
-14.0516 -5.8091 0.9115
-24.7464 -11.2898 1.6026
-14.5564 -7.2847 0.9417
-14.9186 -8.1501 0.9647
-15.2130 -9.0363 0.9839
-15.3023 -9.8509 0.9905
-15.5773 -10.8398 1.0099
-15.8764 -11.9179 1.0317
-16.2364 -13.1271 1.0585
-16.6377 -14.4713 1.0891
-17.0873 -15.9772 1.1243
-17.5959 -17.6807 1.1650
-18.1775 -19.6286 1.2125
-18.8508 -21.8839 1.2686
-19.6417 -24.5330 1.3356
-15.0422 -20.2382 1.0353
-21.7387 -31.5567 1.5175
-23.1787 -36.3796 1.6448
-23.0062 -39.1453 1.6639
-22.5029 -41.6462 1.6639
-21.9304 -44.3245 1.6639
-9.9988 -47.3914 1.1156
-5.0666 -29.1648 0.6373
-5.2287 -38.1852 0.7721
-2.3895 -23.7773 0.4432
-1.3039 -20.2721 0.3468
-0.4970 -17.5516 0.2742
0.1188 -15.5986 0.2211
0.5990 -13.7486 0.1754
1.3846 -17.3883 0.1979
1.8047 -15.5713 0.1562
2.1785 -14.2877 0.1243
3.1193 -16.4648 0.1218
3.7814 -16.6624 0.1019
4.4709 -16.8683 0.0818
3.6805 -12.1115 0.0435
3.9046 -11.3646 0.0267
4.1068 -10.6873 0.0119
4.2910 -10.0704 -0.0012
4.4599 -9.5047 -0.0128
4.0033 -7.7909 -0.0201
4.8729 -8.6994 -0.0331
5.2695 -8.6620 -0.0438
5.8125 -8.8241 -0.0556
6.4042 -9.0008 -0.0682
6.9195 -9.0204 -0.0800
7.0959 -8.5925 -0.0875
7.3406 -8.2650 -0.0954
0.7215 -0.7558 -0.0098
0.7453 -0.7266 -0.0104
0.7930 -0.7193 -0.0114
7.8348 -6.6097 -0.1151
7.9481 -6.2304 -0.1187
8.0010 -5.8200 -0.1209
8.1655 -5.5021 -0.1245
8.2705 -5.1506 -0.1268
8.4281 -4.8373 -0.1295
8.5300 -4.4961 -0.1311
8.6304 -4.1598 -0.1322
8.7296 -3.8273 -0.1330
8.7707 -3.4750 -0.1326
0.8899 -0.3161 -0.0133
0.7040 -0.2219 -0.0104
0.7117 -0.1965 -0.0104
0.7193 -0.1710 -0.0103
13.1588 -2.6328 -0.1842
13.3089 -2.1686 -0.1820
13.4607 -1.6992 -0.1793
13.6145 -1.2234 -0.1761
13.7709 -0.7398 -0.1723
49.4179 6.2630 -0.4872
45.2890 7.4020 -0.4170
42.5788 8.5403 -0.3624
38.1791 9.0962 -0.2966
37.4214 10.3498 -0.2610
34.1118 10.7681 -0.2090
10.5922 3.7672 -0.0553
31.5572 12.5181 -0.1342
27.7403 12.1749 -0.0892
26.8465 12.9522 -0.0565
26.5977 14.0315 -0.0243
23.5663 13.5362 0.0086
23.1052 14.3992 0.0402
21.9268 14.7841 0.0706
20.1214 14.6450 0.0970
20.3051 15.9251 0.1330
18.8853 15.9396 0.1593
17.1120 15.5290 0.1794
16.0960 15.6975 0.2047
15.5599 16.3054 0.2360
15.5039 17.4616 0.2770
13.7037 16.5985 0.2857
12.7728 16.6549 0.3087
12.2077 17.1610 0.3402
11.9280 18.1115 0.3821
10.8238 17.7951 0.3978
10.5998 18.9259 0.4466
9.0285 17.5726 0.4363
9.0910 19.3764 0.5050
7.6381 17.9277 0.4893
7.5937 19.7639 0.5637
6.4786 18.8590 0.5612
5.7031 18.7705 0.5819
5.0366 19.0068 0.6131
4.5454 20.0347 0.6717
4.0205 21.2300 0.7391
3.0268 19.8630 0.7174
2.3082 19.9339 0.7465
1.5989 20.1111 0.7803
0.9443 21.7496 0.8739
0.1573 21.1404 0.8794
-0.6024 21.1226 0.9093
-1.3661 21.1618 0.9425
-2.0067 19.9150 0.9175
-2.9693 21.6356 1.0310
-3.5545 20.4187 1.0064
-4.6736 22.1092 1.1272
-5.5541 22.2813 1.1751
-6.9777 24.2413 1.3227
-7.6695 23.4379 1.3235
-8.4646 23.0295 1.3462
-9.6498 23.5957 1.4284
-10.8676 24.0637 1.5093
-11.2747 22.7456 1.4789
-10.8385 5.0587 1.1117
-10.9627 4.6429 1.1082
-11.0858 4.2303 1.1054
-11.1794 3.8101 1.1006
-11.3013 3.4020 1.0995
-11.4231 2.9939 1.0991
-11.5453 2.5848 1.0995
-11.6680 2.1737 1.1007
-11.7917 1.7594 1.1027
-11.9167 1.3408 1.1054
-12.0433 0.9168 1.1091
-12.1719 0.4860 1.1136
-12.3029 0.0474 1.1189
-12.4367 -0.4008 1.1253
-12.5737 -0.8597 1.1326
-12.7145 -1.3313 1.1409
-12.8596 -1.8171 1.1504
-13.0095 -2.3193 1.1610
-13.1650 -2.8401 1.1729
-13.3267 -3.3818 1.1862
-13.4956 -3.9474 1.2011
-13.6725 -4.5399 1.2175
-13.8585 -5.1630 1.2359
-14.0549 -5.8209 1.2562
-14.2632 -6.5185 1.2788
-14.4850 -7.2614 1.3039
-14.7223 -8.0563 1.3319
-14.9776 -8.9112 1.3631
-15.2536 -9.8357 1.3981
-15.5538 -10.8412 1.4374
-15.8824 -11.9420 1.4818
-16.2447 -13.1555 1.5320
-16.6473 -14.5038 1.5893
-17.0983 -16.0145 1.6550
-16.9257 -17.0364 1.6639
-16.6344 -17.9937 1.6639
-16.3144 -18.9733 1.6639
-15.9640 -19.9761 1.6639
-15.0036 -20.2246 1.6022
-15.1645 -22.0566 1.6639
-15.2255 -23.9458 1.7221
-15.0995 -25.7471 1.7670
-14.5324 -26.9557 1.7670
-13.9179 -28.1971 1.7670
-13.2529 -29.4732 1.7670
-12.5335 -30.7856 1.7670
-11.7560 -32.1360 1.7670
-10.9159 -33.5263 1.7670
-9.4245 -32.9186 1.6639
-8.5015 -34.3072 1.6638
-7.5050 -35.7385 1.6638
-5.0445 -29.1999 1.3054
-5.1619 -37.9617 1.6304
-2.3399 -23.5030 0.9700
-1.2610 -19.8892 0.7891
-0.4728 -17.2492 0.6580
0.1315 -15.4519 0.5670
0.6105 -13.7336 0.4848
1.3131 -16.3097 0.5540
1.8223 -15.6056 0.5103
2.1867 -14.2604 0.4489
3.1343 -16.4692 0.4993
3.7966 -16.6670 0.4868
4.4864 -16.8729 0.4749
3.6856 -12.0949 0.3281
3.9091 -11.3499 0.2969
4.1108 -10.6744 0.2694
4.2945 -10.0589 0.2451
4.4631 -9.4944 0.2234
4.0057 -7.7829 0.1770
4.8785 -8.6963 0.1914
5.2784 -8.6647 0.1846
5.8217 -8.8269 0.1824
6.4137 -9.0036 0.1806
6.9248 -9.0175 0.1760
7.1054 -8.5953 0.1635
7.3424 -8.2592 0.1535
0.7217 -0.7554 0.0138
0.7455 -0.7262 0.0130
0.7934 -0.7191 0.0127
7.8359 -6.6060 0.1157
7.9491 -6.2272 0.1087
8.0018 -5.8172 0.1018
8.1663 -5.4997 0.0972
8.2711 -5.1485 0.0926
8.4286 -4.8355 0.0893
8.5304 -4.4947 0.0861
8.6307 -4.1587 0.0836
8.7299 -3.8266 0.0817
8.7709 -3.4746 0.0799
0.8898 -0.3160 0.0080
0.7200 -0.2270 0.0064
0.7278 -0.2010 0.0064
0.7357 -0.1750 0.0065
13.2983 -2.6625 0.1192
13.4388 -2.1919 0.1228
13.5806 -1.7170 0.1273
13.7241 -1.2364 0.1328
13.8697 -0.7487 0.1392
49.2725 6.2236 0.6326
43.5955 7.1051 0.5932
40.5114 8.1054 0.5855
38.2077 9.0825 0.5875
37.4251 10.3292 0.6132
32.7784 10.3268 0.5730
10.5867 3.7581 0.1977
29.7509 11.7803 0.5940
27.7775 12.1699 0.5935
26.7348 12.8762 0.6118
26.5943 14.0062 0.6524
23.5753 13.5189 0.6204
21.6228 13.4532 0.6109
21.7426 14.6359 0.6600
20.0642 14.5795 0.6550
18.5147 14.4971 0.6507
18.8752 15.9048 0.7148
17.1480 15.5356 0.7006
16.1144 15.6887 0.7111
15.6836 16.4066 0.7487
15.4914 17.4167 0.8014
13.7331 16.6038 0.7712
12.8889 16.7749 0.7875
12.2107 17.1321 0.8136
11.8664 17.9818 0.8648
10.7986 17.7165 0.8635
10.0684 17.9377 0.8868
8.8322 17.1509 0.8606
8.5584 18.1965 0.9275
7.4023 17.3286 0.8977
7.6131 19.7582 1.0409
6.5033 18.8723 1.0117
5.7628 18.9025 1.0316
5.0537 18.9986 1.0562
4.5575 20.0002 1.1332
4.0777 21.4217 1.2376
3.0476 19.8742 1.1714
2.3264 19.9285 1.1989
1.6162 20.0945 1.2345
0.8786 19.8194 1.2440
0.1769 21.2062 1.3607
-0.5396 19.5321 1.2818
-1.3092 20.5612 1.3808
-1.9948 19.9699 1.3731
-2.8609 20.9789 1.4777
-3.5400 20.4367 1.4756
-4.6554 22.1126 1.6376
-5.4609 21.9829 1.6709
-6.1171 21.3143 1.6639
-6.7687 20.7385 1.6639
-7.3941 20.1632 1.6639
-7.9946 19.5883 1.6639
-8.5711 19.0138 1.6639
-9.1477 18.4857 1.6680
-10.8381 5.0599 1.3840
-10.9624 4.6436 1.3792
-11.0857 4.2307 1.3756
-11.1794 3.8101 1.3695
-11.3014 3.4015 1.3682
-11.4233 2.9931 1.3679
-11.5456 2.5836 1.3688
-11.6684 2.1720 1.3709
-11.7923 1.7573 1.3741
-11.9174 1.3384 1.3784
-12.0441 0.9139 1.3840
-12.1728 0.4827 1.3909
-12.3039 0.0436 1.3990
-12.4379 -0.4050 1.4085
-12.5751 -0.8645 1.4195
-12.7160 -1.3366 1.4319
-12.8613 -1.8231 1.4460
-13.0114 -2.3259 1.4618
-13.1671 -2.8473 1.4795
-13.3290 -3.3898 1.4992
-13.4981 -3.9562 1.5211
-13.6753 -4.5496 1.5455
-13.8616 -5.1737 1.5725
-14.0584 -5.8328 1.6025
-14.2670 -6.5316 1.6358
-14.4122 -7.2372 1.6639
-14.2966 -7.8365 1.6639
-14.1649 -8.4417 1.6639
-14.0167 -9.0530 1.6639
-13.8512 -9.6704 1.6639
-13.6680 -10.2940 1.6639
-13.4664 -10.9237 1.6639
-13.2458 -11.5596 1.6639
-13.0054 -12.2017 1.6639
-12.7445 -12.8500 1.6639
-12.4623 -13.5044 1.6639
-12.3906 -14.4358 1.6957
-12.5636 -15.7502 1.7670
-12.1906 -16.4641 1.7670
-11.7911 -17.1839 1.7670
-11.3641 -17.9096 1.7670
-10.9084 -18.6406 1.7670
-10.4229 -19.3768 1.7670
-9.9063 -20.1177 1.7670
-9.3573 -20.8629 1.7670
-8.7746 -21.6118 1.7670
-8.1568 -22.3636 1.7670
-7.5026 -23.1178 1.7670
-6.8103 -23.8734 1.7670
-5.7233 -23.1903 1.6637
-4.9956 -23.9016 1.6637
-4.2279 -24.6112 1.6637
-3.4185 -25.3176 1.6637
-2.3070 -23.3928 1.4958
-1.2377 -19.8114 1.2338
-0.4555 -17.1915 1.0438
0.1439 -15.2935 0.9061
0.6229 -13.7373 0.7951
1.2723 -15.6328 0.8848
1.8363 -15.6092 0.8648
1.5962 -10.3514 0.5621
1.9035 -9.9570 0.5305
3.6033 -15.7593 0.8248
3.9183 -14.6895 0.7562
3.6908 -12.0782 0.6124
3.9136 -11.3352 0.5669
4.1148 -10.6615 0.5267
4.2981 -10.0475 0.4911
4.4662 -9.4842 0.4595
4.0081 -7.7749 0.3740
4.8841 -8.6933 0.4160
5.2872 -8.6673 0.4135
5.8309 -8.8296 0.4209
6.4233 -9.0065 0.4300
6.9301 -9.0146 0.4322
7.1150 -8.5982 0.4151
7.3441 -8.2533 0.4024
0.7220 -0.7550 0.0373
0.7457 -0.7258 0.0364
0.7938 -0.7190 0.0368
7.8370 -6.6023 0.3466
7.9500 -6.2239 0.3362
8.0027 -5.8144 0.3247
8.1670 -5.4972 0.3190
8.2717 -5.1464 0.3121
8.4291 -4.8338 0.3082
8.5308 -4.4933 0.3033
8.6310 -4.1577 0.2994
8.7301 -3.8258 0.2964
8.7710 -3.4742 0.2925
0.8898 -0.3160 0.0292
0.7368 -0.2323 0.0239
0.7447 -0.2057 0.0240
0.7528 -0.1791 0.0241
13.2978 -2.6641 0.4248
13.4382 -2.1940 0.4296
13.5798 -1.7196 0.4357
13.7232 -1.2395 0.4432
13.8686 -0.7523 0.4521
30.2629 -0.5541 0.9987
30.5913 0.5377 1.0245
23.8635 1.2769 0.8132
21.7051 1.9444 0.7545
21.6601 2.7266 0.7699
21.9186 3.5621 0.7986
17.2691 3.4465 0.6463
16.1349 3.8268 0.6217
15.1246 4.1656 0.6012
14.2166 4.4701 0.5843
10.5833 3.7499 0.4506
14.2788 5.6437 0.6310
27.9666 12.2313 1.2852
26.8598 12.9143 1.2861
24.9014 13.0926 1.2446
23.5604 13.4880 1.2316
21.4974 13.3532 1.1774
19.9500 13.4072 1.1471
19.8951 14.4329 1.2032
18.4302 14.4071 1.1746
18.8647 15.8695 1.2696
17.1841 15.5422 1.2239
16.1327 15.6799 1.2186
15.6603 16.3539 1.2575
15.4865 17.3804 1.3253
13.6340 16.4541 1.2468
12.8910 16.7463 1.2634
12.2310 17.1274 1.2887
11.8715 17.9536 1.3496
10.5155 17.2158 1.2948
9.8055 17.4310 1.3136
8.7953 17.0396 1.2883
8.3360 17.6800 1.3428
7.3562 17.1755 1.3120
7.6326 19.7528 1.5192
6.6024 19.1006 1.4807
5.7809 18.8971 1.4781
5.0709 18.9903 1.5001
4.5014 19.6678 1.5706
3.9568 20.6799 1.6709
3.0685 19.8855 1.6271
2.3285 19.7856 1.6410
1.6159 19.8600 1.6709
0.8814 19.4788 1.6639
0.1773 19.1698 1.6639
-0.5039 18.8503 1.6639
-1.1629 18.5210 1.6639
-1.8003 18.1824 1.6639
-2.4167 17.8353 1.6639
-3.0128 17.4802 1.6639
-3.5891 17.1176 1.6639
-4.2085 16.9995 1.6889
-4.9256 17.2136 1.7495
-5.5275 16.9796 1.7670
-6.0614 16.5671 1.7670
-6.5771 16.1486 1.7670
-7.0751 15.7245 1.7670
-7.5559 15.2950 1.7670
-10.8377 5.0610 1.6578
-10.9621 4.6443 1.6517
-11.0855 4.2310 1.6471
-11.1793 3.8100 1.6398
-11.3014 3.4011 1.6383
-11.4235 2.9922 1.6382
-11.5458 2.5824 1.6396
-11.6688 2.1704 1.6425
-11.7928 1.7553 1.6469
-11.9180 1.3359 1.6529
-12.0449 0.9110 1.6604
-12.1737 0.4794 1.6696
-12.1817 0.0394 1.6637
-12.2219 -0.4022 1.6637
-12.2512 -0.8469 1.6637
-12.2694 -1.2947 1.6637
-12.2763 -1.7456 1.6637
-12.2717 -2.1996 1.6637
-12.2555 -2.6566 1.6637
-12.2275 -3.1165 1.6637
-12.1874 -3.5794 1.6637
-12.1350 -4.0450 1.6637
-12.0702 -4.5135 1.6637
-11.9926 -4.9846 1.6637
-11.9019 -5.4583 1.6637
-11.7979 -5.9345 1.6637
-11.6802 -6.4132 1.6637
-11.5498 -6.8947 1.6639
-11.4039 -7.3777 1.6639
-11.2434 -7.8627 1.6639
-11.0679 -8.3495 1.6639
-10.8770 -8.8378 1.6639
-10.9314 -9.5558 1.7046
-11.0947 -10.4268 1.7670
-10.8404 -10.9490 1.7670
-10.5680 -11.4719 1.7670
-10.2770 -11.9950 1.7670
-9.9669 -12.5180 1.7670
-9.6373 -13.0406 1.7670
-9.2875 -13.5621 1.7670
-8.9172 -14.0822 1.7670
-8.5256 -14.6003 1.7670
-8.1125 -15.1158 1.7670
-7.6771 -15.6281 1.7670
-7.2189 -16.1364 1.7670
-6.7375 -16.6401 1.7670
-6.2324 -17.1382 1.7670
-5.7029 -17.6299 1.7670
-5.1487 -18.1143 1.7670
-4.3022 -17.5040 1.6637
-3.7325 -17.9432 1.6637
-3.1383 -18.3724 1.6637
-2.5192 -18.7903 1.6637
-1.8750 -19.1957 1.6637
-1.2146 -19.7339 1.6762
-0.4383 -17.1339 1.4279
0.1563 -15.1524 1.2405
0.6353 -13.7410 1.1064
1.2600 -15.3150 1.2143
1.8356 -15.4881 1.2107
1.5665 -10.1015 0.7796
1.9126 -9.9597 0.7599
3.6178 -15.7637 1.1906
3.9250 -14.6680 1.0983
3.6959 -12.0616 0.8967
3.9181 -11.3206 0.8369
4.1187 -10.6486 0.7841
4.3016 -10.0360 0.7373
4.4693 -9.4740 0.6957
4.0105 -7.7669 0.5711
4.8897 -8.6903 0.6412
5.2961 -8.6699 0.6432
5.8401 -8.8324 0.6602
6.4329 -9.0094 0.6802
6.9355 -9.0117 0.6889
7.1246 -8.6011 0.6674
7.2937 -8.1890 0.6469
0.7222 -0.7545 0.0609
0.7459 -0.7254 0.0599
0.7942 -0.7188 0.0610
7.8381 -6.5986 0.5777
7.9510 -6.2206 0.5639
8.0035 -5.8116 0.5478
8.1677 -5.4948 0.5411
8.2723 -5.1443 0.5319
8.4296 -4.8321 0.5274
8.5312 -4.4920 0.5209
8.6313 -4.1566 0.5155
8.7303 -3.8251 0.5115
8.7711 -3.4738 0.5053
0.8898 -0.3160 0.0505
0.7640 -0.2409 0.0429
0.7723 -0.2134 0.0429
0.7809 -0.1859 0.0431
13.2973 -2.6658 0.7308
13.4375 -2.1961 0.7368
13.5790 -1.7221 0.7445
13.7222 -1.2425 0.7541
13.8675 -0.7558 0.7655
31.7988 -0.5915 1.7670
31.5201 0.5438 1.7670
23.6596 1.2575 1.3409
21.1226 1.8839 1.2128
20.6198 2.5869 1.2019
20.8458 3.3781 1.2360
16.6604 3.3167 1.0068
16.1553 3.8230 0.9971
15.1436 4.1621 0.9564
14.2344 4.4668 0.9216
10.5818 3.7423 0.7038
14.2752 5.6320 0.9771
23.5762 10.2930 1.6639
22.8214 10.9538 1.6639
22.0486 11.5731 1.6639
21.2608 12.1512 1.6639
20.4611 12.6885 1.6639
19.6522 13.1853 1.6639
18.8367 13.6426 1.6639
18.0171 14.0610 1.6639
17.1054 14.3656 1.6551
16.3745 14.7851 1.6639
15.5554 15.0930 1.6639
14.7402 15.3662 1.6639
13.9302 15.6060 1.6639
13.1272 15.8137 1.6639
12.3321 15.9903 1.6639
11.5462 16.1372 1.6639
10.7705 16.2556 1.6639
10.0057 16.3468 1.6639
9.2526 16.4119 1.6639
8.5119 16.4522 1.6639
7.7841 16.4688 1.6639
7.0696 16.4629 1.6639
6.3689 16.4355 1.6639
5.6822 16.3876 1.6639
5.0097 16.3204 1.6639
4.3517 16.2348 1.6639
3.7083 16.1316 1.6639
3.0794 16.0119 1.6639
2.4652 15.8764 1.6639
1.8656 15.7260 1.6639
1.2818 15.5756 1.6654
0.7168 15.5243 1.6791
0.1594 15.6889 1.7182
-0.4097 15.8599 1.7605
-0.9712 15.6911 1.7670
-1.5163 15.4520 1.7670
-2.0466 15.2019 1.7670
-2.5623 14.9415 1.7670
-3.0635 14.6711 1.7670
-3.5505 14.3914 1.7670
-4.0234 14.1026 1.7670
-4.4825 13.8054 1.7670
-4.9279 13.5000 1.7670
-5.3597 13.1869 1.7670
-5.7783 12.8665 1.7670
-6.1838 12.5389 1.7670
-9.3264 4.3565 1.6637
-9.4697 4.0129 1.6637
-9.6038 3.6659 1.6637
-9.7285 3.3156 1.6637
-9.8440 2.9621 1.6637
-9.9500 2.6055 1.6637
-10.0466 2.2459 1.6637
-10.1338 1.8834 1.6637
-10.2114 1.5181 1.6637
-10.2794 1.1501 1.6637
-10.3377 0.7794 1.6637
-10.3863 0.4061 1.6637
-10.4251 0.0305 1.6637
-10.4538 -0.3476 1.6637
-10.4726 -0.7279 1.6637
-10.4812 -1.1103 1.6637
-10.4795 -1.4948 1.6637
-10.4674 -1.8813 1.6637
-10.4447 -2.2696 1.6637
-10.4114 -2.6595 1.6637
-10.3672 -3.0511 1.6637
-10.3119 -3.4441 1.6637
-10.2455 -3.8383 1.6637
-10.1677 -4.2338 1.6637
-10.0784 -4.6302 1.6637
-9.9773 -5.0274 1.6637
-9.8642 -5.4252 1.6637
-9.8514 -5.8907 1.6829
-10.0227 -6.4949 1.7367
-10.0377 -7.0312 1.7670
-9.8646 -7.4541 1.7670
-9.6775 -7.8764 1.7670
-9.4763 -8.2979 1.7670
-9.2608 -8.7182 1.7670
-9.0306 -9.1369 1.7670
-8.7855 -9.5538 1.7670
-8.5252 -9.9684 1.7670
-8.2495 -10.3803 1.7670
-7.9581 -10.7891 1.7670
-7.6508 -11.1943 1.7670
-7.3272 -11.5954 1.7670
-6.9872 -11.9918 1.7670
-6.6306 -12.3829 1.7670
-6.2571 -12.7682 1.7670
-5.8665 -13.1471 1.7670
-5.4586 -13.5188 1.7670
-5.0333 -13.8826 1.7670
-4.5904 -14.2377 1.7670
-4.1299 -14.5834 1.7670
-3.4383 -14.0469 1.6637
-2.9712 -14.3522 1.6637
-2.4874 -14.6460 1.6637
-1.9870 -14.9275 1.6637
-1.4700 -15.1957 1.6637
-0.9365 -15.4497 1.6637
-0.3870 -15.6883 1.6637
0.1695 -15.1083 1.5798
0.6478 -13.7448 1.4190
1.2265 -14.7498 1.5053
1.7810 -14.9164 1.5069
1.5653 -10.0377 1.0052
1.9217 -9.9625 0.9902
3.6166 -15.6998 1.5513
3.9386 -14.6720 1.4431
3.7010 -12.0450 1.1812
3.9226 -11.3059 1.1071
4.1227 -10.6356 1.0417
4.3051 -10.0246 0.9838
4.4724 -9.4637 0.9322
4.0129 -7.7589 0.7685
4.8953 -8.6873 0.8669
5.3050 -8.6726 0.8737
5.8494 -8.8351 0.9005
6.4426 -9.0122 0.9314
6.9409 -9.0088 0.9463
7.1343 -8.6039 0.9209
7.3476 -8.2417 0.9012
0.7224 -0.7541 0.0845
0.7461 -0.7250 0.0834
0.7967 -0.7205 0.0855
7.8393 -6.5949 0.8094
7.9520 -6.2174 0.7922
8.0616 -5.8503 0.7770
8.1684 -5.4923 0.7637
8.2730 -5.1423 0.7522
8.4302 -4.8303 0.7472
8.5316 -4.4906 0.7389
8.6316 -4.1556 0.7322
8.7305 -3.8244 0.7270
8.7712 -3.4734 0.7187
0.8897 -0.3160 0.0719
0.8039 -0.2534 0.0642
0.8126 -0.2246 0.0643
0.8217 -0.1957 0.0645
13.2968 -2.6674 1.0375
13.4369 -2.1982 1.0447
13.5783 -1.7247 1.0541
13.7213 -1.2456 1.0657
13.8665 -0.7594 1.0795
21.2775 -0.4020 1.6637
21.1447 0.3579 1.6637
22.2745 1.1759 1.7670
22.0522 1.9581 1.7670
21.7915 2.7246 1.7670
21.4941 3.4732 1.7670
16.4382 3.2643 1.3726
16.5730 3.9129 1.4081
14.2555 3.9097 1.2347
14.2123 4.4510 1.2571
10.5812 3.7350 0.9576
14.2716 5.6204 1.3238
18.5502 8.0844 1.7670
18.0311 8.6396 1.7670
17.4938 9.1668 1.7670
16.9400 9.6656 1.7670
16.3719 10.1358 1.7670
15.7913 10.5775 1.7670
15.2001 10.9906 1.7670
14.5999 11.3753 1.7670
13.8435 11.6068 1.7482
13.1177 11.8244 1.7324
12.4227 12.0328 1.7199
11.7550 12.2330 1.7106
11.1114 12.4259 1.7041
10.4890 12.6125 1.7004
9.8852 12.7934 1.6992
9.2971 12.9685 1.7004
8.7233 13.1393 1.7039
8.1618 13.3064 1.7098
7.6111 13.4706 1.7180
7.0694 13.6323 1.7285
6.5349 13.7919 1.7411
6.0063 13.9497 1.7559
5.4634 14.0587 1.7670
4.8906 14.0611 1.7670
4.3262 14.0454 1.7670
3.7704 14.0124 1.7670
3.2238 13.9627 1.7670
2.6864 13.8970 1.7670
2.1587 13.8160 1.7670
1.6408 13.7202 1.7670
1.1329 13.6103 1.7670
0.6352 13.4869 1.7670
0.1479 13.3504 1.7670
-0.3291 13.2016 1.7670
-0.7955 13.0409 1.7670
-1.2514 12.8687 1.7670
-1.6967 12.6856 1.7670
-2.1313 12.4921 1.7670
-2.5554 12.2885 1.7670
-2.9687 12.0754 1.7670
-3.3715 11.8531 1.7670
-3.7636 11.6219 1.7670
-4.1451 11.3823 1.7670
-4.5161 11.1346 1.7670
-4.8766 10.8792 1.7670
-5.2266 10.6163 1.7670
-8.1554 3.8105 1.6637
-8.2818 3.5101 1.6637
-8.3997 3.2066 1.6637
-8.5091 2.9000 1.6637
-8.6099 2.5904 1.6637
-8.7022 2.2781 1.6637
-8.7858 1.9631 1.6637
-8.8607 1.6455 1.6637
-8.9269 1.3255 1.6637
-8.9843 1.0033 1.6637
-9.0328 0.6788 1.6637
-9.0724 0.3522 1.6637
-9.1029 0.0237 1.6637
-9.1244 -0.3065 1.6637
-9.1366 -0.6385 1.6637
-9.1396 -0.9720 1.6637
-9.1331 -1.3069 1.6637
-9.1172 -1.6431 1.6637
-9.0917 -1.9803 1.6637
-9.0565 -2.3186 1.6637
-9.0115 -2.6576 1.6637
-8.9946 -3.0100 1.6708
-9.1076 -3.4185 1.7042
-9.2333 -3.8517 1.7424
-9.2727 -4.2675 1.7670
-9.1708 -4.6290 1.7670
-9.0576 -4.9901 1.7670
-8.9331 -5.3506 1.7670
-8.7970 -5.7102 1.7670
-8.6492 -6.0687 1.7670
-8.4896 -6.4259 1.7670
-8.3180 -6.7813 1.7670
-8.1343 -7.1348 1.7670
-7.9382 -7.4860 1.7670
-7.7298 -7.8345 1.7670
-7.5087 -8.1800 1.7670
-7.2749 -8.5221 1.7670
-7.0283 -8.8604 1.7670
-6.7687 -9.1944 1.7670
-6.4960 -9.5239 1.7670
-6.2102 -9.8482 1.7670
-5.9110 -10.1669 1.7670
-5.5985 -10.4795 1.7670
-5.2725 -10.7854 1.7670
-4.9331 -11.0841 1.7670
-4.5802 -11.3751 1.7670
-4.2139 -11.6576 1.7670
-3.8341 -11.9311 1.7670
-3.4408 -12.1950 1.7670
-2.8570 -11.7211 1.6637
-2.4618 -11.9494 1.6637
-2.0544 -12.1666 1.6637
-1.6349 -12.3721 1.6637
-1.2036 -12.5650 1.6637
-0.7607 -12.7448 1.6637
-0.3065 -12.9106 1.6637
0.1584 -13.0616 1.6637
0.6410 -13.3465 1.6825
1.1319 -13.4671 1.6825
1.6322 -13.5706 1.6825
1.5780 -10.0628 1.2398
1.9309 -9.9652 1.2218
3.2301 -13.9698 1.7070
3.7695 -13.9971 1.7070
3.7068 -12.0301 1.4665
3.9273 -11.2919 1.3781
4.1267 -10.6227 1.3000
4.3087 -10.0131 1.2309
4.4756 -9.4535 1.1693
4.0153 -7.7509 0.9664
4.9009 -8.6843 1.0936
5.3140 -8.6753 1.1055
5.8587 -8.8379 1.1421
6.4523 -9.0151 1.1840
6.9462 -9.0059 1.2048
7.1439 -8.6068 1.1756
7.3493 -8.2358 1.1516
0.7226 -0.7536 0.1082
0.7463 -0.7245 0.1071
0.8011 -0.7240 0.1105
7.8404 -6.5912 1.0418
7.9530 -6.2141 1.0212
8.0624 -5.8474 1.0030
8.1692 -5.4899 0.9870
8.2736 -5.1402 0.9732
8.4307 -4.8286 0.9676
8.5320 -4.4892 0.9577
8.6319 -4.1545 0.9496
8.7307 -3.8236 0.9433
8.7714 -3.4730 0.9327
0.8897 -0.3159 0.0933
0.8994 -0.2836 0.0932
0.9320 -0.2576 0.0956
0.9460 -0.2254 0.0963
13.2963 -2.6691 1.3453
13.4363 -2.2003 1.3537
13.5775 -1.7273 1.3647
13.7204 -1.2486 1.3783
13.8654 -0.7630 1.3947
16.4900 -0.3164 1.6638
16.4105 0.2724 1.6638
16.3025 0.8548 1.6638
16.1668 1.4292 1.6639
16.0043 1.9941 1.6639
15.8159 2.5483 1.6639
16.5691 3.2819 1.7670
16.3172 3.8436 1.7670
14.3644 3.9312 1.5823
15.7425 4.9204 1.7670
10.5813 3.7279 1.2123
15.0820 5.9286 1.7670
14.7228 6.4050 1.7670
7.2028 3.4453 0.8871
6.5979 3.4514 0.8355
6.4366 3.6664 0.8396
13.1256 8.1125 1.7670
12.6929 8.4880 1.7670
12.2494 8.8424 1.7670
11.7964 9.1756 1.7670
11.3351 9.4877 1.7670
10.8667 9.7788 1.7670
10.3924 10.0489 1.7670
9.9132 10.2982 1.7670
9.4301 10.5269 1.7670
8.9443 10.7353 1.7670
8.4565 10.9238 1.7670
7.9677 11.0925 1.7670
7.4788 11.2420 1.7670
6.9905 11.3726 1.7670
6.5035 11.4848 1.7670
6.0186 11.5789 1.7670
5.5364 11.6555 1.7670
5.0574 11.7149 1.7670
4.5823 11.7578 1.7670
4.1116 11.7845 1.7670
3.6457 11.7955 1.7670
3.1850 11.7913 1.7670
0.7787 3.3581 0.5040
0.6571 3.3819 0.5090
0.5348 3.4016 0.5141
0.4119 3.4171 0.5191
0.2886 3.4283 0.5241
0.1650 3.4354 0.5291
0.0412 3.4382 0.5340
-0.0825 3.4368 0.5390
-0.2062 3.4312 0.5439
-0.3297 3.4213 0.5488
-0.4527 3.4073 0.5536
-0.5752 3.3890 0.5584
-0.6971 3.3665 0.5632
-2.5461 10.3928 1.7670
-2.8964 10.2140 1.7670
-3.2383 10.0265 1.7670
-3.5717 9.8309 1.7670
-3.8965 9.6273 1.7670
-4.2127 9.4160 1.7670
-4.5203 9.1974 1.7670
-7.2389 3.3832 1.6637
-7.3518 3.1166 1.6637
-7.4768 2.8545 1.6682
-7.5564 2.5753 1.6642
-7.6437 2.2994 1.6637
-7.7253 2.0218 1.6637
-7.7989 1.7417 1.6637
-7.8728 1.4609 1.6655
-7.9222 1.1749 1.6637
-7.9717 0.8885 1.6637
-8.0130 0.6001 1.6637
-8.0461 0.3101 1.6637
-8.0911 0.0186 1.6679
-8.1758 -0.2775 1.6819
-8.2620 -0.5805 1.6980
-8.3505 -0.8916 1.7163
-8.4455 -1.2123 1.7378
-8.5435 -1.5439 1.7618
-8.5404 -1.8648 1.7670
-8.5028 -2.1817 1.7670
-8.4558 -2.4989 1.7670
-8.3992 -2.8163 1.7670
-8.3329 -3.1336 1.7670
-8.2568 -3.4506 1.7670
-8.1709 -3.7672 1.7670
-8.0751 -4.0830 1.7670
-7.9692 -4.3980 1.7670
-7.8531 -4.7117 1.7670
-7.7268 -5.0240 1.7670
-7.5902 -5.3346 1.7670
-7.4431 -5.6433 1.7670
-7.2856 -5.9497 1.7670
-7.1174 -6.2535 1.7670
-6.9385 -6.5545 1.7670
-6.7488 -6.8523 1.7670
-6.5484 -7.1466 1.7670
-6.3370 -7.4370 1.7670
-6.1147 -7.7232 1.7670
-5.8814 -8.0047 1.7670
-5.6370 -8.2812 1.7670
-5.3816 -8.5522 1.7670
-5.1152 -8.8174 1.7670
-4.8377 -9.0763 1.7670
-4.5491 -9.3284 1.7670
-4.2496 -9.5733 1.7670
-3.9392 -9.8105 1.7670
-3.6179 -10.0394 1.7670
-3.2859 -10.2595 1.7670
-2.9433 -10.4704 1.7670
-2.4388 -10.0478 1.6637
-2.0968 -10.2273 1.6637
-1.7452 -10.3965 1.6637
-1.3845 -10.5548 1.6637
-1.0149 -10.7017 1.6637
-0.6366 -10.8366 1.6637
-0.2501 -10.9590 1.6637
0.1444 -11.0682 1.6637
0.5463 -11.1639 1.6637
0.9552 -11.2453 1.6637
1.3861 -11.4399 1.6825
1.8122 -11.4918 1.6825
2.2437 -11.5277 1.6825
2.6800 -11.5471 1.6825
3.1203 -11.5494 1.6825
3.6156 -11.7018 1.7070
3.9330 -11.2803 1.6502
4.1317 -10.6123 1.5595
4.3129 -10.0032 1.4790
4.4794 -9.4445 1.4075
4.0177 -7.7428 1.1651
4.9065 -8.6812 1.3214
5.2527 -8.5634 1.3211
5.5966 -8.4317 1.3211
5.9364 -8.2845 1.3211
6.2711 -8.1216 1.3211
6.5999 -7.9432 1.3211
6.9219 -7.7494 1.3211
0.7228 -0.7532 0.1320
0.7465 -0.7241 0.1308
0.8056 -0.7275 0.1358
7.8415 -6.5875 1.2752
7.9539 -6.2108 1.2512
8.0633 -5.8446 1.2300
8.1699 -5.4874 1.2114
8.2742 -5.1381 1.1952
8.4312 -4.8268 1.1891
8.5324 -4.4878 1.1774
8.6323 -4.1534 1.1679
8.7310 -3.8229 1.1606
8.7715 -3.4726 1.1478
0.8897 -0.3159 0.1148
0.8994 -0.2836 0.1147
9.0604 -2.5049 1.1440
9.3746 -2.2344 1.1740
13.2958 -2.6707 1.6544
13.4356 -2.2025 1.6641
13.5767 -1.7299 1.6767
13.7195 -1.2517 1.6924
13.4797 -0.7453 1.6637
13.4494 -0.2621 1.6638
13.3964 0.2180 1.6638
13.3213 0.6936 1.6638
13.2245 1.1638 1.6638
13.1065 1.6274 1.6638
12.9679 2.0834 1.6638
12.8094 2.5308 1.6639
12.6318 2.9686 1.6639
12.4358 3.3961 1.6639
12.9793 4.0486 1.7670
10.5827 3.7213 1.4684
12.4730 4.8940 1.7670
12.1955 5.2961 1.7670
7.2276 3.4511 1.0729
6.5280 3.4090 0.9947
6.3918 3.6347 1.0015
6.9369 4.2803 1.1198
10.6036 7.0790 1.7670
10.2511 7.3876 1.7670
9.8896 7.6796 1.7670
9.5199 7.9549 1.7670
9.1428 8.2135 1.7670
8.7594 8.4553 1.7670
8.3705 8.6803 1.7670
7.9770 8.8887 1.7670
7.5795 9.0806 1.7670
7.1790 9.2559 1.7670
6.7761 9.4151 1.7670
6.3716 9.5582 1.7670
5.9661 9.6854 1.7670
5.5602 9.7971 1.7670
5.1546 9.8935 1.7670
4.7499 9.9750 1.7670
4.3466 10.0417 1.7670
3.9452 10.0940 1.7670
3.5462 10.1323 1.7670
3.1501 10.1569 1.7670
0.7818 2.8831 0.5010
0.6772 2.9075 0.5053
0.5719 2.9283 0.5097
0.4660 2.9455 0.5140
0.3596 2.9590 0.5184
0.2528 2.9688 0.5227
0.1457 2.9750 0.5270
0.0385 2.9774 0.5313
-0.0688 2.9762 0.5356
-0.1759 2.9713 0.5399
-0.2828 2.9627 0.5441
-0.3894 2.9504 0.5483
-0.4955 2.9344 0.5525
-0.6010 2.9149 0.5566
-0.7059 2.8917 0.5606
-2.5346 8.9654 1.7670
-2.8374 8.8088 1.7670
-3.1332 8.6443 1.7670
-3.4217 8.4722 1.7670
-3.7031 8.2928 1.7670
-3.9771 8.1063 1.7670
-6.9048 3.2279 1.7670
-7.0130 2.9735 1.7670
-7.1137 2.7162 1.7670
-7.2067 2.4561 1.7670
-7.2920 2.1933 1.7670
-7.3696 1.9281 1.7670
-7.4395 1.6606 1.7670
-7.5014 1.3909 1.7670
-7.5555 1.1191 1.7670
-7.6016 0.8456 1.7670
-7.6397 0.5703 1.7670
-7.6697 0.2934 1.7670
-7.6916 0.0152 1.7670
-7.7053 -0.2643 1.7670
-7.7107 -0.5448 1.7670
-7.7078 -0.8262 1.7670
-7.6965 -1.1084 1.7670
-7.6768 -1.3911 1.7670
-7.6485 -1.6742 1.7670
-7.6116 -1.9574 1.7670
-7.5661 -2.2407 1.7670
-7.5118 -2.5238 1.7670
-7.4487 -2.8064 1.7670
-7.3767 -3.0885 1.7670
-7.2958 -3.3697 1.7670
-7.2059 -3.6500 1.7670
-7.1069 -3.9289 1.7670
-6.9989 -4.2063 1.7670
-6.8816 -4.4820 1.7670
-6.7550 -4.7557 1.7670
-6.6192 -5.0271 1.7670
-6.4740 -5.2960 1.7670
-6.3195 -5.5621 1.7670
-6.1555 -5.8250 1.7670
-5.9820 -6.0845 1.7670
-5.7991 -6.3403 1.7670
-5.6067 -6.5921 1.7670
-5.4047 -6.8395 1.7670
-5.1933 -7.0821 1.7670
-4.9724 -7.3197 1.7670
-4.7420 -7.5518 1.7670
-4.5022 -7.7781 1.7670
-4.2531 -7.9982 1.7670
-3.9946 -8.2117 1.7670
-3.7270 -8.4182 1.7670
-3.4502 -8.6172 1.7670
-3.1645 -8.8084 1.7670
-2.8700 -8.9913 1.7670
-2.5667 -9.1654 1.7670
-2.1563 -8.9216 1.6896
-1.8222 -8.9322 1.6639
-1.5134 -9.0689 1.6639
-1.1973 -9.1957 1.6638
-0.8741 -9.3120 1.6638
-0.5443 -9.4175 1.6638
-0.2082 -9.5118 1.6638
0.1340 -9.5944 1.6638
0.4818 -9.6649 1.6638
0.8347 -9.7229 1.6638
1.1922 -9.7679 1.6637
1.5540 -9.7996 1.6637
1.8024 -9.2186 1.5622
2.2426 -9.6264 1.6306
2.4969 -9.2126 1.5622
3.1110 -10.0405 1.7070
3.4949 -9.9993 1.7070
3.8794 -9.9424 1.7070
4.2638 -9.8695 1.7070
4.4837 -9.4365 1.6469
4.0201 -7.7347 1.3646
4.8150 -8.5064 1.5199
4.9491 -8.0572 1.4607
5.1046 -7.6805 1.4157
5.3849 -7.5059 1.4096
5.7071 -7.3830 1.4157
6.1521 -7.3966 1.4516
0.7217 -0.8072 0.1625
0.7230 -0.7527 0.1559
0.7467 -0.7237 0.1546
0.8102 -0.7310 0.1615
7.3187 -6.1439 1.4090
7.4235 -5.7929 1.3834
7.5255 -5.4515 1.3608
7.6249 -5.1185 1.3409
7.7221 -4.7929 1.3236
7.8906 -4.5154 1.3211
8.0615 -4.2385 1.3211
8.2196 -3.9537 1.3211
8.3645 -3.6617 1.3211
8.4958 -3.3630 1.3211
0.8897 -0.3159 0.1365
0.8994 -0.2836 0.1363
8.8049 -2.4348 1.3211
9.3750 -2.2354 1.3950
11.5481 -2.3212 1.7070
11.6052 -1.9043 1.7070
11.6428 -1.4858 1.7070
11.6612 -1.0667 1.7070
11.6604 -0.6478 1.7070
13.5500 -0.2681 1.9870
11.3079 0.1802 1.6637
11.2522 0.5818 1.6638
11.1786 0.9793 1.6638
11.0876 1.3719 1.6638
10.9797 1.7588 1.6638
10.8553 2.1392 1.6638
10.7149 2.5123 1.6638
10.5591 2.8774 1.6638
10.3884 3.2338 1.6639
10.2035 3.5810 1.6639
10.0051 3.9184 1.6639
9.7937 4.2454 1.6639
7.2378 3.4499 1.2584
6.5467 3.4129 1.1669
6.4012 3.6339 1.1718
6.9243 4.2653 1.3044
9.0982 6.0638 1.7670
8.8070 6.3362 1.7670
8.5074 6.5952 1.7670
8.2000 6.8404 1.7670
7.8857 7.0719 1.7670
7.5650 7.2896 1.7670
7.2387 7.4933 1.7670
6.9076 7.6832 1.7670
6.5722 7.8591 1.7670
6.2332 8.0212 1.7670
5.8913 8.1695 1.7670
5.5470 8.3041 1.7670
5.2009 8.4252 1.7670
4.8536 8.5330 1.7670
4.5057 8.6275 1.7670
4.1575 8.7090 1.7670
3.8097 8.7777 1.7670
3.4627 8.8339 1.7670
3.1169 8.8776 1.7670
0.7826 2.5147 0.4987
0.6913 2.5395 0.5025
0.5992 2.5611 0.5064
0.5064 2.5796 0.5102
0.4131 2.5947 0.5140
0.3193 2.6067 0.5178
0.2252 2.6154 0.5217
0.1308 2.6209 0.5255
0.0364 2.6230 0.5293
-0.0581 2.6219 0.5330
-0.1526 2.6176 0.5368
-0.2468 2.6100 0.5405
-0.3407 2.5991 0.5442
-0.4342 2.5850 0.5479
-0.5272 2.5676 0.5515
-0.6195 2.5470 0.5551
-0.7111 2.5232 0.5586
-0.8019 2.4963 0.5621
-2.7866 7.7065 1.7670
-3.0460 7.5580 1.7670
-3.2991 7.4025 1.7670
-3.5460 7.2404 1.7670
-6.2601 2.9274 1.7670
-6.3587 2.6966 1.7670
-6.4503 2.4631 1.7670
-6.5348 2.2271 1.7670
-6.6122 1.9886 1.7670
-6.6824 1.7478 1.7670
-6.7454 1.5049 1.7670
-6.8011 1.2600 1.7670
-6.8495 1.0133 1.7670
-6.8905 0.7649 1.7670
-6.9240 0.5151 1.7670
-6.9501 0.2639 1.7670
-6.9686 0.0115 1.7670
-6.9796 -0.2419 1.7670
-6.9829 -0.4961 1.7670
-6.9785 -0.7510 1.7670
-6.9663 -1.0064 1.7670
-6.9463 -1.2622 1.7670
-6.9184 -1.5181 1.7670
-6.8827 -1.7740 1.7670
-6.8389 -2.0296 1.7670
-6.7872 -2.2849 1.7670
-6.7273 -2.5395 1.7670
-6.6594 -2.7933 1.7670
-6.5833 -3.0461 1.7670
-6.4990 -3.2977 1.7670
-6.4064 -3.5478 1.7670
-6.3056 -3.7962 1.7670
-6.1964 -4.0427 1.7670
-6.0789 -4.2870 1.7670
-5.9531 -4.5290 1.7670
-5.8188 -4.7682 1.7670
-5.6761 -5.0045 1.7670
-5.5251 -5.2376 1.7670
-5.3656 -5.4673 1.7670
-5.1977 -5.6932 1.7670
-5.0214 -5.9150 1.7670
-4.8367 -6.1324 1.7670
-4.6437 -6.3452 1.7670
-4.4424 -6.5530 1.7670
-4.2329 -6.7555 1.7670
-4.0152 -6.9523 1.7670
-3.7894 -7.1432 1.7670
