ply
format ascii 1.0
element vertex 2145
property float32 x
property float32 y
property float32 z
end_header
-15.8877 5.7793 -0.2806
-15.8708 5.1364 -0.2774
-15.8543 4.5096 -0.2746
-15.4412 3.7992 -0.2653
-15.4258 3.2134 -0.2634
-36.2654 -7.1281 0.2020
-36.6395 -8.5772 0.2046
-21.2856 -5.7956 0.1193
-37.2904 -11.6051 0.2100
-38.5509 -13.5322 0.2185
-38.5306 -15.0982 0.2201
-38.5098 -16.7072 0.2221
-38.4884 -18.3653 0.2244
-38.1074 -19.8920 0.2250
-25.2392 -37.9053 0.2240
-6.1641 -10.0187 0.0577
-21.5303 -41.3754 0.2272
-16.1376 -41.3392 0.2145
-11.1309 -41.0888 0.2045
-8.4874 -43.4757 0.2122
3.7078 -39.2376 0.1883
7.9811 -47.6457 0.2312
7.5166 -36.7321 0.1796
6.5392 -26.9876 0.1332
6.8960 -24.5728 0.1226
7.1999 -22.5175 0.1138
7.5275 -20.9231 0.1073
7.6700 -19.1351 0.0997
7.8690 -17.7588 0.0941
7.0794 -14.5448 0.0786
7.1737 -13.4865 0.0744
7.5683 -13.0744 0.0738
7.3065 -11.6383 0.0674
6.9674 -10.2614 0.0610
7.2639 -9.9134 0.0607
7.8439 -9.9366 0.0628
7.1334 -8.3987 0.0548
7.6891 -8.4211 0.0570
8.2456 -8.4043 0.0591
6.9557 -6.5985 0.0483
6.9553 -6.1395 0.0470
6.9388 -5.6954 0.0457
7.0800 -5.3981 0.0455
7.3833 -5.2215 0.0464
7.6555 -5.0120 0.0472
7.9281 -4.7933 0.0480
8.4826 -4.7217 0.0506
8.6154 -4.3985 0.0507
8.6046 -4.0106 0.0500
8.5942 -3.6365 0.0494
8.5841 -3.2744 0.0489
8.5744 -2.9229 0.0485
8.5649 -2.5807 0.0481
8.5556 -2.2465 0.0479
8.5465 -1.9193 0.0477
8.5375 -1.5980 0.0475
8.5287 -1.2816 0.0475
8.5201 -0.9693 0.0474
8.5115 -0.6601 0.0475
8.5029 -0.3533 0.0476
8.4945 -0.0480 0.0478
8.4860 0.2566 0.0480
8.4775 0.5612 0.0483
8.4690 0.8667 0.0487
8.4605 1.1738 0.0491
8.4519 1.4834 0.0496
8.4432 1.7962 0.0501
8.4344 2.1132 0.0508
8.3820 2.4227 0.0512
8.3907 2.7550 0.0521
8.3815 3.0891 0.0529
8.3719 3.4315 0.0539
8.3876 3.7948 0.0551
8.3775 4.1585 0.0562
8.3671 4.5344 0.0575
8.6023 5.0692 0.0605
8.5907 5.4868 0.0621
8.5786 5.9227 0.0638
8.5659 6.3795 0.0656
8.5526 6.8599 0.0676
8.5385 7.3671 0.0698
8.5236 7.9050 0.0722
8.5076 8.4778 0.0749
8.4906 9.0907 0.0778
8.4723 9.7498 0.0811
8.4525 10.4626 0.0847
8.4309 11.2378 0.0887
8.4074 12.0863 0.0932
8.3566 12.9832 0.0980
8.3525 14.0607 0.1041
8.3212 15.2266 0.1107
8.2846 16.5435 0.1183
8.2427 18.0495 0.1272
8.1943 19.7931 0.1376
8.1335 21.8308 0.1498
2.3026 6.9308 0.0471
7.9855 27.2682 0.1833
7.8819 30.9963 0.2066
7.9390 36.6839 0.2427
6.6524 37.1367 0.2442
6.4075 45.0200 0.2946
2.3461 22.1551 0.1444
0.6666 19.7472 0.1282
-0.0420 19.7191 0.1279
-0.7487 19.6909 0.1278
-1.4554 19.6629 0.1278
-15.6692 12.4587 0.1234
-15.6453 11.5485 0.1194
-15.6226 10.6879 0.1157
-16.0021 10.1246 0.1153
-15.9811 9.3259 0.1122
-15.5610 8.3474 0.1066
-15.5422 7.6325 0.1040
-15.5240 6.9440 0.1017
-15.5065 6.2788 0.0996
-15.8877 5.7789 0.1002
-15.8708 5.1361 0.0983
-15.8543 4.5093 0.0967
-15.4412 3.7989 0.0928
-15.4258 3.2131 0.0915
-36.2630 -7.1283 1.0346
-15.2875 -3.5790 0.4390
-15.2714 -4.1583 0.4421
-15.2550 -4.7478 0.4458
-15.2383 -5.3493 0.4502
-15.2212 -5.9647 0.4552
-15.2036 -6.5963 0.4610
-15.1855 -7.2463 0.4676
-15.1669 -7.9174 0.4750
-15.1476 -8.6123 0.4833
-15.1275 -9.3344 0.4925
-15.1066 -10.0871 0.5029
-15.0847 -10.8745 0.5143
-15.0617 -11.7012 0.5270
-15.0375 -12.5727 0.5412
-15.0118 -13.4950 0.5568
-14.9846 -14.4754 0.5743
-14.9555 -15.5222 0.5937
-14.9243 -16.6456 0.6153
-14.8906 -17.8573 0.6394
-14.8541 -19.1718 0.6665
-14.8142 -20.6066 0.6970
-14.7704 -22.1833 0.7314
-6.1608 -10.0137 0.3225
-17.5158 -30.9012 0.9737
-21.5298 -41.3754 1.2779
-19.6494 -41.3166 1.2529
-17.8371 -41.2600 1.2304
-16.0849 -41.2052 1.2102
-14.3857 -41.1521 1.1923
-12.7327 -41.1005 1.1764
-11.1306 -41.0888 1.1635
-9.5527 -41.0449 1.1515
-8.3594 -42.8210 1.1918
3.7002 -39.1584 1.0740
7.6496 -45.6676 1.2647
7.5165 -36.7326 1.0243
7.8922 -32.5723 0.9158
6.9910 -24.9120 0.7072
7.2997 -22.8301 0.6553
7.5274 -20.9233 0.6082
7.7978 -19.4542 0.5735
8.0035 -18.0627 0.5408
8.1871 -16.8207 0.5123
7.1736 -13.4867 0.4186
6.7991 -11.7459 0.3721
7.3302 -11.6763 0.3782
6.7943 -10.0068 0.3320
7.2915 -9.9513 0.3388
6.7887 -8.6001 0.3011
7.1652 -8.4363 0.3044
7.6890 -8.4213 0.3139
8.2455 -8.4045 0.3243
6.8148 -6.4650 0.2590
6.8099 -6.0113 0.2506
6.9387 -5.6955 0.2479
7.0799 -5.3983 0.2461
7.2527 -5.1293 0.2457
7.5160 -4.9209 0.2487
7.9279 -4.7934 0.2567
8.4823 -4.7217 0.2693
8.6154 -4.3987 0.2686
8.6046 -4.0108 0.2639
8.5942 -3.6367 0.2596
8.5841 -3.2746 0.2559
8.5744 -2.9231 0.2526
8.5649 -2.5809 0.2497
8.5556 -2.2467 0.2471
8.5465 -1.9195 0.2450
8.5375 -1.5981 0.2432
8.5288 -1.2818 0.2417
8.5201 -0.9694 0.2406
8.5115 -0.6603 0.2398
8.5030 -0.3534 0.2393
8.4945 -0.0481 0.2391
8.4860 0.2565 0.2393
8.4775 0.5611 0.2397
8.4690 0.8665 0.2404
8.4605 1.1736 0.2415
8.4519 1.4832 0.2429
8.4432 1.7960 0.2446
8.4344 2.1130 0.2466
8.3822 2.4226 0.2477
8.3908 2.7548 0.2510
8.3815 3.0890 0.2542
8.3719 3.4313 0.2577
8.3876 3.7946 0.2625
8.3775 4.1583 0.2669
8.3671 4.5342 0.2718
8.6024 5.0690 0.2855
8.5908 5.4866 0.2917
8.5786 5.9225 0.2986
8.5659 6.3793 0.3062
8.5526 6.8597 0.3146
8.5385 7.3669 0.3238
8.5236 7.9047 0.3341
8.5076 8.4775 0.3454
8.4906 9.0904 0.3580
8.4723 9.7496 0.3720
8.4525 10.4623 0.3877
8.4309 11.2375 0.4052
8.4074 12.0860 0.4249
8.3566 12.9829 0.4459
8.3525 14.0604 0.4725
8.3212 15.2263 0.5016
8.2846 16.5432 0.5351
8.2427 18.0491 0.5742
8.1943 19.7927 0.6201
8.1336 21.8306 0.6747
2.3024 6.9300 0.2116
7.9855 27.2677 0.8234
7.8819 30.9958 0.9271
7.9392 36.6839 1.0883
6.6525 37.1360 1.0941
6.4075 45.0193 1.3190
2.3459 22.1527 0.6462
0.6666 19.7451 0.5732
-0.0420 19.7169 0.5721
-0.7487 19.6888 0.5717
-1.4553 19.6607 0.5720
-28.7429 26.4293 1.1222
-28.7859 24.6230 1.0878
-15.6692 12.4583 0.5744
-15.6453 11.5481 0.5575
-15.6226 10.6875 0.5422
-16.0021 10.1242 0.5419
-15.9811 9.3255 0.5290
-15.5610 8.3471 0.5044
-15.5422 7.6322 0.4941
-15.5240 6.9437 0.4848
-15.5065 6.2785 0.4765
-15.8877 5.7786 0.4810
-15.8708 5.1358 0.4741
-15.8543 4.5090 0.4680
-15.4412 3.7985 0.4510
-15.4258 3.2127 0.4464
-27.8209 -5.4694 1.4333
-15.2875 -3.5793 0.7932
-15.2714 -4.1586 0.7991
-15.2550 -4.7481 0.8062
-15.2383 -5.3496 0.8145
-15.2211 -5.9650 0.8240
-15.2036 -6.5966 0.8348
-15.1855 -7.2467 0.8471
-15.1669 -7.9177 0.8609
-15.1476 -8.6127 0.8763
-15.1275 -9.3347 0.8935
-15.1066 -10.0874 0.9126
-15.0847 -10.8748 0.9338
-15.0617 -11.7016 0.9573
-15.0375 -12.5731 0.9833
-15.0118 -13.4954 1.0122
-14.9846 -14.4758 1.0442
-14.9555 -15.5226 1.0798
-14.9243 -16.6460 1.1195
-14.8906 -17.8577 1.1639
-14.8540 -19.1723 1.2135
-14.8142 -20.6071 1.2694
-14.7703 -22.1838 1.3326
-6.1575 -10.0085 0.5874
-12.4597 -21.9818 1.2626
-14.7160 -28.2815 1.5926
-13.6960 -28.7990 1.5926
-13.4781 -31.1775 1.6958
-8.4771 -21.7164 1.1636
-7.7835 -22.2663 1.1771
-10.0575 -32.4657 1.6958
-8.8881 -32.8112 1.6958
-7.7068 -33.1140 1.6958
-6.5149 -33.3734 1.6958
-5.3143 -33.5892 1.6958
-4.1065 -33.7611 1.6958
-2.8931 -33.8888 1.6958
-0.5050 -10.2375 0.5110
-0.1375 -10.2477 0.5110
0.7640 -34.0056 1.6958
1.9831 -33.9556 1.6958
3.0051 -31.8026 1.5927
3.2025 -24.4788 1.2310
5.2764 -31.5003 1.5927
6.4021 -31.2872 1.5927
7.7462 -31.9703 1.6408
7.0565 -25.1459 1.3029
6.8724 -21.4939 1.1260
7.3231 -20.3558 1.0796
7.8709 -19.6369 1.0560
8.0034 -18.0630 0.9864
7.0796 -14.5458 0.8079
7.1736 -13.4868 0.7631
6.7673 -11.6912 0.6750
6.3357 -10.0924 0.5957
6.7659 -9.9652 0.6023
7.2914 -9.9514 0.6171
6.6409 -8.4132 0.5363
7.1650 -8.4364 0.5541
7.6888 -8.4212 0.5711
8.2454 -8.4046 0.5899
6.8789 -6.5260 0.4753
6.8567 -6.0528 0.4586
6.9387 -5.6957 0.4504
7.0799 -5.3984 0.4469
7.2953 -5.1597 0.4487
7.5650 -4.9532 0.4543
7.9276 -4.7934 0.4657
8.4820 -4.7217 0.4883
8.6154 -4.3989 0.4868
8.6046 -4.0110 0.4780
8.5942 -3.6369 0.4701
8.5842 -3.2748 0.4631
8.5744 -2.9233 0.4569
8.5649 -2.5810 0.4514
8.5556 -2.2469 0.4467
8.5465 -1.9196 0.4426
8.5376 -1.5983 0.4391
8.5288 -1.2819 0.4363
8.5201 -0.9696 0.4340
8.5115 -0.6604 0.4324
8.5030 -0.3536 0.4313
8.4945 -0.0483 0.4307
8.4860 0.2563 0.4308
8.4775 0.5609 0.4313
8.4690 0.8664 0.4325
8.4605 1.1735 0.4342
8.4519 1.4830 0.4364
8.4432 1.7959 0.4393
8.4344 2.1128 0.4428
8.3823 2.4224 0.4446
8.3908 2.7546 0.4502
8.3815 3.0888 0.4556
8.3720 3.4312 0.4618
8.3877 3.7945 0.4701
8.3775 4.1581 0.4779
8.3671 4.5340 0.4865
8.6024 5.0688 0.5107
8.5908 5.4864 0.5216
8.5786 5.9223 0.5337
8.5660 6.3791 0.5471
8.5526 6.8595 0.5619
8.5385 7.3667 0.5782
8.5236 7.9045 0.5963
8.5076 8.4773 0.6164
8.4906 9.0902 0.6386
8.4723 9.7493 0.6634
8.4525 10.4621 0.6911
8.4310 11.2372 0.7221
8.4074 12.0858 0.7570
8.3567 12.9827 0.7942
8.3525 14.0601 0.8414
8.3212 15.2260 0.8930
8.2846 16.5429 0.9525
8.2427 18.0488 1.0217
8.1943 19.7923 1.1034
8.1337 21.8305 1.2002
2.3022 6.9293 0.3763
7.9855 27.2672 1.4643
7.6060 29.9101 1.5908
6.5273 30.1595 1.5908
5.4406 30.3706 1.5908
4.3525 30.5800 1.5927
0.8975 8.4751 0.4395
0.5906 8.4681 0.4378
0.2856 8.4611 0.4366
-0.0180 8.4541 0.4360
-0.3212 8.4471 0.4360
-0.6247 8.4401 0.4365
-0.9294 8.4331 0.4375
-4.7729 32.5394 1.6958
-5.9376 32.3504 1.6958
-6.8412 30.9712 1.6351
-7.7427 29.9135 1.5927
-8.8121 29.6212 1.5927
-9.8707 29.2913 1.5927
-11.0754 29.3431 1.6158
-12.1234 28.9333 1.6158
-13.1566 28.4867 1.6158
-14.1737 28.0037 1.6158
-15.1733 27.4849 1.6158
-16.1543 26.9310 1.6158
-17.1153 26.3425 1.6158
-18.0553 25.7203 1.6158
-18.9729 25.0649 1.6158
-19.8671 24.3773 1.6158
-20.7367 23.6581 1.6158
-21.5807 22.9082 1.6158
-22.3979 22.1287 1.6158
-23.1874 21.3203 1.6158
-23.9480 20.4841 1.6158
-15.6692 12.4579 1.0259
-15.6453 11.5478 0.9961
-15.6226 10.6872 0.9691
-15.6011 9.8701 0.9447
-15.5806 9.0915 0.9227
-15.5610 8.3467 0.9027
-15.5422 7.6318 0.8847
-15.5240 6.9434 0.8684
-15.5065 6.2782 0.8538
-15.4895 5.6335 0.8407
-15.4730 5.0067 0.8291
-15.4569 4.3957 0.8188
-15.4412 3.7982 0.8097
-15.4258 3.2124 0.8019
-21.6717 -4.2609 1.6158
-15.2874 -3.5796 1.1482
-15.2713 -4.1589 1.1569
-15.2550 -4.7484 1.1674
-15.2382 -5.3499 1.1796
-15.2211 -5.9653 1.1936
-15.2036 -6.5969 1.2095
-13.3997 -6.3948 1.0832
-13.1668 -6.8739 1.0832
-15.1475 -8.6130 1.2702
-15.1275 -9.3350 1.2953
-15.1066 -10.0877 1.3232
-15.0847 -10.8752 1.3542
-15.0617 -11.7020 1.3884
-15.0375 -12.5734 1.4264
-13.3612 -12.0119 1.3070
-14.9846 -14.4762 1.5152
-14.9555 -15.5230 1.5671
-14.6107 -16.2967 1.5908
-14.0207 -16.8149 1.5908
-9.1321 -11.7872 1.0832
-8.7057 -12.1102 1.0832
-8.2677 -12.4177 1.0832
-6.1542 -10.0034 0.8526
-10.8088 -19.0696 1.5908
-10.1199 -19.4490 1.5908
-8.1346 -17.1053 1.3741
-8.7124 -20.1540 1.5926
-7.9852 -20.4568 1.5926
-7.2474 -20.7331 1.5926
-6.5000 -20.9825 1.5926
-5.7440 -21.2047 1.5926
-5.3031 -22.7867 1.6958
-4.4828 -22.9643 1.6958
-3.6566 -23.1120 1.6958
-2.8254 -23.2297 1.6958
-1.9905 -23.3171 1.6958
-0.4725 -9.5781 0.6949
-0.1283 -9.5685 0.6934
0.5256 -23.3969 1.6958
1.3644 -23.3627 1.6958
2.2014 -23.2980 1.6958
2.8510 -21.7924 1.5927
3.6305 -21.6748 1.5927
4.4052 -21.5290 1.5927
5.1741 -21.3551 1.5927
5.9361 -21.1536 1.5927
6.6413 -20.7717 1.5811
7.3229 -20.3558 1.5686
7.8030 -19.4680 1.5211
8.0034 -18.0633 1.4331
7.0797 -14.5463 1.1736
6.2258 -11.7052 0.9620
5.9697 -10.3134 0.8649
6.2401 -9.9403 0.8520
6.7659 -9.9654 0.8746
6.2770 -8.5671 0.7713
6.6705 -8.4508 0.7821
7.1649 -8.4364 0.8043
7.6885 -8.4211 0.8288
8.2454 -8.4047 0.8560
6.9552 -6.5986 0.6973
6.9554 -6.1400 0.6750
6.9386 -5.6958 0.6533
7.0798 -5.3985 0.6481
7.3830 -5.2218 0.6585
7.6551 -5.0123 0.6666
7.9274 -4.7934 0.6751
8.4817 -4.7217 0.7077
8.6154 -4.3990 0.7055
8.6046 -4.0112 0.6926
8.5942 -3.6370 0.6811
8.5842 -3.2749 0.6708
8.5744 -2.9234 0.6617
8.5649 -2.5812 0.6537
8.5556 -2.2470 0.6466
8.5465 -1.9198 0.6406
8.5376 -1.5985 0.6355
8.5288 -1.2821 0.6313
8.5201 -0.9698 0.6279
8.5115 -0.6606 0.6254
8.5030 -0.3538 0.6237
8.4945 -0.0485 0.6228
8.4860 0.2561 0.6227
8.4775 0.5607 0.6234
8.4690 0.8662 0.6249
8.4605 1.1733 0.6273
8.4519 1.4829 0.6304
8.4432 1.7957 0.6345
8.4344 2.1127 0.6393
8.3824 2.4223 0.6418
8.3908 2.7544 0.6499
8.3815 3.0886 0.6576
8.3720 3.4310 0.6663
8.3877 3.7943 0.6783
8.3776 4.1579 0.6893
8.3671 4.5338 0.7017
8.6024 5.0686 0.7364
8.5908 5.4862 0.7521
8.5786 5.9221 0.7694
8.5660 6.3789 0.7886
8.5526 6.8593 0.8098
8.5385 7.3665 0.8332
8.5236 7.9043 0.8591
8.5077 8.4771 0.8879
8.4906 9.0900 0.9198
8.4723 9.7491 0.9554
8.4525 10.4618 0.9952
8.4310 11.2370 1.0397
8.4074 12.0855 1.0899
8.3567 12.9824 1.1432
8.3525 14.0598 1.2112
8.3212 15.2257 1.2853
8.2846 16.5425 1.3708
8.2427 18.0484 1.4703
8.1943 19.7919 1.5877
7.4927 20.1096 1.5908
2.3020 6.9285 0.5413
6.0300 20.5897 1.5908
5.2870 20.7904 1.5908
4.5428 20.9898 1.5927
3.7867 21.1376 1.5927
3.0258 21.2584 1.5927
0.8974 8.4745 0.6321
0.5905 8.4675 0.6296
0.2856 8.4605 0.6280
-0.0180 8.4535 0.6271
-0.3212 8.4465 0.6270
-0.6247 8.4395 0.6278
-0.9293 8.4325 0.6293
-3.3181 22.6205 1.6958
-4.1276 22.4884 1.6958
-4.9321 22.3277 1.6958
-5.7304 22.1385 1.6958
-6.5215 21.9212 1.6958
-6.8599 20.3561 1.5926
-7.5867 20.0997 1.5926
-8.3041 19.8177 1.5926
-9.0111 19.5103 1.5926
-9.7069 19.1781 1.5926
-10.3906 18.8212 1.5926
-11.2228 18.7092 1.6158
-11.8893 18.2987 1.6158
-12.0467 17.1605 1.5521
-12.5457 16.5736 1.5384
-13.0317 15.9897 1.5262
-13.5153 15.4189 1.5167
-14.1087 14.9762 1.5215
-15.1301 14.9478 1.5724
-16.0940 14.7977 1.6158
-15.8385 13.5472 1.5399
-15.6692 12.4575 1.4785
-15.6452 11.5474 1.4357
-15.6226 10.6868 1.3971
-15.6011 9.8698 1.3621
-15.5806 9.0911 1.3305
-12.9462 6.9439 1.0832
-15.5421 7.6315 1.2761
-15.5240 6.9430 1.2529
-15.5065 6.2778 1.2320
-15.4895 5.6332 1.2134
-15.4730 5.0064 1.1968
-15.4569 4.3954 1.1821
-15.4412 3.7979 1.1692
-15.4258 3.2121 1.1581
-16.5426 -3.2528 1.6158
-15.2874 -3.5799 1.5043
-15.2713 -4.1592 1.5159
-15.2550 -4.7487 1.5298
-15.2382 -5.3502 1.5459
-15.2211 -5.9657 1.5644
-15.2036 -6.5972 1.5854
-13.4013 -6.3958 1.4201
-14.7500 -7.7008 1.5908
-12.6883 -7.2150 1.3951
-14.1680 -8.7433 1.5908
-9.4296 -6.2971 1.0832
-9.2001 -6.6330 1.0832
-8.9586 -6.9605 1.0832
-12.7855 -10.6908 1.5908
-12.3968 -11.1452 1.5908
-11.9920 -11.5854 1.5908
-11.5714 -12.0109 1.5908
-11.1356 -12.4209 1.5908
-10.6852 -12.8150 1.5908
-9.0376 -11.6655 1.4067
-9.7429 -13.5535 1.5908
-9.2624 -13.9120 1.5926
-6.0817 -9.8857 1.1058
-8.2441 -14.5452 1.5926
-7.7184 -14.8339 1.5926
-7.1824 -15.1034 1.5926
-6.6370 -15.3533 1.5926
-6.0828 -15.5834 1.5926
-5.5206 -15.7933 1.5926
-5.2721 -17.0190 1.6958
-4.6587 -17.1987 1.6958
-4.0392 -17.3561 1.6958
-3.4143 -17.4910 1.6958
-2.7850 -17.6033 1.6958
-2.1519 -17.6926 1.6958
-1.5160 -17.7590 1.6958
-0.4725 -9.5789 0.9125
-0.1284 -9.5694 0.9105
0.4003 -17.8197 1.6958
1.0392 -17.7936 1.6958
1.6766 -17.7445 1.6958
2.3119 -17.6723 1.6958
2.7651 -16.5086 1.5927
3.3553 -16.3979 1.5927
3.9409 -16.2658 1.5927
4.5214 -16.1127 1.5927
3.0691 -9.5994 0.9592
5.6637 -15.7440 1.5927
6.2240 -15.5289 1.5927
6.9807 -15.7556 1.6408
7.0798 -14.5468 1.5406
6.2256 -11.7051 1.2627
5.8594 -10.1231 1.1142
6.2638 -9.9784 1.1225
5.8100 -8.5576 0.9856
6.2017 -8.4645 1.0001
6.6704 -8.4509 1.0263
7.1647 -8.4364 1.0553
7.6883 -8.4211 1.0874
8.2453 -8.4048 1.1231
6.9550 -6.5986 0.9147
6.9281 -6.1162 0.8819
6.9386 -5.6959 0.8569
7.0797 -5.3987 0.8501
7.3602 -5.2059 0.8610
7.6168 -4.9874 0.8698
7.9272 -4.7935 0.8852
8.4813 -4.7217 0.9278
8.6154 -4.3992 0.9249
8.6046 -4.0114 0.9080
8.5942 -3.6372 0.8928
8.5842 -3.2751 0.8792
8.5744 -2.9236 0.8672
8.5649 -2.5814 0.8566
8.5556 -2.2472 0.8473
8.5465 -1.9200 0.8393
8.5376 -1.5987 0.8325
8.5288 -1.2823 0.8269
8.5201 -0.9699 0.8224
8.5115 -0.6608 0.8190
8.5030 -0.3539 0.8167
8.4945 -0.0486 0.8155
8.4860 0.2560 0.8153
8.4775 0.5606 0.8161
8.4691 0.8660 0.8181
8.4605 1.1731 0.8210
8.4519 1.4827 0.8251
8.4432 1.7955 0.8303
8.4344 2.1125 0.8366
8.3825 2.4222 0.8398
8.3908 2.7543 0.8502
8.3815 3.0884 0.8602
8.3720 3.4308 0.8716
8.3877 3.7941 0.8871
8.3776 4.1577 0.9015
8.3671 4.5336 0.9175
8.6024 5.0685 0.9629
8.5908 5.4860 0.9833
8.5787 5.9219 1.0059
8.5660 6.3787 1.0308
8.5526 6.8591 1.0584
8.5385 7.3663 1.0890
8.5236 7.9041 1.1228
8.5077 8.4768 1.1603
8.4906 9.0897 1.2020
8.4723 9.7488 1.2484
8.4525 10.4616 1.3003
8.4310 11.2367 1.3584
8.4074 12.0852 1.4238
8.3567 12.9821 1.4935
8.3525 14.0595 1.5821
7.8845 14.4263 1.5908
7.3608 14.6976 1.5908
6.8279 14.9502 1.5908
6.2864 15.1835 1.5908
5.7371 15.3974 1.5908
2.3018 6.9278 0.7068
4.6230 15.7849 1.5927
4.0534 15.9392 1.5927
3.4788 16.0732 1.5927
2.8998 16.1866 1.5927
2.3172 16.2794 1.5927
0.8523 8.0484 0.7840
0.5631 8.0747 0.7841
0.2731 8.0903 0.7841
-0.0172 8.0952 0.7842
-0.3076 8.0894 0.7842
-0.5976 8.0730 0.7841
-0.8868 8.0460 0.7841
-2.5410 17.3224 1.6958
-3.1609 17.2210 1.6958
-3.7768 17.0976 1.6958
-4.3881 16.9524 1.6958
-4.9938 16.7855 1.6958
-5.5932 16.5972 1.6958
-6.1857 16.3876 1.6958
-6.3890 15.2471 1.6003
-6.8992 14.9374 1.5926
-7.4316 14.6824 1.5926
-7.9547 14.4085 1.5926
-8.4678 14.1162 1.5926
-8.9702 13.8057 1.5926
-9.4614 13.4774 1.5926
-9.9406 13.1318 1.5926
-10.5591 12.9556 1.6158
-11.0194 12.5711 1.6158
-11.2884 11.9822 1.5908
-6.7362 6.6548 0.9148
-12.1240 11.1471 1.5908
-12.5190 10.7076 1.5908
-8.8101 7.0040 1.0866
-13.2611 9.7874 1.5908
-13.6072 9.3078 1.5908
-13.9361 8.8161 1.5908
-14.2473 8.3128 1.5908
-13.1253 7.0397 1.4360
-14.8150 7.2741 1.5908
-15.0708 6.7400 1.5908
-15.3074 6.1969 1.5908
-15.4895 5.6328 1.5872
-15.4730 5.0061 1.5656
-15.4569 4.3951 1.5466
-15.4412 3.7976 1.5299
-15.4258 3.2118 1.5155
-13.1590 -2.5877 1.5908
-13.0611 -3.0588 1.5908
-12.9462 -3.5263 1.5908
-12.8147 -3.9893 1.5908
-12.6665 -4.4475 1.5908
-12.5019 -4.9002 1.5908
-12.3211 -5.3467 1.5908
-12.1243 -5.7866 1.5908
-11.9118 -6.2192 1.5908
-11.6837 -6.6440 1.5908
-11.4405 -7.0604 1.5908
-11.1824 -7.4678 1.5908
-10.9097 -7.8658 1.5908
-10.6228 -8.2538 1.5908
-8.6082 -7.1981 1.3267
-10.0078 -8.9977 1.5908
-9.6806 -9.3527 1.5908
-9.3509 -9.7063 1.5926
-8.9984 -10.0373 1.5926
-8.6341 -10.3553 1.5926
-8.2585 -10.6601 1.5926
-7.8721 -10.9512 1.5926
-7.4754 -11.2281 1.5926
-6.0710 -9.8686 1.3677
-6.6531 -11.7384 1.5926
-6.2286 -11.9709 1.5926
-5.7959 -12.1881 1.5926
-5.5813 -12.9115 1.6597
-5.2266 -13.3901 1.6958
-4.7434 -13.5702 1.6958
-4.2540 -13.7327 1.6958
-3.7590 -13.8775 1.6958
-3.2591 -14.0043 1.6958
-2.7549 -14.1129 1.6958
-2.2470 -14.2033 1.6958
-1.7362 -14.2753 1.6958
-1.2232 -14.3288 1.6958
-0.4725 -9.5798 1.1310
-0.1284 -9.5702 1.1286
0.3230 -14.3777 1.6958
0.8384 -14.3567 1.6958
1.3528 -14.3171 1.6958
1.8653 -14.2589 1.6958
2.3754 -14.1823 1.6958
2.7072 -13.2309 1.5927
3.1798 -13.1246 1.5927
3.6482 -13.0012 1.5927
3.0660 -9.5898 1.1876
4.5701 -12.7042 1.5927
5.0223 -12.5310 1.5927
5.4680 -12.3415 1.5927
5.9064 -12.1361 1.5927
6.2256 -11.7052 1.5647
5.8721 -10.1454 1.3836
6.2637 -9.9784 1.3908
5.8214 -8.5746 1.2236
6.2014 -8.4643 1.2391
6.6701 -8.4508 1.2715
7.1645 -8.4364 1.3074
7.6881 -8.4212 1.3472
8.2451 -8.4050 1.3913
6.9549 -6.5987 1.1331
6.9554 -6.1404 1.0968
6.9385 -5.6960 1.0614
7.0797 -5.3988 1.0529
7.3827 -5.2220 1.0696
7.6549 -5.0125 1.0825
7.9270 -4.7935 1.0962
8.4810 -4.7217 1.1489
8.6154 -4.3994 1.1453
8.6046 -4.0116 1.1242
8.5942 -3.6374 1.1054
8.5842 -3.2753 1.0885
8.5744 -2.9238 1.0736
8.5649 -2.5816 1.0603
8.5556 -2.2474 1.0488
8.5465 -1.9201 1.0388
8.5376 -1.5988 1.0304
8.5288 -1.2824 1.0234
8.5201 -0.9701 1.0178
8.5115 -0.6609 1.0135
8.5030 -0.3541 1.0106
8.4945 -0.0488 1.0090
8.4860 0.2558 1.0087
8.4775 0.5604 1.0097
8.4691 0.8659 1.0120
8.4605 1.1730 1.0156
8.4519 1.4825 1.0206
8.4432 1.7954 1.0269
8.4344 2.1123 1.0347
8.3826 2.4220 1.0386
8.3908 2.7541 1.0514
8.3815 3.0883 1.0637
8.3720 3.4306 1.0777
8.3877 3.7939 1.0968
8.3776 4.1576 1.1145
8.3671 4.5335 1.1343
8.6024 5.0683 1.1904
8.5908 5.4858 1.2155
8.5787 5.9217 1.2434
8.5660 6.3785 1.2742
8.5526 6.8588 1.3082
8.5385 7.3661 1.3459
8.5236 7.9039 1.3876
8.5077 8.4766 1.4339
8.4906 9.0895 1.4854
8.4723 9.7486 1.5427
8.4525 10.4613 1.6067
8.2421 10.9846 1.6408
7.8415 11.2715 1.6408
7.4310 11.5438 1.6408
7.0112 11.8014 1.6408
6.5825 12.0437 1.6408
6.1455 12.2706 1.6408
5.5336 12.1159 1.5927
5.0949 12.3053 1.5927
4.6498 12.4790 1.5927
2.3016 6.9270 0.8731
3.7424 12.7782 1.5927
3.2814 12.9033 1.5927
2.8163 13.0119 1.5927
2.3476 13.1039 1.5927
1.8759 13.1791 1.5927
0.7182 6.7813 0.8159
0.4726 6.7756 0.8127
0.2286 6.7700 0.8105
-0.0144 6.7645 0.8094
-0.2570 6.7589 0.8093
-0.4999 6.7533 0.8103
-0.7437 6.7477 0.8122
-2.0571 14.0236 1.6958
-2.5590 13.9413 1.6958
-3.0576 13.8413 1.6958
-3.5523 13.7235 1.6958
-4.0426 13.5882 1.6958
-4.5278 13.4355 1.6958
-5.0073 13.2656 1.6958
-5.4805 13.0787 1.6958
-5.9467 12.8750 1.6958
-6.3004 12.4471 1.6680
-6.4387 11.6623 1.5926
-6.8538 11.4253 1.5926
-7.2602 11.1736 1.5926
-7.6575 10.9076 1.5926
-8.0451 10.6275 1.5926
-8.4225 10.3337 1.5926
-8.7892 10.0267 1.5926
-9.1449 9.7066 1.5926
-6.6849 6.6040 1.1220
-9.8209 9.0293 1.5926
-10.1293 8.6634 1.5908
-8.9799 7.1389 1.3689
-10.7287 7.9181 1.5908
-11.0082 7.5298 1.5908
-11.2737 7.1316 1.5908
-11.5248 6.7241 1.5908
-11.7613 6.3078 1.5908
-11.9828 5.8832 1.5908
-12.1890 5.4509 1.5908
-12.3796 5.0114 1.5908
-12.5545 4.5652 1.5908
-12.7133 4.1130 1.5908
-12.8559 3.6552 1.5908
-12.9820 3.1925 1.5908
-13.0915 2.7255 1.5908
-11.0294 -2.1692 1.5908
-10.9469 -2.5639 1.5908
-10.8502 -2.9556 1.5908
-10.7395 -3.3436 1.5908
-10.6149 -3.7274 1.5908
-10.4766 -4.1066 1.5908
-10.3247 -4.4806 1.5908
-10.1594 -4.8490 1.5908
-9.9809 -5.2113 1.5908
-9.7895 -5.5670 1.5908
-9.5959 -5.9222 1.5926
-9.3790 -6.2637 1.5926
-9.1500 -6.5973 1.5926
-8.9091 -6.9225 1.5926
-8.6087 -7.1987 1.5837
-8.3928 -7.5459 1.5926
-8.1181 -7.8433 1.5926
-7.8328 -8.1307 1.5926
-7.5373 -8.4077 1.5926
-7.2319 -8.6739 1.5926
-6.9171 -8.9289 1.5926
-6.5933 -9.1725 1.5926
-6.2609 -9.4042 1.5926
-5.9203 -9.6239 1.5926
-5.6808 -10.0231 1.6237
-5.5545 -10.6757 1.6958
-5.1686 -10.8691 1.6958
-4.7759 -11.0485 1.6958
-4.3769 -11.2137 1.6958
-3.9722 -11.3643 1.6958
-3.5624 -11.5003 1.6958
-3.1478 -11.6213 1.6958
-2.7291 -11.7274 1.6958
-2.3069 -11.8183 1.6958
-1.8816 -11.8939 1.6958
-1.4539 -11.9541 1.6958
-1.0243 -11.9988 1.6958
-0.4726 -9.5806 1.3507
-0.1284 -9.5710 1.3479
0.2705 -12.0397 1.6958
0.7021 -12.0221 1.6958
1.1328 -11.9890 1.6958
1.5620 -11.9404 1.6958
1.9892 -11.8763 1.6958
2.4137 -11.7968 1.6958
2.6628 -10.9907 1.5927
3.0551 -10.8876 1.5927
3.0629 -9.5801 1.4167
3.8271 -10.6391 1.5927
4.2059 -10.4942 1.5927
4.5792 -10.3357 1.5927
4.9465 -10.1639 1.5927
5.3073 -9.9789 1.5927
5.6612 -9.7811 1.5927
6.0076 -9.5707 1.5927
5.8329 -8.5917 1.4639
6.2011 -8.4642 1.4793
6.6698 -8.4506 1.5180
7.1642 -8.4362 1.5608
7.6878 -8.4211 1.6082
8.1453 -8.3034 1.6408
6.9547 -6.5987 1.3526
6.9554 -6.1406 1.3092
6.9384 -5.6962 1.2670
7.0796 -5.3989 1.2568
7.3826 -5.2221 1.2767
7.6547 -5.0126 1.2921
7.9267 -4.7936 1.3083
8.4807 -4.7217 1.3712
8.6154 -4.3996 1.3668
8.6046 -4.0118 1.3417
8.5942 -3.6376 1.3191
8.5842 -3.2755 1.2990
8.5744 -2.9240 1.2810
8.5649 -2.5817 1.2652
8.5556 -2.2476 1.2514
8.5465 -1.9203 1.2395
8.5376 -1.5990 1.2293
8.5288 -1.2826 1.2209
8.5201 -0.9703 1.2142
8.5115 -0.6611 1.2090
8.5030 -0.3543 1.2055
8.4945 -0.0490 1.2035
8.4860 0.2556 1.2031
8.4776 0.5602 1.2043
8.4691 0.8657 1.2070
8.4605 1.1728 1.2112
8.4519 1.4824 1.2171
8.4432 1.7952 1.2246
8.4344 2.1122 1.2338
8.3828 2.4219 1.2384
8.3908 2.7539 1.2537
8.3815 3.0881 1.2683
8.3720 3.4305 1.2849
8.3877 3.7938 1.3077
8.3776 4.1574 1.3288
8.3671 4.5333 1.3523
8.6024 5.0681 1.4191
8.5908 5.4856 1.4490
8.5787 5.9215 1.4821
8.5660 6.3783 1.5188
8.5526 6.8586 1.5593
8.5385 7.3658 1.6042
8.4561 7.8411 1.6408
8.1681 8.1381 1.6408
7.8697 8.4245 1.6408
7.5613 8.7001 1.6408
7.2433 8.9645 1.6408
6.9162 9.2173 1.6408
6.5802 9.4583 1.6408
6.2359 9.6870 1.6408
5.7113 9.6131 1.5927
5.3622 9.8107 1.5927
5.0063 9.9957 1.5927
4.6440 10.1679 1.5927
4.2759 10.3271 1.5927
3.9024 10.4730 1.5927
2.2784 6.8570 1.0298
3.1410 10.7243 1.5927
2.7541 10.8295 1.5927
0.7295 3.3706 0.4916
0.6079 3.3934 0.4914
0.4857 3.4121 0.4913
0.3629 3.4266 0.4912
0.2397 3.4369 0.4912
0.1162 3.4430 0.4911
-0.0073 3.4449 0.4911
-0.1309 3.4425 0.4911
-0.2544 3.4360 0.4912
-0.3775 3.4253 0.4913
-0.5003 3.4104 0.4914
-0.6225 3.3913 0.4915
-0.7440 3.3680 0.4917
-2.9815 11.5178 1.6958
-3.3929 11.4042 1.6958
-3.8001 11.2758 1.6958
-4.2025 11.1331 1.6958
-4.5995 10.9761 1.6958
-4.9907 10.8049 1.6958
-5.3756 10.6200 1.6958
-5.7537 10.4214 1.6958
-6.1245 10.2094 1.6958
-6.2246 9.5796 1.6271
-6.4258 9.1529 1.5926
-6.7509 8.9177 1.5926
-7.0674 8.6709 1.5926
-7.3749 8.4130 1.5926
-7.6731 8.1442 1.5926
-6.6762 6.5952 1.3354
-8.2399 7.5755 1.5926
-8.5077 7.2763 1.5926
-8.7647 6.9676 1.5926
-9.0106 6.6498 1.5926
-9.2450 6.3235 1.5926
-9.4676 5.9889 1.5926
-9.6782 5.6465 1.5926
-9.8764 5.2967 1.5926
-10.0510 4.9346 1.5908
-10.2236 4.5718 1.5908
-10.3831 4.2029 1.5908
-10.5293 3.8286 1.5908
-10.6621 3.4492 1.5908
-10.7812 3.0651 1.5908
-10.8866 2.6770 1.5908
-10.9779 2.2853 1.5908
-9.4951 -1.8676 1.5926
-9.4238 -2.2074 1.5926
-9.3403 -2.5445 1.5926
-9.2447 -2.8784 1.5926
-9.1372 -3.2087 1.5926
-9.0179 -3.5350 1.5926
-8.8868 -3.8568 1.5926
-8.7443 -4.1738 1.5926
-8.5905 -4.4855 1.5926
-8.4255 -4.7916 1.5926
-8.2496 -5.0915 1.5926
-8.0630 -5.3850 1.5926
-7.8659 -5.6716 1.5926
-7.6586 -5.9510 1.5926
-7.4413 -6.2228 1.5926
-7.2144 -6.4866 1.5926
-6.9781 -6.7421 1.5926
-6.7327 -6.9890 1.5926
-6.4786 -7.2269 1.5926
-6.2160 -7.4556 1.5926
-5.9539 -7.6858 1.5949
-5.7401 -7.9857 1.6131
-5.7159 -8.5857 1.6916
-5.4182 -8.8078 1.6958
-5.0993 -8.9973 1.6958
-4.7738 -9.1753 1.6958
-4.4420 -9.3414 1.6958
-4.1045 -9.4955 1.6958
-3.7615 -9.6373 1.6958
-3.4137 -9.7666 1.6958
-3.0614 -9.8833 1.6958
-2.7052 -9.9873 1.6958
-2.3454 -10.0784 1.6958
-1.9825 -10.1564 1.6958
-1.6170 -10.2213 1.6958
-1.2494 -10.2730 1.6958
-0.8802 -10.3115 1.6958
-0.5098 -10.3365 1.6958
-0.1388 -10.3482 1.6958
0.2324 -10.3465 1.6958
0.6033 -10.3315 1.6958
0.9735 -10.3030 1.6958
1.3423 -10.2613 1.6958
1.7094 -10.2062 1.6958
2.0743 -10.1380 1.6958
2.3659 -9.7658 1.6468
2.6255 -9.3567 1.5927
2.9592 -9.2560 1.5927
3.2890 -9.1434 1.5927
3.6146 -9.0189 1.5927
3.9354 -8.8828 1.5927
4.2511 -8.7353 1.5927
4.5613 -8.5764 1.5927
4.8655 -8.4066 1.5927
5.1633 -8.2258 1.5927
5.4545 -8.0345 1.5927
5.7385 -7.8329 1.5927
6.0150 -7.6211 1.5927
6.2837 -7.3996 1.5927
6.7418 -7.3850 1.6408
7.0014 -7.1375 1.6408
6.8150 -6.4664 1.5420
6.8599 -6.0565 1.5022
6.9384 -5.6963 1.4739
7.0796 -5.3990 1.4620
7.3825 -5.2222 1.4851
7.6508 -5.0102 1.5022
7.9265 -4.7936 1.5218
8.4804 -4.7217 1.5948
8.6154 -4.3998 1.5898
8.6046 -4.0119 1.5605
8.5942 -3.6378 1.5342
8.5842 -3.2757 1.5107
8.5744 -2.9242 1.4898
8.5649 -2.5819 1.4714
8.5556 -2.2477 1.4553
8.5465 -1.9205 1.4414
8.5376 -1.5992 1.4295
8.5288 -1.2828 1.4197
8.5201 -0.9704 1.4118
8.5115 -0.6613 1.4058
8.5030 -0.3544 1.4017
8.4945 -0.0491 1.3993
8.4860 0.2555 1.3988
8.4776 0.5601 1.4001
8.4691 0.8656 1.4032
8.4605 1.1726 1.4081
8.4519 1.4822 1.4149
8.4432 1.7950 1.4236
8.4344 2.1120 1.4342
8.3829 2.4218 1.4396
8.3908 2.7538 1.4572
8.3815 3.0879 1.4742
8.3720 3.4303 1.4935
8.3877 3.7936 1.5199
8.3776 4.1572 1.5443
8.3671 4.5331 1.5717
8.5584 5.0420 1.6408
8.3707 5.3449 1.6408
8.1723 5.6408 1.6408
7.9634 5.9294 1.6408
7.7444 6.2103 1.6408
7.5156 6.4832 1.6408
7.2771 6.7476 1.6408
7.0294 7.0033 1.6408
6.7728 7.2501 1.6408
6.5075 7.4874 1.6408
6.2339 7.7151 1.6408
5.7780 7.7003 1.5927
5.4974 7.9017 1.5927
5.2099 8.0930 1.5927
4.9157 8.2739 1.5927
4.6153 8.4441 1.5927
4.3090 8.6034 1.5927
3.9973 8.7518 1.5927
3.6805 8.8889 1.5927
3.3590 9.0145 1.5927
2.2761 6.8499 1.1951
0.8402 2.8687 0.4950
0.7365 2.8958 0.4948
0.6319 2.9193 0.4946
0.5266 2.9392 0.4945
0.4207 2.9555 0.4944
0.3143 2.9681 0.4943
0.2076 2.9771 0.4943
0.1007 2.9824 0.4942
-0.0064 2.9841 0.4942
-0.1134 2.9820 0.4942
-0.2203 2.9763 0.4943
-0.3270 2.9670 0.4943
-0.4333 2.9539 0.4944
-0.5392 2.9373 0.4946
-0.6444 2.9170 0.4947
-0.7489 2.8931 0.4949
-2.9206 9.8162 1.6958
-3.2710 9.7057 1.6958
-3.6173 9.5827 1.6958
-3.9590 9.4474 1.6958
-4.2957 9.3000 1.6958
-4.6270 9.1407 1.6958
-4.9523 8.9696 1.6958
-5.2714 8.7870 1.6958
-5.5838 8.5932 1.6958
-5.8891 8.3882 1.6958
-6.1814 8.1651 1.6943
-6.1717 7.5718 1.6159
-6.3686 7.2648 1.5980
-6.6036 7.0088 1.5926
-6.6674 6.5864 1.5497
-7.0910 6.5191 1.5926
-7.3213 6.2614 1.5926
-7.5424 5.9956 1.5926
-7.7537 5.7221 1.5926
-7.9553 5.4411 1.5926
-8.1466 5.1531 1.5926
-8.3276 4.8583 1.5926
-8.4979 4.5572 1.5926
-8.6574 4.2502 1.5926
-8.8058 3.9376 1.5926
-8.9430 3.6198 1.5926
-9.0687 3.2973 1.5926
-9.1828 2.9704 1.5926
-9.2851 2.6396 1.5926
-9.3755 2.3052 1.5926
-9.4540 1.9678 1.5926
-8.3210 -1.6368 1.5926
-8.2583 -1.9346 1.5926
-8.1850 -2.2299 1.5926
-8.1010 -2.5224 1.5926
-8.0066 -2.8118 1.5926
-7.9019 -3.0977 1.5926
-7.7869 -3.3796 1.5926
-7.6619 -3.6573 1.5926
-7.5269 -3.9304 1.5926
-7.3822 -4.1984 1.5926
-7.2279 -4.4611 1.5926
-7.0643 -4.7182 1.5926
-6.8915 -4.9692 1.5926
-6.7097 -5.2139 1.5926
-6.5193 -5.4519 1.5926
-6.3204 -5.6829 1.5926
-6.1133 -5.9067 1.5926
-5.8982 -6.1229 1.5926
-5.7805 -6.4484 1.6220
-5.7624 -6.9117 1.6853
-5.5458 -7.1591 1.6958
-5.2860 -7.3541 1.6958
-5.0194 -7.5397 1.6958
-4.7462 -7.7156 1.6958
-4.4668 -7.8815 1.6958
-4.1816 -8.0373 1.6958
-3.8910 -8.1827 1.6958
-3.5952 -8.3176 1.6958
-3.2948 -8.4417 1.6958
-2.9902 -8.5550 1.6958
-2.6816 -8.6571 1.6958
-2.3695 -8.7482 1.6958
-2.0543 -8.8279 1.6958
-1.7364 -8.8962 1.6958
-1.4163 -8.9530 1.6958
-1.0944 -8.9983 1.6958
-0.7710 -9.0319 1.6958
-0.4466 -9.0538 1.6958
-0.1216 -9.0641 1.6958
0.2036 -9.0626 1.6958
0.5285 -9.0494 1.6958
0.8526 -9.0245 1.6958
1.1757 -8.9880 1.6958
1.4973 -8.9398 1.6958
1.8169 -8.8801 1.6958
2.1341 -8.8089 1.6958
2.3319 -8.3108 1.6151
2.5920 -8.1077 1.5927
2.8809 -8.0091 1.5927
3.1661 -7.9001 1.5927
3.4472 -7.7810 1.5927
3.7238 -7.6518 1.5927
3.9955 -7.5128 1.5927
4.2620 -7.3640 1.5927
4.5230 -7.2058 1.5927
4.7780 -7.0383 1.5927
5.0269 -6.8618 1.5927
5.2692 -6.6764 1.5927
5.5047 -6.4824 1.5927
5.7330 -6.2801 1.5927
5.9538 -6.0697 1.5927
6.1669 -5.8516 1.5927
6.5644 -5.7958 1.6408
6.7672 -5.5559 1.6408
6.9612 -5.3090 1.6408
7.1461 -5.0552 1.6408
7.3218 -4.7950 1.6408
7.4880 -4.5286 1.6408
7.6445 -4.2565 1.6408
7.7911 -3.9790 1.6408
7.9276 -3.6964 1.6408
8.0538 -3.4092 1.6408
8.1696 -3.1176 1.6408
8.2749 -2.8222 1.6408
8.3694 -2.5232 1.6408
8.4531 -2.2210 1.6408
8.5260 -1.9161 1.6408
8.5376 -1.5993 1.6312
8.5288 -1.2830 1.6200
8.5201 -0.9706 1.6109
8.5115 -0.6614 1.6041
8.5030 -0.3546 1.5993
8.4945 -0.0493 1.5966
8.4860 0.2553 1.5960
8.4776 0.5599 1.5974
8.4691 0.8654 1.6009
8.4605 1.1725 1.6065
8.4519 1.4820 1.6142
8.4432 1.7949 1.6240
8.4344 2.1118 1.6361
8.3757 2.4195 1.6408
8.2822 2.7179 1.6408
8.1781 3.0128 1.6408
8.0634 3.3037 1.6408
7.9385 3.5903 1.6408
7.8034 3.8721 1.6408
7.6584 4.1489 1.6408
7.5035 4.4203 1.6408
7.3390 4.6860 1.6408
7.1652 4.9455 1.6408
6.9822 5.1987 1.6408
6.7904 5.4451 1.6408
6.5898 5.6844 1.6408
6.3808 5.9164 1.6408
6.1637 6.1407 1.6408
5.7647 6.1708 1.5927
5.5390 6.3729 1.5927
5.3063 6.5668 1.5927
5.0668 6.7523 1.5927
4.8208 6.9290 1.5927
4.5687 7.0968 1.5927
4.3108 7.2555 1.5927
4.0474 7.4048 1.5927
3.7788 7.5447 1.5927
3.5055 7.6748 1.5927
3.2277 7.7951 1.5927
2.9458 7.9054 1.5927
0.8308 2.5003 0.4974
0.7403 2.5275 0.4973
0.6489 2.5515 0.4971
0.5568 2.5723 0.4970
0.4640 2.5899 0.4969
0.3707 2.6044 0.4968
0.2770 2.6155 0.4967
0.1830 2.6235 0.4966
0.0887 2.6282 0.4966
-0.0056 2.6297 0.4966
-0.0999 2.6279 0.4966
-0.1942 2.6228 0.4967
-0.2882 2.6145 0.4967
-0.3819 2.6030 0.4968
-0.4751 2.5882 0.4969
-0.5678 2.5702 0.4970
-0.6599 2.5491 0.4972
-0.7512 2.5247 0.4973
-2.8686 8.5116 1.6958
-3.1723 8.4037 1.6958
-3.4720 8.2850 1.6958
-3.7672 8.1556 1.6958
-4.0576 8.0158 1.6958
-4.3429 7.8657 1.6958
-4.6227 7.7055 1.6958
-4.8966 7.5354 1.6958
-5.1642 7.3556 1.6958
-5.4253 7.1663 1.6958
-5.6795 6.9678 1.6958
-5.9264 6.7603 1.6958
-6.1354 6.5118 1.6874
-6.1274 6.0527 1.6242
-6.2177 5.7160 1.5926
-6.4195 5.4900 1.5926
-6.6132 5.2568 1.5926
-6.7984 5.0169 1.5926
-6.9750 4.7705 1.5926
-7.1426 4.5178 1.5926
-7.3011 4.2593 1.5926
-7.4503 3.9953 1.5926
-7.5900 3.7260 1.5926
-7.7199 3.4518 1.5926
-7.8400 3.1732 1.5926
-7.9500 2.8904 1.5926
-8.0499 2.6038 1.5926
-8.1394 2.3137 1.5926
-8.2185 2.0206 1.5926
-8.2871 1.7248 1.5926
-7.3984 -1.4555 1.5926
-7.3425 -1.7202 1.5926
-7.2772 -1.9827 1.5926
-7.2024 -2.2428 1.5926
-7.1184 -2.5000 1.5926
-7.0251 -2.7541 1.5926
-6.9228 -3.0048 1.5926
-6.8115 -3.2516 1.5926
-6.6914 -3.4942 1.5926
-6.5627 -3.7325 1.5926
-6.4254 -3.9660 1.5926
-6.2799 -4.1944 1.5926
-6.1262 -4.4175 1.5926
-5.9645 -4.6349 1.5926
-5.8294 -4.8751 1.6020
-5.8093 -5.2235 1.6467
-5.7864 -5.5910 1.6958
-5.5827 -5.7955 1.6958
-5.3718 -5.9927 1.6958
-5.1540 -6.1821 1.6958
-4.9294 -6.3635 1.6958
-4.6984 -6.5368 1.6958
-4.4614 -6.7017 1.6958
-4.2185 -6.8580 1.6958
-3.9702 -7.0054 1.6958
-3.7166 -7.1438 1.6958
-3.4583 -7.2730 1.6958
-3.1954 -7.3928 1.6958
-2.9284 -7.5031 1.6958
-2.6576 -7.6037 1.6958
-2.3833 -7.6944 1.6958
-2.1059 -7.7753 1.6958
-1.8258 -7.8461 1.6958
-1.5433 -7.9068 1.6958
-1.2588 -7.9573 1.6958
-0.9726 -7.9975 1.6958
-0.6852 -8.0273 1.6958
-0.3969 -8.0468 1.6958
-0.1080 -8.0559 1.6958
0.1809 -8.0546 1.6958
0.4697 -8.0429 1.6958
0.7578 -8.0208 1.6958
1.0449 -7.9883 1.6958
1.3307 -7.9455 1.6958
1.6148 -7.8925 1.6958
1.8967 -7.8292 1.6958
2.1762 -7.7559 1.6958
2.3062 -7.2139 1.5944
2.5605 -7.1185 1.5927
2.8140 -7.0217 1.5927
3.0638 -6.9159 1.5927
3.3097 -6.8011 1.5927
3.5512 -6.6776 1.5927
3.7881 -6.5454 1.5927
4.0201 -6.4049 1.5927
4.2469 -6.2561 1.5927
4.4681 -6.0992 1.5927
4.6836 -5.9345 1.5927
4.8929 -5.7621 1.5927
5.0959 -5.5824 1.5927
5.2923 -5.3955 1.5927
5.4818 -5.2016 1.5927
5.6642 -5.0011 1.5927
5.8392 -4.7942 1.5927
6.0067 -4.5811 1.5927
6.1664 -4.3622 1.5927
6.5088 -4.2627 1.6408
6.6567 -4.0260 1.6408
6.7959 -3.7842 1.6408
6.9263 -3.5375 1.6408
7.0478 -3.2864 1.6408
7.1601 -3.0311 1.6408
7.2632 -2.7719 1.6408
7.3569 -2.5093 1.6408
7.4411 -2.2434 1.6408
7.5157 -1.9748 1.6408
7.5805 -1.7037 1.6408
7.6356 -1.4305 1.6408
7.6809 -1.1556 1.6408
7.7162 -0.8792 1.6408
7.7416 -0.6018 1.6408
7.7570 -0.3236 1.6408
7.7625 -0.0452 1.6408
7.7579 0.2332 1.6408
7.7434 0.5113 1.6408
7.7189 0.7886 1.6408
7.6845 1.0648 1.6408
7.6402 1.3395 1.6408
7.5861 1.6125 1.6408
7.5223 1.8833 1.6408
7.4488 2.1516 1.6408
7.3657 2.4170 1.6408
7.2733 2.6793 1.6408
7.1715 2.9381 1.6408
7.0605 3.1930 1.6408
6.9404 3.4437 1.6408
6.8115 3.6900 1.6408
6.6739 3.9314 1.6408
6.5277 4.1678 1.6408
6.3732 4.3987 1.6408
6.2105 4.6239 1.6408
5.8629 4.7012 1.5927
5.6898 4.9079 1.5927
5.5095 5.1083 1.5927
5.3221 5.3021 1.5927
5.1279 5.4890 1.5927
4.9272 5.6689 1.5927
4.7202 5.8414 1.5927
4.5072 6.0064 1.5927
4.2885 6.1637 1.5927
4.0642 6.3130 1.5927
3.8348 6.4543 1.5927
3.6006 6.5872 1.5927
3.3617 6.7117 1.5927
3.1185 6.8275 1.5927
2.8714 6.9345 1.5927
0.8218 2.2053 0.4994
0.7418 2.2324 0.4993
0.6610 2.2568 0.4991
0.5794 2.2783 0.4990
0.4972 2.2970 0.4988
0.4144 2.3128 0.4987
0.3311 2.3257 0.4986
0.2474 2.3357 0.4986
0.1634 2.3429 0.4985
0.0792 2.3471 0.4985
-0.0050 2.3484 0.4985
-0.0893 2.3468 0.4985
-0.1734 2.3422 0.4986
-0.2573 2.3348 0.4986
-0.3410 2.3244 0.4987
-0.4243 2.3112 0.4988
-0.5070 2.2951 0.4989
-0.5892 2.2761 0.4990
-0.6707 2.2543 0.4992
-0.7515 2.2296 0.4993
-0.8313 2.2022 0.4995
-3.0887 7.3703 1.6958
-3.3513 7.2552 1.6958
-3.6097 7.1308 1.6958
-3.8635 6.9972 1.6958
-4.1123 6.8546 1.6958
-4.3559 6.7032 1.6958
-4.5940 6.5432 1.6958
-4.8262 6.3747 1.6958
-5.0522 6.1981 1.6958
-5.2718 6.0134 1.6958
-5.4847 5.8210 1.6958
-5.6906 5.6211 1.6958
-5.8892 5.4139 1.6958
-6.0804 5.1998 1.6958
-6.0890 4.8400 1.6485
-6.0893 4.4935 1.6037
-6.2039 4.2430 1.5926
-6.3530 4.0182 1.5926
-6.4939 3.7882 1.5926
-6.6264 3.5533 1.5926
-6.7506 3.3138 1.5926
-6.8660 3.0699 1.5926
-6.9727 2.8220 1.5926
-7.0704 2.5705 1.5926
-7.1591 2.3155 1.5926
-7.2386 2.0575 1.5926
-7.3088 1.7968 1.5926
-7.3697 1.5337 1.5926
-6.6536 -1.3091 1.5926
-6.6033 -1.5471 1.5926
-6.5444 -1.7832 1.5926
-6.4771 -2.0171 1.5926
-6.4014 -2.2484 1.5926
-6.3175 -2.4768 1.5926
-6.2254 -2.7022 1.5926
-6.1252 -2.9241 1.5926
-6.0172 -3.1423 1.5926
-5.9013 -3.3565 1.5926
-5.8609 -3.6177 1.6155
-5.8460 -3.9047 1.6487
-5.8375 -4.2095 1.6876
-5.7109 -4.4380 1.6958
-5.5486 -4.6404 1.6958
-5.3792 -4.8369 1.6958
-5.2028 -5.0273 1.6958
-5.0196 -5.2111 1.6958
-4.8300 -5.3883 1.6958
-4.6340 -5.5586 1.6958
-4.4321 -5.7217 1.6958
-4.2244 -5.8774 1.6958
-4.0112 -6.0256 1.6958
-3.7928 -6.1661 1.6958
-3.5695 -6.2986 1.6958
-3.3415 -6.4230 1.6958
-3.1092 -6.5391 1.6958
-2.8729 -6.6467 1.6958
-2.6328 -6.7458 1.6958
-2.3893 -6.8363 1.6958
-2.1427 -6.9178 1.6958
-1.8933 -6.9905 1.6958
-1.6415 -7.0541 1.6958
-1.3875 -7.1087 1.6958
-1.1317 -7.1540 1.6958
-0.8744 -7.1902 1.6958
-0.6160 -7.2170 1.6958
-0.3568 -7.2345 1.6958
-0.0971 -7.2427 1.6958
0.1627 -7.2415 1.6958
0.4222 -7.2310 1.6958
0.6813 -7.2111 1.6958
0.9394 -7.1819 1.6958
1.1964 -7.1435 1.6958
1.4517 -7.0958 1.6958
1.7052 -7.0390 1.6958
1.9565 -6.9731 1.6958
2.2052 -6.8981 1.6958
2.3021 -6.4001 1.5927
2.5300 -6.3131 1.5927
2.7546 -6.2179 1.5927
2.9756 -6.1148 1.5927
3.1928 -6.0038 1.5927
3.4058 -5.8850 1.5927
3.6145 -5.7587 1.5927
3.8184 -5.6249 1.5927
4.0173 -5.4839 1.5927
4.2110 -5.3359 1.5927
4.3993 -5.1810 1.5927
4.5819 -5.0194 1.5927
4.7585 -4.8514 1.5927
4.9289 -4.6772 1.5927
5.0930 -4.4969 1.5927
5.2504 -4.3109 1.5927
5.4011 -4.1194 1.5927
5.5447 -3.9226 1.5927
5.6812 -3.7208 1.5927
5.8103 -3.5142 1.5927
5.9319 -3.3032 1.5927
6.0458 -3.0879 1.5927
6.1519 -2.8688 1.5927
6.4388 -2.7258 1.6408
6.5316 -2.4928 1.6408
6.6159 -2.2567 1.6408
6.6917 -2.0177 1.6408
6.7589 -1.7761 1.6408
6.8173 -1.5324 1.6408
6.8670 -1.2867 1.6408
6.9078 -1.0394 1.6408
6.9396 -0.7909 1.6408
6.9626 -0.5414 1.6408
6.9766 -0.2912 1.6408
6.9815 -0.0408 1.6408
6.9776 0.2096 1.6408
6.9646 0.4597 1.6408
6.9427 0.7091 1.6408
6.9118 0.9576 1.6408
6.8721 1.2047 1.6408
6.8235 1.4503 1.6408
6.7662 1.6938 1.6408
6.7002 1.9352 1.6408
6.6256 2.1740 1.6408
6.5425 2.4100 1.6408
6.4510 2.6428 1.6408
6.3512 2.8721 1.6408
6.2434 3.0977 1.6408
5.9479 3.2220 1.5927
5.8278 3.4329 1.5927
5.7002 3.6393 1.5927
5.5653 3.8410 1.5927
5.4234 4.0377 1.5927
5.2745 4.2292 1.5927
5.1188 4.4152 1.5927
4.9566 4.5956 1.5927
4.7881 4.7699 1.5927
4.6134 4.9382 1.5927
4.4329 5.1000 1.5927
4.2467 5.2553 1.5927
4.0551 5.4038 1.5927
3.8583 5.5454 1.5927
3.6566 5.6798 1.5927
3.4503 5.8069 1.5927
3.2395 5.9265 1.5927
3.0246 6.0385 1.5927
2.8058 6.1428 1.5927
0.8128 1.9628 0.5011
0.7415 1.9899 0.5009
0.6694 2.0145 0.5007
0.5965 2.0365 0.5006
0.5229 2.0560 0.5005
0.4487 2.0729 0.5003
0.3740 2.0872 0.5002
0.2988 2.0990 0.5002
0.2233 2.1080 0.5001
0.1475 2.1145 0.5001
0.0715 2.1183 0.5001
-0.0045 2.1195 0.5000
-0.0806 2.1180 0.5001
-0.1565 2.1139 0.5001
-0.2323 2.1072 0.5001
-0.3078 2.0978 0.5002
-0.3829 2.0858 0.5003
-0.4576 2.0712 0.5004
-0.5317 2.0540 0.5005
-0.6053 2.0342 0.5006
-0.6781 2.0119 0.5008
-0.7501 1.9871 0.5010
-0.8213 1.9597 0.5012
-3.0153 6.5276 1.6958
-3.2477 6.4156 1.6958
-3.4760 6.2954 1.6958
-3.6999 6.1670 1.6958
-3.9190 6.0308 1.6958
-4.1332 5.8867 1.6958
-4.3421 5.7351 1.6958
-4.5454 5.5762 1.6958
-4.7429 5.4100 1.6958
-4.9344 5.2368 1.6958
-5.1196 5.0569 1.6958
-5.2982 4.8705 1.6958
-5.4701 4.6778 1.6958
-5.6350 4.4790 1.6958
-5.7927 4.2744 1.6958
-5.9430 4.0644 1.6958
-6.0610 3.8334 1.6889
-6.0526 3.5307 1.6500
-6.0513 3.2447 1.6167
-6.0725 2.9808 1.5926
-6.1763 2.7614 1.5926
-6.2722 2.5384 1.5926
-6.3600 2.3121 1.5926
-6.4397 2.0827 1.5926
-6.5112 1.8506 1.5926
-6.5742 1.6161 1.5926
-6.6288 1.3794 1.5926
-6.0392 -1.1884 1.5926
-5.9934 -1.4044 1.5926
-5.9399 -1.6186 1.5926
-5.9137 -1.8417 1.6020
-5.9031 -2.0735 1.6181
-5.8918 -2.3101 1.6365
-5.8835 -2.5539 1.6583
-5.8765 -2.8055 1.6835
-5.8151 -3.0369 1.6958
-5.7030 -3.2438 1.6958
-5.5836 -3.4467 1.6958
-5.4570 -3.6451 1.6958
-5.3233 -3.8389 1.6958
-5.1827 -4.0277 1.6958
-5.0355 -4.2114 1.6958
-4.8817 -4.3897 1.6958
-4.7215 -4.5624 1.6958
-4.5553 -4.7292 1.6958
-4.3831 -4.8900 1.6958
-4.2053 -5.0444 1.6958
-4.0220 -5.1924 1.6958
-3.8335 -5.3337 1.6958
-3.6400 -5.4681 1.6958
-3.4418 -5.5955 1.6958
-3.2391 -5.7157 1.6958
-3.0323 -5.8286 1.6958
-2.8214 -5.9339 1.6958
-2.6070 -6.0316 1.6958
-2.3891 -6.1215 1.6958
-2.1681 -6.2035 1.6958
-1.9443 -6.2775 1.6958
-1.7180 -6.3434 1.6958
-1.4895 -6.4012 1.6958
-1.2590 -6.4506 1.6958
-1.0269 -6.4918 1.6958
-0.7935 -6.5245 1.6958
-0.5590 -6.5489 1.6958
-0.3238 -6.5648 1.6958
-0.0881 -6.5722 1.6958
0.1476 -6.5711 1.6958
0.3832 -6.5616 1.6958
0.6182 -6.5436 1.6958
0.8524 -6.5171 1.6958
1.0856 -6.4822 1.6958
1.3173 -6.4390 1.6958
1.5473 -6.3874 1.6958
1.7754 -6.3276 1.6958
2.0011 -6.2596 1.6958
2.2242 -6.1836 1.6958
2.2958 -5.7288 1.5927
2.4996 -5.6425 1.5927
2.7002 -5.5489 1.5927
2.8973 -5.4482 1.5927
3.0906 -5.3405 1.5927
3.2799 -5.2259 1.5927
3.4650 -5.1045 1.5927
3.6456 -4.9766 1.5927
3.8214 -4.8423 1.5927
3.9923 -4.7018 1.5927
4.1580 -4.5552 1.5927
4.3183 -4.4027 1.5927
4.4730 -4.2447 1.5927
4.6219 -4.0811 1.5927
4.7649 -3.9124 1.5927
4.9016 -3.7386 1.5927
5.0320 -3.5600 1.5927
5.1559 -3.3769 1.5927
5.2732 -3.1895 1.5927
5.3836 -2.9980 1.5927
5.4870 -2.8027 1.5927
5.5834 -2.6038 1.5927
5.6725 -2.4016 1.5927
5.7543 -2.1963 1.5927
5.8287 -1.9883 1.5927
5.8955 -1.7777 1.5927
5.9548 -1.5649 1.5927
6.0063 -1.3502 1.5927
6.0502 -1.1338 1.5927
6.0862 -0.9159 1.5927
6.1143 -0.6969 1.5927
6.3199 -0.4915 1.6408
6.3326 -0.2645 1.6408
6.3372 -0.0372 1.6408
6.3337 0.1901 1.6408
6.3220 0.4172 1.6408
6.3022 0.6436 1.6408
6.0903 0.8436 1.5927
6.0554 1.0614 1.5927
6.0127 1.2778 1.5927
5.9622 1.4925 1.5927
5.9042 1.7052 1.5927
5.8385 1.9156 1.5927
5.7653 2.1236 1.5927
5.6848 2.3287 1.5927
5.5969 2.5309 1.5927
5.5019 2.7297 1.5927
5.3998 2.9250 1.5927
5.2908 3.1165 1.5927
5.1751 3.3039 1.5927
5.0527 3.4871 1.5927
4.9238 3.6657 1.5927
4.7887 3.8396 1.5927
4.6474 4.0085 1.5927
4.5002 4.1723 1.5927
4.3472 4.3306 1.5927
4.1887 4.4834 1.5927
4.0248 4.6304 1.5927
3.8558 4.7714 1.5927
3.6819 4.9063 1.5927
3.5032 5.0348 1.5927
3.3201 5.1569 1.5927
3.1327 5.2724 1.5927
2.9414 5.3810 1.5927
2.7463 5.4828 1.5927
0.8037 1.7595 0.5024
0.7398 1.7864 0.5023
0.6749 1.8111 0.5021
0.6093 1.8336 0.5019
0.5430 1.8537 0.5018
0.4760 1.8715 0.5017
0.4085 1.8869 0.5016
0.3404 1.9000 0.5015
0.2720 1.9107 0.5014
0.2033 1.9190 0.5014
0.1343 1.9249 0.5014
0.0651 1.9284 0.5013
-0.0041 1.9294 0.5013
-0.0733 1.9281 0.5013
-0.1425 1.9243 0.5014
-0.2114 1.9182 0.5014
-0.2802 1.9096 0.5015
-0.3485 1.8987 0.5015
-0.4165 1.8853 0.5016
-0.4840 1.8696 0.5018
-0.5509 1.8516 0.5019
-0.6172 1.8312 0.5020
-0.6827 1.8085 0.5022
-0.7475 1.7836 0.5023
-0.8113 1.7563 0.5025
-2.9489 5.8251 1.6958
-3.1562 5.7159 1.6958
-3.3594 5.5994 1.6958
-3.5584 5.4756 1.6958
-3.7528 5.3448 1.6958
-3.9424 5.2071 1.6958
-4.1270 5.0627 1.6958
-4.3063 4.9118 1.6958
-4.4801 4.7546 1.6958
-4.6482 4.5912 1.6958
-4.8104 4.4219 1.6958
-4.9664 4.2469 1.6958
-5.1160 4.0664 1.6958
-5.2591 3.8806 1.6958
-5.3955 3.6898 1.6958
-5.5250 3.4943 1.6958
-5.6474 3.2942 1.6958
-5.7626 3.0898 1.6958
-5.8704 2.8814 1.6958
-5.9706 2.6693 1.6958
-6.0222 2.4371 1.6843
-6.0152 2.1866 1.6592
-6.0098 1.9435 1.6372
-6.0080 1.7075 1.6187
-6.0057 1.4762 1.6026
-6.0175 1.2520 1.5926
-5.8812 -1.1574 1.6958
-5.8366 -1.3678 1.6958
-5.7845 -1.5764 1.6958
-5.7248 -1.7830 1.6958
-5.6578 -1.9874 1.6958
-5.5835 -2.1893 1.6958
-5.5020 -2.3884 1.6958
-5.4134 -2.5845 1.6958
-5.3178 -2.7773 1.6958
-5.2153 -2.9665 1.6958
-5.1061 -3.1520 1.6958
-4.9902 -3.3334 1.6958
-4.8679 -3.5106 1.6958
-4.7393 -3.6832 1.6958
-4.6046 -3.8512 1.6958
-4.4639 -4.0142 1.6958
-4.3175 -4.1721 1.6958
-4.1654 -4.3246 1.6958
-4.0080 -4.4715 1.6958
-3.8453 -4.6128 1.6958
-3.6777 -4.7480 1.6958
-3.5053 -4.8772 1.6958
-3.3284 -5.0001 1.6958
-3.1471 -5.1166 1.6958
-2.9618 -5.2265 1.6958
-2.7726 -5.3296 1.6958
-2.5798 -5.4259 1.6958
-2.3837 -5.5152 1.6958
-2.1845 -5.5974 1.6958
-1.9824 -5.6724 1.6958
-1.7778 -5.7400 1.6958
-1.5709 -5.8003 1.6958
-1.3619 -5.8530 1.6958
-1.1512 -5.8983 1.6958
-0.9389 -5.9359 1.6958
-0.7255 -5.9658 1.6958
-0.5111 -5.9881 1.6958
-0.2960 -6.0026 1.6958
-0.0806 -6.0094 1.6958
0.1350 -6.0084 1.6958
0.3503 -5.9997 1.6958
0.5652 -5.9832 1.6958
0.7794 -5.9590 1.6958
0.9926 -5.9271 1.6958
1.2045 -5.8876 1.6958
1.4148 -5.8405 1.6958
1.6233 -5.7858 1.6958
1.8297 -5.7237 1.6958
2.0337 -5.6542 1.6958
2.2350 -5.5774 1.6958
2.2856 -5.1594 1.5927
2.4690 -5.0739 1.5927
2.6492 -4.9818 1.5927
2.8260 -4.8833 1.5927
2.9991 -4.7786 1.5927
3.1684 -4.6676 1.5927
3.3335 -4.5507 1.5927
3.4943 -4.4279 1.5927
3.6506 -4.2994 1.5927
3.8021 -4.1654 1.5927
3.9487 -4.0261 1.5927
4.0902 -3.8815 1.5927
4.2264 -3.7320 1.5927
4.3572 -3.5777 1.5927
4.4823 -3.4189 1.5927
4.6016 -3.2556 1.5927
4.7149 -3.0882 1.5927
4.8221 -2.9168 1.5927
4.9232 -2.7417 1.5927
5.0178 -2.5631 1.5927
5.1060 -2.3812 1.5927
5.1875 -2.1964 1.5927
5.2624 -2.0087 1.5927
5.3305 -1.8184 1.5927
5.3916 -1.6259 1.5927
5.4459 -1.4313 1.5927
5.4931 -1.2349 1.5927
5.5332 -1.0370 1.5927
5.5662 -0.8378 1.5927
5.5920 -0.6375 1.5927
5.6106 -0.4365 1.5927
5.6220 -0.2349 1.5927
5.6262 -0.0331 1.5927
5.6231 0.1687 1.5927
5.6127 0.3702 1.5927
5.5952 0.5713 1.5927
5.5705 0.7715 1.5927
5.5386 0.9707 1.5927
5.4995 1.1686 1.5927
5.4535 1.3650 1.5927
5.4004 1.5596 1.5927
5.3404 1.7521 1.5927
5.2735 1.9423 1.5927
5.1999 2.1300 1.5927
5.1196 2.3149 1.5927
5.0327 2.4968 1.5927
4.9394 2.6754 1.5927
4.8397 2.8506 1.5927
4.7339 3.0221 1.5927
4.6220 3.1897 1.5927
4.5041 3.3531 1.5927
4.3805 3.5122 1.5927
4.2513 3.6668 1.5927
4.1167 3.8166 1.5927
3.9768 3.9615 1.5927
3.8318 4.1013 1.5927
3.6819 4.2358 1.5927
3.5273 4.3648 1.5927
3.3682 4.4882 1.5927
3.2048 4.6058 1.5927
3.0373 4.7175 1.5927
2.8659 4.8232 1.5927
2.6909 4.9226 1.5927
0.7944 1.5859 0.5036
0.7367 1.6128 0.5034
0.6781 1.6375 0.5033
0.6187 1.6602 0.5031
0.5586 1.6809 0.5030
0.4978 1.6993 0.5029
0.4364 1.7157 0.5028
0.3745 1.7299 0.5027
0.3121 1.7419 0.5026
0.2494 1.7517 0.5025
0.1863 1.7593 0.5025
0.1231 1.7647 0.5024
0.0597 1.7679 0.5024
-0.0038 1.7689 0.5024
-0.0672 1.7677 0.5024
-0.1306 1.7642 0.5024
-0.1938 1.7586 0.5025
-0.2569 1.7507 0.5025
-0.3195 1.7407 0.5026
-0.3819 1.7284 0.5027
-0.4437 1.7140 0.5028
-0.5051 1.6974 0.5029
-0.5658 1.6787 0.5030
-0.6259 1.6578 0.5032
-0.6852 1.6349 0.5033
-0.7437 1.6099 0.5035
-0.8013 1.5828 0.5037
-2.8874 5.2290 1.6958
-3.0733 5.1223 1.6958
-3.2553 5.0091 1.6958
-3.4331 4.8894 1.6958
-3.6066 4.7634 1.6958
-3.7754 4.6313 1.6958
-3.9394 4.4932 1.6958
-4.0984 4.3493 1.6958
-4.2521 4.1998 1.6958
-4.4004 4.0449 1.6958
-4.5431 3.8848 1.6958
-4.6800 3.7196 1.6958
-4.8108 3.5497 1.6958
-4.9356 3.3751 1.6958
-5.0540 3.1962 1.6958
-5.1659 3.0132 1.6958
-5.2712 2.8262 1.6958
-5.3697 2.6356 1.6958
-5.4614 2.4415 1.6958
-5.5461 2.2443 1.6958
-5.6236 2.0441 1.6958
-5.6939 1.8412 1.6958
-5.7570 1.6360 1.6958
-5.8126 1.4286 1.6958
-5.8608 1.2193 1.6958
-5.4128 -1.0653 1.6958
-5.3717 -1.2589 1.6958
-5.3236 -1.4509 1.6958
-5.2687 -1.6411 1.6958
-5.2070 -1.8292 1.6958
-5.1386 -2.0150 1.6958
-5.0635 -2.1982 1.6958
-4.9819 -2.3786 1.6958
-4.8939 -2.5560 1.6958
-4.7995 -2.7302 1.6958
-4.6990 -2.9008 1.6958
-4.5923 -3.0678 1.6958
-4.4798 -3.2308 1.6958
-4.3614 -3.3896 1.6958
-4.2374 -3.5442 1.6958
-4.1079 -3.6942 1.6958
-3.9731 -3.8394 1.6958
-3.8332 -3.9797 1.6958
-3.6882 -4.1150 1.6958
-3.5386 -4.2449 1.6958
-3.3843 -4.3694 1.6958
-3.2256 -4.4882 1.6958
-3.0628 -4.6013 1.6958
-2.8960 -4.7084 1.6958
-2.7254 -4.8095 1.6958
-2.5513 -4.9044 1.6958
-2.3739 -4.9930 1.6958
-2.1935 -5.0752 1.6958
-2.0101 -5.1508 1.6958
-1.8242 -5.2197 1.6958
-1.6359 -5.2820 1.6958
-1.4455 -5.3374 1.6958
-1.2532 -5.3859 1.6958
-1.0593 -5.4275 1.6958
-0.8640 -5.4621 1.6958
-0.6676 -5.4897 1.6958
-0.4703 -5.5102 1.6958
-0.2724 -5.5235 1.6958
-0.0742 -5.5298 1.6958
0.1242 -5.5289 1.6958
0.3224 -5.5208 1.6958
0.5201 -5.5057 1.6958
0.7172 -5.4834 1.6958
0.9134 -5.4541 1.6958
1.1083 -5.4177 1.6958
1.3019 -5.3744 1.6958
1.4937 -5.3241 1.6958
1.6836 -5.2669 1.6958
1.8714 -5.2030 1.6958
2.0566 -5.1323 1.6958
2.2348 -5.0449 1.6924
2.2719 -4.6691 1.5927
2.4378 -4.5844 1.5927
2.6005 -4.4938 1.5927
2.7598 -4.3974 1.5927
2.9156 -4.2953 1.5927
3.0675 -4.1877 1.5927
3.2155 -4.0748 1.5927
3.3593 -3.9565 1.5927
3.4988 -3.8333 1.5927
3.6338 -3.7050 1.5927
3.7640 -3.5721 1.5927
3.8894 -3.4345 1.5927
4.0097 -3.2925 1.5927
4.1249 -3.1463 1.5927
4.2347 -2.9961 1.5927
4.3390 -2.8421 1.5927
4.4377 -2.6844 1.5927
4.5307 -2.5233 1.5927
4.6178 -2.3589 1.5927
4.6990 -2.1916 1.5927
4.7741 -2.0214 1.5927
4.8431 -1.8487 1.5927
4.9057 -1.6737 1.5927
