ply
format ascii 1.0
element vertex 2199
property float32 x
property float32 y
property float32 z
end_header
7.3019 5.6462 0.0803
7.4545 6.2031 0.0828
6.9146 6.1859 0.0776
6.4189 6.1701 0.0729
6.5217 6.7345 0.0750
7.5732 8.4023 0.0885
7.3248 8.7364 0.0870
6.7926 8.7175 0.0823
6.2932 8.7020 0.0779
5.8221 8.6895 0.0739
5.3750 8.6788 0.0701
6.1014 10.6885 0.0821
5.7598 10.9857 0.0803
6.2412 13.0169 0.0906
6.2028 14.2215 0.0943
6.1605 15.6289 0.0987
6.1178 17.3131 0.1042
6.0423 19.2692 0.1106
6.1398 22.3537 0.1223
5.2814 22.3297 0.1165
4.8867 24.5549 0.1221
5.5384 34.1808 0.1620
5.4003 43.0358 0.1944
-17.2554 43.6503 0.0935
-17.0837 39.0642 0.0785
-9.2555 19.2552 0.0363
-10.0570 19.1364 0.0337
-10.1857 17.8030 0.0292
-10.1391 16.3354 0.0249
-10.0979 15.0393 0.0212
-9.0398 12.4742 0.0162
-9.2494 11.8465 0.0141
-9.9338 11.8247 0.0129
-10.6579 11.8017 0.0116
-10.8415 11.1734 0.0099
-10.8162 10.3768 0.0083
-11.4101 10.1877 0.0072
-6.6196 5.4975 0.0034
-12.9319 9.9795 0.0054
-13.8936 9.9490 0.0046
-10.7122 7.1048 0.0028
-10.6947 6.5544 0.0021
-9.6094 5.4259 0.0014
-9.5945 4.9733 0.0010
-9.5803 4.5384 0.0007
-9.5665 4.1193 0.0005
-9.5532 3.7141 0.0004
-9.5404 3.3211 0.0003
-9.5278 2.9388 0.0004
-9.5156 2.5658 0.0005
-9.5036 2.2009 0.0006
-9.4919 1.8428 0.0009
-9.4804 1.4906 0.0012
-9.4690 1.1432 0.0015
-9.4577 0.7996 0.0019
-9.4465 0.4589 0.0024
-9.4354 0.1201 0.0030
-9.4244 -0.2175 0.0036
-9.4133 -0.5549 0.0043
-9.4023 -0.8929 0.0050
5.3149 -6.4503 0.2752
5.4889 -6.1954 0.2734
5.4283 -5.7019 0.2608
5.6089 -5.4843 0.2606
5.7884 -5.2679 0.2606
6.1393 -5.1978 0.2685
6.5870 -5.1836 0.2804
5.6795 -4.1490 0.2357
5.7289 -3.8783 0.2322
5.7194 -3.5802 0.2268
5.7104 -3.2960 0.2219
5.7018 -3.0242 0.2174
5.7590 -2.7951 0.2158
6.4107 -2.8324 0.2365
6.9392 -2.7734 0.2522
7.9768 -2.8614 0.2861
7.9665 -2.5396 0.2823
7.9566 -2.2259 0.2788
7.9468 -1.9192 0.2758
7.9372 -1.6186 0.2731
7.9278 -1.3229 0.2707
7.9186 -1.0315 0.2687
7.9094 -0.7435 0.2669
7.9003 -0.4580 0.2655
7.8913 -0.1744 0.2644
7.8823 0.1081 0.2635
7.8734 0.3903 0.2630
7.8644 0.6728 0.2627
7.8554 0.9564 0.2627
7.8463 1.2418 0.2630
7.8371 1.5298 0.2636
7.8279 1.8212 0.2644
7.8185 2.1168 0.2656
7.8089 2.4174 0.2671
7.7991 2.7240 0.2690
7.7892 3.0376 0.2711
7.7535 3.3483 0.2728
7.7430 3.6780 0.2757
7.7322 4.0183 0.2790
7.7210 4.3705 0.2827
7.7347 4.7517 0.2879
7.7225 5.1339 0.2927
7.6846 5.5153 0.2970
7.1073 5.4970 0.2806
7.4528 6.2030 0.3012
6.9130 6.1858 0.2866
6.4174 6.1701 0.2734
7.5943 7.8438 0.3334
7.5748 8.4061 0.3434
7.3239 8.7374 0.3439
6.7917 8.7184 0.3313
6.2920 8.7025 0.3199
5.8206 8.6895 0.3095
5.3749 8.6811 0.3002
6.1013 10.6914 0.3595
5.7578 10.9854 0.3597
6.2410 13.0206 0.4159
6.2026 14.2260 0.4439
6.1602 15.6338 0.4773
6.1255 17.3419 0.5187
6.0420 19.2769 0.5657
6.1373 22.3557 0.6446
5.2785 22.3299 0.6334
4.8833 24.5543 0.6861
5.5340 34.1808 0.9420
4.2801 34.1427 0.9294
4.0793 45.7648 1.2320
-0.8838 47.7323 1.2526
-8.3673 41.8062 1.0801
-11.1680 46.9901 1.2153
-17.2549 43.6370 1.1504
-17.0834 39.0536 1.0387
-9.2553 19.2505 0.5174
-10.0591 19.1363 0.5206
-10.1850 17.7982 0.4911
-10.1384 16.3314 0.4578
-10.0972 15.0359 0.4291
-9.0397 12.4722 0.3631
-9.2507 11.8464 0.3527
-9.9351 11.8247 0.3607
-10.6592 11.8016 0.3699
-10.8415 11.1721 0.3606
-10.8162 10.3756 0.3459
-11.4112 10.1876 0.3518
-6.6190 5.4965 0.1972
-12.9329 9.9795 0.3733
-13.8946 9.9489 0.3895
-10.7122 7.1044 0.2923
-10.6947 6.5540 0.2846
-9.6093 5.4256 0.2500
-9.5945 4.9730 0.2444
-9.5802 4.5382 0.2395
-9.5665 4.1192 0.2351
-9.5532 3.7140 0.2313
-9.5404 3.3211 0.2279
-9.5278 2.9388 0.2250
-9.5156 2.5659 0.2225
-9.5037 2.2010 0.2204
-9.4919 1.8430 0.2186
-9.4804 1.4908 0.2173
-9.4690 1.1435 0.2163
-9.4577 0.7999 0.2157
-9.4466 0.4592 0.2155
-9.4355 0.1205 0.2155
-9.4244 -0.2171 0.2159
-9.4133 -0.5545 0.2167
-9.4023 -0.8924 0.2178
5.3146 -6.4508 0.4639
5.4886 -6.1958 0.4602
5.4280 -5.7023 0.4385
5.6086 -5.4846 0.4376
5.7882 -5.2682 0.4373
6.1388 -5.1978 0.4500
6.5864 -5.1836 0.4695
5.6795 -4.1493 0.3944
5.7289 -3.8786 0.3883
5.7194 -3.5804 0.3791
5.7104 -3.2962 0.3707
5.7018 -3.0243 0.3631
5.7588 -2.7951 0.3603
6.3460 -2.8039 0.3906
6.9392 -2.7735 0.4209
7.9768 -2.8614 0.4773
7.9665 -2.5396 0.4710
7.9566 -2.2259 0.4653
7.9468 -1.9192 0.4603
7.9372 -1.6184 0.4559
7.9278 -1.3228 0.4521
7.9186 -1.0313 0.4489
7.9094 -0.7432 0.4462
7.9003 -0.4577 0.4441
7.8913 -0.1741 0.4425
7.8823 0.1085 0.4414
7.8734 0.3907 0.4408
7.8644 0.6732 0.4408
7.8553 0.9568 0.4413
7.8463 1.2423 0.4422
7.8371 1.5303 0.4438
7.8278 1.8218 0.4458
7.8184 2.1174 0.4484
7.8089 2.4181 0.4516
7.7991 2.7247 0.4554
7.7892 3.0383 0.4598
7.7535 3.3490 0.4634
7.7430 3.6789 0.4691
7.7322 4.0192 0.4756
7.7210 4.3714 0.4830
7.7346 4.7527 0.4928
7.7225 5.1350 0.5019
7.2410 5.1981 0.4810
6.9677 5.3902 0.4739
6.7312 5.6037 0.4697
6.9114 6.1858 0.4958
6.4159 6.1700 0.4742
7.5943 7.8456 0.5797
7.5765 8.4099 0.5989
7.3230 8.7384 0.6011
6.7908 8.7194 0.5806
6.2910 8.7034 0.5621
5.8191 8.6896 0.5454
5.3749 8.6834 0.5306
6.1013 10.6944 0.6373
5.7559 10.9851 0.6394
6.2408 13.0245 0.7418
6.2036 14.2330 0.7943
6.1579 15.6337 0.8563
6.1281 17.3561 0.9343
6.0418 19.2847 1.0217
6.1349 22.3577 1.1675
5.2756 22.3303 1.1509
4.8801 24.5538 1.2507
5.1017 31.5355 1.5896
3.9854 31.8241 1.5896
1.8387 20.6562 1.0238
1.5965 30.1082 1.4826
0.5934 34.5533 1.6927
-0.6464 34.6869 1.6927
-1.8948 34.7751 1.6927
-3.1504 34.8173 1.6927
-4.4112 34.8129 1.6927
-5.6755 34.7613 1.6927
-3.3035 16.4962 0.8056
-3.2149 13.5204 0.6631
-3.3534 12.1524 0.5994
-3.8221 12.1384 0.6030
-4.3003 12.1242 0.6075
-4.7897 12.1096 0.6129
-13.6080 31.1009 1.5927
-9.2552 19.2457 0.9988
-10.0612 19.1362 1.0082
-10.1843 17.7935 0.9533
-10.1377 16.3274 0.8911
-10.0966 15.0325 0.8374
-9.0397 12.4702 0.7104
-9.2520 11.8464 0.6916
-9.9364 11.8246 0.7090
-10.6605 11.8016 0.7285
-10.8415 11.1708 0.7116
-10.8161 10.3745 0.6838
-11.4123 10.1876 0.6967
-6.6184 5.4955 0.3911
-12.9339 9.9795 0.7417
-13.8956 9.9489 0.7749
-10.7122 7.1039 0.5821
-10.6947 6.5536 0.5674
-9.6093 5.4253 0.4988
-9.5945 4.9728 0.4881
-9.5802 4.5381 0.4785
-9.5665 4.1191 0.4700
-9.5532 3.7140 0.4624
-9.5404 3.3211 0.4557
-9.5278 2.9389 0.4498
-9.5156 2.5660 0.4447
-9.5037 2.2011 0.4403
-9.4919 1.8432 0.4367
-9.4804 1.4911 0.4337
-9.4690 1.1437 0.4314
-9.4577 0.8002 0.4297
-9.4466 0.4595 0.4287
-9.4355 0.1209 0.4283
-9.4244 -0.2167 0.4285
-9.4134 -0.5540 0.4293
-9.4023 -0.8920 0.4307
5.3143 -6.4513 0.6529
5.4883 -6.1963 0.6475
5.4277 -5.7026 0.6166
5.6083 -5.4850 0.6151
5.7879 -5.2685 0.6143
6.1382 -5.1979 0.6319
6.5859 -5.1836 0.6591
5.6795 -4.1497 0.5536
5.7289 -3.8789 0.5449
5.7195 -3.5806 0.5318
5.7104 -3.2964 0.5199
5.7018 -3.0245 0.5091
5.7586 -2.7951 0.5051
6.3458 -2.8039 0.5476
6.9392 -2.7735 0.5899
7.9768 -2.8614 0.6691
7.9665 -2.5396 0.6601
7.9565 -2.2258 0.6522
7.9468 -1.9191 0.6452
7.9372 -1.6183 0.6392
7.9278 -1.3226 0.6339
7.9186 -1.0311 0.6295
7.9094 -0.7430 0.6259
7.9003 -0.4575 0.6231
7.8913 -0.1738 0.6211
7.8823 0.1088 0.6198
7.8733 0.3910 0.6192
7.8643 0.6736 0.6194
7.8553 0.9573 0.6203
7.8462 1.2428 0.6220
7.8371 1.5309 0.6244
7.8278 1.8223 0.6276
7.8184 2.1180 0.6317
7.8089 2.4187 0.6365
7.7991 2.7254 0.6423
7.7891 3.0391 0.6489
7.7534 3.3498 0.6544
7.7430 3.6797 0.6630
7.7321 4.0201 0.6728
7.7209 4.3724 0.6837
7.7346 4.7537 0.6981
7.7224 5.1361 0.7117
7.2394 5.1981 0.6825
6.9677 5.3913 0.6732
6.5874 5.4852 0.6535
6.9098 6.1857 0.7054
6.4144 6.1700 0.6754
7.5959 7.8491 0.8269
7.5781 8.4138 0.8552
7.3220 8.7394 0.8589
6.7899 8.7204 0.8305
6.2901 8.7044 0.8050
5.8176 8.6897 0.7818
5.3748 8.6856 0.7616
6.1012 10.6973 0.9158
5.7540 10.9848 0.9198
6.2407 13.0285 1.0686
6.2023 14.2352 1.1455
6.1577 15.6391 1.2365
6.1164 17.3299 1.3483
6.0415 19.2924 1.4792
5.6718 20.6806 1.5647
4.9803 21.0924 1.5770
4.2677 21.4866 1.5896
3.5054 21.6851 1.5896
2.7344 21.8565 1.5896
1.8361 20.6562 1.4925
1.2459 23.5501 1.6927
0.4032 23.6431 1.6927
-0.4445 23.7054 1.6927
-1.2962 23.7368 1.6927
-2.1506 23.7369 1.6927
-3.0065 23.7055 1.6927
-3.8628 23.6424 1.6927
-3.3032 16.4853 1.1850
-3.2147 13.5131 0.9766
-3.3544 12.1510 0.8842
-3.8230 12.1370 0.8905
-4.3012 12.1227 0.8981
-4.7905 12.1081 0.9071
-9.1676 20.9470 1.5895
-9.2550 19.2410 1.4811
-10.0632 19.1362 1.4968
-10.1835 17.7888 1.4162
-10.1370 16.3234 1.3251
-10.0959 15.0290 1.2463
-9.0396 12.4682 1.0583
-9.2532 11.8464 1.0313
-9.9376 11.8246 1.0581
-10.6618 11.8016 1.0879
-10.8414 11.1695 1.0632
-10.8161 10.3734 1.0223
-11.4134 10.1876 1.0424
-6.6178 5.4945 0.5854
-12.9350 9.9795 1.1108
-13.8966 9.9489 1.1610
-10.7121 7.1033 0.8725
-10.6947 6.5532 0.8508
-9.6093 5.4250 0.7481
-9.5945 4.9726 0.7322
-9.5802 4.5379 0.7180
-9.5665 4.1190 0.7053
-9.5532 3.7139 0.6939
-9.5404 3.3211 0.6839
-9.5278 2.9389 0.6750
-9.5156 2.5660 0.6673
-9.5037 2.2013 0.6607
-9.4919 1.8434 0.6551
-9.4804 1.4913 0.6505
-9.4690 1.1440 0.6469
-9.4578 0.8005 0.6442
-9.4466 0.4599 0.6424
-9.4355 0.1212 0.6415
-9.4244 -0.2163 0.6415
-9.4134 -0.5536 0.6424
-9.4023 -0.8915 0.6441
5.3139 -6.4517 0.8427
5.4879 -6.1967 0.8354
5.4274 -5.7030 0.7953
5.6080 -5.4853 0.7932
5.7877 -5.2688 0.7920
6.1376 -5.1979 0.8145
6.5853 -5.1836 0.8493
5.6795 -4.1500 0.7133
5.7289 -3.8792 0.7020
5.6601 -3.5437 0.6779
5.6512 -3.2624 0.6626
5.6426 -2.9932 0.6489
5.7582 -2.7950 0.6504
6.1619 -2.7227 0.6847
6.9392 -2.7736 0.7596
7.9768 -2.8614 0.8615
7.9665 -2.5395 0.8500
7.9565 -2.2257 0.8398
7.9468 -1.9189 0.8308
7.9372 -1.6182 0.8231
7.9278 -1.3224 0.8164
7.9186 -1.0309 0.8108
7.9094 -0.7428 0.8063
7.9003 -0.4572 0.8028
7.8913 -0.1735 0.8003
7.8823 0.1091 0.7987
7.8733 0.3914 0.7982
7.8643 0.6740 0.7986
7.8553 0.9577 0.7999
7.8462 1.2433 0.8023
7.8371 1.5314 0.8057
7.8278 1.8229 0.8101
7.8184 2.1186 0.8156
7.8088 2.4193 0.8221
7.7991 2.7261 0.8298
7.7891 3.0398 0.8388
7.7534 3.3506 0.8462
7.7429 3.6805 0.8577
7.7321 4.0210 0.8706
7.7209 4.3733 0.8851
7.7346 4.7547 0.9042
7.7224 5.1371 0.9223
7.2377 5.1980 0.8846
6.9677 5.3925 0.8732
6.5859 5.4851 0.8480
6.9082 6.1857 0.9158
6.4129 6.1699 0.8773
7.5975 7.8526 1.0751
7.5798 8.4176 1.1125
7.3211 8.7404 1.1177
6.7890 8.7214 1.0813
6.2892 8.7053 1.0487
5.8164 8.6902 1.0190
5.3747 8.6879 0.9935
6.1011 10.7002 1.1955
5.7521 10.9845 1.2010
6.2406 13.0324 1.3966
6.2022 14.2397 1.4981
6.0675 15.4156 1.5946
5.5061 15.6071 1.5896
4.9543 15.8275 1.5896
4.3938 16.0285 1.5896
3.8252 16.2097 1.5896
3.2494 16.3706 1.5896
2.6669 16.5111 1.5896
2.0785 16.6307 1.5896
1.5813 17.8142 1.6927
0.9446 17.8963 1.6927
0.3040 17.9554 1.6927
-0.3395 17.9912 1.6927
-0.9852 18.0036 1.6927
-1.6322 17.9924 1.6927
-2.2796 17.9575 1.6927
-2.9264 17.8989 1.6927
-3.2062 15.9922 1.5194
-3.2145 13.5058 1.2909
-3.3554 12.1496 1.1699
-3.8239 12.1356 1.1789
-4.3020 12.1213 1.1896
-4.7913 12.1066 1.2022
-6.9147 15.7953 1.5895
-7.4874 15.5625 1.5895
-8.0518 15.3080 1.5895
-8.6072 15.0323 1.5895
-9.1526 14.7356 1.5895
-9.6872 14.4183 1.5895
-9.0396 12.4662 1.4072
-9.2545 11.8463 1.3721
-9.9389 11.8246 1.4082
-10.6631 11.8015 1.4484
-10.8414 11.1681 1.4159
-10.8161 10.3722 1.3619
-11.4145 10.1875 1.3892
-6.6172 5.4935 0.7803
-12.9360 9.9794 1.4812
-13.5772 9.7195 1.5127
-10.7121 7.1029 1.1637
-10.6946 6.5528 1.1350
-9.6093 5.4247 0.9981
-9.5945 4.9723 0.9771
-9.5802 4.5377 0.9582
-9.5665 4.1189 0.9413
-9.5532 3.7139 0.9262
-9.5404 3.3211 0.9128
-9.5278 2.9389 0.9010
-9.5156 2.5661 0.8907
-9.5037 2.2014 0.8818
-9.4919 1.8435 0.8743
-9.4804 1.4915 0.8680
-9.4690 1.1442 0.8630
-9.4578 0.8008 0.8593
-9.4466 0.4602 0.8567
-9.4355 0.1216 0.8553
-9.4244 -0.2159 0.8551
-9.4134 -0.5531 0.8561
-9.4023 -0.8910 0.8582
5.3136 -6.4522 1.0333
5.4876 -6.1971 1.0242
5.4271 -5.7034 0.9749
5.6078 -5.4856 0.9721
5.7874 -5.2691 0.9705
6.1371 -5.1979 0.9979
6.5848 -5.1837 1.0404
5.6795 -4.1503 0.8738
5.7290 -3.8795 0.8598
5.7195 -3.5811 0.8389
5.7104 -3.2967 0.8200
5.7018 -3.0248 0.8029
5.7582 -2.7951 0.7964
6.2220 -2.7494 0.8465
6.9392 -2.7736 0.9301
7.9768 -2.8614 1.0548
7.9665 -2.5395 1.0407
7.9565 -2.2257 1.0282
7.9468 -1.9188 1.0173
7.9372 -1.6180 1.0078
7.9278 -1.3222 0.9997
7.9186 -1.0307 0.9930
7.9094 -0.7425 0.9875
7.9003 -0.4569 0.9833
7.8913 -0.1732 0.9803
7.8823 0.1095 0.9785
7.8733 0.3918 0.9780
7.8643 0.6744 0.9786
7.8553 0.9582 0.9804
7.8462 1.2437 0.9835
7.8371 1.5319 0.9878
7.8278 1.8234 0.9934
7.8184 2.1192 1.0003
7.8088 2.4200 1.0086
7.7991 2.7267 1.0182
7.7891 3.0405 1.0294
7.7534 3.3514 1.0388
7.7429 3.6814 1.0532
7.7321 4.0218 1.0694
7.7209 4.3743 1.0875
7.7345 4.7558 1.1113
7.7224 5.1383 1.1338
7.2361 5.1980 1.0876
6.9676 5.3936 1.0741
6.5844 5.4851 1.0432
6.9066 6.1856 1.1270
6.4114 6.1699 1.0800
7.5992 7.8561 1.3246
7.5815 8.4215 1.3712
7.3202 8.7414 1.3775
6.7881 8.7223 1.3332
6.2883 8.7063 1.2934
5.8154 8.6911 1.2574
5.3747 8.6902 1.2266
6.1010 10.7032 1.4764
5.7502 10.9841 1.4833
5.7465 12.0045 1.5896
5.3220 12.2232 1.5896
4.8893 12.4271 1.5896
4.4489 12.6156 1.5896
4.0013 12.7887 1.5896
3.5470 12.9459 1.5896
3.0866 13.0869 1.5896
2.6206 13.2116 1.5896
2.1497 13.3196 1.5896
1.7830 14.2804 1.6927
1.2728 14.3592 1.6927
0.7593 14.4197 1.6927
0.2431 14.4616 1.6927
-0.2751 14.4848 1.6927
-0.7946 14.4892 1.6927
-1.3148 14.4746 1.6927
-1.8349 14.4411 1.6927
-2.3542 14.3885 1.6927
-2.8720 14.3169 1.6927
-3.3875 14.2262 1.6927
-3.3563 12.1481 1.4567
-3.8248 12.1341 1.4684
-4.3029 12.1198 1.4823
-4.9985 12.6266 1.5630
-5.9068 13.4897 1.6927
-6.1513 12.7825 1.6285
-6.4545 12.2686 1.5895
-6.8975 12.0441 1.5895
-7.3325 11.8030 1.5895
-7.7586 11.5458 1.5895
-8.1753 11.2726 1.5895
-8.5819 10.9838 1.5895
-8.9788 10.6808 1.5896
-9.3635 10.3620 1.5896
-9.7364 10.0287 1.5896
-10.3705 9.9439 1.6327
-10.7274 9.5734 1.6327
-6.5426 5.4310 0.9649
-10.9287 8.4302 1.5654
-10.9090 7.8088 1.5207
-10.7121 7.1023 1.4562
-10.6946 6.5524 1.4204
-9.6093 5.4244 1.2492
-9.5945 4.9721 1.2230
-9.5802 4.5376 1.1994
-9.5665 4.1188 1.1783
-9.5532 3.7138 1.1594
-9.5404 3.3211 1.1427
-9.5278 2.9390 1.1279
-9.5156 2.5662 1.1149
-9.5037 2.2015 1.1038
-9.4919 1.8437 1.0943
-9.4804 1.4917 1.0864
-9.4690 1.1445 1.0801
-9.4578 0.8011 1.0753
-9.4466 0.4605 1.0719
-9.4355 0.1220 1.0701
-9.4245 -0.2154 1.0696
-9.4134 -0.5526 1.0706
-9.4023 -0.8905 1.0731
5.3133 -6.4527 1.2250
5.4873 -6.1976 1.2140
5.4268 -5.7037 1.1554
5.6075 -5.4859 1.1520
5.7872 -5.2694 1.1500
6.1365 -5.1979 1.1823
6.5842 -5.1837 1.2325
5.6796 -4.1507 1.0351
5.7290 -3.8797 1.0185
5.7195 -3.5813 0.9937
5.7104 -3.2969 0.9713
5.7018 -3.0249 0.9510
5.7580 -2.7951 0.9432
6.2219 -2.7494 1.0025
6.9392 -2.7737 1.1015
7.9768 -2.8614 1.2491
7.9665 -2.5395 1.2325
7.9565 -2.2256 1.2177
7.9468 -1.9187 1.2048
7.9372 -1.6179 1.1936
7.9278 -1.3221 1.1841
7.9185 -1.0305 1.1761
7.9094 -0.7423 1.1697
7.9003 -0.4566 1.1648
7.8913 -0.1729 1.1613
7.8823 0.1098 1.1593
7.8733 0.3921 1.1587
7.8643 0.6748 1.1596
7.8553 0.9586 1.1619
7.8462 1.2442 1.1657
7.8370 1.5324 1.1709
7.8278 1.8240 1.1777
7.8184 2.1197 1.1861
7.8088 2.4206 1.1960
7.7990 2.7274 1.2077
7.7891 3.0413 1.2212
7.7534 3.3521 1.2325
7.7429 3.6822 1.2498
7.7320 4.0227 1.2692
7.7208 4.3752 1.2910
7.7345 4.7568 1.3195
7.7223 5.1394 1.3465
7.2743 5.2265 1.2987
6.9676 5.3948 1.2762
6.5828 5.4850 1.2394
6.9050 6.1856 1.3393
6.4099 6.1698 1.2837
7.4420 7.6954 1.5427
7.1754 7.9722 1.5437
6.8988 8.2402 1.5447
6.6082 8.4934 1.5447
6.2873 8.7072 1.5395
5.8145 8.6920 1.4970
5.3746 8.6925 1.4609
5.3575 9.4016 1.5447
5.1707 9.8802 1.5896
4.8205 10.0733 1.5896
4.4631 10.2541 1.5896
4.0990 10.4222 1.5896
3.7286 10.5773 1.5896
3.3523 10.7193 1.5896
2.9707 10.8478 1.5895
0.7915 3.3580 0.4869
0.6706 3.3830 0.4860
0.5489 3.4039 0.4852
0.4266 3.4206 0.4844
0.3039 3.4331 0.4836
0.1808 3.4415 0.4829
0.0575 3.4457 0.4822
-0.0659 3.4456 0.4816
-0.1891 3.4414 0.4809
-0.3122 3.4330 0.4804
-0.4350 3.4204 0.4799
-0.5573 3.4037 0.4794
-0.6790 3.3828 0.4789
-0.7999 3.3577 0.4785
-3.2568 11.7831 1.6927
-3.6808 11.6730 1.6927
-4.1009 11.5474 1.6927
-4.5166 11.4062 1.6927
-4.9273 11.2498 1.6927
-5.3324 11.0781 1.6927
-5.7313 10.8916 1.6927
-6.0775 10.6101 1.6800
-6.1118 9.8364 1.5896
-6.4658 9.6203 1.5896
-6.8118 9.3910 1.5896
-7.1493 9.1489 1.5896
-7.4780 8.8943 1.5896
-7.7972 8.6275 1.5896
-8.1065 8.3489 1.5896
-8.4055 8.0588 1.5896
-8.6936 7.7576 1.5896
-6.5341 5.4235 1.1579
-9.2358 7.1237 1.5896
-9.4890 6.7918 1.5896
-9.7298 6.4506 1.5896
-10.2278 6.2660 1.6327
-9.6093 5.4241 1.5016
-9.5945 4.9719 1.4701
-9.5802 4.5374 1.4419
-9.5665 4.1187 1.4165
-9.5532 3.7138 1.3939
-9.5404 3.3211 1.3737
-9.5278 2.9390 1.3559
-9.5156 2.5663 1.3404
-9.5037 2.2017 1.3269
-9.4919 1.8439 1.3154
-9.4804 1.4919 1.3059
-9.4690 1.1447 1.2982
-9.4578 0.8014 1.2924
-9.4466 0.4609 1.2883
-9.4355 0.1224 1.2859
-9.4245 -0.2150 1.2853
-9.4134 -0.5522 1.2863
-9.4023 -0.8900 1.2891
5.3129 -6.4532 1.4180
5.4870 -6.1980 1.4051
5.4265 -5.7041 1.3372
5.6072 -5.4863 1.3331
5.7869 -5.2698 1.3307
6.1360 -5.1979 1.3679
6.5837 -5.1837 1.4259
5.6796 -4.1510 1.1976
5.7290 -3.8800 1.1783
5.7195 -3.5816 1.1495
5.7104 -3.2971 1.1235
5.7018 -3.0251 1.1000
5.7578 -2.7952 1.0909
6.2218 -2.7495 1.1596
6.9392 -2.7737 1.2740
7.9768 -2.8614 1.4448
7.9665 -2.5395 1.4256
7.9565 -2.2256 1.4085
7.9468 -1.9186 1.3936
7.9372 -1.6177 1.3807
7.9278 -1.3219 1.3697
7.9185 -1.0303 1.3605
7.9094 -0.7420 1.3531
7.9003 -0.4564 1.3475
7.8913 -0.1726 1.3436
7.8823 0.1102 1.3413
7.8733 0.3925 1.3407
7.8643 0.6752 1.3418
7.8553 0.9591 1.3446
7.8462 1.2447 1.3491
7.8370 1.5329 1.3553
7.8277 1.8245 1.3633
7.8183 2.1203 1.3731
7.8088 2.4213 1.3848
7.7990 2.7281 1.3985
7.7890 3.0420 1.4142
7.7533 3.3529 1.4275
7.7428 3.6830 1.4477
7.7320 4.0237 1.4704
7.7208 4.3762 1.4958
7.7345 4.7578 1.5291
7.7223 5.1405 1.5606
7.2726 5.2265 1.5052
6.9788 5.4047 1.4820
6.5813 5.4850 1.4369
6.7438 6.0426 1.5171
6.4084 6.1698 1.4888
6.5885 6.8144 1.5846
6.2814 6.9807 1.5681
5.9441 7.1016 1.5447
5.6926 7.3183 1.5447
5.4332 7.5264 1.5447
5.3167 7.9500 1.5896
5.0347 8.1451 1.5896
4.7456 8.3303 1.5896
4.4497 8.5052 1.5896
4.1475 8.6698 1.5896
3.8392 8.8236 1.5896
3.5252 8.9666 1.5896
3.2059 9.0984 1.5896
2.8818 9.2188 1.5896
0.7891 2.8831 0.4913
0.6852 2.9085 0.4906
0.5805 2.9303 0.4898
0.4751 2.9485 0.4891
0.3692 2.9631 0.4884
0.2629 2.9740 0.4877
0.1563 2.9813 0.4871
0.0494 2.9849 0.4865
-0.0574 2.9849 0.4859
-0.1642 2.9812 0.4854
-0.2708 2.9739 0.4849
-0.3772 2.9629 0.4845
-0.4831 2.9483 0.4840
-0.5884 2.9300 0.4837
-0.6932 2.9082 0.4833
-0.7971 2.8828 0.4830
-3.1565 10.0066 1.6927
-3.5160 9.8972 1.6927
-3.8717 9.7747 1.6927
-4.2229 9.6391 1.6927
-4.5693 9.4907 1.6927
-4.9103 9.3294 1.6927
-5.2454 9.1557 1.6927
-5.5742 8.9696 1.6927
-5.8962 8.7714 1.6927
-6.0036 8.2755 1.6362
-6.1209 7.8317 1.5896
-6.4015 7.6130 1.5896
-6.6740 7.3838 1.5896
-6.9380 7.1446 1.5896
-7.1932 6.8958 1.5896
-7.4391 6.6375 1.5896
-6.5256 5.4160 1.3515
-7.9018 6.0942 1.5896
-8.1179 5.8100 1.5896
-8.3234 5.5178 1.5896
-8.5180 5.2182 1.5896
-8.7014 4.9114 1.5896
-8.8734 4.5980 1.5896
-9.0337 4.2784 1.5896
-9.1820 3.9530 1.5896
-9.3182 3.6223 1.5896
-9.4421 3.2868 1.5896
-9.5278 2.9391 1.5854
-9.5156 2.5664 1.5671
-9.5037 2.2018 1.5514
-9.4920 1.8441 1.5379
-9.4804 1.4922 1.5268
-9.4690 1.1450 1.5177
-9.4578 0.8017 1.5108
-9.4466 0.4612 1.5059
-9.4355 0.1228 1.5031
-9.4245 -0.2146 1.5022
-9.4134 -0.5517 1.5033
-9.4024 -0.8895 1.5065
5.1957 -6.3116 1.5770
5.4155 -6.1180 1.5770
5.4262 -5.7044 1.5203
5.6069 -5.4866 1.5156
5.7866 -5.2701 1.5128
6.1354 -5.1979 1.5549
6.4360 -5.0678 1.5846
5.6796 -4.1514 1.3613
5.7290 -3.8803 1.3393
5.7195 -3.5818 1.3066
5.7104 -3.2973 1.2770
5.7018 -3.0252 1.2502
5.7576 -2.7952 1.2398
6.2218 -2.7495 1.3179
6.9202 -2.7662 1.4440
7.6978 -2.7614 1.5846
7.7919 -2.4837 1.5846
7.8762 -2.2030 1.5846
7.9468 -1.9185 1.5838
7.9372 -1.6176 1.5691
7.9278 -1.3217 1.5567
7.9185 -1.0301 1.5463
7.9094 -0.7418 1.5380
7.9003 -0.4561 1.5316
7.8913 -0.1722 1.5272
7.8823 0.1105 1.5247
7.8733 0.3929 1.5241
7.8643 0.6757 1.5255
7.8553 0.9595 1.5287
7.8462 1.2452 1.5339
7.8370 1.5335 1.5411
7.8277 1.8251 1.5503
7.8183 2.1210 1.5615
7.8088 2.4219 1.5750
7.7692 2.7184 1.5846
7.6720 2.9971 1.5846
7.5651 3.2723 1.5846
7.4486 3.5439 1.5846
7.3225 3.8114 1.5846
7.1870 4.0745 1.5846
7.0422 4.3330 1.5846
6.8883 4.5864 1.5846
6.7255 4.8344 1.5846
6.5539 5.0767 1.5846
6.3737 5.3131 1.5846
6.1851 5.5432 1.5846
5.9883 5.7667 1.5846
5.7836 5.9833 1.5846
5.5711 6.1928 1.5846
5.3512 6.3948 1.5846
5.1240 6.5891 1.5846
4.8899 6.7755 1.5846
4.6490 6.9535 1.5846
4.4017 7.1231 1.5846
4.1615 7.3071 1.5896
3.9014 7.4595 1.5896
3.6358 7.6027 1.5896
3.3649 7.7365 1.5896
3.0892 7.8606 1.5896
2.8089 7.9750 1.5896
0.7858 2.5148 0.4948
0.6950 2.5404 0.4941
0.6034 2.5629 0.4934
0.5112 2.5822 0.4927
0.4183 2.5983 0.4921
0.3250 2.6112 0.4915
0.2313 2.6209 0.4909
0.1374 2.6274 0.4903
0.0433 2.6306 0.4898
-0.0509 2.6306 0.4893
-0.1450 2.6273 0.4888
-0.2390 2.6208 0.4884
-0.3327 2.6111 0.4880
-0.4260 2.5981 0.4876
-0.5188 2.5820 0.4873
-0.6111 2.5626 0.4870
-0.7027 2.5401 0.4867
-0.7934 2.5144 0.4865
-3.0746 8.6518 1.6927
-3.3850 8.5436 1.6927
-3.6916 8.4242 1.6927
-3.9939 8.2935 1.6927
-4.2914 8.1517 1.6927
-4.5837 7.9990 1.6927
-4.8704 7.8356 1.6927
-5.1512 7.6618 1.6927
-5.4255 7.4776 1.6927
-5.6931 7.2833 1.6927
-5.9536 7.0793 1.6927
-5.9529 6.5852 1.6236
-6.0586 6.2383 1.5896
-6.2809 6.0205 1.5896
-6.4952 5.7947 1.5896
-6.5171 5.4084 1.5460
-6.8983 5.3198 1.5896
-7.0866 5.0715 1.5896
-7.2657 4.8163 1.5896
-7.4352 4.5546 1.5896
-7.5951 4.2867 1.5896
-7.7450 4.0131 1.5896
-7.8847 3.7341 1.5896
-8.0140 3.4501 1.5896
-8.1328 3.1615 1.5896
-8.2409 2.8687 1.5896
-8.3380 2.5721 1.5896
-8.4242 2.2721 1.5896
-8.4993 1.9692 1.5896
-8.5631 1.6638 1.5896
-8.6155 1.3562 1.5896
-8.6566 1.0470 1.5896
-8.6863 0.7366 1.5896
-8.7045 0.4253 1.5896
-8.7112 0.1137 1.5896
-8.7065 -0.1979 1.5896
-8.6902 -0.5089 1.5896
-8.6626 -0.8190 1.5896
4.6541 -5.6546 1.5846
4.8514 -5.4814 1.5846
5.0424 -5.3016 1.5846
5.2269 -5.1153 1.5846
5.4047 -4.9227 1.5846
5.5756 -4.7241 1.5846
5.7394 -4.5198 1.5846
5.6796 -4.1517 1.5264
5.6697 -3.8405 1.4862
5.6620 -3.5461 1.4503
5.7104 -3.2975 1.4318
5.7018 -3.0254 1.4017
5.7573 -2.7952 1.3900
6.2217 -2.7496 1.4775
6.7735 -2.7076 1.5846
6.8660 -2.4630 1.5846
6.9499 -2.2154 1.5846
7.0252 -1.9649 1.5846
7.0916 -1.7120 1.5846
7.1492 -1.4568 1.5846
7.1978 -1.1999 1.5846
7.2375 -0.9413 1.5846
7.2681 -0.6814 1.5846
7.2896 -0.4206 1.5846
7.3020 -0.1591 1.5846
7.3053 0.1028 1.5846
7.2995 0.3646 1.5846
7.2845 0.6262 1.5846
7.2603 0.8873 1.5846
7.2270 1.1474 1.5846
7.1846 1.4063 1.5846
7.1332 1.6637 1.5846
7.0727 1.9193 1.5846
7.0033 2.1727 1.5846
6.9250 2.4237 1.5846
6.8380 2.6719 1.5846
6.7421 2.9171 1.5846
6.6377 3.1589 1.5846
6.5248 3.3970 1.5846
6.4035 3.6312 1.5846
6.2740 3.8612 1.5846
6.1363 4.0866 1.5846
5.9907 4.3072 1.5846
5.8372 4.5226 1.5846
5.6762 4.7328 1.5846
5.5077 4.9372 1.5846
5.3319 5.1357 1.5846
5.1490 5.3281 1.5846
4.9593 5.5141 1.5846
4.7630 5.6933 1.5846
4.5603 5.8656 1.5846
4.3513 6.0308 1.5846
4.1496 6.2083 1.5896
3.9284 6.3590 1.5896
3.7018 6.5018 1.5896
3.4699 6.6367 1.5896
3.2333 6.7633 1.5896
2.9920 6.8814 1.5896
2.7464 6.9911 1.5896
0.7815 2.2197 0.4975
0.7013 2.2455 0.4969
0.6203 2.2685 0.4962
0.5385 2.2887 0.4956
0.4562 2.3060 0.4950
0.3733 2.3204 0.4945
0.2900 2.3320 0.4939
0.2063 2.3407 0.4934
0.1224 2.3465 0.4929
0.0383 2.3494 0.4924
-0.0458 2.3493 0.4920
-0.1298 2.3464 0.4916
-0.2137 2.3406 0.4912
-0.2974 2.3318 0.4908
-0.3807 2.3202 0.4905
-0.4636 2.3057 0.4902
-0.5460 2.2884 0.4899
-0.6277 2.2682 0.4897
-0.7087 2.2451 0.4895
-0.7889 2.2193 0.4893
-3.0044 7.5809 1.6927
-3.2762 7.4741 1.6927
-3.5440 7.3575 1.6927
-3.8076 7.2311 1.6927
-4.0666 7.0952 1.6927
-4.3205 6.9497 1.6927
-4.5692 6.7949 1.6927
-4.8121 6.6311 1.6927
-5.0491 6.4584 1.6927
-5.2796 6.2771 1.6927
-5.5035 6.0873 1.6927
-5.7204 5.8894 1.6927
-5.9197 5.6737 1.6898
-5.9109 5.2729 1.6317
-5.9408 4.9296 1.5896
-6.1153 4.7156 1.5896
-6.2820 4.4953 1.5896
-6.4405 4.2689 1.5896
-6.5906 4.0369 1.5896
-6.7321 3.7994 1.5896
-6.8648 3.5568 1.5896
-6.9885 3.3095 1.5896
-7.1030 3.0578 1.5896
-7.2082 2.8020 1.5896
-7.3040 2.5425 1.5896
-7.3901 2.2797 1.5896
-7.4665 2.0139 1.5896
-7.5331 1.7455 1.5896
-7.5898 1.4748 1.5896
-7.6364 1.2023 1.5896
-7.6730 0.9282 1.5896
-7.6995 0.6531 1.5896
-7.7159 0.3773 1.5896
-7.7222 0.1011 1.5896
-7.7183 -0.1751 1.5896
-7.7042 -0.4508 1.5896
-7.6801 -0.7257 1.5896
4.2078 -5.1129 1.5896
4.3863 -4.9566 1.5896
4.5448 -4.7790 1.5846
4.7113 -4.6113 1.5846
4.8718 -4.4378 1.5846
5.0261 -4.2589 1.5846
5.1739 -4.0748 1.5846
5.3152 -3.8856 1.5846
5.4497 -3.6917 1.5846
5.5773 -3.4932 1.5846
5.6514 -3.2636 1.5716
5.6428 -2.9942 1.5386
5.7571 -2.7952 1.5417
6.0161 -2.6588 1.5846
6.1071 -2.4413 1.5846
6.1906 -2.2207 1.5846
6.2662 -1.9974 1.5846
6.3340 -1.7715 1.5846
6.3939 -1.5434 1.5846
6.4457 -1.3134 1.5846
6.4895 -1.0816 1.5846
6.5252 -0.8485 1.5846
6.5526 -0.6141 1.5846
6.5719 -0.3789 1.5846
6.5829 -0.1432 1.5846
6.5857 0.0929 1.5846
6.5802 0.3290 1.5846
6.5664 0.5649 1.5846
6.5444 0.8002 1.5846
6.5141 1.0346 1.5846
6.4756 1.2680 1.5846
6.4290 1.4999 1.5846
6.3741 1.7302 1.5846
6.3113 1.9585 1.5846
6.2403 2.1846 1.5846
6.1615 2.4082 1.5846
6.0748 2.6290 1.5846
5.9803 2.8467 1.5846
5.8782 3.0611 1.5846
5.7685 3.2719 1.5846
5.6514 3.4788 1.5846
5.5270 3.6816 1.5846
5.3954 3.8800 1.5846
5.2568 4.0738 1.5846
5.1113 4.2627 1.5846
4.9591 4.4465 1.5846
4.8004 4.6249 1.5846
4.6354 4.7978 1.5846
4.4642 4.9647 1.5846
4.2870 5.1257 1.5846
4.1172 5.2971 1.5896
3.9282 5.4458 1.5896
3.7339 5.5878 1.5896
3.5344 5.7229 1.5896
3.3302 5.8510 1.5896
3.1213 5.9717 1.5896
2.9081 6.0850 1.5896
2.6907 6.1908 1.5896
0.7765 1.9773 0.4998
0.7050 2.0032 0.4992
0.6326 2.0265 0.4986
0.5595 2.0473 0.4980
0.4858 2.0656 0.4974
0.4114 2.0812 0.4969
0.3366 2.0943 0.4964
0.2614 2.1048 0.4959
0.1859 2.1127 0.4954
0.1102 2.1179 0.4950
0.0343 2.1205 0.4946
-0.0416 2.1205 0.4942
-0.1174 2.1178 0.4938
-0.1931 2.1125 0.4934
-0.2687 2.1046 0.4931
-0.3439 2.0941 0.4928
-0.4187 2.0810 0.4926
-0.4930 2.0653 0.4923
-0.5667 2.0470 0.4921
-0.6398 2.0261 0.4919
-0.7122 2.0027 0.4918
-0.7837 1.9768 0.4916
-2.9421 6.7102 1.6927
-3.1823 6.6051 1.6927
-3.4187 6.4912 1.6927
-3.6509 6.3687 1.6927
-3.8786 6.2377 1.6927
-4.1016 6.0985 1.6927
-4.3193 5.9511 1.6927
-4.5317 5.7958 1.6927
-4.7384 5.6328 1.6927
-4.9390 5.4622 1.6927
-5.1334 5.2844 1.6927
-5.3212 5.0995 1.6927
-5.5022 4.9078 1.6927
-5.6761 4.7095 1.6927
-5.8426 4.5049 1.6927
-5.8760 4.2044 1.6573
-5.8721 3.8920 1.6155
-5.9126 3.6214 1.5896
-6.0443 3.4110 1.5909
-6.1584 3.1907 1.5896
-6.2693 2.9688 1.5896
-6.3719 2.7430 1.5896
-6.4663 2.5136 1.5896
-6.5521 2.2808 1.5896
-6.6294 2.0451 1.5896
-6.6980 1.8067 1.5896
-6.7577 1.5659 1.5896
-6.8087 1.3231 1.5896
-6.8506 1.0787 1.5896
-6.8836 0.8329 1.5896
-6.9075 0.5862 1.5896
-6.9224 0.3387 1.5896
-6.9282 0.0910 1.5896
-6.9249 -0.1567 1.5896
-6.9126 -0.4041 1.5896
-6.8912 -0.6508 1.5896
3.8257 -4.6494 1.5896
3.9882 -4.5074 1.5896
4.1456 -4.3598 1.5896
4.2977 -4.2069 1.5896
4.4443 -4.0488 1.5896
4.5706 -3.8734 1.5846
4.7052 -3.7060 1.5846
4.8338 -3.5340 1.5846
4.9563 -3.3577 1.5846
5.0725 -3.1772 1.5846
5.1823 -2.9928 1.5846
5.2855 -2.8047 1.5846
5.3820 -2.6132 1.5846
5.4718 -2.4183 1.5846
5.5547 -2.2205 1.5846
5.6306 -2.0198 1.5846
5.6994 -1.8167 1.5846
5.7610 -1.6112 1.5846
5.8155 -1.4038 1.5846
5.8626 -1.1945 1.5846
5.9023 -0.9836 1.5846
5.9347 -0.7715 1.5846
5.9596 -0.5584 1.5846
5.9770 -0.3444 1.5846
5.9869 -0.1299 1.5846
5.9893 0.0848 1.5846
5.9841 0.2995 1.5846
5.9714 0.5140 1.5846
5.9512 0.7280 1.5846
5.9235 0.9412 1.5846
5.8882 1.1534 1.5846
5.8456 1.3642 1.5846
5.7955 1.5736 1.5846
5.7380 1.7811 1.5846
5.6733 1.9866 1.5846
5.6013 2.1898 1.5846
5.5222 2.3904 1.5846
5.4361 2.5882 1.5846
5.3429 2.7830 1.5846
5.2429 2.9744 1.5846
5.1361 3.1624 1.5846
5.0227 3.3465 1.5846
4.9028 3.5266 1.5846
4.7765 3.7025 1.5846
4.6440 3.8740 1.5846
4.5055 4.0407 1.5846
4.3610 4.2025 1.5846
4.2152 4.3639 1.5863
4.0678 4.5250 1.5896
3.9061 4.6714 1.5896
3.7391 4.8120 1.5896
3.5672 4.9467 1.5896
3.3904 5.0752 1.5896
3.2090 5.1976 1.5896
3.0233 5.3134 1.5896
2.8334 5.4227 1.5896
0.8340 1.7458 0.5023
0.7707 1.7739 0.5017
0.7065 1.7998 0.5011
0.6414 1.8234 0.5005
0.5756 1.8447 0.5000
0.5090 1.8637 0.4995
0.4419 1.8803 0.4990
0.3743 1.8946 0.4985
0.3062 1.9066 0.4980
0.2377 1.9161 0.4976
0.1690 1.9233 0.4971
0.1001 1.9281 0.4967
0.0310 1.9305 0.4963
-0.0381 1.9304 0.4960
-0.1071 1.9280 0.4956
-0.1761 1.9232 0.4953
-0.2448 1.9160 0.4950
-0.3133 1.9064 0.4948
-0.3814 1.8944 0.4945
-0.4490 1.8800 0.4943
-0.5161 1.8633 0.4941
-0.5826 1.8443 0.4939
-0.6485 1.8230 0.4938
-0.7135 1.7993 0.4937
-0.7778 1.7734 0.4936
-2.8849 5.9864 1.6927
-3.0990 5.8828 1.6927
-3.3093 5.7715 1.6927
-3.5154 5.6525 1.6927
-3.7172 5.5261 1.6927
-3.9144 5.3923 1.6927
-4.1066 5.2513 1.6927
-4.2937 5.1034 1.6927
-4.4753 4.9487 1.6927
-4.6512 4.7874 1.6927
-4.8211 4.6197 1.6927
-4.9849 4.4459 1.6927
-5.1423 4.2662 1.6927
-5.2930 4.0808 1.6927
-5.4369 3.8899 1.6927
-5.5738 3.6939 1.6927
-5.7034 3.4930 1.6927
-5.8256 3.2874 1.6927
-5.8411 3.0262 1.6645
-5.8370 2.7640 1.6339
-5.8328 2.5108 1.6064
-5.8571 2.2768 1.5896
-5.9349 2.0660 1.5896
-6.0049 1.8525 1.5896
-6.0670 1.6365 1.5896
-6.1212 1.4185 1.5896
-6.1674 1.1986 1.5896
-6.2054 0.9773 1.5896
-6.2354 0.7547 1.5896
-6.2572 0.5312 1.5896
-6.2708 0.3071 1.5896
-6.2762 0.0827 1.5896
-6.2734 -0.1417 1.5896
-6.2624 -0.3658 1.5896
-6.2433 -0.5892 1.5896
3.5037 -4.2587 1.5896
3.6527 -4.1287 1.5896
3.7970 -3.9937 1.5896
3.9364 -3.8537 1.5896
4.0708 -3.7090 1.5896
4.2000 -3.5596 1.5896
4.3238 -3.4059 1.5896
4.4420 -3.2479 1.5896
4.5403 -3.0761 1.5846
4.6468 -2.9108 1.5846
4.7474 -2.7419 1.5846
4.8421 -2.5696 1.5846
4.9306 -2.3941 1.5846
5.0128 -2.2155 1.5846
5.0888 -2.0343 1.5846
5.1584 -1.8505 1.5846
5.2214 -1.6643 1.5846
5.2779 -1.4761 1.5846
5.3277 -1.2859 1.5846
5.3709 -1.0942 1.5846
5.4072 -0.9010 1.5846
5.4368 -0.7066 1.5846
5.4596 -0.5113 1.5846
5.4754 -0.3153 1.5846
5.4844 -0.1188 1.5846
5.4865 0.0779 1.5846
5.4816 0.2747 1.5846
5.4698 0.4711 1.5846
5.4511 0.6671 1.5846
5.4256 0.8624 1.5846
5.3931 1.0568 1.5846
5.3539 1.2499 1.5846
5.3078 1.4416 1.5846
5.2550 1.6317 1.5846
5.1955 1.8198 1.5846
5.1294 2.0058 1.5846
5.0567 2.1895 1.5846
4.9776 2.3705 1.5846
4.8921 2.5488 1.5846
4.8003 2.7240 1.5846
4.7023 2.8959 1.5846
4.5982 3.0644 1.5846
4.4882 3.2291 1.5846
4.3723 3.3900 1.5846
4.2508 3.5467 1.5846
4.1368 3.7109 1.5896
4.0038 3.8593 1.5896
3.8657 4.0030 1.5896
3.7224 4.1418 1.5896
3.5741 4.2755 1.5896
3.4211 4.4039 1.5896
3.2636 4.5269 1.5896
3.1016 4.6443 1.5896
2.9355 4.7559 1.5896
2.7653 4.8616 1.5896
0.8214 1.5725 0.5039
0.7643 1.6004 0.5033
0.7063 1.6262 0.5027
0.6474 1.6499 0.5022
0.5878 1.6716 0.5017
0.5274 1.6912 0.5012
0.4664 1.7086 0.5007
0.4049 1.7239 0.5002
0.3429 1.7371 0.4998
0.2805 1.7480 0.4994
0.2177 1.7568 0.4989
0.1547 1.7634 0.4986
0.0915 1.7678 0.4982
0.0282 1.7700 0.4978
-0.0351 1.7700 0.4975
-0.0985 1.7678 0.4972
-0.1617 1.7633 0.4969
-0.2247 1.7567 0.4966
-0.2874 1.7479 0.4964
-0.3498 1.7368 0.4962
-0.4119 1.7236 0.4960
-0.4734 1.7083 0.4958
-0.5343 1.6908 0.4956
-0.5947 1.6712 0.4955
-0.6543 1.6495 0.4954
-0.7132 1.6257 0.4953
-0.7712 1.5999 0.4952
-0.8283 1.5720 0.4952
-3.0232 5.2715 1.6927
-3.2113 5.1626 1.6927
-3.3955 5.0469 1.6927
-3.5754 4.9245 1.6927
-3.7508 4.7956 1.6927
-3.9215 4.6604 1.6927
-4.0872 4.5189 1.6927
-4.2476 4.3715 1.6927
-4.4027 4.2183 1.6927
-4.5521 4.0595 1.6927
-4.6957 3.8953 1.6927
-4.8332 3.7259 1.6927
-4.9644 3.5516 1.6927
-5.0893 3.3726 1.6927
-5.2075 3.1891 1.6927
-5.3190 3.0014 1.6927
-5.4236 2.8097 1.6927
-5.5211 2.6143 1.6927
-5.6114 2.4155 1.6927
-5.6944 2.2135 1.6927
-5.7700 2.0085 1.6927
-5.8109 1.7926 1.6848
-5.8106 1.5674 1.6675
-5.8100 1.3465 1.6526
-5.8093 1.1292 1.6400
-5.8092 0.9150 1.6299
-5.8087 0.7032 1.6219
-5.8080 0.4933 1.6160
-5.8141 0.2849 1.6142
-5.8349 0.0771 1.6185
-5.8557 -0.1320 1.6250
-5.8763 -0.3429 1.6335
-5.8968 -0.5562 1.6442
3.2284 -3.9246 1.5896
3.3658 -3.8050 1.5896
3.4989 -3.6806 1.5896
3.6275 -3.5517 1.5896
3.7514 -3.4183 1.5896
3.8705 -3.2807 1.5896
3.9847 -3.1391 1.5896
4.0938 -2.9935 1.5896
4.1977 -2.8442 1.5896
4.2963 -2.6914 1.5896
4.3894 -2.5352 1.5896
4.4627 -2.3684 1.5846
4.5444 -2.2066 1.5846
4.6202 -2.0421 1.5846
4.6903 -1.8750 1.5846
4.7544 -1.7056 1.5846
4.8125 -1.5340 1.5846
4.8646 -1.3604 1.5846
4.9105 -1.1852 1.5846
4.9502 -1.0084 1.5846
4.9837 -0.8303 1.5846
5.0109 -0.6511 1.5846
5.0318 -0.4711 1.5846
5.0464 -0.2904 1.5846
5.0546 -0.1093 1.5846
5.0564 0.0721 1.5846
5.0518 0.2534 1.5846
5.0409 0.4345 1.5846
5.0235 0.6151 1.5846
4.9998 0.7951 1.5846
4.9698 0.9742 1.5846
4.9335 1.1521 1.5846
4.8909 1.3288 1.5846
4.8421 1.5039 1.5846
4.7871 1.6772 1.5846
4.7260 1.8486 1.5846
4.6589 2.0177 1.5846
4.5858 2.1845 1.5846
4.5068 2.3486 1.5846
4.4220 2.5099 1.5846
4.3316 2.6682 1.5846
4.2489 2.8323 1.5896
4.1471 2.9844 1.5896
4.0398 3.1330 1.5896
3.9273 3.2777 1.5896
3.8097 3.4184 1.5896
3.6871 3.5549 1.5896
3.5596 3.6870 1.5896
3.4275 3.8146 1.5896
3.2908 3.9376 1.5896
3.1497 4.0556 1.5896
3.0045 4.1686 1.5896
2.8552 4.2765 1.5896
2.7021 4.3790 1.5896
0.8089 1.4226 0.5052
0.7572 1.4501 0.5047
0.7046 1.4758 0.5042
0.6511 1.4997 0.5036
0.5968 1.5216 0.5032
0.5418 1.5416 0.5027
0.4862 1.5597 0.5022
0.4300 1.5758 0.5018
0.3732 1.5900 0.5013
0.3160 1.6021 0.5009
0.2585 1.6123 0.5005
0.2006 1.6204 0.5001
0.1425 1.6265 0.4998
0.0842 1.6306 0.4994
0.0258 1.6326 0.4991
-0.0326 1.6326 0.4988
-0.0910 1.6305 0.4985
-0.1493 1.6264 0.4983
-0.2074 1.6203 0.4980
-0.2653 1.6121 0.4978
-0.3229 1.6019 0.4976
-0.3800 1.5897 0.4974
-0.4368 1.5755 0.4972
-0.4930 1.5594 0.4971
-0.5486 1.5413 0.4970
-0.6036 1.5212 0.4969
-0.6579 1.4992 0.4968
-0.7113 1.4753 0.4967
-0.7640 1.4496 0.4967
-0.8157 1.4220 0.4967
-2.9528 4.7460 1.6927
-3.1219 4.6394 1.6927
-3.2872 4.5268 1.6927
-3.4483 4.4082 1.6927
-3.6051 4.2837 1.6927
-3.7573 4.1536 1.6927
-3.9046 4.0180 1.6927
-4.0470 3.8771 1.6927
-4.1843 3.7311 1.6927
-4.3161 3.5801 1.6927
-4.4424 3.4244 1.6927
-4.5629 3.2641 1.6927
-4.6776 3.0996 1.6927
-4.7862 2.9309 1.6927
-4.8886 2.7584 1.6927
-4.9846 2.5822 1.6927
-5.0742 2.4026 1.6927
-5.1572 2.2199 1.6927
-5.2334 2.0342 1.6927
-5.3029 1.8459 1.6927
-5.3654 1.6552 1.6927
-5.4209 1.4624 1.6927
-5.4694 1.2676 1.6927
-5.5107 1.0712 1.6927
-5.5449 0.8735 1.6927
-5.5718 0.6747 1.6927
-5.5914 0.4751 1.6927
-5.6038 0.2748 1.6927
-5.6089 0.0744 1.6927
-5.6066 -0.1261 1.6928
-5.5971 -0.3264 1.6928
-5.5803 -0.5260 1.6928
2.9900 -3.6354 1.5896
3.1174 -3.5247 1.5896
3.2408 -3.4095 1.5896
3.3600 -3.2902 1.5896
3.4749 -3.1667 1.5896
3.5853 -3.0393 1.5896
3.6911 -2.9081 1.5896
3.7923 -2.7733 1.5896
3.8886 -2.6350 1.5896
3.9799 -2.4934 1.5896
4.0662 -2.3488 1.5896
4.1474 -2.2012 1.5896
4.2233 -2.0508 1.5896
4.2938 -1.8979 1.5896
4.3589 -1.7426 1.5896
4.4046 -1.5801 1.5846
4.4584 -1.4211 1.5846
4.5066 -1.2603 1.5846
4.5492 -1.0979 1.5846
4.5860 -0.9341 1.5846
4.6170 -0.7691 1.5846
4.6421 -0.6031 1.5846
4.6615 -0.4363 1.5846
4.6749 -0.2689 1.5846
4.6824 -0.1010 1.5846
4.6840 0.0670 1.5846
4.6797 0.2349 1.5846
4.6695 0.4027 1.5846
4.6533 0.5701 1.5846
4.6313 0.7368 1.5846
4.6033 0.9027 1.5846
4.5696 1.0675 1.5846
4.5300 1.2311 1.5846
4.4846 1.3933 1.5846
4.4336 1.5538 1.5846
4.3769 1.7125 1.5846
4.3146 1.8691 1.5846
4.2602 2.0299 1.5896
4.1867 2.1823 1.5896
4.1078 2.3321 1.5896
4.0236 2.4791 1.5896
3.9342 2.6231 1.5896
3.8397 2.7639 1.5896
3.7402 2.9013 1.5896
3.6359 3.0352 1.5896
3.5268 3.1653 1.5896
3.4132 3.2916 1.5896
3.2950 3.4138 1.5896
3.1725 3.5318 1.5896
3.0458 3.6455 1.5896
2.9151 3.7546 1.5896
2.7805 3.8590 1.5896
2.6422 3.9587 1.5896
0.7965 1.2912 0.5064
0.7495 1.3184 0.5059
0.7016 1.3440 0.5054
0.6528 1.3679 0.5049
0.6032 1.3900 0.5044
0.5530 1.4104 0.5040
0.5020 1.4290 0.5035
0.4505 1.4458 0.5031
0.3984 1.4607 0.5027
0.3458 1.4739 0.5023
0.2928 1.4852 0.5019
0.2394 1.4946 0.5015
0.1858 1.5021 0.5012
0.1319 1.5078 0.5008
0.0779 1.5116 0.5005
0.0237 1.5134 0.5002
-0.0304 1.5134 0.4999
-0.0846 1.5115 0.4997
-0.1386 1.5077 0.4994
-0.1925 1.5020 0.4992
-0.2461 1.4944 0.4990
-0.2995 1.4850 0.4988
-0.3525 1.4736 0.4986
-0.4051 1.4605 0.4985
-0.4571 1.4455 0.4983
-0.5087 1.4286 0.4982
-0.5596 1.4100 0.4981
-0.6099 1.3896 0.4981
-0.6595 1.3674 0.4980
-0.7082 1.3435 0.4980
-0.7561 1.3179 0.4980
-0.8031 1.2906 0.4980
-2.8863 4.2885 1.6927
-3.0389 4.1842 1.6927
-3.1878 4.0744 1.6927
-3.3325 3.9593 1.6927
-3.4731 3.8390 1.6927
-3.6092 3.7136 1.6927
-3.7408 3.5833 1.6927
-3.8675 3.4482 1.6927
-3.9892 3.3086 1.6927
-4.1059 3.1647 1.6927
-4.2172 3.0165 1.6927
-4.3231 2.8645 1.6927
-4.4234 2.7086 1.6927
-4.5180 2.5491 1.6927
-4.6067 2.3863 1.6927
-4.6895 2.2203 1.6927
-4.7661 2.0515 1.6927
-4.8365 1.8799 1.6927
-4.9007 1.7059 1.6927
-4.9585 1.5297 1.6927
-5.0098 1.3515 1.6927
-5.0546 1.1716 1.6927
-5.0928 0.9901 1.6927
-5.1244 0.8074 1.6927
-5.1493 0.6237 1.6927
-5.1675 0.4392 1.6927
-5.1794 0.2542 1.6928
-5.1843 0.0690 1.6929
-5.1823 -0.1163 1.6929
-5.1736 -0.3014 1.6929
-5.1582 -0.4860 1.6929
2.7815 -3.3824 1.5896
2.9001 -3.2794 1.5896
3.0150 -3.1724 1.5896
3.1259 -3.0613 1.5896
3.2329 -2.9465 1.5896
3.3357 -2.8280 1.5896
3.4342 -2.7059 1.5896
3.5284 -2.5805 1.5896
3.6180 -2.4518 1.5896
3.7031 -2.3202 1.5896
3.7834 -2.1855 1.5896
3.8590 -2.0482 1.5896
3.9296 -1.9083 1.5896
3.9953 -1.7660 1.5896
4.0559 -1.6215 1.5896
4.1114 -1.4749 1.5896
4.1616 -1.3265 1.5896
4.2067 -1.1764 1.5896
4.2464 -1.0248 1.5896
4.2807 -0.8718 1.5896
4.3096 -0.7178 1.5896
4.3331 -0.5628 1.5896
4.3511 -0.4071 1.5896
4.3619 -0.2507 1.5890
4.3570 -0.0938 1.5847
4.3581 0.0625 1.5846
4.3541 0.2188 1.5846
4.3444 0.3749 1.5846
4.3371 0.5316 1.5874
4.3224 0.6879 1.5896
4.2963 0.8428 1.5896
4.2647 0.9966 1.5896
4.2276 1.1493 1.5896
4.1852 1.3006 1.5896
4.1375 1.4504 1.5896
4.0844 1.5985 1.5896
4.0261 1.7446 1.5896
3.9627 1.8886 1.5896
3.8942 2.0304 1.5896
3.8207 2.1697 1.5896
3.7422 2.3063 1.5896
3.6590 2.4402 1.5896
3.5709 2.5711 1.5896
3.4783 2.6988 1.5896
3.3811 2.8232 1.5896
3.2796 2.9441 1.5896
3.1737 3.0615 1.5896
3.0637 3.1750 1.5896
2.9497 3.2846 1.5896
2.8318 3.3902 1.5896
2.7101 3.4915 1.5896
0.8259 1.1465 0.5079
0.7840 1.1750 0.5074
0.7412 1.2019 0.5069
0.6974 1.2273 0.5065
0.6529 1.2511 0.5060
0.6075 1.2734 0.5055
0.5614 1.2940 0.5051
0.5146 1.3130 0.5047
0.4671 1.3303 0.5043
0.4192 1.3460 0.5039
0.3707 1.3599 0.5035
0.3217 1.3722 0.5031
0.2724 1.3827 0.5028
0.2227 1.3915 0.5024
0.1728 1.3985 0.5021
0.1226 1.4038 0.5018
0.0723 1.4073 0.5015
0.0219 1.4091 0.5012
-0.0285 1.4090 0.5009
-0.0789 1.4072 0.5007
-0.1292 1.4037 0.5005
-0.1794 1.3984 0.5002
-0.2293 1.3913 0.5000
-0.2790 1.3825 0.4999
-0.3283 1.3720 0.4997
-0.3773 1.3597 0.4996
-0.4258 1.3457 0.4994
-0.4738 1.3300 0.4993
-0.5212 1.3126 0.4993
-0.5680 1.2936 0.4992
-0.6141 1.2729 0.4991
-0.6594 1.2507 0.4991
-0.7040 1.2268 0.4991
-0.7477 1.2014 0.4991
-0.7906 1.1744 0.4991
-0.8324 1.1459 0.4992
-2.9608 3.7837 1.6927
-3.0951 3.6767 1.6927
-3.2256 3.5649 1.6927
-3.3519 3.4484 1.6927
-3.4740 3.3273 1.6927
-3.5916 3.2019 1.6927
-3.7046 3.0722 1.6927
-3.8128 2.9385 1.6927
-3.9161 2.8009 1.6927
-4.0144 2.6597 1.6927
-4.1075 2.5149 1.6927
-4.1953 2.3669 1.6927
-4.2776 2.2157 1.6927
-4.3544 2.0616 1.6927
-4.4255 1.9048 1.6927
-4.4909 1.7456 1.6927
-4.5505 1.5840 1.6927
-4.6041 1.4204 1.6927
-4.6518 1.2550 1.6927
-4.6934 1.0879 1.6927
-4.7289 0.9195 1.6927
-4.7583 0.7498 1.6927
-4.7814 0.5793 1.6927
-4.7984 0.4080 1.6927
-4.8096 0.2363 1.6929
-4.8145 0.0643 1.6930
-4.8127 -0.1078 1.6930
-4.8047 -0.2796 1.6930
-4.7904 -0.4510 1.6931
2.5974 -3.1589 1.5896
2.7082 -3.0628 1.5896
2.8155 -2.9629 1.5896
2.9192 -2.8592 1.5896
3.0191 -2.7520 1.5896
3.1152 -2.6413 1.5896
3.2073 -2.5273 1.5896
3.2953 -2.4102 1.5896
3.3790 -2.2901 1.5896
3.4585 -2.1671 1.5896
3.5336 -2.0414 1.5896
3.6042 -1.9131 1.5896
3.6702 -1.7824 1.5896
3.7316 -1.6495 1.5896
3.7882 -1.5145 1.5896
3.8400 -1.3776 1.5896
3.8870 -1.2389 1.5896
3.9290 -1.0987 1.5896
3.9661 -0.9571 1.5896
3.9981 -0.8142 1.5896
4.0251 -0.6703 1.5896
4.0470 -0.5255 1.5896
4.0638 -0.3801 1.5896
4.0754 -0.2341 1.5896
4.0819 -0.0877 1.5896
4.0832 0.0588 1.5896
4.0793 0.2052 1.5896
4.0703 0.3515 1.5896
4.0560 0.4974 1.5896
4.0367 0.6427 1.5896
4.0122 0.7874 1.5896
3.9826 0.9310 1.5896
3.9479 1.0736 1.5896
3.9082 1.2149 1.5896
3.8635 1.3548 1.5896
3.8139 1.4930 1.5896
3.7594 1.6294 1.5896
3.7001 1.7639 1.5896
3.6360 1.8962 1.5896
3.5672 2.0263 1.5896
3.4939 2.1538 1.5896
3.4160 2.2787 1.5896
3.3337 2.4009 1.5896
3.2471 2.5200 1.5896
3.1563 2.6361 1.5896
3.0614 2.7490 1.5896
2.9625 2.8584 1.5896
2.8597 2.9643 1.5896
2.7531 3.0666 1.5896
2.6430 3.1650 1.5896
0.8095 1.0432 0.5088
0.7714 1.0712 0.5083
0.7323 1.0978 0.5079
0.6923 1.1230 0.5074
0.6514 1.1467 0.5070
0.6098 1.1690 0.5065
0.5674 1.1898 0.5061
0.5243 1.2091 0.5057
0.4806 1.2269 0.5053
0.4363 1.2431 0.5049
0.3915 1.2578 0.5046
0.3462 1.2708 0.5042
0.3004 1.2823 0.5039
0.2543 1.2921 0.5035
0.2079 1.3003 0.5032
0.1612 1.3069 0.5029
0.1144 1.3119 0.5026
0.0674 1.3151 0.5023
0.0203 1.3168 0.5021
-0.0268 1.3168 0.5018
-0.0739 1.3151 0.5016
-0.1209 1.3118 0.5014
-0.1678 1.3068 0.5012
-0.2145 1.3002 0.5010
-0.2609 1.2919 0.5008
-0.3070 1.2821 0.5007
-0.3527 1.2706 0.5005
-0.3980 1.2575 0.5004
-0.4428 1.2428 0.5003
-0.4871 1.2265 0.5002
-0.5308 1.2087 0.5002
-0.5739 1.1894 0.5001
-0.6163 1.1686 0.5001
-0.6579 1.1462 0.5001
-0.6988 1.1224 0.5001
-0.7387 1.0972 0.5001
-0.7778 1.0706 0.5002
-0.8160 1.0426 0.5003
-2.8863 3.4281 1.6927
-3.0078 3.3238 1.6927
-3.1256 3.2151 1.6927
-3.2393 3.1022 1.6927
-3.3489 2.9852 1.6927
-3.4542 2.8643 1.6927
-3.5550 2.7396 1.6927
-3.6513 2.6113 1.6927
-3.7429 2.4796 1.6927
-3.8296 2.3446 1.6927
-3.9114 2.2066 1.6927
-3.9881 2.0657 1.6927
-4.0597 1.9220 1.6927
-4.1260 1.7759 1.6927
-4.1870 1.6274 1.6927
-4.2425 1.4768 1.6927
-4.2925 1.3243 1.6927
-4.3369 1.1701 1.6927
-4.3757 1.0143 1.6927
-4.4088 0.8573 1.6927
-4.4362 0.6992 1.6927
-4.4579 0.5402 1.6927
-4.4737 0.3806 1.6927
-4.4843 0.2205 1.6929
-4.4890 0.0601 1.6931
-4.4875 -0.1003 1.6932
-4.4801 -0.2605 1.6932
-4.4669 -0.4203 1.6932
2.4334 -2.9599 1.5896
2.5737 -2.9112 1.6125
2.6378 -2.7763 1.5896
2.7351 -2.6792 1.5896
2.8288 -2.5788 1.5896
2.9188 -2.4751 1.5896
3.0051 -2.3683 1.5896
3.0876 -2.2586 1.5896
3.1662 -2.1460 1.5896
3.2407 -2.0307 1.5896
3.3111 -1.9129 1.5896
3.3773 -1.7927 1.5896
3.4391 -1.6702 1.5896
3.4966 -1.5457 1.5896
3.5497 -1.4192 1.5896
3.5983 -1.2909 1.5896
3.6423 -1.1609 1.5896
3.6817 -1.0295 1.5896
3.7164 -0.8968 1.5896
3.7465 -0.7629 1.5896
3.7717 -0.6280 1.5896
3.7922 -0.4923 1.5896
3.8079 -0.3560 1.5896
3.8188 -0.2192 1.5896
3.8248 -0.0820 1.5896
3.8260 0.0552 1.5896
3.8223 0.1925 1.5896
3.8138 0.3296 1.5896
3.8004 0.4663 1.5896
3.7822 0.6025 1.5896
3.7592 0.7380 1.5896
3.7314 0.8726 1.5896
3.6989 1.0062 1.5896
3.6616 1.1386 1.5896
3.6196 1.2696 1.5896
3.5731 1.3991 1.5896
3.5219 1.5269 1.5896
3.4662 1.6529 1.5896
3.4061 1.7768 1.5896
3.3416 1.8986 1.5896
3.2728 2.0181 1.5896
3.1998 2.1350 1.5896
3.1226 2.2494 1.5896
3.0414 2.3610 1.5896
2.9563 2.4697 1.5896
2.8673 2.5753 1.5896
2.7745 2.6777 1.5896
2.6781 2.7769 1.5896
0.8272 0.9216 0.5100
0.7934 0.9503 0.5096
0.7586 0.9778 0.5091
0.7228 1.0041 0.5087
0.6862 1.0290 0.5083
0.6487 1.0527 0.5078
0.6105 1.0749 0.5074
0.5714 1.0959 0.5070
0.5317 1.1154 0.5066
0.4913 1.1335 0.5063
0.4504 1.1502 0.5059
0.4089 1.1654 0.5055
0.3668 1.1791 0.5052
0.3244 1.1914 0.5048
0.2815 1.2021 0.5045
0.2383 1.2114 0.5042
0.1948 1.2191 0.5039
0.1510 1.2253 0.5036
0.1071 1.2299 0.5033
0.0630 1.2330 0.5031
0.0188 1.2345 0.5028
-0.0253 1.2345 0.5026
-0.0695 1.2329 0.5024
-0.1136 1.2298 0.5022
-0.1575 1.2252 0.5020
-0.2012 1.2189 0.5018
-0.2447 1.2112 0.5017
-0.2880 1.2019 0.5015
-0.3308 1.1911 0.5014
-0.3733 1.1789 0.5013
-0.4153 1.1651 0.5012
-0.4568 1.1498 0.5011
-0.4978 1.1331 0.5011
-0.5381 1.1150 0.5010
-0.5779 1.0954 0.5010
-0.6169 1.0745 0.5010
-0.6551 1.0522 0.5010
-0.6926 1.0285 0.5010
-0.7292 1.0035 0.5011
-0.7649 0.9772 0.5011
-0.7997 0.9497 0.5012
-0.8336 0.9210 0.5013
-2.9247 3.0081 1.6927
-3.0311 2.9024 1.6927
-3.1335 2.7929 1.6927
-3.2320 2.6798 1.6927
-3.3263 2.5631 1.6927
-3.4163 2.4431 1.6927
-3.5020 2.3198 1.6927
-3.5831 2.1936 1.6927
-3.6596 2.0644 1.6927
-3.7313 1.9326 1.6927
-3.7983 1.7982 1.6927
-3.8603 1.6614 1.6927
-3.9173 1.5226 1.6927
-3.9692 1.3817 1.6927
-4.0160 1.2390 1.6927
-4.0576 1.0948 1.6927
-4.0939 0.9491 1.6927
-4.1249 0.8022 1.6927
-4.1505 0.6543 1.6927
-4.1708 0.5055 1.6927
-4.1858 0.3562 1.6928
-4.1956 0.2064 1.6929
-4.2000 0.0564 1.6931
-4.1989 -0.0936 1.6933
-4.1920 -0.2435 1.6933
-4.1797 -0.3930 1.6933
2.3171 -2.8189 1.6110
2.3839 -2.6969 1.5896
2.4785 -2.6090 1.5896
2.5885 -2.5360 1.6011
2.6580 -2.4234 1.5896
2.7426 -2.3260 1.5896
2.8238 -2.2256 1.5896
2.9014 -2.1225 1.5896
2.9752 -2.0167 1.5896
3.0453 -1.9084 1.5896
3.1114 -1.7977 1.5896
3.1736 -1.6847 1.5896
3.2318 -1.5696 1.5896
3.2859 -1.4526 1.5896
3.3358 -1.3337 1.5896
3.3814 -1.2131 1.5896
3.4228 -1.0909 1.5896
3.4598 -0.9674 1.5896
3.4924 -0.8427 1.5896
3.5207 -0.7168 1.5896
3.5444 -0.5901 1.5896
3.5636 -0.4626 1.5896
3.5784 -0.3344 1.5896
3.5886 -0.2058 1.5896
3.5942 -0.0769 1.5896
3.5953 0.0521 1.5896
3.5918 0.1811 1.5896
3.5837 0.3099 1.5896
3.5711 0.4384 1.5896
3.5540 0.5664 1.5896
3.5323 0.6937 1.5896
3.5061 0.8202 1.5896
3.4755 0.9457 1.5896
3.4404 1.0701 1.5896
3.4009 1.1932 1.5896
3.3571 1.3149 1.5896
3.3089 1.4350 1.5896
3.2566 1.5533 1.5896
3.2000 1.6697 1.5896
3.1393 1.7841 1.5896
3.0746 1.8963 1.5896
3.0059 2.0062 1.5896
2.9333 2.1136 1.5896
2.8570 2.2184 1.5896
2.7769 2.3204 1.5896
2.6932 2.4196 1.5896
2.6060 2.5158 1.5896
0.8081 0.8382 0.5107
0.7773 0.8663 0.5103
0.7455 0.8933 0.5099
0.7128 0.9192 0.5094
0.6793 0.9438 0.5090
0.6448 0.9673 0.5086
0.6096 0.9895 0.5082
0.5737 1.0105 0.5078
0.5370 1.0302 0.5075
0.4997 1.0486 0.5071
0.4617 1.0656 0.5067
0.4232 1.0813 0.5064
0.3842 1.0956 0.5061
0.3447 1.1086 0.5057
0.3048 1.1201 0.5054
0.2645 1.1302 0.5051
0.2238 1.1389 0.5048
0.1829 1.1462 0.5045
0.1418 1.1520 0.5042
0.1005 1.1563 0.5040
0.0591 1.1592 0.5037
0.0176 1.1607 0.5035
-0.0240 1.1607 0.5033
-0.0655 1.1592 0.5031
-0.1069 1.1563 0.5029
-0.1482 1.1519 0.5027
-0.1893 1.1460 0.5026
-0.2302 1.1387 0.5024
-0.2709 1.1300 0.5023
-0.3112 1.1199 0.5022
-0.3511 1.1083 0.5021
-0.3906 1.0953 0.5020
-0.4296 1.0810 0.5019
-0.4681 1.0653 0.5019
-0.5060 1.0482 0.5018
-0.5434 1.0298 0.5018
-0.5800 1.0101 0.5018
-0.6160 0.9891 0.5018
-0.6512 0.9668 0.5018
-0.6856 0.9433 0.5019
-0.7191 0.9186 0.5019
-0.7518 0.8927 0.5020
-0.7836 0.8657 0.5021
-0.8144 0.8375 0.5022
-2.8448 2.7237 1.6927
-2.9410 2.6210 1.6927
-3.0333 2.5148 1.6927
-3.1218 2.4053 1.6927
-3.2062 2.2926 1.6927
-3.2866 2.1769 1.6927
-3.3627 2.0585 1.6927
-3.4344 1.9372 1.6927
-3.5017 1.8135 1.6927
-3.5645 1.6874 1.6927
-3.6227 1.5591 1.6927
-3.6762 1.4288 1.6927
-3.7249 1.2966 1.6927
-3.7688 1.1628 1.6927
-3.8078 1.0274 1.6927
-3.8419 0.8907 1.6927
-3.8710 0.7529 1.6927
-3.8951 0.6141 1.6927
-3.9141 0.4746 1.6927
-3.9283 0.3344 1.6928
-3.9375 0.1939 1.6930
-3.9417 0.0531 1.6931
-3.9407 -0.0877 1.6933
-3.9344 -0.2283 1.6934
-3.9229 -0.3686 1.6934
2.2931 -2.7902 1.6927
2.3117 -2.6156 1.6365
2.3346 -2.4579 1.5896
2.4208 -2.3719 1.5896
2.5038 -2.2831 1.5896
2.5968 -2.2025 1.5977
2.6601 -2.0968 1.5896
2.7331 -1.9996 1.5896
2.8028 -1.9000 1.5896
2.8688 -1.7979 1.5896
2.9311 -1.6936 1.5896
2.9898 -1.5872 1.5896
3.0446 -1.4788 1.5896
3.0955 -1.3685 1.5896
3.1426 -1.2564 1.5896
3.1856 -1.1428 1.5896
3.2245 -1.0277 1.5896
3.2594 -0.9114 1.5896
3.2902 -0.7938 1.5896
3.3167 -0.6753 1.5896
3.3391 -0.5558 1.5896
3.3572 -0.4357 1.5896
3.3711 -0.3149 1.5896
3.3806 -0.1938 1.5896
3.3859 -0.0723 1.5896
3.3869 0.0493 1.5896
3.3836 0.1708 1.5896
3.3760 0.2922 1.5896
3.3640 0.4132 1.5896
3.3478 0.5338 1.5896
3.3274 0.6537 1.5896
3.3027 0.7729 1.5896
3.2737 0.8911 1.5896
3.2406 1.0083 1.5896
3.2034 1.1243 1.5896
3.1621 1.2389 1.5896
3.1167 1.3520 1.5896
3.0673 1.4634 1.5896
3.0139 1.5731 1.5896
2.9567 1.6808 1.5896
2.8957 1.7864 1.5896
2.8309 1.8899 1.5896
2.7625 1.9910 1.5896
2.6905 2.0897 1.5896
2.6150 2.1858 1.5896
0.8164 0.7337 0.5117
0.7893 0.7622 0.5113
0.7613 0.7898 0.5109
0.7323 0.8163 0.5105
0.7023 0.8418 0.5101
0.6715 0.8662 0.5097
0.6399 0.8894 0.5093
0.6075 0.9116 0.5090
0.5743 0.9325 0.5086
0.5404 0.9523 0.5082
0.5059 0.9709 0.5079
0.4707 0.9882 0.5075
0.4350 1.0043 0.5072
0.3987 1.0191 0.5068
0.3619 1.0326 0.5065
