ply
format ascii 1.0
element vertex 2113
property float32 x
property float32 y
property float32 z
end_header
7.2203 -27.8249 -3.9704
8.5991 -28.8242 -4.1924
4.7865 -14.1606 -2.1020
5.2282 -13.8059 -2.0942
5.6627 -13.4667 -2.0902
6.0312 -13.0094 -2.0689
18.7254 -36.8476 -6.0123
20.6087 -37.1704 -6.2319
23.7230 -39.3685 -6.7922
14.3556 -20.3443 -3.7347
15.6801 -20.6008 -3.9110
14.3656 -17.5235 -3.4468
16.7461 -18.9857 -3.8766
25.8156 -27.2203 -5.7818
26.7620 -26.2508 -5.8134
35.5971 -32.4790 -7.5174
45.6772 -9.1227 -7.6997
44.7097 -7.2581 -7.4999
44.7879 -5.6159 -7.4844
44.1852 -3.9224 -7.3633
41.9625 -0.6774 -6.9759
43.3962 0.8706 -7.2166
46.3102 2.6081 -7.7116
15.0547 23.2668 -4.1804
-19.0293 -11.1841 -1.6804
-18.3257 -11.6753 -1.6679
-17.6427 -12.1520 -1.6587
-15.7487 -11.7028 -1.5331
-15.1466 -12.1231 -1.5303
-14.5571 -12.5346 -1.5303
-13.9782 -12.9386 -1.5329
-13.4084 -13.3364 -1.5381
-12.8458 -13.7290 -1.5458
-12.2890 -14.1177 -1.5561
-11.7365 -14.5034 -1.5688
-11.1867 -14.8871 -1.5841
-10.6383 -15.2699 -1.6019
-10.0899 -15.6528 -1.6223
-9.5299 -16.0199 -1.6437
-8.9776 -16.4054 -1.6694
-6.4161 -35.8273 -3.6381
-5.0372 -35.4263 -3.6217
-3.3163 -31.3853 -3.2343
-2.0678 -29.7919 -3.0985
-0.9392 -28.1749 -2.9610
0.0706 -26.5343 -2.8210
0.9759 -25.2375 -2.7176
1.9304 -25.8147 -2.8187
2.9466 -26.5241 -2.9400
4.0278 -27.2700 -3.0721
4.8258 -26.1267 -2.9948
5.9926 -26.9679 -3.1490
7.2489 -27.8448 -3.3161
8.6300 -28.8458 -3.5077
4.7397 -13.9866 -1.7388
5.1489 -13.5654 -1.7261
5.3778 -12.7621 -1.6643
5.9187 -12.7419 -1.7052
18.6761 -36.6842 -5.0447
20.2928 -36.5387 -5.1704
23.8018 -39.4362 -5.7506
14.5257 -20.5559 -3.1979
15.1451 -19.8708 -3.2009
14.3686 -17.5042 -2.9249
16.7034 -18.9134 -3.2845
25.6043 -26.9649 -4.8767
26.6024 -26.0637 -4.9197
35.4647 -32.3216 -6.3827
46.8670 -7.6007 -6.7670
45.2603 -5.6692 -6.5115
44.1130 -3.9116 -6.3300
41.8859 -0.6744 -5.9971
46.1222 0.9258 -6.6061
15.0729 23.2613 -3.5451
4.5306 7.5775 -1.1197
-19.0402 -11.2003 -1.1822
-18.3357 -11.6921 -1.1774
-17.6518 -12.1695 -1.1752
-15.7410 -11.7081 -1.0891
-15.4760 -12.3989 -1.1157
-15.0339 -12.9583 -1.1321
-14.3534 -13.2999 -1.1321
-13.6655 -13.6070 -1.1321
-12.8370 -13.7352 -1.1203
-12.2800 -14.1240 -1.1324
-11.7272 -14.5099 -1.1465
-11.1772 -14.8938 -1.1626
-10.6286 -15.2767 -1.1806
-10.0798 -15.6598 -1.2007
-9.5296 -16.0439 -1.2229
-8.9764 -16.4300 -1.2473
-8.3114 -38.5425 -2.9976
-6.3772 -35.7716 -2.8077
-5.0112 -35.4444 -2.8109
-3.2866 -31.3429 -2.5145
-1.9709 -28.7261 -2.3339
-0.9155 -28.1410 -2.3180
0.0918 -26.5040 -2.2159
0.9951 -25.2100 -2.1416
1.9524 -25.8301 -2.2319
2.9699 -26.5403 -2.3352
4.0461 -27.2437 -2.4434
4.8427 -26.1025 -2.3888
5.9517 -26.6843 -2.4946
7.0805 -27.1111 -2.5919
8.6041 -28.6780 -2.8068
10.0969 -29.7200 -2.9811
5.1614 -13.5673 -1.3964
5.5799 -13.2139 -1.3971
16.8667 -36.2408 -3.9410
18.6955 -36.6564 -4.1050
20.6205 -37.0663 -4.2803
23.7105 -39.2228 -4.6769
14.4770 -20.4579 -2.6124
15.2359 -19.9628 -2.6443
14.3720 -17.4855 -2.4067
24.0167 -27.1604 -3.8915
25.9199 -27.2643 -4.0746
26.5320 -25.9646 -4.0559
47.9648 -7.7711 -5.8122
45.0682 -3.9918 -5.4305
45.6211 -0.7328 -5.4865
15.1002 23.2698 -2.9149
4.5251 7.5566 -0.9162
-19.3732 -11.4061 -0.6960
-21.4256 -13.6747 -0.8028
-15.7333 -11.7135 -0.6464
-15.4952 -12.4264 -0.6693
-24.8620 -21.4511 -1.1321
-20.9246 -19.4090 -1.0072
-20.0699 -20.0056 -1.0241
-12.8283 -13.7413 -0.6960
-12.5883 -14.4956 -0.7284
-18.2575 -22.6175 -1.1302
-19.1737 -25.5822 -1.2743
-15.8073 -22.7512 -1.1321
-14.6101 -22.7305 -1.1321
-12.0084 -20.2481 -1.0112
-8.9658 -16.4374 -0.8246
-8.2663 -38.4779 -2.1026
-6.3386 -35.7162 -1.9830
-4.9854 -35.4625 -2.0024
-3.2666 -31.3907 -1.8044
-2.0062 -29.5851 -1.7329
-0.8881 -27.9832 -1.6717
0.1131 -26.5490 -1.6190
1.0170 -25.2540 -1.5735
1.9762 -25.8705 -1.6483
2.9960 -26.5823 -1.7335
4.0643 -27.2177 -1.8182
4.8706 -26.1380 -1.7903
6.0155 -26.8711 -1.8888
7.2696 -27.7465 -2.0033
8.6347 -28.6993 -2.1303
10.1302 -29.7433 -2.2721
11.7803 -30.8951 -2.4311
5.7003 -13.4712 -1.0931
16.9148 -36.2743 -3.0382
18.7839 -36.7638 -3.1820
20.6925 -37.1336 -3.3252
23.9322 -39.5273 -3.6665
15.2396 -19.9407 -2.0727
14.3834 -17.4768 -1.8926
24.7846 -27.9940 -3.1637
25.8199 -27.1266 -3.2052
34.6447 -33.8645 -4.1920
4.5245 7.5442 -0.7153
-19.3849 -11.4229 -0.1897
-21.4164 -13.6811 -0.2302
-15.7256 -11.7189 -0.2045
-15.5145 -12.4540 -0.2222
-29.2177 -25.2347 -0.4613
-20.9121 -19.4177 -0.3642
-20.0571 -20.0145 -0.3857
-12.8195 -13.7474 -0.2724
-12.6493 -14.5830 -0.2975
-18.4024 -22.8251 -0.4795
-11.9954 -20.2572 -0.4808
-8.9552 -16.4448 -0.4027
-8.4965 -39.6988 -1.2535
-7.1080 -40.2336 -1.3121
-5.4445 -38.9499 -1.3121
-3.2372 -31.3487 -1.0910
-2.3682 -35.3383 -1.2708
-0.8671 -28.0252 -1.0416
0.1726 -34.1355 -1.3114
1.0360 -25.2268 -1.0021
2.4653 -31.9385 -1.3121
3.5043 -30.8723 -1.3121
4.1074 -27.3581 -1.2033
4.8874 -26.1139 -1.1891
6.2516 -27.8235 -1.3121
7.3054 -27.7953 -1.3581
8.6743 -28.7508 -1.4563
10.1741 -29.7977 -1.5654
11.8290 -30.9529 -1.6876
15.0451 -35.4814 -2.0089
16.9628 -36.3079 -2.1362
18.7341 -36.6012 -2.2396
20.3496 -36.4573 -2.3219
23.8400 -39.3132 -2.6084
15.1602 -19.8101 -1.4957
14.3940 -17.4672 -1.3803
25.1062 -28.3222 -2.3459
25.8295 -27.1044 -2.3569
34.4125 -33.5987 -3.0726
35.8148 -32.5309 -3.1348
4.5275 7.5378 -0.5161
-18.6739 -11.0135 0.3054
-17.9813 -11.4969 0.2873
-15.9855 -11.0511 0.2486
-15.3812 -11.4730 0.2320
-14.7911 -11.8849 0.2153
-14.2134 -12.2882 0.1985
-13.6461 -12.6841 0.1817
-13.0876 -13.0740 0.1647
-12.5362 -13.4588 0.1475
-11.9905 -13.8398 0.1301
-11.4489 -14.2179 0.1124
-10.9099 -14.5940 0.0945
-10.3723 -14.9693 0.0761
-9.8345 -15.3447 0.0574
-9.2952 -15.7212 0.0382
-8.7530 -16.0997 0.0185
-8.2063 -16.4812 -0.0018
-8.4687 -39.7182 -0.3395
-3.2080 -31.3068 -0.3808
-2.3372 -35.2939 -0.4726
-0.8453 -28.0404 -0.4103
0.1998 -34.1545 -0.5429
1.0561 -25.2283 -0.4334
2.8054 -35.9733 -0.6651
5.6684 -49.5863 -0.9833
4.1321 -27.3753 -0.5804
4.9105 -26.1236 -0.5907
6.7145 -29.7752 -0.7166
7.5391 -28.5940 -0.7310
12.0738 -39.9075 -1.0821
11.0147 -32.1796 -0.9243
11.8655 -30.9783 -0.9416
15.0843 -35.5006 -1.1409
17.0275 -36.3768 -1.2353
18.7756 -36.6172 -1.3133
20.8115 -37.2230 -1.4097
23.9298 -39.3996 -1.5754
15.2675 -19.9236 -0.9386
14.4057 -17.4590 -0.8696
25.8206 -27.0628 -1.5102
34.2770 -33.4280 -1.9778
35.6551 -32.3498 -2.0323
19.3477 12.1536 -1.0835
18.6242 12.6573 -1.0530
4.5305 7.5314 -0.3175
-18.6665 -11.0187 0.7938
-17.9736 -11.5023 0.7680
-15.9782 -11.0562 0.6864
-15.3737 -11.4782 0.6642
-14.7834 -11.8903 0.6426
-14.2055 -12.2937 0.6217
-13.6380 -12.6898 0.6013
-13.0792 -13.0798 0.5813
-12.5277 -13.4648 0.5617
-11.9817 -13.8459 0.5425
-11.4399 -14.2241 0.5235
-10.9007 -14.6005 0.5048
-10.3628 -14.9760 0.4862
-9.8247 -15.3515 0.4678
-9.2851 -15.7282 0.4494
-8.7426 -16.1069 0.4311
-11.9696 -24.0812 0.6028
-11.2080 -24.7458 0.5783
-10.3144 -25.1438 0.5474
-7.8673 -27.2269 0.4701
-7.9884 -37.6080 0.5440
-6.1137 -34.9222 0.4577
-4.5079 -32.6217 0.3841
-3.1137 -30.6244 0.3204
-1.8889 -28.8697 0.2647
-0.8017 -27.3122 0.2154
0.1722 -25.9170 0.1714
1.0574 -24.7866 0.1326
2.0049 -25.4480 0.1040
3.0102 -26.1497 0.0739
3.9989 -26.3521 0.0412
4.8292 -25.5805 0.0074
5.9697 -26.3767 -0.0261
7.2042 -27.2383 -0.0622
8.5483 -28.1765 -0.1013
10.0212 -29.2047 -0.1439
11.6469 -30.3394 -0.1907
15.1036 -35.4730 -0.2723
18.7947 -36.5898 -0.3865
15.2550 -19.8807 -0.3726
14.4259 -17.4609 -0.3598
34.8654 -33.9628 -0.9139
16.1484 24.7434 -0.4330
4.5335 7.5250 -0.1195
5.5011 24.7999 -0.0810
-18.6590 -11.0239 1.2828
-17.9660 -11.5076 1.2494
-15.9709 -11.0613 1.1246
-15.3662 -11.4835 1.0969
-14.7757 -11.8957 1.0705
-14.1975 -12.2992 1.0454
-13.6298 -12.6955 1.0214
-13.0709 -13.0856 0.9984
-12.5191 -13.4708 0.9764
-11.9729 -13.8521 0.9554
-11.4308 -14.2304 0.9351
-10.8914 -14.6070 0.9156
-10.3532 -14.9826 0.8968
-9.8149 -15.3584 0.8787
-9.2751 -15.7352 0.8611
-8.7322 -16.1141 0.8442
-11.9966 -24.1781 1.2133
-11.1120 -24.5804 1.1821
-10.2096 -24.9398 1.1500
-9.3376 -25.3794 1.1224
-12.6696 -38.6792 1.6410
-7.6649 -26.6018 1.0829
-10.2989 -41.2738 1.6122
-7.9449 -37.5457 1.4073
-6.0764 -34.8688 1.2541
-4.4755 -32.5753 1.1240
-3.0853 -30.5836 1.0121
-1.8636 -28.8335 0.9149
-0.7791 -27.2798 0.8296
0.1926 -25.8878 0.7541
1.0777 -24.8008 0.6915
2.0264 -25.4630 0.6791
0.9892 -8.5334 0.2175
4.0164 -26.3272 0.6406
4.8532 -25.5973 0.5939
5.9955 -26.3946 0.5831
7.2319 -27.2577 0.5725
8.5782 -28.1974 0.5620
10.0538 -29.2274 0.5516
11.6826 -30.3644 0.5414
14.9780 -35.1057 0.5896
16.8145 -35.7856 0.5643
18.5078 -35.9676 0.5304
20.4766 -36.5029 0.5012
23.5443 -38.6443 0.4913
15.2667 -19.8692 0.1916
14.4460 -17.4629 0.1502
45.4861 -7.3335 -0.2973
44.1708 -5.4989 -0.2971
43.7242 -3.8513 -0.3008
43.3488 -2.2500 -0.3032
42.7410 -0.6779 -0.3023
42.5176 0.8563 -0.3025
42.7118 2.4002 -0.3041
45.2630 4.1821 -0.3208
47.4794 9.6309 -0.3213
30.0318 10.7625 -0.1735
29.0268 11.5974 -0.1572
20.5648 10.9187 -0.0825
4.5365 7.5186 0.0782
-16.9480 -10.0217 1.6110
-16.7045 -10.7093 1.6110
-15.9636 -11.0664 1.5639
-15.3586 -11.4887 1.5306
-14.7679 -11.9011 1.4994
-14.1896 -12.3048 1.4700
-13.6217 -12.7012 1.4424
-13.0625 -13.0915 1.4165
-12.5105 -13.4768 1.3921
-11.9641 -13.8582 1.3691
-11.4218 -14.2368 1.3476
-10.8821 -14.6135 1.3273
-10.3437 -14.9893 1.3083
-9.8051 -15.3652 1.2905
-9.2650 -15.7423 1.2738
-8.7219 -16.1214 1.2582
-10.7846 -21.7736 1.6410
-10.1639 -22.5260 1.6410
-9.5112 -23.2819 1.6410
-8.8251 -24.0412 1.6410
-8.1041 -24.8038 1.6410
-7.3465 -25.5695 1.6410
-6.5506 -26.3379 1.6410
-5.7145 -27.1087 1.6410
-4.8364 -27.8815 1.6410
-3.8456 -28.1539 1.6122
-2.8940 -28.9156 1.6122
-1.8384 -28.7974 1.5644
-0.7566 -27.2475 1.4432
0.2129 -25.8587 1.3362
1.0981 -24.8150 1.2519
2.0480 -25.4781 1.2557
0.9933 -8.5103 0.4100
4.0338 -26.3023 1.2398
4.8772 -25.6140 1.1820
6.0212 -26.4126 1.1940
7.2597 -27.2771 1.2090
8.6083 -28.2184 1.2272
10.0866 -29.2503 1.2492
11.7185 -30.3894 1.2757
5.6495 -13.2144 0.5457
16.8620 -35.8188 1.4567
18.5267 -35.9408 1.4410
20.5324 -36.5419 1.4460
23.6083 -38.6889 1.5128
27.5076 -41.6342 1.6110
15.2785 -19.8580 0.7558
25.4986 -26.6304 1.0025
29.9239 -29.0824 1.0957
23.8107 -8.4104 0.4507
24.3558 -7.6295 0.4442
24.9134 -6.8307 0.4393
25.4854 -6.0112 0.4359
26.0741 -5.1679 0.4342
26.6816 -4.2976 0.4343
27.3106 -3.3964 0.4361
27.9640 -2.4604 0.4399
28.6450 -1.4848 0.4457
29.3573 -0.4644 0.4536
30.1049 0.6067 0.4640
30.8929 1.7355 0.4769
31.7267 2.9300 0.4927
32.6127 4.1993 0.5117
33.5586 5.5544 0.5341
34.5735 7.0083 0.5605
35.6679 8.5762 0.5914
36.8549 10.2767 0.6274
38.1503 12.1325 0.6693
37.8956 13.5703 0.6876
36.4751 14.5619 0.6870
35.1203 15.5075 0.6888
33.8235 16.4127 0.6931
32.5778 17.2823 0.6997
31.3772 18.1203 0.7083
30.2164 18.9306 0.7191
29.0906 19.7164 0.7318
27.9953 20.4809 0.7464
26.9268 21.2268 0.7629
25.8812 21.9567 0.7813
24.8553 22.6727 0.8016
23.8459 23.3773 0.8237
22.8501 24.0724 0.8477
21.8651 24.7600 0.8737
20.9981 25.5758 0.9062
4.5394 7.5122 0.2759
22.0242 43.1841 1.6292
20.5616 44.1728 1.6922
17.6212 41.7148 1.6245
15.2623 40.0955 1.5890
13.3838 39.3636 1.5890
11.5962 38.6101 1.5890
7.4441 28.4642 1.1953
8.3707 37.4642 1.6066
6.8163 36.6578 1.6066
5.3389 35.8423 1.6066
3.9347 35.0197 1.6066
2.6004 34.1922 1.6066
1.3325 33.3613 1.6066
0.1281 32.5287 1.6066
-1.0162 31.6955 1.6066
-13.2624 -7.8492 1.6110
-13.0497 -8.3737 1.6110
-12.8223 -8.8970 1.6110
-12.5799 -9.4192 1.6110
-12.3222 -9.9399 1.6110
-12.0490 -10.4591 1.6110
-11.7598 -10.9767 1.6110
-11.4545 -11.4924 1.6110
-11.1326 -12.0061 1.6110
-10.7939 -12.5176 1.6110
-10.4379 -13.0266 1.6110
-10.0643 -13.5329 1.6110
-9.6727 -14.0361 1.6110
-9.2625 -14.5361 1.6110
-8.8336 -15.0324 1.6110
-8.3852 -15.5246 1.6110
-7.9171 -16.0125 1.6110
-7.4287 -16.4955 1.6110
-6.9195 -16.9732 1.6110
-6.3891 -17.4449 1.6110
-5.8370 -17.9103 1.6110
-5.2625 -18.3687 1.6110
-4.6653 -18.8193 1.6110
-4.0448 -19.2615 1.6110
-3.4004 -19.6945 1.6110
-2.7318 -20.1175 1.6110
-2.0383 -20.5295 1.6110
-1.3195 -20.9297 1.6110
-0.5749 -21.3168 1.6110
0.1959 -21.6899 1.6110
0.9933 -22.0478 1.6110
1.8176 -22.3891 1.6110
0.9982 -8.4937 0.6024
3.5485 -23.0166 1.6110
4.4555 -23.2997 1.6110
5.3904 -23.5603 1.6110
6.3532 -23.7966 1.6110
7.3437 -24.0068 1.6110
8.3618 -24.1890 1.6110
5.0485 -13.0629 0.8645
5.3921 -12.5863 0.8289
5.9293 -12.5713 0.8250
12.7010 -24.5958 1.6110
13.8486 -24.6058 1.6110
14.8442 -24.2886 1.5922
16.0220 -24.2143 1.5922
17.2191 -24.0944 1.5922
15.1433 -19.6560 1.3080
14.3747 -17.3323 1.1640
20.8605 -23.3881 1.5890
22.1077 -23.0615 1.5890
24.6685 -23.9473 1.6779
26.2145 -23.6788 1.6922
27.5479 -23.1409 1.6922
28.8739 -22.5357 1.6922
30.1873 -21.8617 1.6922
31.4826 -21.1178 1.6922
32.7538 -20.3030 1.6922
31.9237 -18.2341 1.5891
33.0547 -17.3355 1.5891
34.1447 -16.3707 1.5891
35.0695 -15.2895 1.5838
33.7415 -13.2889 1.4821
23.8151 -8.4041 1.0199
20.7394 -6.4907 0.8680
18.8278 -5.1574 0.7719
25.4888 -6.0064 1.0262
15.9557 -3.1594 0.6323
14.9007 -2.3977 0.5827
13.9042 -1.7274 0.5378
27.9658 -2.4578 1.0726
28.6463 -1.4829 1.0921
29.3580 -0.4633 1.1154
30.1052 0.6070 1.1426
30.8925 1.7350 1.1743
31.7256 2.9284 1.2108
32.6108 4.1966 1.2526
33.5558 5.5504 1.3006
26.6156 5.3915 1.0435
35.5333 8.5378 1.4127
35.2007 9.8083 1.4227
26.0995 8.2939 1.0750
34.6815 12.4099 1.4594
33.9544 13.5449 1.4633
33.1990 14.6474 1.4689
32.3104 15.6656 1.4713
31.3221 16.6022 1.4716
30.2843 17.4741 1.4716
29.2083 18.2828 1.4716
28.1001 19.0278 1.4716
26.8639 19.6348 1.4660
25.6590 20.2079 1.4630
25.2296 21.3824 1.5069
24.8699 22.6626 1.5602
23.8609 23.3669 1.5767
15.7515 16.5756 1.0996
15.7419 17.8053 1.1644
20.2087 24.5844 1.5891
18.9442 24.8129 1.5891
17.6929 24.9873 1.5891
16.4578 25.1103 1.5891
4.5424 7.5058 0.4736
14.9568 26.8480 1.6922
13.7076 26.8311 1.6922
12.4843 26.7705 1.6922
11.2881 26.6687 1.6922
10.1203 26.5285 1.6922
8.9817 26.3521 1.6922
7.8731 26.1422 1.6922
6.7949 25.9009 1.6922
5.4447 24.2804 1.6031
4.4423 23.7876 1.5890
3.5170 23.4851 1.5890
2.6208 23.1609 1.5890
1.7535 22.8168 1.5890
0.9148 22.4560 1.5891
0.1045 22.0771 1.5891
-0.6779 21.6821 1.5891
-10.8918 -6.4519 1.6122
-10.6975 -6.8705 1.6110
-10.4983 -7.2912 1.6110
-10.2867 -7.7095 1.6110
-10.0624 -8.1250 1.6110
-9.8250 -8.5373 1.6110
-9.5746 -8.9464 1.6110
-9.3109 -9.3519 1.6110
-9.0337 -9.7537 1.6110
-8.7430 -10.1513 1.6110
-8.4385 -10.5445 1.6110
-8.1202 -10.9330 1.6110
-7.7877 -11.3164 1.6110
-7.4410 -11.6944 1.6110
-7.0798 -12.0667 1.6110
-6.7041 -12.4328 1.6110
-6.3136 -12.7922 1.6110
-5.9082 -13.1445 1.6110
-5.4878 -13.4894 1.6110
-5.0521 -13.8261 1.6110
-4.6011 -14.1543 1.6110
-4.1346 -14.4733 1.6110
-3.6525 -14.7825 1.6110
-3.1547 -15.0814 1.6110
-2.6412 -15.3692 1.6110
-2.1119 -15.6453 1.6110
-1.5668 -15.9089 1.6110
-1.0058 -16.1592 1.6110
-0.4291 -16.3956 1.6110
0.1633 -16.6171 1.6110
0.7713 -16.8228 1.6110
1.3948 -17.0119 1.6110
1.0045 -8.4887 0.7958
2.6869 -17.3364 1.6110
3.3550 -17.4698 1.6110
4.0373 -17.5826 1.6110
4.6782 -17.4681 1.5922
5.3790 -17.5358 1.5922
6.0922 -17.5800 1.5922
6.8170 -17.5995 1.5922
5.4674 -12.7358 1.1526
6.0898 -12.8871 1.1685
9.0339 -17.4634 1.5890
9.7944 -17.3736 1.5890
10.5612 -17.2536 1.5890
9.9342 -14.9915 1.3928
12.1085 -16.9194 1.5890
12.8858 -16.7033 1.5890
13.6632 -16.4532 1.5890
15.3771 -17.2190 1.6922
16.1991 -16.8779 1.6922
17.0149 -16.4984 1.6922
17.8220 -16.0801 1.6922
18.6178 -15.6224 1.6922
19.3998 -15.1253 1.6922
20.1653 -14.5887 1.6922
20.9113 -14.0127 1.6922
21.6351 -13.3976 1.6922
22.3337 -12.7441 1.6922
21.6028 -11.3187 1.5891
22.2032 -10.6353 1.5891
22.7718 -9.9187 1.5891
23.3057 -9.1703 1.5891
23.2969 -8.2136 1.5554
20.7429 -6.4857 1.3588
18.8306 -5.1534 1.2128
17.2461 -4.0602 1.0943
15.9497 -3.1552 0.9991
14.8870 -2.3931 0.9225
13.9011 -1.7253 0.8539
13.0850 -1.1487 0.7984
12.3437 -0.6381 0.7497
11.6932 -0.1841 0.7083
11.1388 0.2247 0.6743
24.0271 1.3490 1.4566
10.1118 0.9329 0.6151
23.9281 3.0774 1.4638
9.2411 1.5276 0.5696
23.5180 4.7608 1.4638
23.2435 5.5809 1.4638
8.1786 2.2772 0.5222
22.5625 7.1646 1.4638
22.1596 7.9232 1.4638
9.1676 3.6542 0.6179
21.2396 9.3634 1.4638
20.7270 10.0412 1.4638
20.1827 10.6887 1.4638
19.6090 11.3046 1.4638
19.3570 12.1057 1.4906
19.0684 12.9002 1.5182
18.8897 13.7934 1.5588
18.4118 14.4862 1.5785
17.8779 15.1366 1.5965
17.2886 15.7378 1.6122
12.7077 12.4312 1.2409
12.4300 13.0656 1.2746
14.7124 16.6214 1.5891
13.9227 16.9166 1.5891
13.1301 17.1756 1.5891
12.3365 17.3992 1.5891
11.5440 17.5882 1.5891
4.5477 7.5033 0.6720
4.1912 7.5113 0.6681
9.7862 19.1223 1.6922
8.9644 19.1870 1.6922
8.1519 19.2204 1.6922
7.3499 19.2239 1.6922
6.5596 19.1987 1.6922
5.7819 19.1459 1.6922
5.0176 19.0669 1.6922
4.2677 18.9629 1.6922
3.5327 18.8350 1.6922
2.8132 18.6846 1.6922
2.1096 18.5127 1.6922
1.4226 18.3205 1.6922
0.7257 17.4720 1.6327
0.0929 16.7904 1.5891
-0.5044 16.5587 1.5891
-9.2265 -5.4702 1.6122
-9.0615 -5.8251 1.6122
-8.8857 -6.1770 1.6122
-8.6989 -6.5258 1.6122
-8.5011 -6.8711 1.6122
-8.2922 -7.2128 1.6122
-8.0722 -7.5506 1.6122
-7.8410 -7.8843 1.6122
-7.5985 -8.2135 1.6122
-7.3447 -8.5380 1.6122
-7.0796 -8.8575 1.6122
-6.7186 -9.0579 1.5922
-6.4342 -9.3626 1.5922
-6.1383 -9.6614 1.5922
-5.8311 -9.9539 1.5922
-5.5124 -10.2397 1.5922
-5.1822 -10.5186 1.5922
-4.8405 -10.7900 1.5922
-4.4874 -11.0536 1.5922
-4.1228 -11.3089 1.5922
-3.7467 -11.5555 1.5922
-3.3591 -11.7930 1.5922
-2.9602 -12.0207 1.5922
-2.5500 -12.2383 1.5922
-2.1286 -12.4452 1.5922
-0.9158 -6.8249 0.8596
-1.2527 -12.8246 1.5922
-0.7985 -12.9961 1.5922
-0.3337 -13.1546 1.5922
0.0792 -7.4535 0.8923
0.3515 -7.5346 0.8933
0.6395 -7.7239 0.9079
0.9451 -7.9323 0.9255
1.2725 -8.1671 0.9470
1.6245 -8.4228 0.9719
3.1852 -13.8219 1.5891
3.7219 -13.8540 1.5891
4.2655 -13.8672 1.5891
4.8154 -13.8611 1.5891
5.3709 -13.8350 1.5891
5.9313 -13.7881 1.5891
6.4958 -13.7200 1.5891
7.0634 -13.6300 1.5891
7.6332 -13.5175 1.5891
8.2038 -13.3814 1.5891
8.7745 -13.2219 1.5890
9.6482 -13.4626 1.6406
10.5560 -13.6648 1.6922
11.1568 -13.4176 1.6922
11.7523 -13.1437 1.6922
12.3412 -12.8430 1.6922
12.9220 -12.5153 1.6922
13.4929 -12.1605 1.6922
14.0523 -11.7787 1.6922
14.5987 -11.3700 1.6922
15.1303 -10.9347 1.6922
15.6453 -10.4733 1.6922
16.1421 -9.9861 1.6922
16.6189 -9.4738 1.6922
17.0739 -8.9372 1.6922
16.4392 -7.8668 1.5891
16.8211 -7.3198 1.5891
17.1779 -6.7528 1.5891
17.5083 -6.1670 1.5891
17.8108 -5.5638 1.5891
18.0842 -4.9445 1.5891
17.2378 -4.0544 1.4947
15.9436 -3.1510 1.3666
14.8885 -2.3910 1.2640
13.8980 -1.7231 1.1709
13.0859 -1.1475 1.0958
12.3424 -0.6372 1.0293
11.6925 -0.1836 0.9730
11.1389 0.2249 0.9265
18.1071 1.0163 1.5082
10.1095 0.9322 0.8448
9.6522 1.2406 0.8108
9.2422 1.5268 0.7817
8.8614 1.7926 0.7562
10.7031 2.5681 0.9232
8.1721 2.2738 0.7138
9.8876 3.1374 0.8763
7.5600 2.7010 0.6811
7.2772 2.8984 0.6678
16.7945 7.3978 1.5728
8.5049 4.1168 0.8145
15.7553 8.3370 1.5461
15.6611 9.0208 1.5781
15.4507 9.6540 1.6021
15.0718 10.1871 1.6118
14.5855 10.6404 1.6122
14.0780 11.0656 1.6122
10.5669 8.9377 1.2568
6.3559 5.7798 0.7871
6.8445 6.6883 0.8849
11.7409 12.3274 1.5891
11.1814 12.6175 1.5891
10.6149 12.8817 1.5891
10.0427 13.1201 1.5891
9.4662 13.3330 1.5891
8.8869 13.5206 1.5891
4.5533 7.5011 0.8711
8.2260 14.7184 1.6922
7.6080 14.8404 1.6922
6.9920 14.9375 1.6922
6.3792 15.0103 1.6922
5.7705 15.0596 1.6922
5.1671 15.0860 1.6922
4.5696 15.0902 1.6922
3.9790 15.0729 1.6922
3.3959 15.0349 1.6922
2.8212 14.9769 1.6922
2.2553 14.8997 1.6922
1.6989 14.8039 1.6922
1.1525 14.6905 1.6922
0.6165 14.5601 1.6922
0.0913 14.4133 1.6922
-0.4227 14.2511 1.6922
-4.7228 -2.8025 0.9523
-4.6209 -2.9732 0.9493
-4.5175 -3.1433 0.9470
-4.4128 -3.3136 0.9456
-4.3059 -3.4838 0.9448
-4.1947 -3.6525 0.9443
-4.0780 -3.8186 0.9438
-3.9565 -3.9827 0.9434
-3.8314 -4.1463 0.9436
-3.6988 -4.3049 0.9433
-3.5594 -4.4588 0.9427
-3.4143 -4.6092 0.9420
-3.2622 -4.7536 0.9408
-3.1083 -4.8996 0.9407
-2.9498 -5.0432 0.9408
-2.7866 -5.1851 0.9414
-2.6193 -5.3261 0.9424
-2.4481 -5.4676 0.9443
-2.2731 -5.6112 0.9472
-2.0935 -5.7560 0.9509
-1.9088 -5.9024 0.9555
-1.7175 -6.0473 0.9606
-1.5194 -6.1907 0.9661
-1.3159 -6.3403 0.9733
-1.1049 -6.4910 0.9813
-0.8865 -6.6467 0.9908
-0.6596 -6.8092 1.0021
-0.4234 -6.9827 1.0157
-0.1760 -7.1653 1.0314
0.0841 -7.3515 1.0484
0.3581 -7.5454 1.0675
0.6471 -7.7401 1.0875
0.9532 -7.9456 1.1102
1.2800 -8.1725 1.1369
2.2194 -11.4582 1.5891
2.6547 -11.4783 1.5891
3.0946 -11.4831 1.5891
3.5385 -11.4720 1.5891
3.9858 -11.4447 1.5891
4.4359 -11.4007 1.5891
4.8881 -11.3396 1.5891
5.3418 -11.2612 1.5891
5.7962 -11.1649 1.5891
6.3057 -11.1480 1.6031
7.1389 -11.6260 1.6922
7.6198 -11.4648 1.6922
8.0979 -11.2835 1.6922
8.5722 -11.0818 1.6922
9.0416 -10.8598 1.6922
9.5051 -10.6173 1.6922
9.9616 -10.3542 1.6922
10.4100 -10.0707 1.6922
10.8491 -9.7668 1.6922
11.2778 -9.4427 1.6922
11.6948 -9.0986 1.6922
12.0991 -8.7350 1.6922
12.4893 -8.3521 1.6922
12.8645 -7.9505 1.6922
13.2233 -7.5308 1.6922
13.5647 -7.0935 1.6922
13.8875 -6.6394 1.6922
13.3261 -5.7935 1.5891
13.5914 -5.3379 1.5891
13.8362 -4.8690 1.5891
14.0598 -4.3879 1.5891
14.2613 -3.8956 1.5891
14.4400 -3.3932 1.5891
14.5952 -2.8817 1.5891
14.7263 -2.3626 1.5891
6.4295 -0.7963 0.6888
13.0867 -1.1463 1.3944
12.3411 -0.6363 1.3100
11.6918 -0.1831 1.2387
11.1389 0.2250 1.1797
15.1954 0.8526 1.6115
10.1091 0.9317 1.0755
9.6530 1.2400 1.0320
9.2434 1.5260 0.9947
8.8627 1.7917 0.9617
14.4138 3.4560 1.5800
8.1738 2.2726 0.9067
14.0321 4.4491 1.5781
7.5620 2.6996 0.8637
7.2793 2.8970 0.8460
13.3391 5.8710 1.5803
8.5078 4.1148 1.0295
12.9664 6.8554 1.6057
12.6965 7.3068 1.6122
12.3564 7.7138 1.6122
12.0000 8.1034 1.6122
8.2966 6.0468 1.1503
8.3741 6.5758 1.2008
6.6489 5.6181 0.9885
6.3237 5.7445 0.9771
6.8555 6.6919 1.1039
9.4448 9.9055 1.5891
9.0122 10.1577 1.5891
8.5725 10.3903 1.5891
8.1266 10.6032 1.5891
7.6757 10.7964 1.5891
3.0691 4.6626 0.6754
4.5216 7.4376 1.0625
6.3030 11.2594 1.5891
6.2208 12.1135 1.6922
5.7294 12.2173 1.6922
5.2386 12.3015 1.6922
4.7491 12.3665 1.6922
4.2619 12.4128 1.6922
3.7777 12.4408 1.6922
3.2971 12.4509 1.6922
0.7635 3.3680 0.4580
0.6416 3.3915 0.4621
0.5191 3.4108 0.4663
0.3959 3.4259 0.4705
0.2724 3.4368 0.4747
0.1486 3.4435 0.4791
0.0246 3.4459 0.4834
-0.0994 3.4440 0.4878
-4.7383 -2.8142 1.0840
-4.6371 -2.9863 1.0813
-4.5339 -3.1578 1.0794
-4.4293 -3.3292 1.0784
-4.3218 -3.5002 1.0780
-4.2100 -3.6696 1.0780
-4.0925 -3.8363 1.0780
-3.9704 -4.0012 1.0783
-3.8442 -4.1650 1.0791
-3.7107 -4.3241 1.0793
-3.5705 -4.4785 1.0793
-3.4246 -4.6293 1.0793
-3.2720 -4.7745 1.0788
-3.1172 -4.9209 1.0795
-2.9575 -5.0645 1.0804
-2.7933 -5.2063 1.0818
-2.6247 -5.3468 1.0837
-2.4522 -5.4875 1.0866
-2.2757 -5.6297 1.0905
-2.0946 -5.7725 1.0954
-1.9082 -5.9162 1.1013
-1.7154 -6.0579 1.1076
-1.5161 -6.1980 1.1145
-1.3106 -6.3398 1.1226
-1.0988 -6.4862 1.1324
-0.8797 -6.6365 1.1437
-0.6525 -6.7923 1.1569
-0.4163 -6.9588 1.1729
-0.1701 -7.1615 1.1960
0.0923 -7.5376 1.2487
0.4663 -9.6582 1.5891
0.8199 -9.7122 1.5891
0.9880 -8.1798 1.3326
1.5405 -9.7839 1.5891
1.9066 -9.8009 1.5891
2.2759 -9.8050 1.5891
2.6482 -9.7958 1.5891
3.0228 -9.7730 1.5891
3.3993 -9.7363 1.5891
3.7892 -9.7167 1.5942
4.1743 -9.6636 1.5963
4.7753 -10.0475 1.6736
5.2311 -10.0584 1.6922
5.6326 -9.9414 1.6922
6.0322 -9.8083 1.6922
6.4291 -9.6588 1.6922
6.8226 -9.4929 1.6922
7.2118 -9.3105 1.6922
7.5960 -9.1116 1.6922
7.9743 -8.8962 1.6922
8.3459 -8.6643 1.6922
8.7098 -8.4161 1.6922
9.0654 -8.1518 1.6922
9.4115 -7.8715 1.6922
9.7475 -7.5755 1.6922
10.0723 -7.2642 1.6922
10.3852 -6.9379 1.6922
10.6852 -6.5970 1.6922
10.9715 -6.2422 1.6922
11.2433 -5.8738 1.6922
11.4997 -5.4926 1.6922
11.6787 -5.0724 1.6834
11.2347 -4.4082 1.5891
11.4281 -4.0178 1.5891
11.6044 -3.6182 1.5891
11.7630 -3.2101 1.5891
11.9033 -2.7944 1.5891
12.0250 -2.3720 1.5891
12.1276 -1.9438 1.5891
12.2107 -1.5108 1.5891
12.2740 -1.0739 1.5891
12.3174 -0.6342 1.5891
5.4162 -0.0846 0.6974
5.1641 0.1044 0.6648
12.5055 0.7014 1.6122
10.1088 0.9312 1.3072
12.4089 1.5931 1.6122
9.2445 1.5252 1.2088
8.8641 1.7907 1.1684
12.1126 2.9022 1.6121
8.1755 2.2714 1.1006
11.8138 3.7429 1.6115
7.5640 2.6983 1.0473
7.2814 2.8955 1.0251
11.2417 4.9438 1.6122
8.5107 4.1128 1.2456
10.7732 5.6909 1.6122
10.5159 6.0466 1.6122
10.2443 6.3895 1.6122
9.9591 6.7190 1.6122
7.0622 5.1422 1.1785
7.3159 5.7392 1.2613
8.0571 6.8010 1.4385
6.3337 5.7475 1.1738
6.8666 6.6954 1.3245
7.8947 8.2703 1.5891
3.1501 3.5463 0.6636
3.0855 3.7352 0.6824
3.0650 3.9939 0.7141
6.4511 9.0616 1.5891
6.0776 9.2199 1.5891
4.5221 7.4270 1.2606
5.3206 9.4891 1.5891
5.2591 10.2231 1.6922
4.8511 10.3251 1.6922
4.4424 10.4108 1.6922
4.0338 10.4804 1.6922
3.6259 10.5344 1.6922
3.2193 10.5728 1.6922
0.7685 2.8930 0.4620
0.6637 2.9172 0.4655
0.5582 2.9377 0.4691
0.4520 2.9545 0.4727
0.3454 2.9677 0.4763
0.2384 2.9772 0.4800
0.1311 2.9830 0.4837
0.0237 2.9851 0.4875
-0.0836 2.9835 0.4913
-6.2034 -3.6877 1.5891
-6.0840 -3.9218 1.5891
-5.9570 -4.1529 1.5891
-5.8225 -4.3807 1.5891
-5.6805 -4.6052 1.5891
-5.5309 -4.8260 1.5891
-5.3739 -5.0429 1.5891
-5.2095 -5.2559 1.5891
-5.0377 -5.4645 1.5891
-4.8586 -5.6686 1.5891
-4.6723 -5.8680 1.5891
-4.4787 -6.0623 1.5891
-3.3592 -4.9087 1.2478
-4.0704 -6.4352 1.5891
-3.8557 -6.6131 1.5891
-3.6342 -6.7851 1.5891
-3.4059 -6.9508 1.5891
-3.1709 -7.1100 1.5891
-2.9294 -7.2625 1.5891
-2.6816 -7.4079 1.5891
-2.4275 -7.5460 1.5891
-2.1673 -7.6765 1.5891
-1.9012 -7.7991 1.5891
-1.6293 -7.9136 1.5891
-1.3520 -8.0197 1.5891
-1.0693 -8.1170 1.5891
-0.7814 -8.2053 1.5891
-0.4888 -8.2843 1.5891
-0.1916 -8.3538 1.5891
0.0986 -7.5421 1.4245
0.4155 -8.4629 1.5891
0.7248 -8.5021 1.5891
0.9954 -8.1851 1.5248
1.3530 -8.5480 1.5891
1.6712 -8.5544 1.5891
1.9917 -8.5493 1.5891
2.3140 -8.5327 1.5891
2.6698 -8.6075 1.6084
3.1102 -8.8860 1.6684
3.5006 -8.9563 1.6922
3.8468 -8.8867 1.6922
4.1923 -8.8038 1.6922
4.5367 -8.7074 1.6922
4.8793 -8.5973 1.6922
5.2196 -8.4735 1.6922
5.5569 -8.3359 1.6922
5.8906 -8.1844 1.6922
6.2200 -8.0191 1.6922
6.5445 -7.8400 1.6922
6.8634 -7.6472 1.6922
7.1760 -7.4408 1.6922
7.4816 -7.2209 1.6922
7.7796 -6.9876 1.6922
8.0691 -6.7413 1.6922
8.3497 -6.4822 1.6922
8.6204 -6.2105 1.6922
8.8807 -5.9267 1.6922
9.1299 -5.6311 1.6922
9.3674 -5.3242 1.6922
9.5925 -5.0064 1.6922
9.8045 -4.6783 1.6922
10.0029 -4.3404 1.6922
10.0675 -3.9464 1.6723
9.7258 -3.4161 1.5891
9.8707 -3.0747 1.5891
10.0009 -2.7267 1.5891
10.1160 -2.3725 1.5891
10.2157 -2.0131 1.5891
10.2995 -1.6491 1.5891
10.3674 -1.2813 1.5891
6.7368 -0.5888 1.0275
6.6099 -0.3399 1.0048
10.4728 -0.1632 1.5891
10.4748 0.2118 1.5891
10.4601 0.5865 1.5891
10.1084 0.9307 1.5403
9.6896 1.2432 1.4832
4.4738 0.7376 0.6891
4.3555 0.8793 0.6761
4.2518 1.0180 0.6663
8.1772 2.2702 1.2958
9.8946 3.1325 1.5880
7.5660 2.6969 1.2320
7.2835 2.8940 1.2054
9.5684 4.2045 1.6122
8.5136 4.1107 1.4631
9.1806 4.8455 1.6122
8.9673 5.1516 1.6122
8.7418 5.4474 1.6122
3.5046 2.3622 0.6644
3.4339 2.4979 0.6705
7.3072 5.7267 1.4729
3.3135 2.7940 0.6910
6.3437 5.7505 1.3722
6.8778 6.6989 1.5469
6.7768 7.0911 1.5891
6.4812 7.2877 1.5891
6.1795 7.4713 1.5891
5.8722 7.6418 1.5891
5.5600 7.7991 1.5891
5.2436 7.9432 1.5891
4.5225 7.4164 1.4597
4.6006 8.1917 1.5891
4.2753 8.2961 1.5891
4.2043 8.9316 1.6922
3.8547 9.0150 1.6922
3.5044 9.0847 1.6922
3.1540 9.1408 1.6922
0.7709 2.5246 0.4652
0.6793 2.5492 0.4682
0.5870 2.5705 0.4713
0.4940 2.5887 0.4744
0.4005 2.6036 0.4776
0.3065 2.6153 0.4808
0.2122 2.6237 0.4840
0.1177 2.6288 0.4873
0.0231 2.6307 0.4907
-0.0716 2.6293 0.4940
-5.5985 -3.3312 1.5891
-5.4892 -3.5417 1.5891
-5.3729 -3.7492 1.5891
-5.2498 -3.9537 1.5891
-5.1198 -4.1549 1.5891
-4.9831 -4.3526 1.5891
-4.8397 -4.5466 1.5891
-4.6896 -4.7367 1.5891
-4.5329 -4.9227 1.5891
-4.3697 -5.1044 1.5891
-4.1999 -5.2816 1.5891
-4.0238 -5.4540 1.5891
-3.3562 -4.9115 1.3884
-3.6528 -5.7838 1.5891
-3.4580 -5.9406 1.5891
-3.2572 -6.0918 1.5891
-3.0505 -6.2372 1.5891
-2.8381 -6.3765 1.5891
-2.6199 -6.5094 1.5891
-2.3963 -6.6357 1.5891
-2.1673 -6.7553 1.5891
-1.9331 -6.8678 1.5891
-1.6939 -6.9730 1.5891
-1.4499 -7.0706 1.5891
-1.2012 -7.1605 1.5891
-0.9480 -7.2425 1.5891
-0.6907 -7.3161 1.5891
-0.4294 -7.3813 1.5891
-0.1644 -7.4379 1.5891
0.1040 -7.4854 1.5891
0.3756 -7.5238 1.5891
0.6503 -7.5551 1.5896
0.9272 -7.5724 1.5891
1.2116 -7.6142 1.5958
1.5326 -7.8111 1.6372
1.8782 -8.0328 1.6859
2.1875 -8.0405 1.6922
2.4906 -8.0073 1.6922
2.7941 -7.9627 1.6922
3.0975 -7.9066 1.6922
3.4004 -7.8390 1.6922
3.7023 -7.7597 1.6922
4.0027 -7.6686 1.6922
4.3011 -7.5656 1.6922
4.5970 -7.4508 1.6922
4.8898 -7.3241 1.6922
5.1791 -7.1855 1.6922
5.4642 -7.0350 1.6922
5.7446 -6.8727 1.6922
6.0197 -6.6987 1.6922
6.2890 -6.5131 1.6922
6.5520 -6.3161 1.6922
6.8079 -6.1079 1.6922
7.0563 -5.8886 1.6922
7.2966 -5.6585 1.6922
7.5282 -5.4179 1.6922
7.7506 -5.1672 1.6922
7.9633 -4.9066 1.6922
8.1657 -4.6365 1.6922
8.3572 -4.3575 1.6922
8.5375 -4.0698 1.6922
8.7060 -3.7740 1.6922
8.8624 -3.4707 1.6922
8.8820 -3.1167 1.6689
8.5819 -2.6707 1.5894
8.6903 -2.3670 1.5891
8.7875 -2.0590 1.5891
8.8717 -1.7466 1.5891
8.9424 -1.4304 1.5891
8.9995 -1.1111 1.5891
6.7226 -0.5868 1.1814
6.6026 -0.3390 1.1565
9.0878 -0.1412 1.5891
9.0892 0.1839 1.5891
9.0766 0.5088 1.5891
9.0499 0.8328 1.5891
9.0093 1.1552 1.5891
8.9548 1.4755 1.5891
9.0158 1.8189 1.6122
8.5426 2.0439 1.5418
8.1790 2.2690 1.4923
8.7268 2.7607 1.6122
7.5680 2.6955 1.4181
7.2856 2.8925 1.3870
8.3215 3.6536 1.6122
8.1622 3.9377 1.6122
7.9914 4.2142 1.6122
7.8096 4.4825 1.6122
7.6172 4.7423 1.6122
7.4148 4.9931 1.6122
7.0692 5.1374 1.5823
3.3528 2.6250 0.7742
6.6555 5.6064 1.5891
6.3539 5.7536 1.5724
6.1799 6.0126 1.5891
5.9317 6.1997 1.5891
5.6772 6.3760 1.5891
5.4170 6.5413 1.5891
5.1517 6.6955 1.5891
4.8818 6.8384 1.5891
4.6078 6.9700 1.5891
4.3303 7.0902 1.5891
4.0498 7.1990 1.5891
3.7668 7.2965 1.5891
3.7077 7.8616 1.6922
3.4028 7.9418 1.6923
0.8512 2.2017 0.4652
0.7712 2.2294 0.4678
0.6902 2.2543 0.4704
0.6085 2.2763 0.4731
0.5261 2.2955 0.4759
0.4431 2.3118 0.4786
0.3596 2.3251 0.4815
0.2757 2.3356 0.4843
0.1915 2.3431 0.4872
0.1071 2.3477 0.4902
0.0226 2.3494 0.4932
-0.0620 2.3481 0.4961
-5.0960 -3.0350 1.5891
-4.9951 -3.2260 1.5891
-4.8880 -3.4142 1.5891
-4.7746 -3.5995 1.5891
-4.6550 -3.7816 1.5891
-4.5292 -3.9604 1.5891
-4.3973 -4.1356 1.5891
-4.2594 -4.3072 1.5891
-4.1155 -4.4748 1.5891
-3.9657 -4.6383 1.5891
-3.8100 -4.7976 1.5891
-3.6487 -4.9523 1.5891
-3.3533 -4.9143 1.5305
-3.3090 -5.2475 1.5891
-3.1309 -5.3875 1.5891
-2.9475 -5.5222 1.5891
-2.7373 -5.6072 1.5767
-2.5651 -5.7749 1.5891
-2.3664 -5.8925 1.5891
-2.1629 -6.0039 1.5891
-1.9547 -6.1090 1.5891
-1.7419 -6.2075 1.5891
-1.5249 -6.2992 1.5891
-1.3037 -6.3840 1.5891
-1.0785 -6.4617 1.5891
-0.8496 -6.5319 1.5891
-0.6206 -6.6321 1.5981
-0.3813 -6.6496 1.5891
-0.1425 -6.6965 1.5891
0.1006 -6.8290 1.6112
0.3551 -6.9949 1.6429
0.6240 -7.1794 1.6808
0.8929 -7.2424 1.6922
1.1593 -7.2471 1.6922
1.4272 -7.2424 1.6922
1.6963 -7.2279 1.6922
1.9660 -7.2035 1.6922
2.2362 -7.1692 1.6922
2.5064 -7.1247 1.6922
2.7761 -7.0701 1.6922
3.0451 -7.0052 1.6922
3.3128 -6.9299 1.6922
3.5789 -6.8442 1.6922
3.8429 -6.7481 1.6922
4.1043 -6.6415 1.6922
4.3627 -6.5245 1.6922
4.6176 -6.3971 1.6922
4.8685 -6.2594 1.6922
5.1150 -6.1114 1.6922
5.3566 -5.9532 1.6922
5.5928 -5.7850 1.6922
5.8231 -5.6068 1.6922
6.0471 -5.4190 1.6922
6.2642 -5.2217 1.6922
6.4740 -5.0151 1.6922
6.6760 -4.7995 1.6922
6.8698 -4.5752 1.6922
7.0549 -4.3424 1.6922
7.2309 -4.1016 1.6922
7.3973 -3.8531 1.6922
7.5538 -3.5974 1.6922
7.7000 -3.3347 1.6922
7.8355 -3.0656 1.6922
7.9599 -2.7905 1.6922
7.9700 -2.4779 1.6706
7.6764 -2.0889 1.5891
7.7604 -1.8165 1.5891
7.8330 -1.5405 1.5891
7.8940 -1.2614 1.5891
7.9432 -0.9796 1.5891
6.0663 -0.5289 1.2080
6.5953 -0.3382 1.3091
8.0190 -0.1243 1.5891
8.0200 0.1624 1.5891
8.0089 0.4488 1.5891
7.9856 0.7345 1.5891
7.9503 1.0188 1.5891
7.9030 1.3013 1.5891
7.8438 1.5813 1.5891
7.7730 1.8584 1.5891
7.6905 2.1319 1.5891
7.5968 2.4013 1.5891
7.4920 2.6663 1.5891
7.4835 2.9687 1.6122
7.3555 3.2268 1.6122
7.2171 3.4788 1.6122
7.0687 3.7243 1.6122
6.9106 3.9629 1.6122
6.6465 4.1342 1.5891
6.4728 4.3546 1.5891
6.2907 4.5672 1.5891
3.3528 2.6224 0.8734
5.9031 4.9674 1.5891
5.6984 5.1545 1.5891
5.4872 5.3327 1.5891
5.2698 5.5016 1.5891
5.0468 5.6611 1.5891
4.8184 5.8111 1.5891
3.0627 3.9752 1.0614
4.3479 6.0820 1.5891
3.0674 4.6331 1.1870
3.8620 6.3135 1.5891
3.6144 6.4144 1.5891
3.3675 6.5114 1.5906
3.3140 7.0134 1.6922
0.8412 1.9592 0.4677
0.7699 1.9868 0.4700
0.6977 2.0119 0.4723
0.6247 2.0344 0.4747
0.5509 2.0543 0.4771
0.4766 2.0717 0.4796
0.4016 2.0864 0.4821
0.3263 2.0985 0.4846
0.2506 2.1080 0.4872
0.1746 2.1148 0.4899
0.0984 2.1190 0.4925
0.0221 2.1205 0.4952
-0.0542 2.1194 0.4979
-4.6713 -2.7846 1.5891
-4.5779 -2.9593 1.5891
-4.4787 -3.1314 1.5891
-4.3737 -3.3006 1.5891
-4.2630 -3.4668 1.5891
-4.1466 -3.6298 1.5891
-4.0247 -3.7894 1.5891
-3.8972 -3.9455 1.5891
-3.7643 -4.0979 1.5891
-3.6260 -4.2464 1.5891
-3.4824 -4.3908 1.5891
-3.3336 -4.5310 1.5891
-3.1797 -4.6667 1.5891
-3.0208 -4.7978 1.5891
-2.8569 -4.9241 1.5891
-2.6882 -5.0454 1.5891
-2.5231 -5.1783 1.5943
-2.3520 -5.3059 1.5993
-2.1776 -5.4345 1.6060
-1.9681 -5.4768 1.5891
-1.7774 -5.5703 1.5891
-1.5827 -5.6577 1.5891
-1.3843 -5.7388 1.5891
-1.1942 -5.8726 1.6053
-0.9987 -6.0145 1.6251
-0.7960 -6.1605 1.6473
-0.5848 -6.3061 1.6710
-0.3636 -6.4360 1.6922
-0.1324 -6.4784 1.6922
0.1014 -6.5128 1.6922
0.3375 -6.5392 1.6923
0.5755 -6.5574 1.6923
0.8152 -6.5671 1.6924
1.0562 -6.5677 1.6923
1.2984 -6.5597 1.6922
1.5413 -6.5432 1.6922
1.7846 -6.5178 1.6922
2.0280 -6.4833 1.6922
2.2712 -6.4398 1.6922
2.5138 -6.3871 1.6922
2.7554 -6.3251 1.6922
2.9956 -6.2539 1.6922
3.2341 -6.1734 1.6922
3.4705 -6.0836 1.6922
3.7043 -5.9845 1.6922
3.9352 -5.8762 1.6922
4.1627 -5.7586 1.6922
4.3865 -5.6318 1.6922
4.6062 -5.4960 1.6922
4.8212 -5.3512 1.6922
5.0312 -5.1976 1.6922
5.2359 -5.0353 1.6922
5.4346 -4.8645 1.6922
5.6272 -4.6854 1.6922
5.8131 -4.4981 1.6922
5.9919 -4.3030 1.6922
6.1633 -4.1003 1.6922
6.3269 -3.8903 1.6922
6.4824 -3.6733 1.6922
6.6293 -3.4496 1.6922
6.7673 -3.2196 1.6922
6.8961 -2.9836 1.6922
7.0154 -2.7420 1.6922
7.1249 -2.4953 1.6922
7.2244 -2.2439 1.6922
7.2445 -1.9694 1.6762
6.9418 -1.6233 1.5891
7.0055 -1.3764 1.5891
7.0590 -1.1268 1.5891
7.1022 -0.8750 1.5891
6.6942 -0.5830 1.4910
6.5879 -0.3373 1.4628
5.4104 -0.0836 1.1994
7.1691 0.1452 1.5891
7.1592 0.4010 1.5891
7.1386 0.6562 1.5891
7.1074 0.9103 1.5891
7.0657 1.1626 1.5891
7.0135 1.4129 1.5891
6.9511 1.6606 1.5891
6.8784 1.9053 1.5891
6.7958 2.1465 1.5891
6.7034 2.3837 1.5891
6.6014 2.6166 1.5891
6.4901 2.8447 1.5891
6.3697 3.0677 1.5891
6.2405 3.2851 1.5891
6.1029 3.4966 1.5891
5.9571 3.7019 1.5891
5.8034 3.9006 1.5891
5.6423 4.0924 1.5891
3.3540 2.6207 0.9737
5.2989 4.4544 1.5891
5.1175 4.6240 1.5891
4.9300 4.7858 1.5891
4.7369 4.9395 1.5891
4.5386 5.0849 1.5891
4.3355 5.2220 1.5891
3.0398 3.9402 1.1702
3.9163 5.4706 1.5891
3.7010 5.5818 1.5891
3.4825 5.6843 1.5891
3.2612 5.7779 1.5891
3.0374 5.8627 1.5891
0.8313 1.7558 0.4698
0.7673 1.7833 0.4719
0.7024 1.8084 0.4739
0.6367 1.8313 0.4760
0.5702 1.8519 0.4782
0.5031 1.8700 0.4804
0.4354 1.8859 0.4827
0.3673 1.8994 0.4850
0.2987 1.9104 0.4873
0.2297 1.9191 0.4896
0.1606 1.9253 0.4920
0.0912 1.9291 0.4944
0.0218 1.9305 0.4969
-0.0477 1.9294 0.4993
-4.3075 -2.5702 1.5891
-4.2205 -2.7310 1.5891
-4.1282 -2.8892 1.5891
-4.0305 -3.0448 1.5891
-3.9276 -3.1974 1.5891
-3.8195 -3.3471 1.5891
-3.7062 -3.4935 1.5891
-3.5878 -3.6366 1.5891
-3.4645 -3.7761 1.5891
-3.3362 -3.9120 1.5891
-3.2030 -4.0440 1.5891
-3.0651 -4.1719 1.5891
-2.9329 -4.3109 1.5948
-2.8012 -4.4562 1.6039
-2.6665 -4.6037 1.6150
-2.5284 -4.7539 1.6281
-2.3865 -4.9073 1.6434
-2.2296 -5.0404 1.6531
-2.0649 -5.1649 1.6613
-1.8969 -5.2918 1.6718
-1.7263 -5.4251 1.6857
-1.5420 -5.5293 1.6922
-1.3475 -5.6065 1.6922
-1.1496 -5.6773 1.6922
-0.9485 -5.7417 1.6923
-0.7444 -5.7994 1.6923
-0.5375 -5.8501 1.6924
-0.3280 -5.8934 1.6923
-0.1161 -5.9299 1.6924
0.0979 -5.9590 1.6924
0.3138 -5.9806 1.6924
0.5313 -5.9947 1.6925
0.7501 -6.0010 1.6925
0.9701 -5.9995 1.6926
1.1908 -5.9897 1.6925
1.4118 -5.9714 1.6923
1.6331 -5.9451 1.6922
1.8544 -5.9112 1.6922
2.0752 -5.8689 1.6922
2.2954 -5.8184 1.6922
2.5144 -5.7594 1.6922
2.7320 -5.6922 1.6922
2.9478 -5.6165 1.6922
3.1616 -5.5324 1.6922
3.3728 -5.4400 1.6922
3.5812 -5.3393 1.6922
3.7865 -5.2303 1.6922
3.9882 -5.1131 1.6922
4.1860 -4.9879 1.6922
4.3794 -4.8546 1.6922
4.5683 -4.7134 1.6922
4.7521 -4.5645 1.6922
4.9306 -4.4081 1.6922
5.1033 -4.2443 1.6922
5.2699 -4.0733 1.6922
5.4301 -3.8953 1.6922
5.5836 -3.7106 1.6922
5.7299 -3.5195 1.6922
5.8689 -3.3222 1.6922
6.0001 -3.1190 1.6922
6.1234 -2.9103 1.6922
6.2383 -2.6963 1.6922
6.3448 -2.4775 1.6922
6.4424 -2.2541 1.6922
6.5310 -2.0266 1.6922
6.6104 -1.7953 1.6922
6.6584 -1.5555 1.6866
6.3301 -1.2425 1.5891
6.3777 -1.0170 1.5891
6.4160 -0.7896 1.5891
6.0456 -0.5259 1.4906
6.4645 -0.3306 1.5891
6.4746 -0.0998 1.5891
6.4752 0.1312 1.5891
4.9281 0.2760 1.2111
6.4478 0.5924 1.5891
6.4200 0.8217 1.5891
6.3827 1.0496 1.5891
6.3361 1.2755 1.5891
6.2804 1.4993 1.5891
6.2155 1.7204 1.5891
6.1418 1.9384 1.5891
6.0593 2.1529 1.5891
5.9682 2.3637 1.5891
5.8688 2.5702 1.5891
5.7612 2.7722 1.5891
5.6458 2.9694 1.5891
5.5227 3.1613 1.5891
5.3923 3.3477 1.5891
5.2547 3.5284 1.5891
5.1104 3.7030 1.5891
3.3553 2.6189 1.0751
4.8027 4.0330 1.5891
4.6400 4.1879 1.5891
4.4717 4.3359 1.5891
3.1893 3.3217 1.1791
4.1200 4.6103 1.5891
3.9373 4.7363 1.5891
3.0387 3.9335 1.2875
3.5598 4.9655 1.5891
3.3657 5.0685 1.5891
3.1686 5.1637 1.5891
2.9687 5.2509 1.5891
0.8212 1.5822 0.4717
0.7635 1.6095 0.4735
0.7048 1.6347 0.4754
0.6454 1.6578 0.4773
0.5851 1.6788 0.4792
0.5243 1.6977 0.4812
0.4627 1.7145 0.4832
0.4007 1.7290 0.4853
0.3382 1.7414 0.4874
0.2753 1.7515 0.4895
0.2121 1.7595 0.4917
0.1487 1.7652 0.4939
0.0851 1.7687 0.4961
0.0215 1.7700 0.4983
-0.0422 1.7690 0.5006
-4.2115 -2.5153 1.6765
-4.1164 -2.6662 1.6727
-4.0212 -2.8172 1.6709
-3.9257 -2.9686 1.6710
-3.8296 -3.1210 1.6732
-3.7328 -3.2747 1.6774
-3.6348 -3.4301 1.6837
-3.5301 -3.5824 1.6896
-3.4093 -3.7206 1.6903
-3.2876 -3.8600 1.6931
-3.1538 -3.9873 1.6922
-3.0171 -4.1124 1.6922
-2.8758 -4.2334 1.6922
-2.7301 -4.3499 1.6922
-2.5800 -4.4619 1.6922
-2.4258 -4.5692 1.6922
-2.2675 -4.6717 1.6923
-2.1052 -4.7691 1.6923
-1.9390 -4.8612 1.6923
-1.7692 -4.9480 1.6924
-1.5958 -5.0292 1.6924
-1.4190 -5.1048 1.6924
-1.2391 -5.1746 1.6925
-1.0561 -5.2383 1.6925
-0.8703 -5.2960 1.6926
-0.6817 -5.3474 1.6926
-0.4908 -5.3924 1.6927
-0.2975 -5.4305 1.6927
-0.1022 -5.4615 1.6925
0.0949 -5.4864 1.6925
0.2935 -5.5044 1.6926
0.4936 -5.5153 1.6926
0.6947 -5.5191 1.6927
0.8967 -5.5157 1.6927
1.0993 -5.5050 1.6927
1.3022 -5.4868 1.6928
1.5049 -5.4605 1.6926
1.7074 -5.4268 1.6924
1.9093 -5.3855 1.6922
2.1105 -5.3370 1.6922
2.3105 -5.2810 1.6922
2.5092 -5.2174 1.6922
2.7061 -5.1462 1.6922
2.9009 -5.0674 1.6922
3.0934 -4.9810 1.6922
3.2831 -4.8871 1.6922
3.4698 -4.7857 1.6922
3.6531 -4.6769 1.6922
3.8328 -4.5607 1.6922
4.0084 -4.4374 1.6922
4.1797 -4.3070 1.6922
4.3464 -4.1697 1.6922
4.5080 -4.0255 1.6922
4.6644 -3.8748 1.6922
4.8152 -3.7176 1.6922
4.9601 -3.5542 1.6922
5.0988 -3.3848 1.6922
5.2310 -3.2097 1.6922
5.3565 -3.0290 1.6922
5.4749 -2.8431 1.6922
5.5861 -2.6522 1.6922
5.6897 -2.4567 1.6922
5.7856 -2.2569 1.6922
5.8736 -2.0530 1.6922
5.9533 -1.8455 1.6922
6.0248 -1.6346 1.6922
6.0877 -1.4208 1.6922
6.1420 -1.2043 1.6922
5.8204 -0.9272 1.5918
5.8450 -0.7185 1.5891
5.8710 -0.5101 1.5891
5.8886 -0.3007 1.5891
5.8975 -0.0906 1.5891
5.8980 0.1196 1.5891
4.8950 0.2740 1.3207
5.8732 0.5393 1.5891
5.8480 0.7480 1.5891
5.8144 0.9554 1.5891
4.3582 0.8767 1.1998
4.2459 1.0128 1.1791
5.6637 1.5664 1.5891
5.5972 1.7651 1.5891
5.5227 1.9607 1.5891
5.4406 2.1529 1.5891
5.3509 2.3414 1.5891
5.2539 2.5259 1.5891
5.1496 2.7060 1.5891
5.0385 2.8815 1.5891
4.9207 3.0520 1.5891
4.7964 3.2175 1.5891
4.6659 3.3775 1.5891
3.3565 2.6172 1.1776
3.3167 2.7821 1.2013
4.2401 3.8228 1.5891
4.0877 3.9590 1.5891
3.9305 4.0888 1.5891
3.7688 4.2120 1.5891
3.6030 4.3285 1.5891
3.0394 3.9290 1.4068
3.2601 4.5410 1.5891
3.0837 4.6367 1.5891
2.9043 4.7253 1.5891
0.8110 1.4320 0.4734
0.7587 1.4590 0.4750
0.7054 1.4842 0.4767
0.6514 1.5075 0.4784
0.5966 1.5289 0.4801
0.5410 1.5483 0.4819
0.4849 1.5658 0.4837
0.4282 1.5812 0.4856
0.3710 1.5947 0.4875
0.3133 1.6061 0.4894
0.2553 1.6155 0.4914
0.1970 1.6228 0.4934
0.1386 1.6281 0.4954
0.0799 1.6313 0.4975
0.0212 1.6325 0.4995
-0.0375 1.6316 0.5016
-3.9566 -2.3654 1.6923
-3.8755 -2.5127 1.6923
-3.7894 -2.6575 1.6923
-3.6984 -2.7997 1.6923
-3.6026 -2.9392 1.6923
-3.5020 -3.0757 1.6923
-3.3967 -3.2092 1.6923
-3.2867 -3.3394 1.6923
-3.1721 -3.4662 1.6923
-3.0531 -3.5894 1.6924
-2.9296 -3.7090 1.6924
-2.8019 -3.8247 1.6924
-2.6700 -3.9364 1.6924
-2.5339 -4.0439 1.6924
-2.3939 -4.1471 1.6925
-2.2500 -4.2459 1.6925
-2.1023 -4.3401 1.6925
-1.9511 -4.4295 1.6926
-1.7963 -4.5139 1.6926
-1.6381 -4.5933 1.6926
-1.4767 -4.6675 1.6927
-1.3123 -4.7363 1.6927
-1.1450 -4.7997 1.6927
-0.9750 -4.8575 1.6928
-0.8024 -4.9095 1.6928
-0.6275 -4.9557 1.6929
-0.4503 -4.9959 1.6930
-0.2712 -5.0301 1.6930
-0.0902 -5.0575 1.6929
0.0923 -5.0784 1.6928
0.2761 -5.0931 1.6927
0.4610 -5.1016 1.6927
0.6469 -5.1036 1.6928
0.8335 -5.0988 1.6928
1.0204 -5.0873 1.6929
1.2076 -5.0690 1.6929
1.3947 -5.0438 1.6929
1.5812 -5.0111 1.6928
1.7671 -4.9714 1.6927
1.9521 -4.9248 1.6925
2.1360 -4.8713 1.6924
2.3183 -4.8107 1.6922
2.4991 -4.7435 1.6922
2.6779 -4.6694 1.6922
2.8543 -4.5884 1.6922
3.0282 -4.5005 1.6922
3.1992 -4.4058 1.6922
3.3671 -4.3044 1.6922
3.5314 -4.1963 1.6922
3.6920 -4.0817 1.6922
3.8486 -3.9607 1.6922
4.0008 -3.8334 1.6922
4.1484 -3.6999 1.6922
4.2911 -3.5605 1.6922
4.4286 -3.4152 1.6922
4.5607 -3.2643 1.6922
4.6870 -3.1081 1.6922
4.8074 -2.9466 1.6922
4.9216 -2.7802 1.6922
5.0294 -2.6090 1.6922
5.1305 -2.4334 1.6922
5.2247 -2.2536 1.6922
5.3118 -2.0700 1.6922
5.3917 -1.8827 1.6922
5.4642 -1.6921 1.6922
5.5290 -1.4986 1.6922
5.5861 -1.3024 1.6922
5.6354 -1.1038 1.6922
5.6767 -0.9033 1.6922
5.4649 -0.6711 1.6196
5.3856 -0.4673 1.5891
5.4014 -0.2754 1.5891
5.4095 -0.0829 1.5891
5.4098 0.1098 1.5891
4.8947 0.2739 1.4398
5.3872 0.4944 1.5891
5.3643 0.6857 1.5891
5.3337 0.8759 1.5891
5.2955 1.0645 1.5891
5.2498 1.2514 1.5891
5.1967 1.4361 1.5891
5.1362 1.6184 1.5891
5.0685 1.7979 1.5891
4.9938 1.9744 1.5891
4.9122 2.1476 1.5891
4.8239 2.3171 1.5891
4.7291 2.4827 1.5891
4.6279 2.6442 1.5891
4.5206 2.8012 1.5891
4.4074 2.9536 1.5891
4.2885 3.1011 1.5891
3.3578 2.6155 1.2814
4.0347 3.3807 1.5891
3.9002 3.5124 1.5891
3.7610 3.6384 1.5891
3.6174 3.7586 1.5891
3.4697 3.8729 1.5891
3.3181 3.9811 1.5891
3.0414 3.9262 1.5281
3.0068 4.1821 1.5904
0.8471 1.2719 0.4735
0.8005 1.3004 0.4749
0.7529 1.3272 0.4764
0.7045 1.3523 0.4779
0.6552 1.3757 0.4794
0.6051 1.3973 0.4810
0.5543 1.4171 0.4826
0.5028 1.4352 0.4843
0.4508 1.4514 0.4860
0.3982 1.4657 0.4877
0.3452 1.4782 0.4894
0.2918 1.4888 0.4912
0.2380 1.4975 0.4931
0.1840 1.5044 0.4949
0.1298 1.5093 0.4968
0.0754 1.5123 0.4987
0.0210 1.5133 0.5006
-0.0335 1.5125 0.5025
-3.6966 -2.2122 1.6925
-3.6204 -2.3497 1.6925
-3.5394 -2.4848 1.6925
-3.4539 -2.6175 1.6925
-3.3639 -2.7475 1.6925
-3.2694 -2.8747 1.6926
-3.1704 -2.9990 1.6926
-3.0672 -3.1202 1.6926
-2.9596 -3.2381 1.6926
-2.8479 -3.3527 1.6926
-2.7321 -3.4638 1.6926
-2.6123 -3.5712 1.6926
-2.4887 -3.6748 1.6926
-2.3612 -3.7744 1.6927
-2.2300 -3.8700 1.6927
-2.0953 -3.9614 1.6927
-1.9571 -4.0483 1.6928
-1.8156 -4.1308 1.6928
-1.6708 -4.2087 1.6929
-1.5230 -4.2817 1.6929
-1.3722 -4.3498 1.6929
-1.2187 -4.4130 1.6929
-1.0625 -4.4709 1.6930
-0.9039 -4.5236 1.6930
-0.7430 -4.5709 1.6931
-0.5799 -4.6128 1.6931
-0.4149 -4.6490 1.6932
-0.2481 -4.6795 1.6932
-0.0797 -4.7042 1.6933
0.0900 -4.7224 1.6932
0.2609 -4.7347 1.6930
0.4327 -4.7409 1.6929
0.6052 -4.7412 1.6929
0.7783 -4.7355 1.6929
0.9517 -4.7234 1.6929
1.1252 -4.7051 1.6930
1.2985 -4.6804 1.6930
1.4714 -4.6494 1.6931
1.6436 -4.6115 1.6930
1.8147 -4.5671 1.6929
1.9847 -4.5162 1.6927
2.1532 -4.4589 1.6926
2.3200 -4.3952 1.6925
2.4849 -4.3251 1.6924
2.6475 -4.2487 1.6923
2.8077 -4.1660 1.6922
2.9653 -4.0773 1.6922
3.1198 -3.9825 1.6922
3.2711 -3.8815 1.6922
3.4189 -3.7746 1.6922
3.5628 -3.6618 1.6922
3.7027 -3.5433 1.6922
3.8383 -3.4191 1.6922
3.9693 -3.2896 1.6922
4.0955 -3.1547 1.6922
4.2167 -3.0147 1.6922
4.3326 -2.8698 1.6922
4.4430 -2.7202 1.6922
4.5476 -2.5661 1.6922
4.6463 -2.4078 1.6922
4.7389 -2.2453 1.6922
4.8251 -2.0792 1.6922
4.9049 -1.9094 1.6922
4.9780 -1.7365 1.6922
5.0442 -1.5605 1.6922
5.1035 -1.3818 1.6922
5.1557 -1.2008 1.6922
5.2007 -1.0176 1.6922
5.2384 -0.8327 1.6922
5.2687 -0.6462 1.6922
5.1859 -0.4495 1.6584
4.9882 -0.2540 1.5906
4.9910 -0.0763 1.5891
4.9913 0.1013 1.5891
4.8948 0.2738 1.5605
4.9705 0.4559 1.5891
4.9495 0.6323 1.5891
4.9215 0.8076 1.5891
4.8865 0.9816 1.5891
4.8446 1.1539 1.5891
4.7960 1.3243 1.5891
4.7406 1.4925 1.5891
3.9382 1.3958 1.3376
4.6102 1.8212 1.5891
4.5355 1.9811 1.5891
4.4546 2.1378 1.5891
4.3677 2.2909 1.5891
4.2750 2.4402 1.5891
4.1766 2.5855 1.5891
4.0728 2.7266 1.5891
3.9638 2.8633 1.5891
3.3591 2.6137 1.3866
3.7308 3.1226 1.5891
3.6073 3.2449 1.5891
3.4794 3.3620 1.5891
3.3475 3.4738 1.5891
3.2117 3.5802 1.5891
3.0722 3.6811 1.5891
2.9294 3.7763 1.5891
0.8322 1.1557 0.4751
0.7897 1.1838 0.4763
0.7464 1.2104 0.4776
0.7021 1.2354 0.4790
0.6570 1.2588 0.4804
0.6111 1.2806 0.4818
0.5645 1.3008 0.4833
0.5172 1.3193 0.4848
0.4693 1.3361 0.4863
0.4209 1.3512 0.4879
0.3720 1.3646 0.4895
0.3226 1.3762 0.4911
0.2729 1.3861 0.4928
0.2228 1.3942 0.4945
0.1725 1.4006 0.4962
0.1221 1.4052 0.4980
0.0714 1.4079 0.4997
0.0208 1.4090 0.5015
-0.0299 1.4082 0.5033
-3.4648 -2.0755 1.6928
-3.3929 -2.2043 1.6928
-3.3166 -2.3308 1.6928
-3.2360 -2.4550 1.6928
-3.1512 -2.5767 1.6928
-3.0621 -2.6956 1.6928
-2.9690 -2.8118 1.6928
-2.8717 -2.9251 1.6928
-2.7705 -3.0352 1.6928
-2.6654 -3.1421 1.6928
-2.5564 -3.2457 1.6928
-2.4438 -3.3458 1.6928
-2.3275 -3.4423 1.6929
-2.2077 -3.5350 1.6929
-2.0845 -3.6239 1.6929
-1.9579 -3.7088 1.6929
-1.8282 -3.7895 1.6930
-1.6953 -3.8659 1.6930
-1.5596 -3.9380 1.6931
-1.4209 -4.0055 1.6931
-1.2796 -4.0685 1.6931
-1.1358 -4.1266 1.6932
-0.9895 -4.1799 1.6932
-0.8410 -4.2283 1.6932
-0.6904 -4.2716 1.6933
-0.5379 -4.3097 1.6933
-0.3836 -4.3425 1.6934
-0.2278 -4.3700 1.6934
-0.0705 -4.3920 1.6935
0.0880 -4.4084 1.6935
0.2475 -4.4188 1.6934
0.4077 -4.4236 1.6933
0.5686 -4.4226 1.6932
0.7299 -4.4159 1.6931
0.8913 -4.4034 1.6930
1.0528 -4.3852 1.6931
1.2141 -4.3612 1.6931
1.3749 -4.3312 1.6932
1.5350 -4.2951 1.6932
1.6941 -4.2531 1.6932
1.8520 -4.2047 1.6931
2.0084 -4.1504 1.6930
2.1633 -4.0902 1.6929
2.3162 -4.0240 1.6928
2.4669 -3.9521 1.6927
2.6154 -3.8743 1.6926
2.7612 -3.7908 1.6925
2.9041 -3.7016 1.6924
3.0440 -3.6068 1.6923
3.1805 -3.5066 1.6923
3.3134 -3.4010 1.6922
3.4427 -3.2902 1.6922
3.5679 -3.1743 1.6922
3.6889 -3.0535 1.6922
3.8054 -2.9277 1.6922
3.9171 -2.7973 1.6922
4.0240 -2.6624 1.6922
4.1258 -2.5232 1.6922
4.2222 -2.3799 1.6922
4.3131 -2.2327 1.6922
4.3984 -2.0818 1.6922
4.4778 -1.9275 1.6922
4.5512 -1.7699 1.6922
4.6185 -1.6094 1.6922
4.6795 -1.4461 1.6922
4.7341 -1.2805 1.6923
4.7823 -1.1126 1.6923
4.8238 -0.9428 1.6924
4.8583 -0.7714 1.6923
4.8860 -0.5986 1.6923
4.9068 -0.4247 1.6922
4.9208 -0.2502 1.6922
4.7807 -0.0729 1.6416
4.6280 0.0940 1.5891
4.6217 0.2585 1.5891
4.6088 0.4225 1.5891
4.5894 0.5859 1.5891
4.5636 0.7483 1.5891
4.5314 0.9095 1.5891
4.4929 1.0693 1.5891
4.4481 1.2273 1.5891
4.3971 1.3832 1.5891
3.9392 1.3950 1.4423
4.2770 1.6881 1.5891
4.2082 1.8365 1.5891
4.1336 1.9819 1.5891
4.0536 2.1241 1.5891
3.9681 2.2628 1.5891
3.8774 2.3979 1.5891
3.7817 2.5292 1.5891
3.6811 2.6563 1.5891
3.3614 2.6126 1.4938
3.4661 2.8978 1.5891
3.3521 3.0118 1.5891
3.2340 3.1211 1.5891
3.1121 3.2255 1.5891
2.9865 3.3250 1.5891
2.8590 3.4209 1.5899
0.8173 1.0521 0.4765
0.7786 1.0798 0.4777
0.7390 1.1060 0.4788
0.6985 1.1309 0.4800
0.6572 1.1543 0.4813
0.6150 1.1762 0.4826
0.5722 1.1966 0.4839
0.5287 1.2154 0.4853
0.4845 1.2327 0.4867
0.4397 1.2485 0.4881
0.3945 1.2626 0.4896
0.3488 1.2751 0.4911
0.3027 1.2860 0.4926
0.2562 1.2953 0.4942
0.2094 1.3029 0.4958
0.1624 1.3088 0.4974
0.1152 1.3131 0.4990
0.0680 1.3157 0.5007
0.0206 1.3167 0.5023
-0.0268 1.3159 0.5040
-3.2566 -1.9528 1.6930
-3.1887 -2.0738 1.6929
-3.1166 -2.1926 1.6929
