ply
format ascii 1.0
element vertex 2039
property float32 x
property float32 y
property float32 z
end_header
-18.3597 -14.0203 -3.5329
-18.4084 -15.1303 -3.6435
-17.2550 -15.2488 -3.5203
-16.1753 -15.3597 -3.4095
-15.1599 -15.4640 -3.3094
-14.2009 -15.5625 -3.2191
-13.2915 -15.6559 -3.1374
-12.4256 -15.7449 -3.0636
-11.6133 -15.8504 -3.0008
-12.1118 -17.8359 -3.2920
-12.2899 -19.5700 -3.5281
-12.4512 -21.4981 -3.7923
-12.7700 -23.9887 -4.1477
-12.6629 -25.9886 -4.4117
-14.5991 -32.9026 -5.4924
-13.2963 -33.1142 -5.4441
-13.7260 -38.0702 -6.1733
4.2486 -35.4841 -5.4456
4.7038 -30.1136 -4.6441
5.1972 -26.9174 -4.1771
6.2282 -27.0233 -4.2253
7.3093 -27.2240 -4.2948
4.4854 -14.5990 -2.3269
5.0922 -14.6811 -2.3675
5.7536 -14.8492 -2.4263
6.4547 -15.0383 -2.4934
6.9998 -14.8215 -2.4975
7.1093 -13.7560 -2.3594
7.4274 -13.1919 -2.3068
8.1047 -13.2614 -2.3683
8.8200 -13.3349 -2.4363
9.5785 -13.4128 -2.5117
10.3864 -13.4958 -2.5954
10.5281 -12.7116 -2.5156
10.6098 -11.9155 -2.4319
9.3947 -9.8197 -2.0716
10.7585 -10.4683 -2.2884
10.8864 -9.8595 -2.2393
9.5529 -8.0489 -1.9047
9.6069 -7.5235 -1.8608
9.6585 -7.0213 -1.8211
9.7080 -6.5395 -1.7854
9.7556 -6.0758 -1.7532
9.8016 -5.6280 -1.7244
9.8462 -5.1944 -1.6986
9.8894 -4.7730 -1.6758
9.9316 -4.3624 -1.6556
9.9728 -3.9612 -1.6381
10.5253 -3.7505 -1.7059
12.4869 -3.9520 -1.9999
15.2689 -4.2378 -2.4200
18.6526 -4.4648 -2.9296
18.7231 -3.7789 -2.9180
18.7930 -3.0978 -2.9103
18.8627 -2.4197 -2.9063
18.9322 -1.7428 -2.9061
19.0018 -1.0654 -2.9095
19.0716 -0.3857 -2.9168
-14.9809 44.3073 -6.1294
-14.0253 37.0543 -5.1922
-14.2704 33.9765 -4.8294
-14.5344 31.4070 -4.5351
-15.4396 30.4539 -4.4743
-14.9776 27.0927 -4.0565
-15.1663 25.2552 -3.8601
-13.1928 20.2868 -3.1707
-13.9155 19.8091 -3.1717
-15.3011 20.2038 -3.3203
-15.7732 19.3476 -3.2701
-12.4906 14.2480 -2.4820
-13.8790 14.7330 -2.6511
-13.9740 13.8086 -2.5729
-14.0636 12.9359 -2.5022
-14.1486 12.1086 -2.4384
-14.2899 11.3695 -2.3907
-14.3675 10.6143 -2.3383
-14.4054 9.8655 -2.2853
-14.4768 9.1711 -2.2427
-14.5207 8.4865 -2.2007
-14.5872 7.8390 -2.1666
-14.6518 7.2104 -2.1361
-6.4107 2.8746 -0.9189
-6.3296 2.5703 -0.8933
-14.7864 5.3965 -2.0580
-17.3111 5.6246 -2.3794
-21.0117 6.0048 -2.8561
-11.9159 2.9485 -1.6040
-12.0769 2.5335 -1.6121
-12.1247 2.0936 -1.6072
-12.1698 1.6554 -1.6039
-12.2121 1.2180 -1.6024
-12.2570 0.7808 -1.6033
-12.3020 0.3424 -1.6062
-12.3473 -0.0983 -1.6112
-12.3929 -0.5426 -1.6183
-12.4390 -0.9915 -1.6275
-12.4858 -1.4464 -1.6390
-12.5963 -1.9182 -1.6611
-12.6449 -2.3914 -1.6774
-12.6310 -2.8604 -1.6876
-12.6817 -3.3531 -1.7090
-12.6431 -3.8318 -1.7208
-12.7872 -4.3809 -1.7602
-12.8426 -4.9200 -1.7905
-12.7991 -5.4362 -1.8100
-12.9598 -6.0606 -1.8618
-12.9017 -6.6060 -1.8858
-12.6404 -7.0541 -1.8829
-11.2329 -6.8068 -1.7081
-11.2710 -7.3938 -1.7526
-14.9584 -10.5972 -2.3829
-18.3597 -14.0198 -3.0021
-18.4090 -15.1302 -3.0961
-17.2556 -15.2487 -2.9914
-16.1758 -15.3596 -2.8971
-15.1604 -15.4640 -2.8120
-14.2014 -15.5625 -2.7352
-13.2919 -15.6559 -2.6657
-12.4260 -15.7449 -2.6029
-11.6132 -15.8498 -2.5494
-12.1818 -17.9384 -2.8129
-12.2898 -19.5692 -2.9972
-12.4958 -21.5745 -3.2331
-12.7375 -23.9268 -3.5145
-14.2318 -29.2075 -4.2119
-13.6999 -30.8749 -4.3781
-13.2962 -33.1127 -4.6242
-14.0517 -38.9721 -5.3680
-14.4427 -45.0464 -6.1287
3.6019 -43.1002 -5.5974
4.2819 -35.7636 -4.6612
4.7038 -30.1140 -3.9441
5.1972 -26.9174 -3.5474
6.2281 -27.0233 -3.5884
7.2696 -27.0760 -3.6276
4.5254 -14.7290 -1.9937
4.8315 -13.9295 -1.9077
5.4451 -14.0531 -1.9501
6.0994 -14.2105 -2.0010
6.7870 -14.3708 -2.0565
7.1093 -13.7559 -2.0037
7.4275 -13.1919 -1.9591
8.1048 -13.2614 -2.0113
8.8201 -13.3349 -2.0691
9.5786 -13.4128 -2.1332
10.3866 -13.4959 -2.2043
9.2344 -11.1494 -1.8740
9.3061 -10.4512 -1.8116
9.3733 -9.7971 -1.7554
9.4365 -9.1818 -1.7048
9.4962 -8.6004 -1.6591
9.5529 -8.0487 -1.6178
9.6069 -7.5233 -1.5805
9.6585 -7.0211 -1.5468
9.7080 -6.5393 -1.5165
9.7556 -6.0756 -1.4892
9.8016 -5.6279 -1.4648
9.8462 -5.1942 -1.4429
9.8895 -4.7728 -1.4235
9.9316 -4.3623 -1.4065
9.9728 -3.9610 -1.3916
10.5259 -3.7505 -1.4493
12.4879 -3.9521 -1.6992
15.2703 -4.2379 -2.0562
18.6526 -4.4645 -2.4890
18.7231 -3.7786 -2.4793
18.7930 -3.0975 -2.4728
18.8627 -2.4194 -2.4694
18.9322 -1.7425 -2.4693
19.0018 -1.0651 -2.4724
19.0716 -0.3854 -2.4786
-8.5778 46.3797 -5.1033
-9.9050 44.5718 -4.9404
-11.6396 44.7500 -5.0032
-13.4211 44.9330 -5.0743
-14.7996 43.7711 -4.9997
-13.9061 36.7395 -4.2507
-14.2704 33.9766 -3.9875
-14.5343 31.4071 -3.7446
-15.4395 30.4539 -3.6943
-14.9776 27.0928 -3.3494
-13.0452 21.7233 -2.7414
-13.1928 20.2869 -2.6179
-13.3278 18.9726 -2.5081
-14.2961 18.8770 -2.5613
-15.6574 19.2058 -2.6800
-16.4492 18.7638 -2.6986
-13.8790 14.7332 -2.1887
-13.9740 13.8088 -2.1241
-14.0636 12.9361 -2.0657
-14.1486 12.1088 -2.0130
-14.2899 11.3697 -1.9736
-12.9551 9.5711 -1.7406
-13.0222 8.9185 -1.7053
-13.0867 8.2907 -1.6735
-13.1489 7.6850 -1.6450
-13.2091 7.0987 -1.6194
-13.2676 6.5294 -1.5965
-6.4106 2.8746 -0.7584
-6.3296 2.5705 -0.7373
-14.6661 5.3529 -1.6846
-17.3098 5.6245 -1.9635
-21.0098 6.0046 -2.3567
-11.9159 2.9487 -1.3236
-12.0769 2.5337 -1.3303
-12.1290 2.0946 -1.3266
-12.1741 1.6562 -1.3239
-12.2120 1.2182 -1.3221
-12.2570 0.7810 -1.3227
-12.3020 0.3426 -1.3251
-12.3473 -0.0981 -1.3292
-12.3929 -0.5423 -1.3350
-12.4390 -0.9913 -1.3425
-12.4858 -1.4462 -1.3519
-12.5963 -1.9179 -1.3701
-12.6449 -2.3911 -1.3834
-12.6310 -2.8601 -1.3918
-12.6816 -3.3528 -1.4094
-12.7336 -3.8590 -1.4292
-12.7872 -4.3806 -1.4515
-12.8426 -4.9197 -1.4764
-12.9000 -5.4788 -1.5042
-12.8584 -6.0129 -1.5230
-12.9016 -6.6056 -1.5547
-14.7531 -8.2327 -1.8117
-11.2329 -6.8065 -1.4081
-11.7640 -7.7170 -1.5079
-11.0986 -7.8625 -1.4574
-18.3596 -14.0192 -2.4745
-18.4096 -15.1302 -2.5520
-17.2562 -15.2487 -2.4656
-16.1763 -15.3596 -2.3877
-15.1609 -15.4639 -2.3175
-14.2018 -15.5624 -2.2541
-13.2923 -15.6559 -2.1967
-12.4264 -15.7448 -2.1449
-11.6131 -15.8492 -2.1006
-12.2498 -18.0380 -2.3306
-12.2898 -19.5685 -2.4694
-12.4957 -21.5737 -2.6637
-12.7685 -23.9842 -2.9024
-14.2595 -29.2635 -3.4766
-14.6001 -32.9025 -3.8436
-13.2960 -33.1111 -3.8092
-14.2486 -39.5166 -4.4838
-15.1151 -47.1417 -5.2833
3.6619 -43.8214 -4.6869
4.2818 -35.7644 -3.8388
4.7620 -30.4871 -3.2884
5.1971 -26.9174 -2.9214
6.2280 -27.0233 -2.9551
4.3674 -16.2668 -1.7948
4.5254 -14.7291 -1.6419
4.6175 -13.3126 -1.5015
5.1719 -13.3479 -1.5254
5.7808 -13.4680 -1.5617
6.4231 -13.6002 -1.6028
7.1034 -13.7444 -1.6487
7.4275 -13.1919 -1.6134
8.1049 -13.2614 -1.6564
8.8202 -13.3349 -1.7040
9.0744 -12.7067 -1.6643
9.1574 -11.8986 -1.6005
9.2344 -11.1493 -1.5434
9.3061 -10.4510 -1.4920
9.3733 -9.7970 -1.4458
9.4365 -9.1817 -1.4041
9.4963 -8.6002 -1.3665
9.5529 -8.0486 -1.3325
9.6069 -7.5232 -1.3018
9.6585 -7.0210 -1.2741
9.7080 -6.5392 -1.2492
9.7556 -6.0755 -1.2268
9.8016 -5.6277 -1.2066
9.8462 -5.1940 -1.1887
9.8895 -4.7727 -1.1728
9.9316 -4.3621 -1.1587
9.9729 -3.9609 -1.1465
10.5266 -3.7506 -1.1942
12.4888 -3.9522 -1.4002
15.2718 -4.2381 -1.6945
18.6527 -4.4642 -2.0510
18.7231 -3.7783 -2.0431
18.7931 -3.0972 -2.0378
18.8627 -2.4191 -2.0351
18.9323 -1.7422 -2.0351
19.0018 -1.0648 -2.0377
19.0717 -0.3851 -2.0429
-8.5227 46.0810 -4.0051
-9.9051 44.5718 -3.9024
-11.6397 44.7500 -3.9521
-13.4212 44.9330 -4.0082
-12.2197 36.1408 -3.2609
-13.7858 36.4217 -3.3286
-14.2704 33.9767 -3.1498
-14.5343 31.4073 -2.9579
-15.4394 30.4539 -2.9182
-14.9775 27.0930 -2.6457
-13.1430 21.8864 -2.1816
-13.9207 21.4065 -2.1819
-14.6786 20.8959 -2.1819
-15.4180 20.3587 -2.1818
-15.7732 19.3480 -2.1324
-12.4763 14.2322 -1.6166
-12.5678 13.3416 -1.5653
-12.6538 12.5045 -1.5191
-12.7350 11.7142 -1.4773
-12.8119 10.9651 -1.4395
-12.8852 10.2522 -1.4053
-12.9551 9.5713 -1.3744
-13.0222 8.9187 -1.3465
-13.0867 8.2909 -1.3214
-13.1489 7.6852 -1.2988
-13.2091 7.0989 -1.2785
-13.2676 6.5296 -1.2604
-6.4105 2.8747 -0.5987
-6.3296 2.5706 -0.5820
-14.6652 5.3528 -1.3296
-17.3085 5.6243 -1.5496
-21.0079 6.0044 -1.8599
-11.9159 2.9489 -1.0446
-12.0769 2.5339 -1.0498
-12.1333 2.0955 -1.0472
-12.1784 1.6570 -1.0450
-12.2155 1.2188 -1.0434
-12.2569 0.7813 -1.0436
-12.3020 0.3429 -1.0454
-12.3472 -0.0979 -1.0485
-12.3929 -0.5421 -1.0530
-12.4390 -0.9911 -1.0589
-12.4857 -1.4460 -1.0662
-12.5962 -1.9177 -1.0805
-12.6449 -2.3909 -1.0909
-12.6310 -2.8599 -1.0975
-12.6816 -3.3526 -1.1112
-12.7336 -3.8587 -1.1268
-12.7872 -4.3803 -1.1442
-12.8426 -4.9195 -1.1638
-12.9000 -5.4785 -1.1856
-12.8584 -6.0126 -1.2004
-12.9016 -6.6053 -1.2253
-14.8777 -8.3019 -1.4398
-11.2328 -6.8062 -1.1095
-12.2994 -8.0678 -1.2422
-11.5862 -8.2076 -1.1987
-18.3596 -14.0187 -1.9495
-18.4102 -15.1301 -2.0104
-17.2567 -15.2486 -1.9422
-16.1768 -15.3595 -1.8808
-15.1613 -15.4639 -1.8253
-14.2022 -15.5624 -1.7752
-13.2927 -15.6558 -1.7300
-12.4267 -15.7448 -1.6891
-11.6131 -15.8486 -1.6541
-12.2497 -18.0373 -1.8350
-12.2897 -19.5677 -1.9442
-12.4956 -21.5728 -2.0970
-12.7704 -23.9871 -2.2852
-14.2594 -29.2623 -2.7367
-14.6006 -32.9024 -3.0256
-13.2959 -33.1095 -2.9982
-14.2483 -39.5145 -3.5290
-15.1464 -47.2376 -4.1667
3.6617 -43.8214 -3.6875
3.1786 -26.5503 -2.2421
4.1581 -26.6219 -2.2592
5.1544 -26.6967 -2.2796
6.2280 -27.0233 -2.3249
4.3674 -16.2668 -1.4120
4.5253 -14.7291 -1.2917
4.6175 -13.3126 -1.1812
5.0386 -13.0039 -1.1691
5.6067 -13.0624 -1.1917
6.1919 -13.1105 -1.2156
6.7952 -13.1479 -1.2408
7.4276 -13.1919 -1.2693
8.1050 -13.2615 -1.3032
8.7436 -13.2190 -1.3291
9.0744 -12.7065 -1.3095
9.1574 -11.8984 -1.2593
9.2344 -11.1492 -1.2144
9.3061 -10.4509 -1.1740
9.3733 -9.7969 -1.1377
9.4365 -9.1815 -1.1049
9.4963 -8.6001 -1.0753
9.5536 -8.0490 -1.0487
9.6069 -7.5230 -1.0245
9.6585 -7.0208 -1.0028
9.7080 -6.5390 -0.9832
9.7556 -6.0753 -0.9656
9.8016 -5.6276 -0.9498
9.8462 -5.1939 -0.9357
9.8895 -4.7725 -0.9232
9.9317 -4.3619 -0.9122
9.9729 -3.9607 -0.9026
10.5273 -3.7507 -0.9403
12.4898 -3.9523 -1.1026
15.2732 -4.2382 -1.3344
18.6527 -4.4639 -1.6151
18.7231 -3.7780 -1.6090
18.7931 -3.0969 -1.6049
18.8628 -2.4188 -1.6029
18.9323 -1.7419 -1.6030
19.0019 -1.0644 -1.6052
19.0717 -0.3847 -1.6094
25.4718 0.3979 -2.1500
25.5848 1.3164 -2.1629
12.2748 20.8101 -1.5110
11.3431 20.9058 -1.4881
10.4388 20.9987 -1.4676
9.5586 21.0891 -1.4496
8.6991 21.1774 -1.4338
8.4030 22.7395 -1.5186
-8.5779 46.3788 -2.9629
-9.9052 44.5718 -2.8685
-11.6397 44.7500 -2.9050
-11.3673 38.0566 -2.4954
-11.7215 34.6673 -2.2992
-13.1718 34.7995 -2.3378
-14.2704 33.9769 -2.3153
-14.5343 31.4074 -2.1742
-15.4393 30.4539 -2.1450
-14.9775 27.0932 -1.9446
-13.3943 22.3050 -1.6342
-15.3378 23.5859 -1.7670
-15.4948 22.0580 -1.6928
-15.6465 20.6606 -1.6273
-15.7732 19.3483 -1.5671
-12.4763 14.2323 -1.1880
-12.5678 13.3417 -1.1503
-12.6538 12.5046 -1.1162
-12.7350 11.7144 -1.0854
-12.8119 10.9653 -1.0576
-12.8852 10.2524 -1.0325
-12.9551 9.5715 -1.0097
-13.0222 8.9189 -0.9891
-13.0866 8.2911 -0.9706
-13.1489 7.6854 -0.9539
-13.2091 7.0991 -0.9389
-13.2676 6.5298 -0.9256
-6.4104 2.8748 -0.4396
-6.3296 2.5707 -0.4273
-14.6643 5.3527 -0.9761
-17.3073 5.6242 -1.1374
-21.0061 6.0042 -1.3650
-11.9159 2.9491 -0.7667
-12.0769 2.5341 -0.7704
-12.1376 2.0965 -0.7687
-12.1828 1.6578 -0.7669
-12.2198 1.2194 -0.7657
-12.2569 0.7815 -0.7655
-12.3019 0.3431 -0.7667
-12.3472 -0.0977 -0.7689
-12.3929 -0.5419 -0.7721
-12.4390 -0.9908 -0.7763
-12.4857 -1.4457 -0.7816
-12.5962 -1.9175 -0.7920
-12.6448 -2.3906 -0.7995
-12.6310 -2.8596 -0.8042
-12.6816 -3.3523 -0.8142
-12.7336 -3.8585 -0.8255
-12.7872 -4.3801 -0.8382
-12.8425 -4.9192 -0.8524
-12.9000 -5.4782 -0.8683
-12.8583 -6.0123 -0.8790
-12.9016 -6.6050 -0.8971
-14.8777 -8.3015 -1.0540
-11.2328 -6.8059 -0.8122
-12.8835 -8.4507 -0.9523
-12.1165 -8.5829 -0.9173
-11.4005 -8.7047 -0.8858
-18.4108 -15.1300 -1.4709
-17.2572 -15.2486 -1.4208
-16.1773 -15.3595 -1.3757
-15.1618 -15.4638 -1.3350
-14.2027 -15.5624 -1.2982
-13.2931 -15.6558 -1.2650
-12.4271 -15.7447 -1.2349
-11.6130 -15.8480 -1.2092
-12.0546 -17.7494 -1.3200
-12.2896 -19.5670 -1.4210
-12.4956 -21.5720 -1.5325
-12.7706 -23.9866 -1.6699
-14.2593 -29.2611 -1.9996
-14.6011 -32.9024 -2.2106
-13.2957 -33.1080 -2.1903
-14.2481 -39.5126 -2.5778
-15.0151 -46.8264 -3.0171
3.0391 -36.3722 -2.2344
4.2483 -35.4866 -2.1877
4.0045 -25.6387 -1.5882
4.9662 -25.7222 -1.6033
6.2279 -27.0233 -1.6971
7.3092 -27.2240 -1.7249
6.3266 -20.5919 -1.3182
5.9555 -17.1701 -1.1121
5.0990 -13.1597 -0.8636
6.8766 -16.0209 -1.0669
6.9615 -14.7401 -0.9976
7.1093 -13.7557 -0.9476
7.4277 -13.1919 -0.9266
8.1050 -13.2615 -0.9513
8.7437 -13.2190 -0.9702
9.0744 -12.7064 -0.9560
9.1574 -11.8983 -0.9194
9.3022 -11.2309 -0.8931
9.3745 -10.5275 -0.8635
9.3733 -9.7967 -0.8307
9.4394 -9.1841 -0.8071
9.4963 -8.5999 -0.7853
9.5530 -8.0483 -0.7658
9.6069 -7.5229 -0.7483
9.6585 -7.0207 -0.7324
9.7080 -6.5389 -0.7182
9.7557 -6.0752 -0.7054
9.8017 -5.6274 -0.6939
9.8462 -5.1937 -0.6837
9.8895 -4.7724 -0.6746
9.9317 -4.3618 -0.6666
9.9729 -3.9606 -0.6597
10.5280 -3.7507 -0.6873
12.7117 -4.0223 -0.8203
15.2746 -4.2384 -0.9756
18.6527 -4.4636 -1.1809
18.7232 -3.7777 -1.1765
18.7931 -3.0966 -1.1737
18.7936 -2.4096 -1.1681
18.8628 -1.7351 -1.1683
19.0019 -1.0641 -1.1743
19.0717 -0.3844 -1.1775
24.4527 0.3824 -1.5103
24.5576 1.2640 -1.5193
12.2744 20.8101 -0.9655
11.3428 20.9058 -0.9510
10.4385 20.9987 -0.9381
9.5583 21.0891 -0.9267
8.6989 21.1774 -0.9168
8.4032 22.7406 -0.9713
8.8535 26.8809 -1.1344
9.4315 32.5077 -1.3573
-7.2289 48.7882 -1.9844
-8.1152 43.8763 -1.7955
-9.9053 44.5718 -1.8374
-11.6398 44.7500 -1.8609
-13.4212 44.9330 -1.8874
-15.2563 45.1215 -1.9170
-13.9764 36.9255 -1.5891
-14.2703 33.9769 -1.4831
-14.5343 31.4075 -1.3927
-15.4392 30.4538 -1.3739
-14.9775 27.0933 -1.2456
-13.3946 22.3057 -1.0467
-15.3378 23.5862 -1.1317
-15.4948 22.0582 -1.0841
-15.6571 20.6748 -1.0427
-15.7731 19.3485 -1.0035
-12.4763 14.2325 -0.7606
-12.5678 13.3419 -0.7364
-12.7230 12.5732 -0.7184
-12.7350 11.7146 -0.6947
-12.8119 10.9655 -0.6768
-12.8851 10.2526 -0.6606
-12.9551 9.5717 -0.6460
-13.0221 8.9190 -0.6327
-13.0866 8.2913 -0.6208
-13.1489 7.6856 -0.6100
-13.2091 7.0993 -0.6003
-13.2676 6.5300 -0.5917
-6.4103 2.8748 -0.2809
-13.3802 5.4343 -0.5772
-14.6634 5.3526 -0.6235
-17.3060 5.6241 -0.7265
-21.0042 6.0040 -0.8716
-10.2778 2.5439 -0.4222
-10.3168 2.1649 -0.4201
-10.3554 1.7888 -0.4185
-10.3939 1.4146 -0.4175
-10.4322 1.0412 -0.4170
-10.4706 0.6677 -0.4170
-10.5091 0.2933 -0.4176
-10.5477 -0.0832 -0.4187
-10.5867 -0.4627 -0.4203
-10.6261 -0.8462 -0.4225
-10.6660 -1.2348 -0.4253
-10.7066 -1.6296 -0.4286
-10.7479 -2.0318 -0.4326
-10.7901 -2.4426 -0.4372
-10.8334 -2.8635 -0.4425
-10.8778 -3.2959 -0.4485
-10.9235 -3.7415 -0.4553
-12.8425 -4.9189 -0.5419
-12.8999 -5.4779 -0.5518
-12.8583 -6.0120 -0.5585
-12.9015 -6.6047 -0.5698
-14.8777 -8.3012 -0.6693
-11.2328 -6.8056 -0.5156
-13.0924 -8.5873 -0.6142
-15.1395 -10.7239 -0.7273
-11.4302 -8.7270 -0.5634
-18.4113 -15.1300 -0.9329
-17.2577 -15.2485 -0.9009
-16.1778 -15.3594 -0.8721
-15.1622 -15.4638 -0.8461
-14.2031 -15.5623 -0.8225
-13.2935 -15.6558 -0.8013
-12.4275 -15.7447 -0.7821
-11.6130 -15.8474 -0.7656
-11.7644 -17.3216 -0.8154
-11.9374 -19.0057 -0.8735
-12.4955 -21.5712 -0.9696
-12.7371 -23.9229 -1.0536
-12.6928 -26.0457 -1.1257
-13.0345 -29.3712 -1.2479
-13.2955 -33.1064 -1.3847
-14.2479 -39.5106 -1.6295
-15.1645 -47.2902 -1.9257
3.3262 -39.8102 -1.5436
4.2529 -35.5256 -1.3823
3.8530 -24.6694 -0.9645
4.7850 -24.7843 -0.9749
6.2279 -27.0233 -1.0710
7.3091 -27.2240 -1.0885
6.3266 -20.5919 -0.8319
6.5751 -18.9562 -0.7748
5.0985 -13.1583 -0.5449
6.8766 -16.0209 -0.6733
7.0052 -14.8325 -0.6335
7.1093 -13.7556 -0.5980
7.4277 -13.1919 -0.5848
8.1051 -13.2615 -0.6004
8.7437 -13.2190 -0.6124
9.0744 -12.7063 -0.6035
9.1575 -11.8982 -0.5804
9.3023 -11.2308 -0.5639
9.3745 -10.5274 -0.5452
9.3734 -9.7966 -0.5246
9.4394 -9.1840 -0.5097
9.4963 -8.5998 -0.4960
9.5530 -8.0482 -0.4838
9.6070 -7.5228 -0.4728
9.6585 -7.0205 -0.4628
9.6612 -6.5072 -0.4517
9.7578 -6.0764 -0.4460
9.8039 -5.6286 -0.4388
9.8486 -5.1948 -0.4324
9.8895 -4.7722 -0.4267
9.9317 -4.3616 -0.4217
9.9729 -3.9604 -0.4174
10.5286 -3.7508 -0.4350
12.7117 -4.0221 -0.5192
15.2760 -4.2385 -0.6178
18.6528 -4.4633 -0.7479
18.7232 -3.7774 -0.7453
18.7932 -3.0963 -0.7436
18.9772 -2.4328 -0.7475
19.0471 -1.7518 -0.7478
19.0019 -1.0638 -0.7446
19.0718 -0.3841 -0.7468
23.7656 0.3720 -0.9312
23.8536 1.2281 -0.9364
12.2740 20.8101 -0.4209
11.3424 20.9058 -0.4149
10.4382 20.9987 -0.4095
9.5579 21.0892 -0.4048
8.6986 21.1774 -0.4007
8.4033 22.7418 -0.4248
8.8536 26.8824 -0.4965
9.4317 32.5097 -0.5944
10.2931 40.8938 -0.7411
-7.8278 42.3219 -0.7617
-9.9054 44.5719 -0.8083
-11.6399 44.7500 -0.8187
-13.4213 44.9330 -0.8303
-14.5505 43.0342 -0.8044
-13.9892 36.9595 -0.6998
-14.2703 33.9770 -0.6525
-14.5343 31.4076 -0.6127
-15.4391 30.4538 -0.6043
-14.9775 27.0935 -0.5478
-13.3949 22.3064 -0.4603
-15.3378 23.5863 -0.4975
-15.4948 22.0584 -0.4765
-15.6552 20.6726 -0.4581
-15.7731 19.3487 -0.4408
-12.4763 14.2327 -0.3340
-12.5678 13.3421 -0.3232
-12.7230 12.5734 -0.3152
-12.7349 11.7148 -0.3047
-12.8119 10.9657 -0.2967
-12.8851 10.2528 -0.2895
-12.9551 9.5719 -0.2829
-13.0221 8.9192 -0.2770
-13.0866 8.2915 -0.2716
-13.1516 7.6874 -0.2667
-13.2118 7.1010 -0.2624
-13.2675 6.5302 -0.2583
-6.4102 2.8749 -0.1226
-13.3801 5.4345 -0.2517
-14.6625 5.3525 -0.2717
-17.3047 5.6239 -0.3163
-21.0023 6.0038 -0.3792
-11.9158 2.9495 -0.2128
-12.0768 2.5345 -0.2136
-12.1421 2.0977 -0.2130
-10.4186 1.4181 -0.1815
-12.2270 1.2205 -0.2118
-12.2569 0.7819 -0.2113
-12.3019 0.3435 -0.2114
-12.3472 -0.0972 -0.2118
-12.3928 -0.5414 -0.2124
-12.4389 -0.9904 -0.2133
-10.6914 -1.2376 -0.1837
-10.7321 -1.6333 -0.1850
-12.5815 -2.3782 -0.2178
-10.8258 -2.4505 -0.1885
-12.6815 -3.3518 -0.2224
-12.7335 -3.8579 -0.2252
-12.7871 -4.3795 -0.2283
-12.8425 -4.9186 -0.2319
-12.8999 -5.4776 -0.2359
-12.9596 -6.0591 -0.2404
-11.1507 -5.7081 -0.2102
-14.8777 -8.3008 -0.2853
-11.2327 -6.8053 -0.2196
-13.0923 -8.5869 -0.2613
-15.1395 -10.7235 -0.3091
-11.4301 -8.7267 -0.2392
-18.4119 -15.1299 -0.3958
-17.2583 -15.2484 -0.3818
-16.1783 -15.3594 -0.3693
-15.1627 -15.4637 -0.3579
-14.2035 -15.5623 -0.3477
-13.2938 -15.6557 -0.3384
-12.4278 -15.7447 -0.3300
-11.9555 -16.3143 -0.3323
-12.1114 -17.8319 -0.3536
-12.2895 -19.5655 -0.3785
-12.4954 -21.5703 -0.4078
-12.4175 -23.3220 -0.4316
-12.6927 -26.0446 -0.4727
-13.0343 -29.3700 -0.5236
-13.2954 -33.1049 -0.5806
-13.8359 -38.3666 -0.6630
-14.5583 -45.3983 -0.7742
2.7341 -32.7249 -0.5288
3.2981 -27.5513 -0.4466
4.7036 -30.1159 -0.4904
5.1968 -26.9174 -0.4409
6.2278 -27.0233 -0.4460
7.2694 -27.0760 -0.4508
6.3266 -20.5920 -0.3463
6.5751 -18.9562 -0.3226
5.0980 -13.1570 -0.2269
6.8766 -16.0208 -0.2803
7.0115 -14.8457 -0.2640
7.1093 -13.7555 -0.2491
7.4278 -13.1919 -0.2436
8.1052 -13.2615 -0.2502
8.7438 -13.2190 -0.2552
9.0745 -12.7062 -0.2515
9.1575 -11.8981 -0.2420
9.3023 -11.2307 -0.2352
9.3745 -10.5273 -0.2275
9.3734 -9.7965 -0.2190
9.4394 -9.1839 -0.2129
9.4963 -8.5997 -0.2073
9.5530 -8.0480 -0.2023
9.6070 -7.5226 -0.1978
9.6586 -7.0204 -0.1937
9.6613 -6.5071 -0.1892
9.7629 -6.0794 -0.1870
9.8089 -5.6313 -0.1841
9.8490 -5.1949 -0.1815
9.8895 -4.7721 -0.1792
9.9317 -4.3615 -0.1772
9.9729 -3.9603 -0.1756
10.5293 -3.7509 -0.1831
12.7117 -4.0219 -0.2187
15.2774 -4.2387 -0.2605
18.6528 -4.4630 -0.3156
18.7232 -3.7771 -0.3148
18.7932 -3.0960 -0.3144
18.9772 -2.4325 -0.3163
19.0472 -1.7514 -0.3167
19.0020 -1.0635 -0.3156
19.0718 -0.3838 -0.3169
24.0046 1.2363 -0.4006
12.2736 20.8102 0.1232
11.3421 20.9059 0.1208
10.4379 20.9988 0.1186
9.5577 21.0892 0.1166
8.6983 21.1775 0.1149
8.4034 22.7430 0.1212
8.8538 26.8839 0.1410
9.4319 32.5117 0.1680
10.2934 40.8968 0.2086
-6.8420 46.1747 0.2254
-8.5780 46.3774 0.2275
-9.9055 44.5719 0.2201
-11.6400 44.7500 0.2227
-11.5994 38.8336 0.1952
-11.9562 35.3612 0.1797
-13.1206 34.6644 0.1785
-14.2703 33.9771 0.1775
-14.5343 31.4078 0.1668
-15.4390 30.4538 0.1647
-14.9775 27.0937 0.1494
-13.3952 22.3071 0.1258
-15.3378 23.5865 0.1361
-15.4947 22.0586 0.1306
-15.6397 20.6523 0.1258
-15.7731 19.3489 0.1214
-12.4762 14.2329 0.0923
-12.5677 13.3423 0.0896
-12.7229 12.5736 0.0876
-12.7349 11.7149 0.0850
-12.8119 10.9659 0.0831
-12.8851 10.2530 0.0814
-12.9550 9.5721 0.0799
-13.0221 8.9194 0.0785
-13.0866 8.2917 0.0774
-13.1583 7.6915 0.0764
-13.2185 7.1048 0.0755
-13.2675 6.5304 0.0747
-6.4101 2.8750 0.0356
-13.3801 5.4347 0.0736
-14.6616 5.3524 0.0799
-17.3035 5.6238 0.0935
-21.0005 6.0036 0.1128
-11.9158 2.9497 0.0637
-12.0768 2.5347 0.0643
-12.1340 2.0965 0.0645
-10.4186 1.4183 0.0553
-12.2238 1.2204 0.0650
-12.2568 0.7821 0.0653
-12.3019 0.3437 0.0658
-12.3472 -0.0970 0.0663
-12.3928 -0.5412 0.0670
-12.4389 -0.9902 0.0677
-10.6914 -1.2374 0.0587
-10.7320 -1.6331 0.0595
-12.5815 -2.3779 0.0706
-10.8264 -2.4504 0.0615
-12.6815 -3.3515 0.0731
-12.7335 -3.8577 0.0745
-12.7871 -4.3792 0.0761
-12.8425 -4.9183 0.0778
-12.8999 -5.4773 0.0797
-12.9596 -6.0588 0.0818
-11.1506 -5.7079 0.0720
-12.9622 -7.2318 0.0857
-11.2327 -6.8050 0.0762
-13.0923 -8.5866 0.0913
-14.9574 -10.5941 0.1074
-11.4301 -8.7263 0.0847
-18.4125 -15.1299 0.1409
-17.2588 -15.2484 0.1368
-16.1788 -15.3593 0.1331
-15.1631 -15.4637 0.1298
-14.2039 -15.5622 0.1268
-13.2942 -15.6557 0.1242
-12.4282 -15.7446 0.1218
-11.9554 -16.3137 0.1233
-12.1113 -17.8312 0.1319
-12.2894 -19.5647 0.1419
-12.4953 -21.5695 0.1537
-12.7048 -23.8606 0.1672
-12.6926 -26.0435 0.1798
-13.0342 -29.3687 0.2001
-13.6910 -34.0887 0.2295
-14.2475 -39.5066 0.2631
-14.9914 -46.7471 0.3085
2.0404 -42.8693 0.2752
2.7340 -32.7257 0.2108
3.2980 -27.5513 0.1783
4.7617 -30.4890 0.1985
5.1071 -26.4530 0.1734
6.2278 -27.0233 0.1786
7.2843 -27.1318 0.1810
6.3266 -20.5920 0.1388
6.5751 -18.9562 0.1293
5.0974 -13.1556 0.0909
6.8766 -16.0208 0.1123
7.0178 -14.8589 0.1058
7.1094 -13.7555 0.0997
7.4279 -13.1919 0.0974
8.1052 -13.2615 0.0999
8.7439 -13.2190 0.1018
9.0745 -12.7060 0.1001
9.1575 -11.8979 0.0961
9.3023 -11.2305 0.0932
9.3745 -10.5271 0.0900
9.3734 -9.7963 0.0864
9.4395 -9.1837 0.0837
9.4963 -8.5995 0.0813
9.5530 -8.0479 0.0791
9.6070 -7.5225 0.0770
9.6586 -7.0202 0.0752
9.6613 -6.5069 0.0732
9.7680 -6.0824 0.0721
9.8140 -5.6341 0.0707
9.8490 -5.1947 0.0693
9.8895 -4.7719 0.0681
9.9317 -4.3613 0.0671
9.9729 -3.9601 0.0661
10.5300 -3.7510 0.0686
12.7117 -4.0217 0.0815
15.2789 -4.2388 0.0966
18.6528 -4.4627 0.1164
18.7233 -3.7768 0.1154
18.7932 -3.0957 0.1146
18.9772 -2.4322 0.1146
19.0472 -1.7511 0.1141
19.0020 -1.0631 0.1130
19.0718 -0.3834 0.1128
24.0040 1.2367 0.1407
12.2733 20.8102 0.6675
11.3417 20.9059 0.6566
10.4376 20.9988 0.6469
9.5573 21.0892 0.6382
8.6980 21.1775 0.6306
8.4036 22.7442 0.6674
8.8539 26.8853 0.7786
9.4321 32.5137 0.9307
10.2937 40.8997 1.1587
2.8719 20.4991 0.5678
2.1368 20.5904 0.5676
1.3989 20.6568 0.5674
1.4329 45.0010 1.2334
-0.1787 45.1693 1.2370
-6.7994 45.8860 1.2690
-8.1040 43.8139 1.2187
-7.9756 35.8874 1.0054
-8.0345 30.8885 0.8727
-8.3269 27.8775 0.7955
-8.5467 25.2775 0.7296
-13.1205 34.6644 1.0134
-14.2703 33.9772 1.0077
-14.5343 31.4079 0.9464
-15.4389 30.4538 0.9338
-14.9775 27.0939 0.8468
-12.8181 21.3463 0.6812
-13.1969 20.2946 0.6625
-13.3320 18.9799 0.6349
-14.0516 18.5555 0.6373
-15.2243 18.6759 0.6600
-12.4762 14.2331 0.5187
-12.5677 13.3425 0.5025
-12.7229 12.5738 0.4906
-12.7349 11.7151 0.4748
-12.8118 10.9661 0.4630
-12.8851 10.2532 0.4523
-12.9550 9.5723 0.4427
-13.0221 8.9196 0.4341
-13.0866 8.2919 0.4264
-13.1650 7.6957 0.4200
-13.2252 7.1086 0.4138
-13.2675 6.5306 0.4078
-6.4100 2.8750 0.1939
-13.3801 5.4349 0.3989
-14.6607 5.3523 0.4314
-17.3022 5.6237 0.5033
-20.9986 6.0034 0.6048
-11.5209 2.8521 0.3289
-12.0768 2.5349 0.3423
-12.1258 2.0952 0.3417
-10.4186 1.4185 0.2922
-12.2157 1.2198 0.3415
-12.2568 0.7823 0.3420
-12.3019 0.3439 0.3430
-12.3471 -0.0968 0.3445
-12.3928 -0.5410 0.3464
-12.4389 -0.9899 0.3488
-10.6914 -1.2372 0.3012
-10.7320 -1.6329 0.3041
-12.5815 -2.3777 0.3590
-10.8270 -2.4504 0.3116
-12.6815 -3.3513 0.3686
-12.7335 -3.8574 0.3742
-12.7870 -4.3790 0.3806
-10.9708 -4.2013 0.3311
-11.0198 -4.6788 0.3378
-11.0709 -5.1755 0.3452
-11.1241 -5.6940 0.3533
-11.1799 -6.2372 0.3623
-11.2327 -6.8047 0.3720
-13.0923 -8.5862 0.4440
-14.9573 -10.5937 0.5203
-11.4301 -8.7260 0.4086
-18.4131 -15.1298 0.6778
-17.2593 -15.2483 0.6557
-16.1793 -15.3593 0.6357
-15.1636 -15.4636 0.6177
-14.2043 -15.5622 0.6015
-13.2946 -15.6556 0.5869
-12.4286 -15.7446 0.5737
-11.9553 -16.3131 0.5789
-12.1112 -17.8305 0.6175
-12.2893 -19.5640 0.6624
-12.4952 -21.5686 0.7152
-12.7047 -23.8597 0.7762
-12.6925 -26.0424 0.8325
-13.0341 -29.3674 0.9239
-13.6908 -34.0871 1.0570
-14.2473 -39.5046 1.2092
-14.9911 -46.7444 1.4143
-10.3016 -36.5738 1.0954
-0.7243 -30.1440 0.8721
1.8918 -39.7521 1.1518
2.7199 -32.5593 0.9458
3.2637 -27.2658 0.7951
4.1446 -26.5383 0.7779
5.0841 -26.3342 0.7769
6.2277 -27.0233 0.8034
7.2843 -27.1318 0.8139
6.3869 -20.7882 0.6301
6.5751 -18.9562 0.5813
5.0969 -13.1543 0.4087
6.8766 -16.0207 0.5051
7.0181 -14.8596 0.4761
7.1094 -13.7554 0.4485
7.4279 -13.1919 0.4384
8.1053 -13.2615 0.4500
8.8207 -13.3350 0.4628
9.0745 -12.7059 0.4519
9.1575 -11.8978 0.4344
9.3023 -11.2304 0.4218
9.3746 -10.5270 0.4075
9.3734 -9.7962 0.3918
9.4395 -9.1836 0.3804
9.4963 -8.5994 0.3699
9.5530 -8.0477 0.3605
9.6070 -7.5223 0.3519
9.6586 -7.0201 0.3442
9.6613 -6.5068 0.3356
9.7731 -6.0854 0.3315
9.8190 -5.6368 0.3258
9.8490 -5.1946 0.3202
9.8896 -4.7718 0.3155
9.9317 -4.3612 0.3114
9.9730 -3.9599 0.3078
10.5307 -3.7510 0.3205
12.7118 -4.0215 0.3819
15.2803 -4.2390 0.4538
18.6528 -4.4624 0.5484
18.7233 -3.7765 0.5457
18.7933 -3.0953 0.5437
18.7937 -2.4083 0.5404
18.8630 -1.7339 0.5397
19.0020 -1.0628 0.5418
19.0719 -0.3831 0.5425
44.4243 0.6978 1.2623
24.0035 1.2371 0.6822
12.2577 20.7844 1.2109
11.3414 20.9059 1.1931
10.4372 20.9988 1.1758
9.5570 21.0893 1.1605
8.6977 21.1775 1.1470
8.3683 22.6494 1.2093
10.1670 30.8735 1.6273
9.0408 31.1661 1.6240
7.9228 31.4809 1.6241
6.7937 31.7551 1.6241
5.6549 31.9881 1.6242
2.6089 18.6227 0.9400
1.9394 18.6894 0.9390
1.2701 18.7561 0.9392
1.1003 34.5626 1.7273
-0.1371 34.5867 1.7273
-1.3747 34.5659 1.7273
-2.5634 33.8710 1.6958
-3.6148 32.3368 1.6242
-4.7701 32.1905 1.6242
-5.9194 32.0024 1.6242
-7.0963 31.9308 1.6323
-7.5991 29.2144 1.5063
-8.3269 27.8775 1.4517
-8.5467 25.2775 1.3314
-11.8285 31.2509 1.6673
-12.9387 30.8067 1.6673
-14.0319 30.3225 1.6673
-9.3779 18.4984 1.0350
-12.1680 22.0118 1.2553
-9.6075 15.9997 0.9315
-9.6311 14.8110 0.8820
-9.5838 13.6439 0.8325
-10.2020 13.4722 0.8439
-9.9919 12.2574 0.7899
-10.0630 11.4802 0.7627
-10.1428 10.7683 0.7392
-10.2341 10.1143 0.7192
-10.3262 9.4995 0.7015
-12.8118 10.9662 0.8434
-12.8907 10.2579 0.8241
-12.9550 9.5725 0.8061
-13.0221 8.9198 0.7901
-13.0865 8.2921 0.7758
-13.1715 7.6997 0.7643
-13.2318 7.1124 0.7528
-13.2675 6.5308 0.7414
-6.4099 2.8751 0.3523
-13.3800 5.4351 0.7246
-14.6598 5.3522 0.7834
-17.3009 5.6236 0.9136
-20.9967 6.0032 1.0973
-10.2474 2.5370 0.5307
-10.2862 2.1592 0.5286
-10.3248 1.7842 0.5272
-10.3631 1.4111 0.5266
-10.4013 1.0388 0.5265
-10.4396 0.6665 0.5272
-10.4779 0.2931 0.5286
-10.5165 -0.0823 0.5306
-10.5554 -0.4606 0.5334
-10.5947 -0.8430 0.5368
-10.6345 -1.2304 0.5410
-10.6749 -1.6240 0.5460
-10.7161 -2.0250 0.5518
-10.7582 -2.4346 0.5584
-10.8013 -2.8542 0.5659
-10.8456 -3.2853 0.5744
-10.8912 -3.7295 0.5838
-5.0808 -1.9456 0.2761
-5.0050 -2.1249 0.2761
-4.9229 -2.3013 0.2761
-4.8347 -2.4746 0.2761
-4.7403 -2.6445 0.2761
-4.6401 -2.8108 0.2761
-4.5340 -2.9734 0.2761
-4.4222 -3.1320 0.2761
-4.3050 -3.2864 0.2761
-4.1824 -3.4365 0.2761
-4.0546 -3.5820 0.2761
-3.9217 -3.7228 0.2761
-15.1640 -15.4636 1.1063
-14.2048 -15.5621 1.0768
-13.2950 -15.6556 1.0502
-12.4289 -15.7446 1.0261
-11.9553 -16.3125 1.0351
-12.1111 -17.8299 1.1037
-12.2892 -19.5633 1.1835
-12.4951 -21.5678 1.2774
-12.7046 -23.8587 1.3859
-12.6924 -26.0413 1.4859
-12.8410 -28.9313 1.6242
-11.7931 -29.3611 1.6242
-10.7310 -29.7535 1.6242
-9.6561 -30.1079 1.6242
-9.1136 -32.3550 1.7273
-7.9476 -32.6501 1.7273
-6.7721 -32.9037 1.7273
-5.5889 -33.1156 1.7273
-4.3992 -33.2857 1.7273
-3.2045 -33.4136 1.7273
-2.0064 -33.4993 1.7273
-0.7174 -29.8482 1.5370
0.3709 -31.5386 1.6240
1.4989 -31.4998 1.6240
2.6247 -31.4213 1.6240
3.2637 -27.2664 1.4146
4.0116 -25.6873 1.3394
4.9786 -25.7886 1.3533
6.2276 -27.0233 1.4289
7.2842 -27.1318 1.4476
6.3869 -20.7882 1.1207
6.5751 -18.9562 1.0339
5.0964 -13.1529 0.7269
6.8766 -16.0207 0.8984
7.0090 -14.8401 0.8457
7.1094 -13.7553 0.7978
7.4280 -13.1919 0.7800
8.1054 -13.2615 0.8006
8.8208 -13.3350 0.8235
9.0745 -12.7058 0.8041
9.1575 -11.8977 0.7730
9.2384 -11.1532 0.7455
9.3116 -10.4561 0.7206
9.3734 -9.7960 0.6977
9.4395 -9.1835 0.6775
9.4964 -8.5992 0.6589
9.5530 -8.0476 0.6422
9.6070 -7.5222 0.6272
9.6586 -7.0199 0.6135
9.6613 -6.5066 0.5983
9.7782 -6.0884 0.5915
9.8241 -5.6395 0.5814
9.8490 -5.1944 0.5713
9.8896 -4.7716 0.5632
9.9318 -4.3610 0.5561
9.9730 -3.9598 0.5499
10.5313 -3.7511 0.5727
12.4609 -3.9419 0.6692
15.2818 -4.2391 0.8116
18.6529 -4.4621 0.9811
18.7233 -3.7762 0.9766
18.7933 -3.0950 0.9733
18.8630 -2.4169 0.9713
18.9325 -1.7399 0.9706
19.0021 -1.0625 0.9711
19.0719 -0.3828 0.9728
32.1198 0.5051 1.6373
24.0029 1.2375 1.2243
31.7774 2.7813 1.6240
31.6761 3.9188 1.6241
18.0776 2.8966 0.9311
11.3341 19.2190 1.6241
10.6423 19.6180 1.6241
9.9364 19.9919 1.6241
9.2174 20.3404 1.6241
8.4859 20.6625 1.6241
7.7431 20.9580 1.6240
6.9902 21.2277 1.6241
6.2279 21.4700 1.6241
5.4571 21.6844 1.6242
4.6871 21.9096 1.6271
4.1412 23.4268 1.7273
2.6089 18.6237 1.3651
1.9393 18.6904 1.3638
1.2700 18.7570 1.3643
0.7573 23.7942 1.7273
-0.0945 23.8093 1.7273
-0.9464 23.7936 1.7273
-1.7973 23.7471 1.7273
-2.6461 23.6699 1.7273
-3.4916 23.5619 1.7273
-4.0741 22.0255 1.6242
-4.7421 21.3375 1.5849
-5.6392 21.6798 1.6242
-6.4115 21.4646 1.6242
-7.1754 21.2217 1.6242
-7.9301 20.9513 1.6242
-8.7176 20.7566 1.6323
-9.6571 20.8688 1.6673
-9.3779 18.4985 1.5039
-11.1236 20.1226 1.6673
-9.6075 15.9998 1.3534
-9.6310 14.8110 1.2813
-9.5837 13.6440 1.2095
-10.2019 13.4722 1.2259
-9.9919 12.2575 1.1474
-10.0630 11.4803 1.1078
-10.1428 10.7684 1.0736
-10.2337 10.1140 1.0444
-10.3262 9.4997 1.0187
-10.4175 8.9170 0.9957
-12.8850 10.2536 1.1960
-12.9550 9.5727 1.1702
-13.0220 8.9200 1.1469
-13.0865 8.2923 1.1260
-13.1712 7.6997 1.1092
-11.5109 6.1875 0.9503
-12.3536 6.0812 1.0016
-6.4098 2.8751 0.5112
-10.8648 4.4135 0.8535
-14.6589 5.3521 1.1362
-17.2996 5.6234 1.3248
-20.9949 6.0031 1.5908
-10.2474 2.5372 0.7693
-10.2862 2.1594 0.7662
-10.3247 1.7844 0.7641
-10.3631 1.4112 0.7630
-10.4013 1.0390 0.7629
-10.4396 0.6667 0.7637
-10.4779 0.2933 0.7655
-10.5165 -0.0821 0.7684
-10.5554 -0.4604 0.7722
-10.5946 -0.8428 0.7771
-10.6344 -1.2302 0.7831
-10.6749 -1.6238 0.7901
-4.9411 -0.9336 0.3681
-4.3938 -0.9942 0.3299
-3.9492 -1.0435 0.2993
-3.6049 -1.0919 0.2761
-3.5621 -1.2197 0.2761
-3.5587 -1.3627 0.2795
-3.5760 -1.5181 0.2851
-3.5939 -1.6800 0.2912
-3.6126 -1.8490 0.2980
-3.6323 -2.0262 0.3056
-3.6529 -2.2127 0.3139
-3.6747 -2.4098 0.3231
-3.6979 -2.6189 0.3333
-3.7226 -2.8417 0.3446
-3.7490 -3.0803 0.3572
-3.7775 -3.3371 0.3711
-3.8083 -3.6150 0.3868
-15.1645 -15.4635 1.5960
-14.2052 -15.5621 1.5532
-13.2954 -15.6556 1.5146
-12.4293 -15.7445 1.4797
-11.9552 -16.3119 1.4923
-4.9778 -7.3280 0.6539
-4.6261 -7.3641 0.6421
-4.6536 -8.0323 0.6856
-10.3330 -19.4044 1.6242
-9.6293 -19.7560 1.6242
-8.9137 -20.0824 1.6242
-8.1873 -20.3831 1.6242
-7.9236 -21.9689 1.7273
-7.1307 -22.2330 1.7273
-6.3292 -22.4687 1.7273
-5.5199 -22.6758 1.7273
-4.7040 -22.8540 1.7273
-3.8824 -23.0032 1.7273
-3.0562 -23.1232 1.7273
-2.2265 -23.2137 1.7273
-1.3942 -23.2748 1.7273
-0.5603 -23.3064 1.7273
0.2576 -21.9153 1.6240
1.0415 -21.8894 1.6240
1.8239 -21.8358 1.6240
2.6039 -21.7546 1.6240
3.3804 -21.6459 1.6240
4.2003 -21.7571 1.6427
5.0068 -21.7260 1.6529
4.5930 -17.1078 1.3133
4.7927 -15.5995 1.2099
5.3478 -15.4179 1.2099
5.0959 -13.1515 1.0457
6.4370 -14.9964 1.2099
6.9697 -14.7570 1.2099
7.1094 -13.7552 1.1479
7.4280 -13.1919 1.1223
8.1055 -13.2615 1.1520
8.8209 -13.3350 1.1850
9.0745 -12.7057 1.1571
9.1575 -11.8975 1.1125
9.2345 -11.1483 1.0725
9.3062 -10.4499 1.0366
9.3734 -9.7959 1.0042
9.4366 -9.1806 0.9750
9.4964 -8.5991 0.9485
9.5530 -8.0474 0.9246
9.6070 -7.5220 0.9030
9.6586 -7.0198 0.8835
9.6613 -6.5065 0.8617
9.7812 -6.0902 0.8522
9.8278 -5.6415 0.8379
9.7988 -5.1678 0.8189
9.8896 -4.7715 0.8115
9.9318 -4.3609 0.8014
9.9730 -3.9596 0.7925
10.5320 -3.7512 0.8255
12.4964 -3.9530 0.9674
15.2832 -4.2392 1.1703
18.6529 -4.4618 1.4147
18.7234 -3.7759 1.4084
18.7933 -3.0947 1.4039
18.8630 -2.4166 1.4013
18.9325 -1.7396 1.4004
19.0021 -1.0622 1.4013
12.7232 -0.2551 0.9367
12.6081 0.1985 0.9278
12.6461 0.6522 0.9313
12.6865 1.1106 0.9363
19.4091 2.4016 1.4373
18.5034 2.9652 1.3767
9.1903 15.5843 1.7273
8.6288 15.9068 1.7273
8.0559 16.2090 1.7273
7.4725 16.4904 1.7273
6.8791 16.7506 1.7273
6.2766 16.9894 1.7273
5.6658 17.2064 1.7273
5.0475 17.4013 1.7273
4.4224 17.5738 1.7273
3.7914 17.7237 1.7273
3.1554 17.8507 1.7273
2.5150 17.9548 1.7273
1.8713 18.0358 1.7273
1.2249 18.0934 1.7273
0.5768 18.1278 1.7273
-0.0721 18.1387 1.7273
-0.7211 18.1262 1.7273
-1.3693 18.0903 1.7273
-2.0158 18.0311 1.7273
-2.6598 17.9485 1.7273
-3.3004 17.8428 1.7273
-3.9368 17.7140 1.7273
-4.3361 16.6698 1.6395
-4.7548 15.9185 1.5813
-5.3334 15.7738 1.5849
-5.5879 14.7634 1.5025
-6.6076 15.7326 1.6242
-7.1660 15.4857 1.6242
-7.7152 15.2188 1.6242
-8.2544 14.9323 1.6242
-8.8266 14.6994 1.6323
-9.3462 14.3732 1.6323
-9.5837 13.6441 1.5875
-10.2017 13.4721 1.6092
-9.9919 12.2577 1.5060
-10.0630 11.4805 1.4540
-10.1428 10.7685 1.4091
-10.2337 10.1142 1.3707
-9.7904 9.0069 1.2676
-9.8823 8.4590 1.2396
-12.8850 10.2538 1.5695
-12.9550 9.5729 1.5355
-13.0220 8.9202 1.5049
-13.0865 8.2925 1.4774
-13.1613 7.6941 1.4541
-10.5939 5.6947 1.1474
-12.4192 6.1137 1.3209
-6.4097 2.8752 0.6705
-10.8647 4.4137 1.1195
-14.6580 5.3520 1.4900
-16.6016 5.3968 1.6673
-16.7799 4.7981 1.6673
-10.2474 2.5373 1.0088
-10.2862 2.1595 1.0046
-10.3247 1.7846 1.0018
-10.3631 1.4114 1.0002
-10.4013 1.0392 1.0000
-10.4396 0.6668 1.0010
-10.4779 0.2935 1.0033
-10.5165 -0.0819 1.0069
-10.5553 -0.4602 1.0119
-10.5946 -0.8426 1.0182
-10.6344 -1.2300 1.0259
-10.6749 -1.6236 1.0350
-4.9415 -0.9336 0.4822
-4.3941 -0.9942 0.4321
-3.9495 -1.0435 0.3919
-3.5802 -1.0844 0.3590
-3.5421 -1.2128 0.3594
-3.5587 -1.3626 0.3660
-3.5759 -1.5180 0.3732
-3.5939 -1.6799 0.3812
-3.6126 -1.8489 0.3901
-3.6322 -2.0261 0.3999
-3.6529 -2.2126 0.4108
-3.6747 -2.4097 0.4228
-3.6979 -2.6188 0.4361
-3.7226 -2.8416 0.4508
-3.7490 -3.0802 0.4672
-3.7775 -3.3370 0.4855
-3.8082 -3.6149 0.5059
-11.8591 -12.0926 1.6323
-11.3592 -12.4438 1.6242
-10.9037 -12.8389 1.6242
-10.4346 -13.2174 1.6242
-9.9525 -13.5789 1.6242
-4.9779 -7.3279 0.8549
-4.6263 -7.3641 0.8394
-4.6535 -8.0319 0.8962
-7.9058 -14.8458 1.6242
-7.6802 -15.7566 1.6930
-7.2538 -16.3419 1.7273
-6.6630 -16.5877 1.7273
-6.0640 -16.8122 1.7273
-5.4575 -17.0152 1.7273
-4.8442 -17.1965 1.7273
-4.2251 -17.3559 1.7273
-3.6007 -17.4932 1.7273
-2.9720 -17.6082 1.7273
-2.3397 -17.7008 1.7273
-1.7046 -17.7709 1.7273
-1.0674 -17.8183 1.7273
-0.4291 -17.8431 1.7273
0.2080 -17.7045 1.7137
0.7973 -16.7592 1.6240
1.3964 -16.7186 1.6240
1.3076 -10.9251 1.0652
2.5883 -16.5738 1.6240
3.1795 -16.4698 1.6240
3.7667 -16.3448 1.6240
4.3490 -16.1991 1.6240
4.5290 -14.7414 1.4932
4.8994 -14.1252 1.4476
5.0308 -12.9836 1.3482
5.5980 -13.0418 1.3742
6.1883 -13.1025 1.4030
6.8048 -13.1658 1.4349
7.4281 -13.1919 1.4657
8.1056 -13.2615 1.5046
8.8210 -13.3350 1.5477
9.0745 -12.7055 1.5113
9.1575 -11.8974 1.4531
9.2345 -11.1481 1.4009
9.3062 -10.4498 1.3540
9.3734 -9.7958 1.3118
9.4367 -9.1804 1.2736
9.4964 -8.5990 1.2392
9.5531 -8.0473 1.2080
9.6070 -7.5219 1.1798
9.6586 -7.0196 1.1544
9.6641 -6.5082 1.1262
9.7738 -6.0854 1.1127
9.8205 -5.6371 1.0941
9.7989 -5.1677 1.0702
9.8896 -4.7713 1.0605
9.9318 -4.3607 1.0474
9.9730 -3.9595 1.0359
10.5327 -3.7512 1.0791
12.4974 -3.9531 1.2648
14.3566 -3.9820 1.4373
14.4936 -3.4666 1.4373
14.6122 -2.9465 1.4373
14.7122 -2.4224 1.4373
14.7934 -1.8950 1.4373
14.8559 -1.3648 1.4373
14.8994 -0.8326 1.4373
14.9239 -0.2990 1.4373
9.6043 0.1514 0.9246
9.5956 0.4951 0.9246
9.5746 0.8383 0.9246
9.5413 1.1808 0.9246
9.4958 1.5219 0.9246
7.4198 12.5824 1.7273
6.9661 12.8422 1.7273
6.5034 13.0856 1.7273
6.0321 13.3122 1.7273
5.5529 13.5218 1.7273
5.0663 13.7140 1.7273
4.5732 13.8887 1.7273
4.0739 14.0455 1.7273
3.5693 14.1842 1.7273
3.0599 14.3047 1.7273
2.5465 14.4069 1.7273
2.0296 14.4905 1.7273
1.5101 14.5554 1.7273
0.9884 14.6016 1.7273
0.4654 14.6290 1.7273
-0.0583 14.6375 1.7273
-0.5820 14.6272 1.7273
-1.1050 14.5980 1.7273
-1.6267 14.5500 1.7273
-2.1463 14.4832 1.7273
-2.6632 14.3977 1.7273
-3.1767 14.2937 1.7273
-3.6862 14.1712 1.7273
-4.1909 14.0305 1.7273
-4.6350 13.7083 1.7070
-4.8741 12.8775 1.6242
-5.1343 12.2248 1.5641
-5.6423 12.1931 1.5849
-5.8044 11.4498 1.5143
-6.6606 12.0493 1.6242
-7.0871 11.8027 1.6242
-7.5044 11.5410 1.6242
-7.9120 11.2643 1.6242
-8.3094 10.9732 1.6242
-8.6959 10.6680 1.6242
-9.1164 10.4007 1.6323
-9.4818 10.0669 1.6323
-9.8348 9.7202 1.6323
-9.8122 9.0271 1.5741
-9.9137 8.4861 1.5408
-11.0476 8.7918 1.6673
-11.3535 8.3897 1.6673
-11.6447 7.9770 1.6673
-11.9209 7.5541 1.6673
-10.1750 5.9485 1.3927
-10.2216 5.4948 1.3715
-10.2669 5.0543 1.3526
-6.4096 2.8753 0.8305
-10.8647 4.4139 1.3866
-13.2427 4.8355 1.6673
-13.4046 4.3578 1.6673
-13.5492 3.8746 1.6673
-10.2474 2.5375 1.2493
-10.2862 2.1597 1.2440
-10.3247 1.7847 1.2404
-10.3630 1.4116 1.2385
-10.4013 1.0393 1.2381
-10.4395 0.6670 1.2393
-10.4779 0.2937 1.2421
-10.5165 -0.0817 1.2465
-10.5553 -0.4601 1.2525
-10.5946 -0.8424 1.2603
-10.6344 -1.2298 1.2697
-10.6748 -1.6234 1.2810
-4.9418 -0.9335 0.5968
-4.3943 -0.9942 0.5348
-3.9497 -1.0434 0.4850
-3.5804 -1.0844 0.4443
-3.5421 -1.2127 0.4447
-3.5587 -1.3625 0.4528
-3.5759 -1.5180 0.4617
-3.5939 -1.6798 0.4716
-3.6126 -1.8488 0.4825
-3.6322 -2.0260 0.4946
-3.6529 -2.2125 0.5080
-3.6747 -2.4096 0.5229
-3.6979 -2.6187 0.5393
-3.7226 -2.8415 0.5575
-3.7490 -3.0801 0.5777
-3.7774 -3.3368 0.6003
-3.8082 -3.6147 0.6255
-3.7512 -3.8250 0.6384
-3.6708 -4.0212 0.6489
-3.7075 -4.3653 0.6827
-7.8330 -9.9216 1.5072
-8.0513 -10.9846 1.6242
-4.9781 -7.3279 1.0567
-4.6264 -7.3641 1.0376
-4.6535 -8.0316 1.1076
-6.8027 -12.7741 1.7273
-6.3402 -13.0070 1.7273
-5.8697 -13.2233 1.7273
-5.3918 -13.4226 1.7273
-4.9073 -13.6048 1.7273
-4.4166 -13.7696 1.7273
-3.9205 -13.9168 1.7273
-3.4195 -14.0463 1.7273
-2.9143 -14.1578 1.7273
-2.4055 -14.2513 1.7273
-1.8938 -14.3266 1.7273
-1.3798 -14.3836 1.7273
-0.8641 -14.4224 1.7273
-0.3474 -14.4428 1.7273
0.1696 -14.4447 1.7273
0.6455 -13.5698 1.6245
1.1303 -13.5332 1.6240
1.3020 -10.8783 1.3103
2.0951 -13.4163 1.6240
2.5738 -13.3322 1.6240
3.0491 -13.2312 1.6240
3.5206 -13.1133 1.6240
3.9875 -12.9788 1.6240
4.4494 -12.8277 1.6240
4.9456 -12.7637 1.6373
5.3993 -12.5787 1.6373
5.8461 -12.3777 1.6373
6.2855 -12.1610 1.6373
6.7169 -11.9288 1.6373
7.1210 -11.6506 1.6330
7.5078 -11.3496 1.6273
7.8839 -11.0383 1.6220
8.2469 -10.7142 1.6167
8.5848 -10.3636 1.6090
8.9091 -10.0037 1.6014
9.2382 -9.6543 1.5973
9.4367 -9.1803 1.5736
9.4964 -8.5988 1.5310
9.5531 -8.0472 1.4926
9.6071 -7.5218 1.4578
9.6587 -7.0195 1.4264
9.6689 -6.5113 1.3924
9.7663 -6.0806 1.3740
9.8131 -5.6328 1.3511
9.7989 -5.1675 1.3226
9.8896 -4.7712 1.3107
9.9318 -4.3606 1.2945
9.9730 -3.9593 1.2804
10.5334 -3.7513 1.3340
11.4889 -3.6339 1.4373
11.6139 -3.2211 1.4373
11.7241 -2.8040 1.4373
11.8194 -2.3832 1.4373
11.8997 -1.9591 1.4373
11.9649 -1.5324 1.4373
12.0147 -1.1036 1.4373
12.0493 -0.6731 1.4373
12.0684 -0.2416 1.4373
9.2596 0.1461 1.1024
9.3010 0.4800 1.1084
12.0334 1.0539 1.4373
11.9909 1.4841 1.4373
11.9330 1.9127 1.4373
6.2158 10.5411 1.7273
5.8356 10.7584 1.7273
5.4478 10.9620 1.7273
5.0529 11.1515 1.7273
4.6513 11.3268 1.7273
4.2437 11.4875 1.7273
3.8304 11.6335 1.7273
3.4122 11.7646 1.7273
0.8420 3.3464 0.4865
0.7215 3.3730 0.4863
0.6001 3.3955 0.4861
0.4781 3.4139 0.4859
0.3556 3.4281 0.4857
0.2327 3.4381 0.4856
0.1096 3.4440 0.4855
-0.0137 3.4456 0.4855
-0.1370 3.4431 0.4855
-0.2601 3.4364 0.4855
-0.3830 3.4255 0.4856
-0.5054 3.4105 0.4857
-0.6273 3.3912 0.4858
-0.7485 3.3679 0.4860
-3.0870 11.8675 1.7273
-3.5096 11.7496 1.7273
-3.9278 11.6166 1.7273
-4.3408 11.4686 1.7273
-4.7483 11.3058 1.7273
-4.9500 10.6969 1.6603
-5.2135 10.2841 1.6242
-5.3887 9.7484 1.5691
-5.4904 9.1437 1.5025
-6.0283 9.2709 1.5579
-6.1296 8.7268 1.5025
-6.9589 9.1899 1.6242
-7.2827 8.9345 1.6242
-7.5971 8.6675 1.6242
-7.9017 8.3895 1.6242
-8.1961 8.1007 1.6242
-8.4798 7.8015 1.6242
-8.7526 7.4923 1.6242
-9.0141 7.1736 1.6242
-9.2639 6.8457 1.6242
-9.5490 6.5415 1.6323
-9.7757 6.1949 1.6323
-9.9897 5.8404 1.6323
-10.1909 5.4785 1.6323
-10.2924 5.0670 1.6187
-6.4095 2.8753 0.9914
-10.7144 4.3530 1.6323
-11.0944 4.0512 1.6673
-11.2303 3.6511 1.6673
-11.3518 3.2464 1.6673
-10.2474 2.5377 1.4910
-10.2862 2.1599 1.4847
-10.3247 1.7849 1.4804
-10.3630 1.4118 1.4780
-10.4013 1.0395 1.4775
-4.8498 0.3100 0.6870
-4.8421 0.1358 0.6849
-4.8283 -0.0374 0.6829
-4.8084 -0.2095 0.6808
-4.7826 -0.3802 0.6788
-4.7509 -0.5493 0.6768
-4.7134 -0.7167 0.6748
-4.6703 -0.8822 0.6729
-4.3946 -0.9942 0.6380
-3.9499 -1.0434 0.5786
-3.5806 -1.0843 0.5300
-3.5421 -1.2126 0.5305
-3.5587 -1.3624 0.5400
-3.5759 -1.5179 0.5507
-3.5939 -1.6797 0.5624
-3.6126 -1.8487 0.5755
-3.6322 -2.0260 0.5899
-3.6529 -2.2124 0.6059
-3.6747 -2.4095 0.6235
-3.6979 -2.6186 0.6431
-3.6455 -2.7825 0.6510
-3.5534 -2.9193 0.6529
-3.5792 -3.1616 0.6782
-3.6071 -3.4237 0.7064
-3.6375 -3.7089 0.7380
-3.6707 -4.0210 0.7736
-3.7074 -4.3651 0.8139
-7.0808 -8.9686 1.6242
-7.0495 -9.6175 1.6952
-4.9782 -7.3279 1.2596
-4.6265 -7.3641 1.2368
-4.6535 -8.0313 1.3202
-5.7075 -10.7171 1.7273
-5.3196 -10.9128 1.7273
-4.9249 -11.0945 1.7273
-4.5241 -11.2621 1.7273
-4.1177 -11.4152 1.7273
-3.7061 -11.5538 1.7273
-3.2898 -11.6776 1.7273
-2.8695 -11.7865 1.7273
-2.4456 -11.8803 1.7273
-2.0187 -11.9590 1.7273
-1.5893 -12.0224 1.7273
-1.1580 -12.0705 1.7273
-0.7252 -12.1032 1.7273
-0.2916 -12.1205 1.7273
0.1423 -12.1223 1.7273
0.5759 -12.1087 1.7273
0.9485 -11.3576 1.6240
1.2995 -10.8576 1.5583
1.7583 -11.2597 1.6240
2.1600 -11.1892 1.6240
2.5590 -11.1044 1.6240
2.9546 -11.0055 1.6240
3.3466 -10.8926 1.6240
3.7342 -10.7658 1.6240
4.1171 -10.6254 1.6240
4.4947 -10.4714 1.6240
4.8667 -10.3040 1.6240
5.2751 -10.2062 1.6373
5.6372 -10.0112 1.6373
5.9921 -9.8034 1.6373
6.3394 -9.5832 1.6373
6.6786 -9.3507 1.6373
7.0094 -9.1063 1.6373
7.3141 -8.8295 1.6334
7.5817 -8.5131 1.6240
7.8372 -8.1900 1.6147
8.0842 -7.8644 1.6064
8.3313 -7.5437 1.6006
8.5916 -7.2371 1.5997
8.8420 -6.9226 1.5989
5.1694 -3.7568 0.9098
9.2226 -6.2106 1.5828
9.4017 -5.8534 1.5763
9.5292 -5.4696 1.5637
9.6422 -5.0847 1.5511
9.8896 -4.7710 1.5622
9.9318 -4.3604 1.5430
9.9730 -3.9592 1.5262
9.5212 -3.3907 1.4373
9.6380 -3.0483 1.4373
9.7426 -2.7019 1.4373
9.8347 -2.3520 1.4373
9.9144 -1.9989 1.4373
9.9814 -1.6431 1.4373
10.0357 -1.2852 1.4373
10.0771 -0.9254 1.4373
10.1057 -0.5643 1.4373
10.1214 -0.2024 1.4373
10.1242 0.1599 1.4373
10.1140 0.5222 1.4373
10.0909 0.8839 1.4373
10.0549 1.2447 1.4373
10.0060 1.6040 1.4373
5.3433 9.0616 1.7273
5.0163 9.2483 1.7273
4.6828 9.4231 1.7273
4.3433 9.5858 1.7273
3.9980 9.7362 1.7273
3.6476 9.8742 1.7273
3.2923 9.9995 1.7273
0.8328 2.8715 0.4905
0.7293 2.8983 0.4902
0.6249 2.9215 0.4900
0.5198 2.9411 0.4898
0.4142 2.9572 0.4897
0.3080 2.9695 0.4896
0.2016 2.9783 0.4895
0.0949 2.9834 0.4894
-0.0119 2.9848 0.4894
-0.1187 2.9826 0.4894
-0.2254 2.9768 0.4894
-0.3318 2.9673 0.4894
-0.4378 2.9541 0.4895
-0.5434 2.9374 0.4896
-0.6483 2.9170 0.4898
-0.7525 2.8930 0.4900
-3.0162 10.0977 1.7273
-3.3755 9.9833 1.7273
-3.7305 9.8562 1.7273
-4.0807 9.7163 1.7273
-4.4257 9.5639 1.7273
-4.7649 9.3993 1.7273
-5.0980 9.2225 1.7273
-5.1654 8.6025 1.6448
-5.4082 8.3174 1.6263
-5.5749 7.9372 1.5901
-5.6268 7.4308 1.5281
-5.7901 7.1034 1.5025
-6.2483 7.1288 1.5543
-6.3001 6.6891 1.5068
-7.0442 6.9624 1.6242
-7.2101 6.6335 1.6068
-7.4430 6.3715 1.6070
-7.6655 6.1005 1.6070
-7.9624 5.8841 1.6242
-8.1670 5.5949 1.6242
-8.3610 5.2985 1.6242
-8.5442 4.9954 1.6242
-8.7164 4.6859 1.6242
-8.8774 4.3705 1.6242
-6.4094 2.8754 1.1532
-9.1647 3.7236 1.6242
-9.2908 3.3928 1.6242
-9.4049 3.0578 1.6242
-9.5069 2.7189 1.6242
-9.5966 2.3767 1.6242
-9.6740 2.0315 1.6242
-9.7389 1.6838 1.6242
-9.7914 1.3341 1.6242
-9.8312 0.9827 1.6242
-4.1707 0.2666 0.6871
-4.1660 0.1169 0.6853
-4.1559 -0.0321 0.6836
-4.1407 -0.1803 0.6818
-4.1203 -0.3275 0.6800
-4.0947 -0.4734 0.6783
-4.0642 -0.6179 0.6766
-4.0287 -0.7609 0.6749
-3.9883 -0.9022 0.6733
-3.9432 -1.0416 0.6716
-3.5808 -1.0843 0.6162
-3.5421 -1.2126 0.6168
-3.5587 -1.3624 0.6279
-3.5759 -1.5178 0.6402
-3.5939 -1.6796 0.6539
-3.5774 -1.8306 0.6625
-3.5016 -1.9530 0.6611
-3.4660 -2.0992 0.6683
-3.4858 -2.2856 0.6875
-3.5069 -2.4832 0.7089
-3.5293 -2.6938 0.7326
-3.5533 -2.9191 0.7589
-3.5791 -3.1615 0.7882
-3.6071 -3.4236 0.8210
-3.6374 -3.7087 0.8577
-3.6707 -4.0208 0.8991
-3.7073 -4.3649 0.9459
-6.4795 -8.2067 1.7273
-6.1807 -8.4320 1.7273
-5.8742 -8.6465 1.7273
-4.6267 -7.3640 1.4373
-5.2392 -9.0420 1.7273
-4.9117 -9.2224 1.7273
-4.5779 -9.3910 1.7273
-4.2384 -9.5476 1.7273
-3.8935 -9.6920 1.7273
-3.5438 -9.8240 1.7273
-3.1896 -9.9434 1.7273
-2.8315 -10.0501 1.7273
-2.4698 -10.1440 1.7273
-2.1050 -10.2249 1.7273
-1.7376 -10.2928 1.7273
-1.3680 -10.3475 1.7273
-0.9968 -10.3890 1.7273
-0.6243 -10.4173 1.7273
-0.2511 -10.4322 1.7273
0.1224 -10.4339 1.7273
0.4957 -10.4223 1.7273
0.8683 -10.3974 1.7273
1.1656 -9.7400 1.6240
1.5134 -9.6917 1.6240
1.8592 -9.6310 1.6240
2.2026 -9.5581 1.6240
2.5432 -9.4730 1.6240
2.8806 -9.3759 1.6240
3.2142 -9.2668 1.6240
3.5438 -9.1458 1.6240
3.8689 -9.0132 1.6240
4.1890 -8.8692 1.6240
4.5038 -8.7138 1.6240
4.8129 -8.5473 1.6240
5.1159 -8.3699 1.6240
5.4565 -8.2486 1.6373
5.7485 -8.0484 1.6373
6.0332 -7.8380 1.6373
6.3102 -7.6175 1.6373
6.5792 -7.3873 1.6373
6.8398 -7.1477 1.6373
7.0918 -6.8989 1.6373
7.3347 -6.6412 1.6373
7.5562 -6.3648 1.6347
7.7605 -6.0758 1.6306
5.0877 -3.6974 1.0404
8.1631 -5.4970 1.6278
8.3604 -5.2050 1.6288
8.5480 -4.9063 1.6299
8.6951 -4.5852 1.6254
8.8195 -4.2546 1.6189
8.9360 -3.9231 1.6133
8.0823 -3.2084 1.4373
8.1931 -2.9175 1.4373
8.2934 -2.6229 1.4373
8.3832 -2.3248 1.4373
8.4623 -2.0236 1.4373
8.5306 -1.7198 1.4373
8.5880 -1.4136 1.4373
8.6345 -1.1056 1.4373
8.6700 -0.7960 1.4373
8.6944 -0.4854 1.4373
8.7076 -0.1740 1.4373
8.7098 0.1377 1.4373
8.7008 0.4494 1.4373
8.6807 0.7606 1.4373
8.6494 1.0709 1.4373
8.6071 1.3799 1.4373
4.6812 7.9391 1.7273
4.3947 8.1025 1.7273
4.1025 8.2555 1.7273
3.8049 8.3979 1.7273
3.5024 8.5296 1.7273
3.1954 8.6504 1.7273
0.8241 2.5032 0.4936
0.7338 2.5301 0.4933
0.6425 2.5538 0.4931
0.5506 2.5744 0.4929
0.4580 2.5917 0.4928
0.3649 2.6059 0.4926
0.2714 2.6169 0.4925
0.1776 2.6247 0.4924
0.0836 2.6292 0.4924
-0.0105 2.6305 0.4923
-0.1046 2.6285 0.4923
-0.1986 2.6233 0.4923
-0.2924 2.6149 0.4924
-0.3858 2.6032 0.4925
-0.4788 2.5884 0.4926
-0.5713 2.5703 0.4927
-0.6631 2.5491 0.4929
-0.7541 2.5247 0.4930
-2.9567 8.7447 1.7273
-3.2677 8.6333 1.7273
-3.5744 8.5108 1.7273
-3.8766 8.3774 1.7273
-4.1737 8.2332 1.7273
-4.4655 8.0784 1.7273
-4.7515 7.9132 1.7273
-5.0314 7.7379 1.7273
-5.2773 7.5135 1.7183
-5.3266 7.0346 1.6514
-5.4827 6.7263 1.6242
-5.7194 6.5255 1.6242
-5.7617 6.1175 1.5731
-5.8011 5.7338 1.5269
-5.9061 5.4338 1.5025
-6.4108 5.4879 1.5801
-6.4531 5.1357 1.5443
-6.4887 4.7952 1.5109
-6.6185 4.5342 1.5025
-7.3246 4.6418 1.6242
-7.4852 4.3764 1.6242
-7.6362 4.1053 1.6242
-7.7773 3.8291 1.6242
-6.4093 2.8755 1.3163
-8.0293 3.2624 1.6242
-8.1399 2.9726 1.6242
-8.2400 2.6792 1.6242
-8.3295 2.3823 1.6242
-8.4082 2.0825 1.6242
-8.4762 1.7801 1.6242
-8.5333 1.4755 1.6242
-8.5794 1.1691 1.6242
-8.6145 0.8612 1.6242
-3.6551 0.2337 0.6872
-3.6522 0.1025 0.6857
-3.6446 -0.0281 0.6841
-3.6325 -0.1581 0.6825
-3.6158 -0.2873 0.6810
-3.5946 -0.4155 0.6795
-3.5689 -0.5426 0.6780
-3.5389 -0.6683 0.6765
-3.5046 -0.7927 0.6750
-3.4660 -0.9155 0.6736
-3.4233 -1.0365 0.6722
-3.3765 -1.1558 0.6708
-3.3802 -1.2939 0.6804
-3.3959 -1.4413 0.6936
-3.4122 -1.5946 0.7083
-3.4293 -1.7548 0.7245
-3.4471 -1.9225 0.7425
