ply
format ascii 1.0
element vertex 2142
property float32 x
property float32 y
property float32 z
end_header
7.0117 -7.9528 -0.4333
7.4364 -7.8490 -0.4414
6.2049 -6.0963 -0.3547
6.6732 -6.1024 -0.3683
6.6811 -5.6840 -0.3568
6.6863 -5.2876 -0.3463
6.6912 -4.9125 -0.3368
6.6958 -4.5561 -0.3281
6.1448 -3.8667 -0.2937
6.6747 -3.8736 -0.3118
6.9207 -3.6916 -0.3164
6.9250 -3.3812 -0.3104
7.0041 -3.1143 -0.3083
7.0079 -2.8200 -0.3033
7.0117 -2.5337 -0.2989
7.0153 -2.2545 -0.2949
6.9470 -1.9610 -0.2884
6.9468 -1.6949 -0.2852
6.9502 -1.4341 -0.2826
6.9535 -1.1770 -0.2804
6.9568 -0.9226 -0.2785
6.9601 -0.6705 -0.2771
6.9634 -0.4199 -0.2759
6.9667 -0.1701 -0.2752
6.9699 0.0795 -0.2747
6.9732 0.3296 -0.2747
6.9765 0.5807 -0.2750
6.9798 0.8335 -0.2756
6.9831 1.0888 -0.2766
6.9865 1.3472 -0.2780
6.9899 1.6094 -0.2798
6.9434 1.8629 -0.2800
6.9969 2.1486 -0.2846
7.0057 2.4290 -0.2878
7.0093 2.7152 -0.2913
7.0130 3.0096 -0.2952
6.9620 3.2878 -0.2973
7.0162 3.6261 -0.3045
7.0205 3.9531 -0.3102
7.0249 4.2939 -0.3165
7.0296 4.6505 -0.3235
6.8917 4.9229 -0.3246
6.7567 5.2016 -0.3263
8.2431 6.8297 -0.4091
8.2458 7.3455 -0.4215
7.7487 7.4170 -0.4088
7.2199 7.4241 -0.3942
6.7279 7.4331 -0.3812
6.2657 7.4415 -0.3694
6.8699 8.7788 -0.4228
6.8789 9.4704 -0.4435
6.5512 9.7342 -0.4441
3.0904 4.9670 -0.2212
7.9865 13.9243 -0.6064
3.2400 6.1492 -0.2623
-9.2637 2.7187 -0.1578
-9.2683 2.3631 -0.1570
-9.2729 2.0136 -0.1564
-9.2774 1.6692 -0.1560
-9.2818 1.3288 -0.1558
-9.2862 0.9916 -0.1558
-9.2906 0.6567 -0.1560
-9.2949 0.3231 -0.1564
-9.2993 -0.0099 -0.1570
-9.3036 -0.3433 -0.1578
-9.3080 -0.6779 -0.1589
-9.3124 -1.0145 -0.1601
-8.8330 -1.2838 -0.1532
-8.3427 -1.5194 -0.1461
-8.3467 -1.8311 -0.1478
-8.3508 -2.1482 -0.1497
-10.2046 -3.0185 -0.1854
-10.2098 -3.4221 -0.1884
-10.2152 -3.8360 -0.1916
-13.3402 -5.5624 -0.2547
-13.3477 -6.1354 -0.2598
-12.4081 -6.2511 -0.2465
-11.8677 -6.5219 -0.2411
-11.5228 -6.8807 -0.2398
-10.6554 -6.8920 -0.2274
-10.2587 -7.1692 -0.2250
-10.2661 -7.7359 -0.2318
-10.3483 -8.3953 -0.2411
-9.6384 -8.4092 -0.2321
-9.2292 -8.6534 -0.2302
-9.2370 -9.3044 -0.2392
-9.2455 -10.0053 -0.2492
-9.2547 -10.7643 -0.2603
-9.2646 -11.5909 -0.2727
-9.2756 -12.4972 -0.2867
-9.2877 -13.4980 -0.3025
-9.3011 -14.6117 -0.3204
-23.2051 -39.5100 -0.8493
-23.4383 -43.3946 -0.9158
-19.8700 -44.0685 -0.9006
-4.2432 -30.7656 -0.5833
3.8501 -33.7250 -0.6378
4.1095 -27.2861 -0.5183
4.1972 -22.3905 -0.4276
4.8731 -21.6776 -0.4168
5.3798 -20.4754 -0.3968
5.6743 -18.8256 -0.3681
6.0493 -17.7436 -0.3506
6.7714 -17.7530 -0.3549
7.9539 -18.8018 -0.3808
7.9758 -17.1180 -0.3518
7.9948 -15.6672 -0.3271
8.0113 -14.4012 -0.3059
8.0258 -13.2842 -0.2876
8.0388 -12.2888 -0.2716
8.0505 -11.3940 -0.2575
6.5761 -8.6338 -0.1999
6.7424 -8.2236 -0.1954
7.0113 -7.9528 -0.1943
7.4359 -7.8490 -0.1977
6.2045 -6.0963 -0.1586
6.6728 -6.1024 -0.1644
6.6811 -5.6844 -0.1591
6.6863 -5.2880 -0.1541
6.6912 -4.9129 -0.1497
6.6958 -4.5565 -0.1456
6.1443 -3.8667 -0.1301
6.6741 -3.8736 -0.1378
6.9207 -3.6920 -0.1396
6.9250 -3.3815 -0.1367
7.0041 -3.1146 -0.1355
7.0079 -2.8203 -0.1330
7.0117 -2.5340 -0.1308
7.0153 -2.2548 -0.1288
6.9471 -1.9613 -0.1257
6.9468 -1.6952 -0.1241
6.9502 -1.4344 -0.1227
6.9535 -1.1773 -0.1214
6.9568 -0.9230 -0.1204
6.9601 -0.6708 -0.1194
6.9634 -0.4202 -0.1187
6.9667 -0.1704 -0.1181
6.9699 0.0792 -0.1176
6.9732 0.3293 -0.1173
6.9764 0.5804 -0.1172
6.9797 0.8332 -0.1172
6.9831 1.0885 -0.1174
6.9864 1.3469 -0.1177
6.9899 1.6091 -0.1181
6.9434 1.8626 -0.1179
6.9983 2.1487 -0.1196
7.0092 2.4299 -0.1207
7.0128 2.7162 -0.1219
7.0166 3.0109 -0.1233
6.9620 3.2874 -0.1238
7.0162 3.6258 -0.1265
7.0205 3.9527 -0.1286
7.0249 4.2935 -0.1309
7.0296 4.6501 -0.1335
6.8917 4.9225 -0.1337
6.9192 5.3264 -0.1374
8.2432 6.8293 -0.1678
8.2476 7.3466 -0.1726
7.7502 7.4180 -0.1671
7.2204 7.4242 -0.1608
6.7283 7.4332 -0.1552
6.2661 7.4416 -0.1502
6.8698 8.7783 -0.1716
6.8789 9.4699 -0.1797
6.5516 9.7342 -0.1797
3.0902 4.9665 -0.0893
7.9869 13.9243 -0.2446
3.2402 6.1492 -0.1057
-9.2634 2.7182 0.0596
-9.2681 2.3626 0.0584
-9.2726 2.0132 0.0573
-9.2771 1.6687 0.0563
-9.2815 1.3284 0.0554
-9.2859 0.9912 0.0545
-9.2903 0.6563 0.0538
-9.2947 0.3227 0.0530
-9.2990 -0.0103 0.0524
-9.3034 -0.3437 0.0518
-9.3077 -0.6782 0.0513
-9.3121 -1.0149 0.0509
-8.8306 -1.2838 0.0479
-8.3427 -1.5197 0.0449
-8.3467 -1.8315 0.0447
-8.3509 -2.1485 0.0445
-10.2046 -3.0189 0.0542
-10.2098 -3.4226 0.0542
-10.2152 -3.8365 0.0542
-13.3402 -5.5630 0.0709
-13.3477 -6.1361 0.0711
-12.4066 -6.2510 0.0664
-11.8679 -6.5226 0.0639
-11.5219 -6.8807 0.0625
-10.6546 -6.8920 0.0584
-10.2587 -7.1697 0.0569
-10.2661 -7.7365 0.0577
-10.3476 -8.3953 0.0591
-9.6378 -8.4092 0.0560
-9.2292 -8.6540 0.0548
-9.2370 -9.3050 0.0561
-9.2455 -10.0059 0.0577
-9.2547 -10.7649 0.0594
-9.2647 -11.5916 0.0615
-9.2756 -12.4979 0.0638
-9.2877 -13.4987 0.0665
-9.3011 -14.6125 0.0697
-18.3379 -31.2244 0.1444
-17.9351 -33.2073 0.1492
-17.8653 -36.1142 0.1580
-17.9125 -39.7289 0.1696
-17.9681 -43.9922 0.1837
-4.2440 -30.7729 0.1162
4.1096 -27.2873 0.1032
4.1970 -22.3904 0.0855
4.8729 -21.6778 0.0837
5.3796 -20.4756 0.0801
5.6743 -18.8263 0.0747
6.0491 -17.7436 0.0716
6.7711 -17.7530 0.0730
7.9539 -18.8027 0.0790
7.9758 -17.1188 0.0736
7.9947 -15.6680 0.0691
8.0113 -14.4019 0.0652
8.0258 -13.2848 0.0620
8.0388 -12.2894 0.0592
8.0252 -11.3587 0.0566
7.9916 -10.4927 0.0542
6.9393 -8.4642 0.0454
7.1551 -8.1163 0.0454
7.4354 -7.8489 0.0458
6.2042 -6.0963 0.0373
6.6723 -6.1024 0.0392
6.6811 -5.6847 0.0385
6.6863 -5.2883 0.0378
6.6912 -4.9132 0.0373
6.6958 -4.5568 0.0368
6.1438 -3.8667 0.0334
6.6735 -3.8736 0.0360
6.9207 -3.6923 0.0371
6.9249 -3.3818 0.0369
7.0041 -3.1150 0.0372
7.0079 -2.8206 0.0371
7.0117 -2.5344 0.0371
7.0153 -2.2551 0.0371
6.9471 -1.9617 0.0368
6.9467 -1.6955 0.0370
6.9502 -1.4347 0.0372
6.9535 -1.1776 0.0374
6.9568 -0.9233 0.0377
6.9601 -0.6711 0.0380
6.9634 -0.4205 0.0384
6.9666 -0.1707 0.0389
6.9699 0.0789 0.0393
6.9732 0.3290 0.0399
6.9764 0.5801 0.0405
6.9797 0.8329 0.0411
6.9831 1.0882 0.0418
6.9864 1.3466 0.0426
6.9899 1.6088 0.0434
6.9434 1.8623 0.0440
7.0018 2.1494 0.0453
7.0126 2.4308 0.0464
7.0164 2.7172 0.0475
7.0202 3.0121 0.0487
6.9620 3.2871 0.0496
7.0162 3.6254 0.0513
7.0204 3.9524 0.0529
7.0249 4.2932 0.0545
7.0296 4.6497 0.0563
6.8917 4.9221 0.0570
7.1212 5.4815 0.0610
8.2433 6.8289 0.0732
8.2493 7.3477 0.0762
7.7517 7.4189 0.0745
7.2216 7.4250 0.0724
6.7288 7.4333 0.0706
6.2665 7.4417 0.0689
6.8698 8.7778 0.0795
6.8789 9.4694 0.0839
6.5519 9.7342 0.0846
3.0900 4.9659 0.0424
7.9873 13.9243 0.1169
7.7936 14.7899 0.1223
-9.2632 2.7177 0.2771
-9.2678 2.3622 0.2739
-9.2724 2.0127 0.2711
-9.2769 1.6683 0.2687
-9.2813 1.3280 0.2666
-9.2857 0.9908 0.2649
-9.2900 0.6559 0.2636
-9.2944 0.3223 0.2626
-9.2987 -0.0107 0.2619
-9.3031 -0.3441 0.2615
-9.3075 -0.6786 0.2615
-9.3118 -1.0153 0.2619
-8.8281 -1.2839 0.2488
-8.3427 -1.5201 0.2359
-8.3467 -1.8319 0.2372
-8.3509 -2.1489 0.2388
-10.2046 -3.0194 0.2940
-10.2098 -3.4231 0.2967
-10.2152 -3.8370 0.3000
-13.3402 -5.5636 0.3965
-13.3477 -6.1367 0.4020
-12.4050 -6.2508 0.3793
-11.8681 -6.5232 0.3690
-11.5209 -6.8807 0.3648
-10.6538 -6.8920 0.3442
-10.2587 -7.1703 0.3388
-10.2661 -7.7370 0.3473
-10.3469 -8.3953 0.3592
-9.6371 -8.4092 0.3441
-9.2292 -8.6545 0.3398
-9.2370 -9.3055 0.3515
-9.2455 -10.0065 0.3646
-9.2547 -10.7655 0.3792
-9.2647 -11.5922 0.3958
-9.2756 -12.4986 0.4144
-9.2877 -13.4994 0.4357
-9.3011 -14.6132 0.4599
-18.1866 -30.9684 0.9522
-17.8300 -33.0143 0.9936
-17.8654 -36.1159 1.0657
-17.9125 -39.7309 1.1514
-12.5122 -30.6356 0.8734
-11.4786 -31.2584 0.8780
-4.2438 -30.7729 0.8159
4.1096 -27.2885 0.7249
4.1968 -22.3902 0.5986
4.8727 -21.6780 0.5842
5.3794 -20.4758 0.5569
5.6743 -18.8272 0.5177
6.0488 -17.7436 0.4939
6.7708 -17.7530 0.5010
7.9538 -18.8035 0.5389
7.9758 -17.1196 0.4990
7.9947 -15.6687 0.4653
8.0113 -14.4026 0.4365
8.0258 -13.2854 0.4116
8.0388 -12.2900 0.3900
8.0251 -11.3593 0.3699
7.9913 -10.4930 0.3513
7.0340 -8.5803 0.2960
7.1546 -8.1163 0.2891
7.4349 -7.8488 0.2894
6.2038 -6.0963 0.2332
6.6719 -6.1024 0.2429
6.6811 -5.6851 0.2361
6.6863 -5.2887 0.2299
6.6912 -4.9136 0.2243
6.6958 -4.5572 0.2193
6.1433 -3.8667 0.1970
6.6729 -3.8736 0.2098
6.9207 -3.6926 0.2138
6.9249 -3.3821 0.2105
7.0041 -3.1153 0.2098
7.0079 -2.8210 0.2073
7.0116 -2.5347 0.2050
7.0153 -2.2554 0.2031
6.9471 -1.9620 0.1995
6.9467 -1.6958 0.1981
6.9501 -1.4350 0.1970
6.9535 -1.1779 0.1963
6.9568 -0.9236 0.1958
6.9601 -0.6714 0.1956
6.9634 -0.4208 0.1956
6.9666 -0.1710 0.1958
6.9699 0.0786 0.1964
6.9732 0.3287 0.1971
6.9764 0.5798 0.1982
6.9797 0.8326 0.1995
6.9831 1.0879 0.2010
6.9864 1.3463 0.2029
6.9899 1.6085 0.2050
6.9434 1.8619 0.2059
7.0053 2.1502 0.2104
7.0161 2.4317 0.2137
7.0199 2.7183 0.2171
7.0238 3.0133 0.2209
6.9620 3.2868 0.2230
7.0162 3.6251 0.2292
7.0204 3.9520 0.2344
7.0249 4.2928 0.2400
7.0296 4.6494 0.2461
6.8917 4.9218 0.2478
8.2413 6.3433 0.3049
8.2443 6.8293 0.3144
8.2511 7.3487 0.3251
7.7532 7.4199 0.3163
7.2229 7.4259 0.3058
6.7293 7.4334 0.2965
6.2669 7.4418 0.2881
6.8698 8.7773 0.3306
6.8789 9.4689 0.3476
6.5523 9.7343 0.3490
3.0898 4.9653 0.1741
7.9877 13.9243 0.4786
7.7936 14.7891 0.4989
-9.2629 2.7172 0.4948
-9.2675 2.3617 0.4896
-9.2721 2.0122 0.4851
-9.2766 1.6678 0.4813
-9.2810 1.3275 0.4781
-9.2854 0.9904 0.4755
-9.2898 0.6554 0.4736
-9.2941 0.3219 0.4723
-9.2985 -0.0111 0.4716
-9.3028 -0.3444 0.4715
-9.3072 -0.6790 0.4720
-9.3116 -1.0156 0.4732
-8.8257 -1.2839 0.4499
-8.3427 -1.5205 0.4272
-8.3467 -1.8322 0.4299
-8.3509 -2.1493 0.4333
-10.2046 -3.0198 0.5340
-10.2098 -3.4235 0.5396
-10.2152 -3.8374 0.5461
-13.3402 -5.5643 0.7225
-13.3477 -6.1374 0.7334
-12.4036 -6.2507 0.6925
-11.8682 -6.5239 0.6744
-11.5200 -6.8807 0.6674
-10.6529 -6.8921 0.6303
-10.2587 -7.1708 0.6211
-10.2661 -7.7376 0.6372
-10.3462 -8.3954 0.6597
-9.6365 -8.4093 0.6326
-9.2292 -8.6551 0.6252
-9.2371 -9.3061 0.6472
-9.2455 -10.0071 0.6719
-9.2547 -10.7661 0.6995
-9.2647 -11.5929 0.7305
-9.2756 -12.4993 0.7655
-9.2877 -13.5001 0.8052
-9.3011 -14.6140 0.8506
-16.4579 -28.0261 1.5947
-15.4545 -28.6172 1.5947
-14.4293 -29.1711 1.5947
-13.3836 -29.6870 1.5947
-12.3189 -30.1639 1.5947
-11.2368 -30.6013 1.5947
-10.1386 -30.9984 1.5947
-9.0259 -31.3546 1.5947
-7.9004 -31.6694 1.5947
-6.7846 -32.0416 1.5997
-5.6984 -32.6384 1.6178
-4.2455 -30.7869 1.5172
-3.3493 -32.9755 1.6178
-2.1667 -33.0784 1.6178
-0.7486 -25.2864 1.2345
0.2061 -33.1518 1.6178
1.3929 -33.1222 1.6178
2.5778 -33.0485 1.6178
3.7589 -32.9308 1.6178
4.1096 -27.2898 1.3473
4.1966 -22.3901 1.1124
4.8726 -21.6783 1.0853
5.3793 -20.4760 1.0344
5.6743 -18.8280 0.9612
6.0485 -17.7436 0.9167
6.7705 -17.7530 0.9295
7.9538 -18.8043 0.9994
7.9758 -17.1203 0.9250
7.9947 -15.6694 0.8621
8.0112 -14.4033 0.8082
8.0258 -13.2861 0.7617
8.0388 -12.2906 0.7212
8.0251 -11.3599 0.6836
7.0631 -9.2747 0.5734
7.0336 -8.5803 0.5462
7.3411 -8.3283 0.5470
7.4344 -7.8488 0.5332
6.2034 -6.0963 0.4294
6.6715 -6.1024 0.4468
6.6811 -5.6855 0.4340
6.6863 -5.2891 0.4222
6.6912 -4.9139 0.4116
6.6958 -4.5575 0.4020
6.1428 -3.8667 0.3607
6.6723 -3.8736 0.3838
6.9207 -3.6930 0.3907
6.9249 -3.3824 0.3843
7.0041 -3.1156 0.3827
7.0079 -2.8213 0.3777
7.0116 -2.5350 0.3732
7.0153 -2.2557 0.3693
6.9471 -1.9623 0.3623
6.9467 -1.6961 0.3593
6.9501 -1.4353 0.3571
6.9535 -1.1782 0.3554
6.9568 -0.9239 0.3541
6.9601 -0.6717 0.3533
6.9634 -0.4211 0.3529
6.9666 -0.1713 0.3530
6.9699 0.0783 0.3536
6.9732 0.3284 0.3546
6.9764 0.5795 0.3561
6.9797 0.8323 0.3580
6.9831 1.0876 0.3604
6.9864 1.3459 0.3634
6.9899 1.6082 0.3668
6.9434 1.8616 0.3681
7.0089 2.1510 0.3759
7.0196 2.4326 0.3814
7.0234 2.7193 0.3871
7.0274 3.0145 0.3935
6.9620 3.2864 0.3967
7.0162 3.6247 0.4074
7.0204 3.9517 0.4161
7.0249 4.2925 0.4257
7.0296 4.6490 0.4363
6.8917 4.9214 0.4388
8.2414 6.3429 0.5395
8.2460 6.8302 0.5560
8.2529 7.3498 0.5745
7.7547 7.4208 0.5585
7.2243 7.4268 0.5396
6.7298 7.4335 0.5227
6.2674 7.4419 0.5076
6.8698 8.7768 0.5820
6.8789 9.4683 0.6116
6.5527 9.7343 0.6137
3.0896 4.9647 0.3060
7.9881 13.9243 0.8407
7.7936 14.7884 0.8760
-9.2626 2.7167 0.7131
-9.2672 2.3612 0.7058
-9.2718 2.0118 0.6996
-9.2763 1.6674 0.6943
-9.2808 1.3271 0.6900
-9.2852 0.9899 0.6866
-9.2895 0.6550 0.6841
-9.2939 0.3215 0.6825
-9.2982 -0.0115 0.6818
-9.3026 -0.3448 0.6820
-9.3069 -0.6794 0.6830
-9.3113 -1.0160 0.6849
-8.8233 -1.2839 0.6514
-8.3427 -1.5208 0.6189
-8.3468 -1.8326 0.6231
-8.3509 -2.1496 0.6282
-10.2046 -3.0203 0.7746
-10.2098 -3.4240 0.7831
-10.2152 -3.8379 0.7928
-13.3402 -5.5649 1.0492
-13.3477 -6.1380 1.0655
-12.4025 -6.2507 1.0064
-11.8684 -6.5246 0.9806
-11.5190 -6.8808 0.9707
-10.6521 -6.8921 0.9171
-10.2587 -7.1714 0.9041
-10.2661 -7.7382 0.9278
-10.3455 -8.3954 0.9609
-9.6359 -8.4093 0.9217
-9.2292 -8.6556 0.9112
-9.2371 -9.3067 0.9436
-9.2455 -10.0077 0.9799
-9.2547 -10.7668 1.0204
-9.2647 -11.5935 1.0660
-9.2756 -12.5000 1.1174
-9.2877 -13.5008 1.1757
-9.3011 -14.6147 1.2422
-11.2670 -19.1875 1.5947
-10.5778 -19.5879 1.5947
-10.5154 -21.2595 1.6983
-9.7561 -21.6415 1.6991
-8.9810 -21.9917 1.6996
-8.1923 -22.3113 1.6999
-7.3922 -22.6024 1.7003
-6.5814 -22.8636 1.7006
-5.7604 -23.0922 1.7008
-4.9297 -23.2824 1.7003
-4.0925 -23.4414 1.6998
-3.2501 -23.5696 1.6993
-2.4038 -23.6672 1.6988
-1.5545 -23.7329 1.6983
-0.7036 -23.7675 1.6978
0.1425 -22.9189 1.6365
0.9383 -22.3144 1.5947
1.7366 -22.2653 1.5947
2.5324 -22.1869 1.5947
3.3248 -22.0792 1.5947
4.1125 -21.9426 1.5947
4.8558 -21.6046 1.5821
5.3791 -20.4762 1.5130
5.6743 -18.8287 1.4057
6.0483 -17.7436 1.3404
6.7702 -17.7530 1.3590
7.9538 -18.8052 1.4609
7.9758 -17.1211 1.3520
7.9947 -15.6702 1.2597
8.0112 -14.4040 1.1808
8.0258 -13.2867 1.1126
8.0388 -12.2912 1.0532
8.0251 -11.3605 0.9980
7.0591 -9.2699 0.8365
7.0333 -8.5803 0.7970
7.5689 -8.5873 0.8228
7.4339 -7.8487 0.7775
6.2030 -6.0963 0.6260
6.6710 -6.1024 0.6512
6.6811 -5.6859 0.6323
6.6863 -5.2894 0.6149
6.6912 -4.9143 0.5992
6.6958 -4.5579 0.5851
6.1423 -3.8667 0.5247
6.6717 -3.8736 0.5582
6.9207 -3.6933 0.5680
6.9249 -3.3828 0.5585
7.0041 -3.1160 0.5560
7.0079 -2.8216 0.5485
7.0116 -2.5353 0.5418
7.0153 -2.2560 0.5359
6.9471 -1.9626 0.5255
6.9467 -1.6964 0.5210
6.9501 -1.4357 0.5176
6.9535 -1.1785 0.5148
6.9568 -0.9242 0.5127
6.9601 -0.6720 0.5114
6.9634 -0.4214 0.5106
6.9666 -0.1716 0.5106
6.9699 0.0780 0.5112
6.9732 0.3280 0.5124
6.9764 0.5792 0.5143
6.9797 0.8320 0.5169
6.9831 1.0873 0.5202
6.9864 1.3456 0.5242
6.9899 1.6079 0.5289
6.9434 1.8613 0.5306
7.0124 2.1518 0.5419
7.0231 2.4335 0.5496
7.0270 2.7204 0.5577
7.0310 3.0157 0.5667
6.9620 3.2861 0.5707
7.0162 3.6244 0.5859
7.0204 3.9513 0.5982
7.0249 4.2921 0.6118
7.0296 4.6486 0.6268
6.8917 4.9210 0.6303
8.2415 6.3425 0.7746
8.2477 6.8312 0.7983
8.2546 7.3509 0.8245
7.7561 7.4218 0.8013
7.2256 7.4278 0.7740
6.7307 7.4341 0.7495
6.2678 7.4420 0.7277
6.8698 8.7764 0.8340
6.8788 9.4678 0.8762
6.5531 9.7344 0.8790
3.0894 4.9641 0.4382
7.9885 13.9243 1.2037
7.7936 14.7876 1.2540
-9.2623 2.7162 0.9320
-9.2670 2.3607 0.9227
-9.2715 2.0113 0.9148
-9.2760 1.6669 0.9081
-9.2805 1.3266 0.9027
-9.2849 0.9895 0.8984
-9.2893 0.6546 0.8954
-9.2936 0.3211 0.8935
-9.2979 -0.0119 0.8927
-9.3023 -0.3452 0.8931
-9.3067 -0.6798 0.8946
-9.3110 -1.0164 0.8973
-8.8208 -1.2840 0.8534
-8.3427 -1.5212 0.8113
-8.3468 -1.8330 0.8170
-8.3509 -2.1500 0.8238
-10.2046 -3.0208 1.0160
-10.2098 -3.4245 1.0273
-10.2152 -3.8384 1.0403
-13.3402 -5.5655 1.3771
-13.3477 -6.1386 1.3987
-12.4013 -6.2507 1.3213
-11.8686 -6.5252 1.2878
-11.5181 -6.8808 1.2749
-10.6513 -6.8921 1.2048
-10.2587 -7.1719 1.1880
-10.2661 -7.7387 1.2194
-10.3448 -8.3954 1.2630
-9.6353 -8.4093 1.2117
-9.2292 -8.6562 1.1982
-9.2371 -9.3073 1.2410
-9.2455 -10.0083 1.2889
-9.2547 -10.7674 1.3424
-9.2647 -11.5942 1.4026
-9.2756 -12.5006 1.4704
-9.2877 -13.5016 1.5473
-9.0715 -14.2547 1.5947
-8.5586 -14.5760 1.5947
-8.0342 -14.8784 1.5947
-7.4989 -15.1616 1.5947
-6.9534 -15.4253 1.5947
-6.3986 -15.6689 1.5947
-6.2125 -16.9202 1.6979
-5.6056 -17.1406 1.6984
-4.9908 -17.3387 1.6988
-4.3688 -17.5144 1.6993
-3.7406 -17.6672 1.6997
-3.1069 -17.7971 1.7002
-2.4687 -17.9037 1.7006
-1.8264 -17.9834 1.7007
-1.1811 -18.0333 1.7003
-0.5346 -18.0595 1.6998
0.1123 -18.0622 1.6993
0.7586 -18.0413 1.6988
1.4036 -17.9969 1.6983
2.0464 -17.9290 1.6979
2.5235 -16.7586 1.5947
3.1215 -16.6556 1.5947
3.7153 -16.5308 1.5947
4.3040 -16.3843 1.5947
4.8714 -16.1654 1.5897
5.4458 -15.9770 1.5897
6.0129 -15.7680 1.5897
6.5718 -15.5384 1.5897
7.1218 -15.2886 1.5897
7.6621 -15.0190 1.5897
8.0112 -14.4047 1.5546
8.0258 -13.2874 1.4646
8.0388 -12.2919 1.3863
8.0251 -11.3611 1.3134
7.0587 -9.2699 1.1007
7.0328 -8.5803 1.0485
7.5685 -8.5873 1.0823
7.4334 -7.8487 1.0226
6.2026 -6.0963 0.8232
6.6706 -6.1024 0.8562
6.6811 -5.6862 0.8313
6.6863 -5.2898 0.8083
6.6912 -4.9146 0.7875
6.6958 -4.5582 0.7688
6.1418 -3.8667 0.6893
6.6712 -3.8736 0.7331
6.9207 -3.6937 0.7460
6.9248 -3.3831 0.7333
6.9361 -3.0861 0.7228
6.9405 -2.7948 0.7129
6.9447 -2.5114 0.7041
6.9992 -2.2512 0.7015
6.9471 -1.9629 0.6892
6.9467 -1.6967 0.6832
6.9501 -1.4360 0.6785
6.9535 -1.1788 0.6748
6.9568 -0.9245 0.6719
6.9601 -0.6723 0.6700
6.9634 -0.4217 0.6689
6.9666 -0.1719 0.6687
6.9699 0.0777 0.6693
6.9732 0.3278 0.6708
6.9764 0.5789 0.6731
6.9797 0.8317 0.6764
6.9831 1.0870 0.6805
6.9864 1.3453 0.6856
6.9899 1.6075 0.6916
6.9434 1.8610 0.6937
7.0159 2.1525 0.7086
7.0266 2.4344 0.7186
7.0305 2.7214 0.7290
7.0346 3.0169 0.7406
6.9620 3.2857 0.7454
7.0162 3.6240 0.7651
7.0204 3.9510 0.7810
7.0249 4.2918 0.7985
7.0295 4.6483 0.8180
6.8917 4.9207 0.8224
8.2428 6.3430 1.0107
8.2494 6.8321 1.0414
8.2564 7.3520 1.0755
7.7576 7.4227 1.0450
7.2269 7.4287 1.0093
6.7320 7.4350 0.9772
6.2683 7.4421 0.9484
6.8698 8.7759 1.0868
6.8788 9.4673 1.1417
6.5534 9.7344 1.1453
3.0891 4.9635 0.5708
7.9888 13.9243 1.5680
7.6437 14.5026 1.6018
-9.2621 2.7157 1.1519
-9.2667 2.3602 1.1405
-9.2713 2.0108 1.1309
-9.2758 1.6665 1.1228
-9.2802 1.3262 1.1162
-9.2846 0.9891 1.1111
-9.2890 0.6542 1.1075
-9.2933 0.3207 1.1053
-9.2977 -0.0123 1.1045
-9.3020 -0.3456 1.1051
-9.3064 -0.6802 1.1072
-9.3108 -1.0168 1.1107
-8.8184 -1.2840 1.0561
-8.3427 -1.5216 1.0045
-8.3468 -1.8334 1.0116
-8.3509 -2.1504 1.0202
-10.2046 -3.0212 1.2584
-10.2099 -3.4249 1.2727
-10.2153 -3.8389 1.2889
-11.8665 -4.9512 1.5179
-11.6879 -5.3758 1.5179
-11.4940 -5.7940 1.5179
-11.2851 -6.2050 1.5179
-11.0613 -6.6085 1.5179
-10.6504 -6.8921 1.4936
-10.2588 -7.1725 1.4731
-10.2662 -7.7393 1.5123
-10.3441 -8.3954 1.5663
-9.6347 -8.4093 1.5029
-9.2292 -8.6568 1.4864
-9.2371 -9.3078 1.5397
-9.2196 -9.9808 1.5947
-8.8598 -10.3086 1.5947
-8.4883 -10.6232 1.5947
-8.1055 -10.9243 1.5947
-6.1544 -8.9471 1.2727
-7.3079 -11.4840 1.5947
-6.8942 -11.7419 1.5947
-6.4713 -11.9847 1.5947
-6.0397 -12.2121 1.5947
-5.6041 -12.4326 1.5959
-5.4860 -13.4349 1.6978
-5.0026 -13.6256 1.6978
-4.5125 -13.7987 1.6978
-4.0163 -13.9539 1.6978
-3.5148 -14.0914 1.6979
-3.0087 -14.2112 1.6980
-2.4985 -14.3123 1.6981
-1.9848 -14.3947 1.6982
-1.4683 -14.4581 1.6983
-0.9498 -14.5026 1.6983
-0.4300 -14.5279 1.6983
0.0903 -14.5341 1.6983
0.6106 -14.5212 1.6983
1.1300 -14.4890 1.6983
1.6477 -14.4369 1.6981
2.1631 -14.3660 1.6979
2.5132 -13.4106 1.5947
2.9914 -13.3105 1.5947
3.4655 -13.1930 1.5947
3.9350 -13.0584 1.5947
4.3992 -12.9069 1.5947
4.8421 -12.6983 1.5897
5.2925 -12.5141 1.5897
5.7357 -12.3137 1.5897
6.1713 -12.0973 1.5897
6.5986 -11.8653 1.5897
7.0171 -11.6181 1.5897
7.4263 -11.3558 1.5897
7.8255 -11.0790 1.5897
7.0583 -9.2699 1.3660
7.0325 -8.5803 1.3011
7.5681 -8.5873 1.3430
7.4329 -7.8486 1.2688
6.2022 -6.0963 1.0212
6.6702 -6.1024 1.0620
6.6811 -5.6866 1.0311
6.6863 -5.2902 1.0025
6.6912 -4.9150 0.9766
6.6958 -4.5586 0.9533
6.1412 -3.8667 0.8545
6.6706 -3.8736 0.9087
6.9207 -3.6940 0.9247
6.9247 -3.3834 0.9089
6.9286 -3.0831 0.8948
6.9324 -2.7919 0.8823
6.9361 -2.5086 0.8712
6.9397 -2.2324 0.8616
6.9433 -1.9621 0.8532
6.9467 -1.6970 0.8461
6.9501 -1.4363 0.8402
6.9535 -1.1791 0.8354
6.9568 -0.9248 0.8318
6.9601 -0.6726 0.8293
6.9634 -0.4220 0.8278
6.9666 -0.1722 0.8274
6.9699 0.0774 0.8281
6.9731 0.3274 0.8298
6.9764 0.5786 0.8326
6.9797 0.8314 0.8365
6.9831 1.0867 0.8415
6.9864 1.3450 0.8477
6.9898 1.6072 0.8550
6.9434 1.8607 0.8574
7.0185 2.1530 0.8762
7.0272 2.4342 0.8881
7.0306 2.7211 0.9007
7.0324 3.0156 0.9147
6.9620 3.2854 0.9208
7.0162 3.6237 0.9450
7.0204 3.9506 0.9645
7.0249 4.2914 0.9861
7.0295 4.6479 1.0100
6.8917 4.9203 1.0153
8.2445 6.3439 1.2479
8.2511 6.8331 1.2857
8.2582 7.3531 1.3276
7.7591 7.4237 1.2899
7.2283 7.4296 1.2456
6.7332 7.4359 1.2059
6.2687 7.4422 1.1702
6.8698 8.7754 1.3408
6.8788 9.4668 1.4083
6.5538 9.7345 1.4128
3.0889 4.9629 0.7040
6.5883 11.4827 1.5947
6.1711 11.7080 1.5947
-9.2618 2.7152 1.3729
-9.2664 2.3597 1.3595
-9.2710 2.0104 1.3481
-9.2755 1.6660 1.3386
-9.2799 1.3257 1.3309
-9.2843 0.9886 1.3249
-9.2887 0.6538 1.3207
-9.2931 0.3203 1.3182
-9.2974 -0.0127 1.3174
-9.3018 -0.3460 1.3183
-9.3061 -0.6805 1.3208
-9.3105 -1.0171 1.3251
-8.8160 -1.2840 1.2599
-8.3427 -1.5219 1.1987
-8.3468 -1.8337 1.2073
-8.3509 -2.1508 1.2177
-10.2046 -3.0217 1.5021
-10.2099 -3.4254 1.5193
-10.2153 -3.8394 1.5388
-10.3961 -4.3382 1.5878
-10.4019 -4.7849 1.6131
-10.3855 -5.2357 1.6378
-10.1959 -5.6066 1.6378
-9.9929 -5.9706 1.6378
-9.5197 -6.1609 1.5947
-9.2969 -6.5004 1.5947
-9.0618 -6.8319 1.5947
-8.8148 -7.1547 1.5947
-8.5563 -7.4686 1.5947
-8.2865 -7.7730 1.5947
-8.0058 -8.0676 1.5947
-7.7145 -8.3519 1.5947
-7.4130 -8.6256 1.5947
-7.1017 -8.8883 1.5947
-6.4307 -8.6675 1.5124
-6.1437 -8.9321 1.5187
-6.1131 -9.6069 1.5947
-5.7667 -9.8222 1.5947
-5.5597 -10.2970 1.6380
-5.3781 -10.8748 1.6978
-4.9864 -11.0627 1.6978
-4.5881 -11.2363 1.6978
-4.1836 -11.3955 1.6978
-3.7736 -11.5398 1.6978
-3.3586 -11.6693 1.6978
-2.9391 -11.7836 1.6978
-2.5156 -11.8826 1.6978
-2.0888 -11.9662 1.6978
-1.6592 -12.0342 1.6978
-1.2274 -12.0867 1.6978
-0.7940 -12.1234 1.6978
-0.3595 -12.1444 1.6978
0.0755 -12.1495 1.6978
0.5104 -12.1389 1.6978
0.9446 -12.1125 1.6978
1.3776 -12.0704 1.6978
1.8087 -12.0126 1.6978
2.2374 -11.9392 1.6978
2.5014 -11.1307 1.5947
2.8979 -11.0328 1.5947
3.2906 -10.9205 1.5947
3.6789 -10.7941 1.5947
4.0623 -10.6536 1.5947
4.4402 -10.4995 1.5947
4.7971 -10.2991 1.5897
5.1616 -10.1185 1.5897
5.5193 -9.9249 1.5897
5.8696 -9.7186 1.5897
6.2121 -9.4997 1.5897
6.5464 -9.2687 1.5897
6.8720 -9.0257 1.5897
7.0320 -8.5803 1.5551
7.4955 -8.5055 1.5897
7.4324 -7.8485 1.5162
6.2018 -6.0963 1.2203
6.6697 -6.1024 1.2690
6.6811 -5.6870 1.2320
6.6863 -5.2905 1.1977
6.6912 -4.9153 1.1668
6.6958 -4.5589 1.1388
6.1407 -3.8667 1.0206
6.6700 -3.8736 1.0853
6.9207 -3.6943 1.1043
6.9247 -3.3837 1.0854
6.9286 -3.0834 1.0685
6.9324 -2.7922 1.0534
6.9361 -2.5090 1.0402
6.9397 -2.2327 1.0285
6.9433 -1.9624 1.0185
6.9467 -1.6973 1.0099
6.9501 -1.4366 1.0027
6.9535 -1.1794 0.9970
6.9568 -0.9251 0.9925
6.9601 -0.6729 0.9894
6.9634 -0.4223 0.9876
6.9666 -0.1725 0.9870
6.9699 0.0771 0.9877
6.9731 0.3271 0.9897
6.9764 0.5782 0.9929
6.9797 0.8311 0.9975
6.9830 1.0863 1.0034
6.9864 1.3447 1.0106
6.9898 1.6069 1.0193
6.9459 1.8610 1.0224
7.0184 2.1527 1.0443
7.0220 2.4321 1.0576
7.0253 2.7188 1.0726
7.0274 3.0132 1.0892
6.9620 3.2851 1.0971
7.0162 3.6234 1.1259
7.0204 3.9502 1.1490
7.0249 4.2910 1.1747
7.0295 4.6475 1.2030
6.8917 4.9199 1.2093
8.2461 6.3447 1.4865
8.2528 6.8341 1.5315
8.1880 7.2902 1.5675
7.7606 7.4247 1.5362
7.2296 7.4305 1.4834
6.7344 7.4368 1.4360
6.2695 7.4427 1.3933
6.7664 8.6428 1.5720
6.4463 8.8711 1.5710
6.1186 9.0875 1.5699
3.0887 4.9623 0.8378
5.5356 9.6475 1.5947
5.1853 9.8372 1.5947
-9.2572 2.7134 1.5946
-9.2662 2.3592 1.5799
-9.2707 2.0099 1.5667
-9.2752 1.6655 1.5558
-9.2797 1.3253 1.5469
-9.2841 0.9882 1.5401
-9.2884 0.6533 1.5353
-9.2928 0.3199 1.5325
-9.2971 -0.0131 1.5317
-9.3015 -0.3464 1.5328
-9.3058 -0.6809 1.5359
-9.3102 -1.0175 1.5410
-8.8135 -1.2840 1.4648
-8.3427 -1.5223 1.3941
-8.3468 -1.8341 1.4043
-8.3509 -2.1512 1.4165
-9.3120 -2.7578 1.5946
-9.2111 -3.0907 1.5946
-9.0982 -3.4199 1.5946
-8.9744 -3.7454 1.5947
-8.8380 -4.0659 1.5947
-8.6901 -4.3814 1.5947
-8.5309 -4.6915 1.5947
-8.3606 -4.9958 1.5947
-8.1793 -5.2939 1.5947
-7.9874 -5.5853 1.5947
-7.7850 -5.8697 1.5947
-7.5725 -6.1468 1.5947
-7.3500 -6.4161 1.5947
-7.1178 -6.6772 1.5947
-6.8764 -6.9299 1.5947
-6.6258 -7.1738 1.5947
-6.3666 -7.4085 1.5947
-6.0990 -7.6338 1.5947
-5.8233 -7.8493 1.5947
-5.5400 -8.0548 1.5947
-5.5341 -8.6975 1.6813
-5.2718 -8.9797 1.6978
-4.9480 -9.1646 1.6978
-4.6177 -9.3377 1.6978
-4.2813 -9.4988 1.6978
-3.9391 -9.6476 1.6978
-3.5918 -9.7840 1.6978
-3.2397 -9.9077 1.6978
-2.8834 -10.0186 1.6978
-2.5232 -10.1166 1.6978
-2.1596 -10.2014 1.6978
-1.7932 -10.2730 1.6978
-1.4244 -10.3314 1.6978
-1.0537 -10.3763 1.6978
-0.6816 -10.4077 1.6978
-0.3086 -10.4257 1.6978
0.0648 -10.4301 1.6978
0.4381 -10.4210 1.6978
0.8109 -10.3984 1.6978
1.1826 -10.3623 1.6978
1.5527 -10.3128 1.6978
1.9207 -10.2499 1.6978
2.2862 -10.1737 1.6978
2.5132 -9.5685 1.6110
2.8250 -9.3758 1.5947
3.1584 -9.2674 1.5947
3.4876 -9.1471 1.5947
3.8122 -9.0150 1.5947
4.1318 -8.8712 1.5947
4.4459 -8.7159 1.5947
4.7391 -8.5225 1.5897
5.0401 -8.3456 1.5897
5.3344 -8.1579 1.5897
5.6217 -7.9598 1.5897
5.8648 -7.7033 1.5798
6.0187 -7.3442 1.5498
6.2760 -7.1220 1.5498
6.5250 -6.8908 1.5498
6.2015 -6.0963 1.4206
6.6693 -6.1024 1.4772
6.6811 -5.6874 1.4342
6.6863 -5.2909 1.3942
6.6912 -4.9157 1.3581
6.6958 -4.5593 1.3255
6.1402 -3.8667 1.1878
6.6694 -3.8736 1.2629
6.9207 -3.6947 1.2851
6.9247 -3.3840 1.2630
6.9286 -3.0837 1.2433
6.9324 -2.7925 1.2257
6.9361 -2.5093 1.2102
6.9397 -2.2330 1.1965
6.9433 -1.9628 1.1848
6.9467 -1.6977 1.1747
6.9501 -1.4369 1.1663
6.9535 -1.1797 1.1595
6.9568 -0.9254 1.1543
6.9601 -0.6732 1.1506
6.9634 -0.4226 1.1484
6.9666 -0.1728 1.1476
6.9699 0.0768 1.1484
6.9731 0.3268 1.1506
6.9764 0.5779 1.1543
6.9797 0.8308 1.1595
6.9830 1.0860 1.1663
6.9864 1.3444 1.1746
6.9898 1.6066 1.1846
6.9487 1.8615 1.1887
7.0136 2.1508 1.2127
7.0168 2.4300 1.2280
7.0201 2.7164 1.2453
7.0223 3.0106 1.2645
6.9640 3.2857 1.2749
7.0162 3.6230 1.3079
7.0204 3.9499 1.3347
7.0249 4.2907 1.3644
7.0295 4.6471 1.3973
6.8917 4.9195 1.4045
7.4983 5.7689 1.5698
7.2844 6.0317 1.5698
7.0615 6.2867 1.5698
6.8296 6.5336 1.5698
6.5893 6.7719 1.5698
6.3406 7.0016 1.5698
6.0841 7.2222 1.5698
5.9124 7.5515 1.5947
5.6367 7.7565 1.5947
5.3540 7.9515 1.5947
3.0449 4.8917 0.9588
4.7688 8.3106 1.5947
4.4672 8.4743 1.5947
-8.1168 2.3788 1.5946
-8.1998 2.0874 1.5946
-8.2723 1.7930 1.5946
-8.3343 1.4962 1.5946
-8.3856 1.1972 1.5946
-8.4262 0.8965 1.5946
-8.4561 0.5944 1.5946
-8.4751 0.2913 1.5946
-8.4833 -0.0124 1.5946
-8.4806 -0.3162 1.5946
-8.4671 -0.6199 1.5946
-8.4426 -0.9231 1.5946
-8.4073 -1.2253 1.5946
-8.3427 -1.5227 1.5911
-8.3042 -1.8251 1.5946
-8.2366 -2.1221 1.5946
-8.1583 -2.4165 1.5946
-8.0694 -2.7080 1.5946
-7.9701 -2.9963 1.5946
-7.8605 -3.2809 1.5946
-7.7415 -3.5618 1.5947
-7.6116 -3.8380 1.5947
-7.4718 -4.1094 1.5947
-7.3223 -4.3758 1.5947
-7.1632 -4.6366 1.5947
-6.9949 -4.8916 1.5947
-6.8173 -5.1405 1.5947
-6.6309 -5.3829 1.5947
-6.4358 -5.6185 1.5947
-6.2323 -5.8469 1.5947
-6.0207 -6.0679 1.5947
-5.8011 -6.2812 1.5947
-5.5739 -6.4865 1.5947
-5.5106 -6.8977 1.6458
-5.4275 -7.3162 1.6978
-5.1633 -7.5075 1.6978
-4.8922 -7.6891 1.6978
-4.6148 -7.8609 1.6978
-4.3312 -8.0226 1.6978
-4.0420 -8.1739 1.6978
-3.7474 -8.3147 1.6978
-3.4479 -8.4448 1.6978
-3.1438 -8.5640 1.6978
-2.8356 -8.6722 1.6978
-2.5236 -8.7691 1.6978
-2.2083 -8.8547 1.6978
-1.8901 -8.9289 1.6978
-1.5694 -8.9914 1.6978
-1.2466 -9.0424 1.6978
-0.9222 -9.0817 1.6978
-0.5965 -9.1091 1.6978
-0.2701 -9.1248 1.6978
0.0567 -9.1287 1.6978
0.3835 -9.1208 1.6978
0.7097 -9.1010 1.6978
1.0350 -9.0695 1.6978
1.3589 -9.0261 1.6978
1.6810 -8.9712 1.6978
2.0009 -8.9046 1.6978
2.3182 -8.8264 1.6978
2.5225 -8.3722 1.6270
2.7914 -8.1909 1.6103
3.0526 -8.0065 1.5947
3.3368 -7.8910 1.5947
3.6166 -7.7653 1.5947
3.8916 -7.6296 1.5947
4.1615 -7.4841 1.5947
4.4259 -7.3290 1.5947
4.6845 -7.1644 1.5947
4.9369 -6.9906 1.5947
5.1828 -6.8079 1.5947
5.4219 -6.6164 1.5947
5.6540 -6.4165 1.5947
5.8785 -6.2084 1.5947
5.9241 -5.8240 1.5499
6.1297 -5.6090 1.5506
6.3274 -5.3866 1.5512
6.5168 -5.1572 1.5518
6.6912 -4.9161 1.5509
6.6958 -4.5596 1.5136
6.1397 -3.8666 1.3561
6.6688 -3.8736 1.4419
6.9207 -3.6950 1.4673
6.9247 -3.3844 1.4420
6.9286 -3.0841 1.4194
6.9324 -2.7929 1.3992
6.9361 -2.5096 1.3814
6.9397 -2.2333 1.3658
6.9433 -1.9631 1.3523
6.9467 -1.6980 1.3407
6.9501 -1.4372 1.3311
6.9535 -1.1800 1.3233
6.9568 -0.9257 1.3172
6.9601 -0.6735 1.3130
6.9634 -0.4229 1.3104
6.9666 -0.1731 1.3095
6.9699 0.0765 1.3102
6.9731 0.3265 1.3127
6.9764 0.5776 1.3169
6.9797 0.8305 1.3228
6.9830 1.0857 1.3304
6.9864 1.3441 1.3399
6.9898 1.6063 1.3512
6.9515 1.8619 1.3563
7.0084 2.1490 1.3820
7.0116 2.4279 1.3994
7.0148 2.7140 1.4191
7.0172 3.0081 1.4409
6.9663 3.2864 1.4542
7.0161 3.6226 1.4913
7.0204 3.9495 1.5218
7.0249 4.2903 1.5556
7.0295 4.6468 1.5930
6.8853 4.9147 1.5997
6.6821 5.1405 1.5947
6.4918 5.3750 1.5947
6.2933 5.6025 1.5947
6.0407 5.7785 1.5826
5.8729 6.0353 1.5947
5.6515 6.2402 1.5947
5.4230 6.4370 1.5947
5.1877 6.6256 1.5947
4.9460 6.8056 1.5947
4.6980 6.9769 1.5947
3.0416 4.8861 1.0914
4.1848 7.2925 1.5947
3.9202 7.4363 1.5947
-7.2198 2.1156 1.5946
-7.2933 1.8563 1.5946
-7.3576 1.5944 1.5946
-7.4124 1.3304 1.5946
-7.4578 1.0644 1.5946
-7.4936 0.7969 1.5946
-7.5199 0.5283 1.5946
-7.5365 0.2587 1.5946
-7.5435 -0.0113 1.5946
-7.5408 -0.2815 1.5946
-7.5284 -0.5515 1.5946
-7.5064 -0.8211 1.5946
-7.4747 -1.0897 1.5946
-7.4333 -1.3571 1.5946
-7.3824 -1.6229 1.5946
-7.3220 -1.8868 1.5946
-7.2521 -2.1484 1.5946
-7.1729 -2.4075 1.5946
-7.0843 -2.6636 1.5946
-6.9866 -2.9165 1.5946
-6.8799 -3.1657 1.5946
-6.7642 -3.4111 1.5946
-6.6404 -3.6525 1.5947
-6.5073 -3.8891 1.5947
-6.3657 -4.1207 1.5947
-6.2159 -4.3472 1.5947
-6.0579 -4.5682 1.5947
-5.8921 -4.7835 1.5947
-5.7186 -4.9926 1.5947
-5.5376 -5.1954 1.5947
-5.4943 -5.5378 1.6380
-5.4873 -5.9418 1.6978
-5.2723 -6.1358 1.6978
-5.0503 -6.3220 1.6978
-4.8218 -6.5001 1.6978
-4.5869 -6.6699 1.6978
-4.3461 -6.8311 1.6978
-4.0995 -6.9835 1.6978
-3.8475 -7.1270 1.6978
-3.5905 -7.2613 1.6978
-3.3288 -7.3862 1.6978
-3.0627 -7.5017 1.6978
-2.7925 -7.6075 1.6978
-2.5187 -7.7034 1.6978
-2.2416 -7.7894 1.6978
-1.9615 -7.8654 1.6978
-1.6788 -7.9312 1.6978
-1.3940 -7.9867 1.6978
-1.1073 -8.0319 1.6978
-0.8191 -8.0667 1.6978
-0.5298 -8.0911 1.6978
-0.2399 -8.1050 1.6978
0.0504 -8.1085 1.6978
0.3406 -8.1014 1.6978
0.6304 -8.0839 1.6978
0.9193 -8.0559 1.6978
1.2070 -8.0175 1.6978
1.4931 -7.9687 1.6978
1.7773 -7.9096 1.6978
2.0591 -7.8403 1.6978
2.3382 -7.7609 1.6978
2.5288 -7.4208 1.6424
2.7115 -7.1123 1.5947
2.9640 -7.0098 1.5947
3.2126 -6.8982 1.5947
3.4569 -6.7778 1.5947
3.6968 -6.6487 1.5947
3.9317 -6.5110 1.5947
4.1615 -6.3649 1.5947
4.3859 -6.2107 1.5947
4.6044 -6.0485 1.5947
4.8170 -5.8785 1.5947
5.0233 -5.7011 1.5947
5.2229 -5.5164 1.5947
5.4158 -5.3246 1.5947
5.6015 -5.1260 1.5947
5.7800 -4.9210 1.5947
5.9043 -4.6728 1.5823
5.9422 -4.3661 1.5499
6.0949 -4.1507 1.5504
6.1392 -3.8666 1.5259
6.5549 -3.8077 1.5947
6.7058 -3.5807 1.5997
6.8277 -3.3373 1.5997
6.9286 -3.0844 1.5969
6.9324 -2.7932 1.5742
6.9361 -2.5100 1.5541
6.9397 -2.2337 1.5365
6.9433 -1.9634 1.5212
6.9467 -1.6983 1.5082
6.9501 -1.4375 1.4973
6.9535 -1.1803 1.4884
6.9568 -0.9260 1.4816
6.9601 -0.6739 1.4767
6.9634 -0.4232 1.4737
6.9666 -0.1734 1.4727
6.9699 0.0762 1.4735
6.9731 0.3262 1.4762
6.9764 0.5773 1.4808
6.9797 0.8302 1.4874
6.9830 1.0854 1.4959
6.9864 1.3438 1.5065
6.9898 1.6060 1.5192
6.9544 1.8624 1.5255
7.0033 2.1470 1.5526
7.0063 2.4257 1.5720
7.0094 2.7116 1.5940
6.9303 2.9705 1.5997
6.8174 3.2159 1.5997
6.6750 3.4462 1.5947
6.5454 3.6819 1.5947
6.4074 3.9129 1.5947
6.2614 4.1387 1.5947
6.1075 4.3591 1.5947
5.9458 4.5738 1.5947
5.7766 4.7826 1.5947
5.6002 4.9851 1.5947
5.4167 5.1812 1.5947
5.2264 5.3706 1.5947
5.0295 5.5531 1.5947
4.8263 5.7284 1.5947
4.6170 5.8964 1.5947
4.4020 6.0567 1.5947
4.1814 6.2093 1.5947
3.0383 4.8805 1.2249
3.7247 6.4904 1.5947
3.4893 6.6186 1.5947
-6.4952 1.9030 1.5946
-6.5611 1.6696 1.5946
-6.6187 1.4340 1.5946
-6.6678 1.1964 1.5946
-6.7084 0.9572 1.5946
-6.7404 0.7165 1.5946
-6.7638 0.4748 1.5946
-6.7786 0.2324 1.5946
-6.7846 -0.0105 1.5946
-6.7820 -0.2535 1.5946
-6.7706 -0.4963 1.5946
-6.7506 -0.7387 1.5946
-6.7219 -0.9802 1.5946
-6.6845 -1.2206 1.5946
-6.6385 -1.4596 1.5946
-6.5839 -1.6969 1.5946
-6.5209 -1.9321 1.5946
-6.4494 -2.1650 1.5946
-6.3696 -2.3952 1.5946
-6.2816 -2.6225 1.5946
-6.1854 -2.8465 1.5946
-6.0812 -3.0670 1.5946
-5.9692 -3.2836 1.5946
-5.8494 -3.4962 1.5946
-5.7225 -3.7047 1.5947
-5.5877 -3.9082 1.5947
-5.4847 -4.1363 1.6062
-5.4795 -4.4488 1.6499
-5.4725 -4.7781 1.6978
-5.2992 -4.9721 1.6978
-5.1189 -5.1597 1.6978
-4.9320 -5.3408 1.6978
-4.7386 -5.5151 1.6978
-4.5391 -5.6823 1.6978
-4.3336 -5.8422 1.6978
-4.1224 -5.9947 1.6978
-3.9058 -6.1395 1.6978
-3.6842 -6.2764 1.6978
-3.4577 -6.4052 1.6978
-3.2267 -6.5258 1.6978
-2.9914 -6.6380 1.6978
-2.7522 -6.7416 1.6978
-2.5094 -6.8366 1.6978
-2.2634 -6.9228 1.6978
-2.0143 -7.0000 1.6978
-1.7626 -7.0682 1.6978
-1.5086 -7.1272 1.6978
-1.2526 -7.1771 1.6978
-0.9950 -7.2177 1.6978
-0.7360 -7.2489 1.6978
-0.4761 -7.2708 1.6978
-0.2155 -7.2833 1.6978
0.0453 -7.2864 1.6978
0.3061 -7.2801 1.6978
0.5664 -7.2643 1.6978
0.8260 -7.2392 1.6978
1.0846 -7.2047 1.6978
1.3417 -7.1609 1.6978
1.5970 -7.1079 1.6978
1.8503 -7.0456 1.6978
2.1011 -6.9743 1.6978
2.3492 -6.8940 1.6978
2.5329 -6.6440 1.6577
2.6636 -6.2996 1.5947
2.8870 -6.1994 1.5947
3.1066 -6.0913 1.5947
3.3222 -5.9753 1.5947
3.5334 -5.8517 1.5947
3.7400 -5.7205 1.5947
3.9417 -5.5820 1.5947
4.1382 -5.4364 1.5947
4.3294 -5.2837 1.5947
4.5148 -5.1243 1.5947
4.6944 -4.9584 1.5947
4.8678 -4.7862 1.5947
5.0349 -4.6078 1.5947
5.1954 -4.4236 1.5947
5.3492 -4.2338 1.5947
5.4960 -4.0386 1.5947
5.6356 -3.8382 1.5947
5.7678 -3.6330 1.5947
5.8927 -3.4234 1.5947
6.0099 -3.2094 1.5947
6.1193 -2.9913 1.5947
6.2207 -2.7696 1.5947
6.3141 -2.5444 1.5947
6.3993 -2.3160 1.5947
6.4763 -2.0848 1.5947
6.5448 -1.8510 1.5947
6.6049 -1.6150 1.5947
6.6773 -1.3814 1.5997
6.7204 -1.1411 1.5997
6.7549 -0.8994 1.5997
6.7807 -0.6568 1.5997
6.7978 -0.4134 1.5997
6.8061 -0.1697 1.5997
6.8058 0.0741 1.5997
6.7967 0.3177 1.5997
6.7788 0.5607 1.5997
6.7524 0.8028 1.5997
6.7172 1.0438 1.5997
6.6528 1.2793 1.5947
6.6008 1.5163 1.5947
6.5403 1.7512 1.5947
6.4715 1.9837 1.5947
6.3944 2.2135 1.5947
6.3092 2.4404 1.5947
6.2160 2.6640 1.5947
6.1149 2.8842 1.5947
6.0060 3.1005 1.5947
5.8895 3.3127 1.5947
5.7656 3.5206 1.5947
5.6343 3.7239 1.5947
5.4959 3.9223 1.5947
5.3506 4.1156 1.5947
5.1985 4.3036 1.5947
5.0398 4.4860 1.5947
4.8748 4.6626 1.5947
4.7037 4.8332 1.5947
4.5265 4.9975 1.5947
4.3438 5.1554 1.5947
4.1555 5.3067 1.5947
3.9620 5.4511 1.5947
3.7635 5.5885 1.5947
3.0349 4.8748 1.3594
3.3527 5.8418 1.5947
3.1408 5.9572 1.5947
-5.8970 1.7274 1.5946
-5.9567 1.5155 1.5946
-6.0088 1.3016 1.5946
-6.0533 1.0859 1.5946
-6.0900 0.8686 1.5946
-6.1189 0.6502 1.5946
-6.1399 0.4308 1.5946
-6.1532 0.2107 1.5946
-6.1585 -0.0098 1.5946
-6.1559 -0.2304 1.5946
-6.1455 -0.4508 1.5946
-6.1271 -0.6707 1.5946
-6.1009 -0.8899 1.5946
-6.0668 -1.1081 1.5946
-6.0249 -1.3250 1.5946
-5.9752 -1.5403 1.5946
-5.9179 -1.7537 1.5946
-5.8528 -1.9650 1.5946
-5.7803 -2.1739 1.5946
-5.7003 -2.3801 1.5946
-5.6128 -2.5833 1.5946
-5.5182 -2.7833 1.5946
-5.4709 -3.0098 1.6106
-5.4661 -3.2674 1.6422
-5.4675 -3.5399 1.6793
-5.3976 -3.7755 1.6978
-5.2601 -3.9672 1.6978
-5.1159 -4.1539 1.6978
-4.9650 -4.3353 1.6978
-4.8076 -4.5112 1.6978
-4.6440 -4.6814 1.6978
-4.4743 -4.8455 1.6978
-4.2988 -5.0036 1.6978
-4.1177 -5.1552 1.6978
-3.9312 -5.3002 1.6978
-3.7396 -5.4384 1.6978
-3.5431 -5.5696 1.6978
-3.3420 -5.6937 1.6978
-3.1365 -5.8105 1.6978
-2.9269 -5.9199 1.6978
-2.7135 -6.0216 1.6978
-2.4965 -6.1155 1.6978
-2.2762 -6.2016 1.6978
-2.0530 -6.2797 1.6978
-1.8271 -6.3497 1.6978
-1.5988 -6.4115 1.6978
-1.3684 -6.4650 1.6978
-1.1362 -6.5102 1.6978
-0.9025 -6.5470 1.6978
-0.6676 -6.5753 1.6978
-0.4318 -6.5952 1.6978
-0.1955 -6.6065 1.6978
0.0411 -6.6093 1.6978
0.2776 -6.6035 1.6978
0.5138 -6.5893 1.6978
0.7492 -6.5665 1.6978
0.9838 -6.5352 1.6978
1.2170 -6.4955 1.6978
1.4486 -6.4474 1.6978
1.6783 -6.3910 1.6978
1.9058 -6.3264 1.6978
2.1309 -6.2536 1.6978
2.3531 -6.1727 1.6978
2.5352 -5.9962 1.6734
2.6188 -5.6237 1.5947
2.8313 -5.5518 1.6023
3.0136 -5.4206 1.5947
3.2052 -5.3085 1.5947
3.3927 -5.1896 1.5947
3.5757 -5.0640 1.5947
3.7541 -4.9320 1.5947
3.9275 -4.7936 1.5947
4.0958 -4.6491 1.5947
4.2588 -4.4986 1.5947
4.4162 -4.3424 1.5947
4.5678 -4.1807 1.5947
4.7135 -4.0136 1.5947
4.8531 -3.8414 1.5947
4.9863 -3.6644 1.5947
5.1134 -3.4829 1.5947
5.2335 -3.2968 1.5947
5.3469 -3.1066 1.5947
5.4533 -2.9124 1.5947
5.5527 -2.7147 1.5947
5.6449 -2.5135 1.5947
5.7298 -2.3092 1.5947
5.8072 -2.1020 1.5947
5.8772 -1.8922 1.5947
5.9396 -1.6801 1.5947
5.9943 -1.4660 1.5947
6.0413 -1.2501 1.5947
6.0805 -1.0327 1.5947
6.1119 -0.8141 1.5947
6.1354 -0.5946 1.5947
6.1510 -0.3744 1.5947
6.1587 -0.1538 1.5947
6.1585 0.0668 1.5947
6.1505 0.2872 1.5947
6.1345 0.5071 1.5947
6.1107 0.7262 1.5947
6.0791 0.9443 1.5947
6.0397 1.1611 1.5947
5.9926 1.3763 1.5947
5.9378 1.5896 1.5947
5.8755 1.8007 1.5947
5.8057 2.0095 1.5947
5.7285 2.2155 1.5947
5.6440 2.4186 1.5947
5.5523 2.6185 1.5947
5.4536 2.8150 1.5947
5.3479 3.0078 1.5947
5.2355 3.1966 1.5947
5.1164 3.3813 1.5947
4.9909 3.5616 1.5947
4.8590 3.7372 1.5947
4.7210 3.9080 1.5947
4.5770 4.0737 1.5947
4.4272 4.2342 1.5947
4.2718 4.3892 1.5947
4.1111 4.5385 1.5947
3.9451 4.6820 1.5947
3.7742 4.8195 1.5947
3.5985 4.9507 1.5947
3.4183 5.0756 1.5947
3.0315 4.8691 1.4950
2.9629 5.1623 1.5516
2.8528 5.4107 1.5947
-5.4136 1.5856 1.6002
-5.4489 1.3861 1.5946
-5.4964 1.1904 1.5946
-5.5370 0.9930 1.5946
-5.5704 0.7943 1.5946
-5.5967 0.5944 1.5946
-5.6303 0.3947 1.5987
-5.6336 0.1926 1.5962
-5.6364 -0.0092 1.5956
-5.6386 -0.2113 1.5970
-5.6404 -0.4140 1.6003
-5.6035 -0.6137 1.5946
-5.5794 -0.8141 1.5946
-5.5481 -1.0137 1.5946
-5.5096 -1.2120 1.5946
-5.4641 -1.4088 1.5946
-5.4536 -1.6164 1.6070
-5.4520 -1.8307 1.6244
-5.4498 -2.0498 1.6441
-5.4526 -2.2769 1.6681
-5.4557 -2.5112 1.6951
-5.3722 -2.7099 1.6978
-5.2730 -2.9012 1.6978
-5.1669 -3.0888 1.6978
-5.0541 -3.2725 1.6978
-4.9348 -3.4521 1.6978
-4.8091 -3.6273 1.6978
-4.6772 -3.7979 1.6978
-4.5391 -3.9637 1.6978
-4.3952 -4.1245 1.6978
-4.2455 -4.2799 1.6978
-4.0904 -4.4300 1.6978
-3.9299 -4.5744 1.6978
-3.7642 -4.7129 1.6978
-3.5937 -4.8454 1.6978
-3.4185 -4.9717 1.6978
-3.2388 -5.0916 1.6978
-3.0550 -5.2050 1.6978
-2.8670 -5.3117 1.6978
-2.6754 -5.4115 1.6978
-2.4803 -5.5044 1.6978
-2.2820 -5.5903 1.6978
-2.0806 -5.6689 1.6978
-1.8766 -5.7402 1.6978
-1.6700 -5.8042 1.6978
-1.4613 -5.8606 1.6978
-1.2507 -5.9095 1.6978
-1.0385 -5.9508 1.6978
-0.8249 -5.9844 1.6978
-0.6102 -6.0103 1.6978
-0.3947 -6.0284 1.6978
-0.1787 -6.0388 1.6978
0.0375 -6.0413 1.6978
0.2537 -6.0361 1.6978
0.4696 -6.0230 1.6978
0.6848 -6.0022 1.6978
0.8992 -5.9737 1.6978
1.1124 -5.9374 1.6978
1.3241 -5.8935 1.6978
1.5341 -5.8420 1.6978
1.7420 -5.7829 1.6978
1.9477 -5.7164 1.6978
2.1509 -5.6425 1.6978
2.3512 -5.5614 1.6978
2.5413 -5.4575 1.6930
2.5777 -5.0547 1.5958
2.7547 -4.9551 1.5947
2.9299 -4.8527 1.5947
3.1013 -4.7441 1.5947
3.2686 -4.6293 1.5947
3.4317 -4.5087 1.5947
3.5902 -4.3822 1.5947
3.7441 -4.2502 1.5947
3.8932 -4.1127 1.5947
4.0371 -3.9699 1.5947
4.1758 -3.8221 1.5947
4.3091 -3.6695 1.5947
4.4370 -3.5124 1.5947
4.5590 -3.3506 1.5947
4.6750 -3.1846 1.5947
4.7850 -3.0145 1.5947
4.8887 -2.8406 1.5947
4.9861 -2.6632 1.5947
5.0771 -2.4824 1.5947
5.1615 -2.2985 1.5947
5.2392 -2.1117 1.5947
5.3102 -1.9223 1.5947
5.3743 -1.7306 1.5947
5.4314 -1.5367 1.5947
5.4816 -1.3409 1.5947
5.5247 -1.1435 1.5947
5.5606 -0.9447 1.5947
5.5894 -0.7448 1.5947
5.6111 -0.5440 1.5947
5.6255 -0.3427 1.5947
5.6327 -0.1410 1.5947
5.6327 0.0608 1.5947
5.6254 0.2624 1.5947
5.6109 0.4635 1.5947
5.5893 0.6640 1.5947
5.5605 0.8635 1.5947
5.5246 1.0618 1.5947
5.4816 1.2587 1.5947
5.4316 1.4538 1.5947
5.3747 1.6470 1.5947
5.3110 1.8380 1.5947
5.2405 2.0265 1.5947
5.1633 2.2124 1.5947
5.0795 2.3953 1.5947
4.9893 2.5751 1.5947
4.8927 2.7515 1.5947
4.7900 2.9244 1.5947
4.6811 3.0934 1.5947
4.5663 3.2584 1.5947
4.4458 3.4191 1.5947
4.3195 3.5754 1.5947
4.1879 3.7271 1.5947
4.0509 3.8740 1.5947
3.9088 4.0159 1.5947
3.7617 4.1526 1.5947
3.6100 4.2840 1.5947
3.4536 4.4098 1.5947
3.2929 4.5300 1.5947
3.1280 4.6443 1.5947
2.9592 4.7527 1.5947
2.7867 4.8551 1.5947
0.8273 1.5690 0.5054
-5.2873 1.5483 1.6978
-5.3406 1.3583 1.6978
-5.3871 1.1664 1.6978
-5.4103 0.9700 1.6927
-5.4129 0.7716 1.6834
-5.4154 0.5749 1.6763
-5.4180 0.3796 1.6714
-5.4205 0.1851 1.6686
-5.4230 -0.0091 1.6680
-5.4256 -0.2036 1.6696
-5.4281 -0.3987 1.6733
-5.4307 -0.5950 1.6792
-5.4333 -0.7931 1.6873
-5.4359 -0.9934 1.6976
-5.3988 -1.1878 1.6978
-5.3541 -1.3807 1.6978
-5.3024 -1.5719 1.6978
-5.2440 -1.7611 1.6978
-5.1788 -1.9482 1.6978
-5.1069 -2.1328 1.6978
-5.0283 -2.3148 1.6978
-4.9434 -2.4939 1.6978
-4.8520 -2.6698 1.6978
-4.7543 -2.8424 1.6978
-4.6504 -3.0114 1.6978
-4.5406 -3.1766 1.6978
-4.4248 -3.3377 1.6978
-4.3034 -3.4947 1.6978
-4.1763 -3.6471 1.6978
-4.0438 -3.7950 1.6978
-3.9061 -3.9380 1.6978
-3.7632 -4.0760 1.6978
-3.6155 -4.2087 1.6978
-3.4631 -4.3361 1.6978
-3.3062 -4.4580 1.6978
-3.1450 -4.5741 1.6978
-2.9797 -4.6844 1.6978
-2.8104 -4.7886 1.6978
-2.6376 -4.8867 1.6978
-2.4613 -4.9786 1.6978
-2.2817 -5.0640 1.6978
-2.0993 -5.1429 1.6978
-1.9140 -5.2152 1.6978
-1.7263 -5.2808 1.6978
-1.5363 -5.3396 1.6978
-1.3443 -5.3915 1.6978
-1.1506 -5.4365 1.6978
-0.9553 -5.4744 1.6978
-0.7588 -5.5053 1.6978
-0.5613 -5.5291 1.6978
-0.3631 -5.5458 1.6978
-0.1644 -5.5553 1.6978
0.0345 -5.5576 1.6978
0.2334 -5.5528 1.6978
0.4320 -5.5408 1.6978
0.6300 -5.5217 1.6978
0.8272 -5.4954 1.6978
1.0233 -5.4621 1.6978
1.2180 -5.4217 1.6978
1.4112 -5.3743 1.6978
1.6025 -5.3201 1.6978
1.7918 -5.2589 1.6978
1.9787 -5.1910 1.6978
2.1630 -5.1164 1.6978
2.3445 -5.0352 1.6978
2.5229 -4.9475 1.6978
2.5738 -4.6301 1.6197
2.6953 -4.4645 1.5947
2.8530 -4.3645 1.5947
3.0070 -4.2590 1.5947
3.1570 -4.1481 1.5947
3.3029 -4.0318 1.5946
3.4446 -3.9104 1.5946
3.5817 -3.7839 1.5946
3.7142 -3.6526 1.5946
3.8422 -3.5170 1.5947
3.9649 -3.3766 1.5947
4.0825 -3.2319 1.5947
4.1947 -3.0831 1.5947
4.3015 -2.9304 1.5947
4.4028 -2.7740 1.5947
4.4983 -2.6140 1.5947
4.5880 -2.4508 1.5947
4.6718 -2.2845 1.5947
4.7496 -2.1153 1.5947
4.8212 -1.9435 1.5947
4.8865 -1.7692 1.5947
4.9456 -1.5928 1.5947
4.9983 -1.4144 1.5947
5.0445 -1.2342 1.5947
5.0843 -1.0526 1.5947
5.1175 -0.8696 1.5947
5.1441 -0.6857 1.5947
5.1641 -0.5009 1.5947
5.1775 -0.3156 1.5947
5.1842 -0.1300 1.5947
5.1843 0.0557 1.5947
5.1777 0.2413 1.5947
5.1645 0.4264 1.5947
5.1447 0.6109 1.5947
5.1182 0.7946 1.5947
5.0853 0.9771 1.5947
5.0458 1.1584 1.5947
4.9999 1.3380 1.5947
4.9476 1.5159 1.5947
4.8890 1.6917 1.5947
4.8242 1.8653 1.5947
4.7532 2.0364 1.5947
4.6762 2.2049 1.5947
4.5932 2.3704 1.5947
4.5044 2.5329 1.5947
4.4099 2.6920 1.5947
4.3097 2.8477 1.5947
4.2041 2.9996 1.5947
4.0932 3.1477 1.5947
3.9770 3.2917 1.5947
3.8558 3.4314 1.5947
3.7298 3.5667 1.5947
3.5990 3.6974 1.5947
3.4637 3.8233 1.5947
3.3239 3.9443 1.5947
3.1800 4.0602 1.5947
3.0321 4.1709 1.5947
2.8803 4.2763 1.5947
2.7249 4.3761 1.5947
0.8145 1.4190 0.5062
0.7628 1.4467 0.5061
-4.8930 1.4326 1.6978
-4.9423 1.2567 1.6978
-4.9852 1.0791 1.6978
-5.0218 0.9001 1.6978
-5.0520 0.7199 1.6978
-5.0756 0.5386 1.6978
-5.0928 0.3566 1.6978
-5.1035 0.1740 1.6978
-5.1076 -0.0088 1.6978
-5.1052 -0.1918 1.6978
-5.0962 -0.3746 1.6978
-5.0807 -0.5569 1.6978
-5.0586 -0.7386 1.6978
-5.0301 -0.9195 1.6978
-4.9951 -1.0993 1.6978
-4.9536 -1.2777 1.6978
-4.9058 -1.4545 1.6978
-4.8516 -1.6296 1.6978
-4.7912 -1.8026 1.6978
-4.7246 -1.9734 1.6978
-4.6519 -2.1417 1.6978
-4.5732 -2.3074 1.6978
-4.4886 -2.4701 1.6978
-4.3981 -2.6297 1.6978
-4.3020 -2.7860 1.6978
-4.2003 -2.9388 1.6978
-4.0932 -3.0878 1.6978
-3.9808 -3.2329 1.6978
-3.8632 -3.3740 1.6978
-3.7406 -3.5107 1.6978
-3.6131 -3.6429 1.6978
-3.4810 -3.7705 1.6978
-3.3443 -3.8933 1.6978
-3.2033 -4.0111 1.6978
-3.0581 -4.1237 1.6978
-2.9090 -4.2311 1.6978
-2.7560 -4.3330 1.6978
-2.5995 -4.4294 1.6978
-2.4396 -4.5202 1.6978
-2.2765 -4.6051 1.6978
-2.1104 -4.6840 1.6978
-1.9416 -4.7570 1.6978
-1.7703 -4.8239 1.6978
-1.5966 -4.8845 1.6978
-1.4209 -4.9388 1.6978
-1.2433 -4.9868 1.6978
-1.0641 -5.0284 1.6978
-0.8835 -5.0635 1.6978
-0.7018 -5.0920 1.6978
-0.5191 -5.1140 1.6978
-0.3358 -5.1294 1.6978
-0.1520 -5.1382 1.6978
0.0319 -5.1404 1.6978
0.2159 -5.1359 1.6978
0.3995 -5.1248 1.6978
0.5827 -5.1072 1.6978
0.7650 -5.0829 1.6978
0.9464 -5.0521 1.6978
1.1265 -5.0147 1.6978
1.3052 -4.9709 1.6978
1.4822 -4.9207 1.6978
1.6572 -4.8642 1.6978
1.8301 -4.8014 1.6978
2.0006 -4.7324 1.6978
2.1684 -4.6574 1.6978
2.3335 -4.5763 1.6978
2.4955 -4.4894 1.6978
2.5691 -4.2556 1.6433
2.6388 -4.0371 1.5946
2.7966 -3.9613 1.6034
2.9201 -3.8370 1.5946
3.0551 -3.7294 1.5946
3.1861 -3.6172 1.5946
3.3133 -3.5006 1.5947
3.4359 -3.3792 1.5947
3.5541 -3.2535 1.5947
3.6677 -3.1237 1.5947
3.7764 -2.9899 1.5947
3.8803 -2.8523 1.5947
3.9792 -2.7110 1.5947
4.0729 -2.5664 1.5947
4.1614 -2.4184 1.5947
4.2444 -2.2675 1.5947
4.3220 -2.1137 1.5947
4.3940 -1.9572 1.5947
4.4603 -1.7982 1.5947
4.5209 -1.6371 1.5947
4.5756 -1.4738 1.5947
4.6244 -1.3088 1.5947
4.6673 -1.1421 1.5947
4.7041 -0.9741 1.5947
4.7349 -0.8048 1.5947
4.7596 -0.6347 1.5947
4.7782 -0.4637 1.5947
4.7906 -0.2923 1.5947
4.7969 -0.1205 1.5947
4.7971 0.0513 1.5947
4.7911 0.2230 1.5947
4.7789 0.3944 1.5947
4.7606 0.5651 1.5947
4.7363 0.7351 1.5947
4.7059 0.9040 1.5947
4.6694 1.0717 1.5947
4.6270 1.2380 1.5947
4.5787 1.4026 1.5947
4.5246 1.5654 1.5947
4.4646 1.7260 1.5947
4.3990 1.8844 1.5947
4.3278 2.0404 1.5947
4.2511 2.1936 1.5947
4.1689 2.3440 1.5947
4.0815 2.4914 1.5947
3.9888 2.6354 1.5947
3.8912 2.7761 1.5947
3.7885 2.9132 1.5947
3.6811 3.0465 1.5947
3.5689 3.1759 1.5947
3.4523 3.3011 1.5947
3.3313 3.4221 1.5947
3.2061 3.5387 1.5947
3.0767 3.6508 1.5947
2.9436 3.7581 1.5947
2.8066 3.8606 1.5947
2.6847 3.9857 1.6058
0.8019 1.2877 0.5070
0.7549 1.3150 0.5068
0.7070 1.3407 0.5067
-4.5487 1.3316 1.6978
-4.5944 1.1680 1.6978
-4.6343 1.0030 1.6978
-4.6682 0.8365 1.6978
-4.6962 0.6689 1.6978
-4.7181 0.5005 1.6978
-4.7341 0.3312 1.6978
-4.7439 0.1615 1.6978
-4.7477 -0.0084 1.6978
-4.7453 -0.1785 1.6978
-4.7369 -0.3484 1.6978
-4.7225 -0.5179 1.6978
-4.7019 -0.6868 1.6978
-4.6753 -0.8549 1.6978
-4.6427 -1.0219 1.6978
-4.6041 -1.1877 1.6978
-4.5595 -1.3521 1.6978
-4.5091 -1.5148 1.6978
-4.4529 -1.6756 1.6978
-4.3910 -1.8343 1.6978
-4.3233 -1.9907 1.6978
-4.2501 -2.1446 1.6978
-4.1714 -2.2958 1.6978
-4.0874 -2.4441 1.6978
-3.9980 -2.5893 1.6978
-3.9034 -2.7313 1.6978
-3.8038 -2.8698 1.6978
-3.6993 -3.0046 1.6978
-3.5900 -3.1356 1.6978
-3.4760 -3.2626 1.6978
-3.3575 -3.3854 1.6978
-3.2347 -3.5040 1.6978
-3.1077 -3.6180 1.6978
-2.9766 -3.7274 1.6978
-2.8417 -3.8321 1.6978
-2.7031 -3.9318 1.6978
-2.5609 -4.0265 1.6978
-2.4155 -4.1161 1.6978
-2.2668 -4.2003 1.6978
-2.1153 -4.2792 1.6978
-1.9610 -4.3526 1.6978
-1.8041 -4.4203 1.6978
-1.6449 -4.4824 1.6978
-1.4835 -4.5387 1.6978
-1.3203 -4.5892 1.6978
-1.1552 -4.6338 1.6978
-0.9887 -4.6724 1.6978
-0.8210 -4.7050 1.6978
-0.6521 -4.7315 1.6978
-0.4824 -4.7519 1.6978
-0.3120 -4.7662 1.6978
-0.1413 -4.7744 1.6978
0.0297 -4.7764 1.6978
0.2006 -4.7723 1.6978
0.3712 -4.7620 1.6978
0.5414 -4.7456 1.6978
0.7108 -4.7230 1.6978
0.8794 -4.6944 1.6978
1.0467 -4.6597 1.6978
1.2127 -4.6190 1.6978
1.3772 -4.5724 1.6978
1.5398 -4.5199 1.6978
1.7005 -4.4616 1.6978
1.8589 -4.3975 1.6978
2.0149 -4.3278 1.6978
2.1683 -4.2525 1.6978
2.3188 -4.1718 1.6978
2.4664 -4.0857 1.6978
2.5700 -3.9320 1.6713
2.5884 -3.6666 1.5971
2.7136 -3.5659 1.5947
2.8391 -3.4660 1.5947
2.9609 -3.3617 1.5947
3.0789 -3.2531 1.5947
3.1929 -3.1404 1.5947
3.3027 -3.0236 1.5947
3.4083 -2.9030 1.5947
3.5094 -2.7787 1.5947
3.6060 -2.6508 1.5947
3.6979 -2.5196 1.5947
3.7851 -2.3852 1.5947
3.8673 -2.2478 1.5947
3.9446 -2.1075 1.5947
4.0167 -1.9646 1.5947
4.0836 -1.8192 1.5947
4.1453 -1.6715 1.5947
4.2017 -1.5217 1.5947
4.2526 -1.3700 1.5947
4.2980 -1.2166 1.5947
4.3379 -1.0617 1.5947
4.3722 -0.9056 1.5947
4.4009 -0.7483 1.5947
4.4239 -0.5901 1.5947
4.4413 -0.4312 1.5947
