ply
format ascii 1.0
element vertex 2110
property float32 x
property float32 y
property float32 z
end_header
1.3833 -16.1351 -0.4592
1.7332 -14.2072 -0.4248
2.6409 -16.6535 -0.5224
3.3007 -16.8761 -0.5549
3.9644 -17.0059 -0.5856
3.2911 -12.1314 -0.4372
3.5375 -11.4037 -0.4299
3.7603 -10.7435 -0.4235
3.9634 -10.1413 -0.4178
4.1499 -9.5884 -0.4129
3.7492 -7.8747 -0.3544
4.5963 -8.8233 -0.4151
5.0029 -8.8164 -0.4336
5.5424 -8.9984 -0.4628
6.1306 -9.1969 -0.4950
6.6326 -9.2151 -0.5192
6.8368 -8.8134 -0.5203
7.0679 -8.4653 -0.5240
0.7103 -0.7911 -0.0514
0.7156 -0.7417 -0.0507
0.7417 -0.7154 -0.0514
7.6174 -6.8369 -0.5180
7.7434 -6.4632 -0.5172
7.8660 -6.0999 -0.5166
7.9856 -5.7454 -0.5163
8.1026 -5.3988 -0.5161
8.2710 -5.0917 -0.5196
8.3846 -4.7550 -0.5199
8.4966 -4.4229 -0.5203
8.6074 -4.0946 -0.5210
8.6607 -3.7445 -0.5185
8.7692 -3.4230 -0.5196
0.8951 -0.3128 -0.0525
0.9060 -0.2805 -0.0527
0.6891 -0.1865 -0.0397
0.6972 -0.1621 -0.0399
0.7053 -0.1374 -0.0400
13.6603 -2.1558 -0.7692
13.8211 -1.6748 -0.7728
13.9843 -1.1866 -0.7769
49.5299 4.7205 -2.6789
45.3207 5.9689 -2.4407
44.0086 7.4130 -2.3607
38.3893 7.8941 -2.0520
35.8590 8.7272 -1.9106
34.5312 9.7301 -1.8346
33.9030 10.8817 -1.7967
31.8941 11.5159 -1.6867
28.2523 11.3635 -1.4915
27.2742 12.1254 -1.4379
27.1226 13.2440 -1.4286
23.9822 12.7966 -1.2626
23.5884 13.6964 -1.2418
23.0799 14.5333 -1.2156
21.9752 14.9655 -1.1586
20.8708 15.3381 -1.1021
19.7680 15.6507 -1.0461
17.4709 14.8825 -0.9271
16.6308 15.2300 -0.8857
16.2378 15.9785 -0.8685
16.1855 17.1128 -0.8702
14.1893 16.1237 -0.7677
13.3993 16.3749 -0.7302
12.7524 16.7782 -0.7010
12.6041 17.8798 -0.6998
-2.3005 21.7590 0.3898
-3.2144 22.6128 0.4368
-3.9867 22.2782 0.4621
-4.8508 22.4341 0.4980
-6.1799 24.3220 0.5759
-6.8806 23.5116 0.5924
-7.7594 23.3700 0.6253
-9.5049 25.5263 0.7239
-10.0534 24.2961 0.7292
-11.4151 25.0077 0.7933
-11.9134 23.7998 0.7973
-13.4235 24.5722 0.8687
-15.5180 26.1314 0.9743
-25.2083 39.1754 1.5401
-12.9601 18.6356 0.7723
-13.2778 17.7016 0.7735
-14.4837 17.9305 0.8262
-16.0394 18.4597 0.8974
-17.7997 19.0584 0.9782
-19.9884 19.9178 1.0802
-22.2949 20.6753 1.1861
-26.3981 22.7734 1.3839
-34.1977 27.4236 1.7682
-34.6471 25.7961 1.7682
-35.0781 24.2091 1.7682
-10.2709 6.5568 0.5117
-10.5571 6.2176 0.5201
-34.1600 18.4995 1.6651
-34.5098 17.1158 1.6651
-34.8483 15.7507 1.6651
-10.9684 4.4904 0.5192
-17.6524 6.4968 0.8281
-15.8101 5.1821 0.7352
-18.3032 5.2793 0.8440
-20.3466 5.0848 0.9307
-11.6195 2.4641 0.5273
-14.0760 2.4605 0.6339
-36.0477 4.9744 1.6113
-12.2212 1.2411 0.5423
-12.1894 0.7969 0.5370
-18.3824 0.5400 0.8043
-31.6274 -0.2073 1.3743
-18.1545 -0.7715 0.7836
-12.9570 -1.0178 0.5555
-12.9530 -1.4871 0.5518
-25.3678 -3.8397 1.0736
-13.4835 -2.5392 0.5670
-13.4779 -3.0429 0.5632
-40.7774 -10.7586 1.6932
-35.7627 -10.8229 1.4757
-14.1406 -4.8400 0.5798
-24.8980 -9.5335 1.0146
-18.3788 -7.8048 0.7442
-14.7842 -6.9148 0.5949
-41.2214 -21.1150 1.6480
-15.4413 -8.6227 0.6133
-16.0470 -10.5381 0.6290
-38.6549 -27.4192 1.5049
-16.7808 -12.8325 0.6487
-17.3743 -14.3028 0.6669
-18.5987 -17.6951 0.7031
-19.2678 -19.6960 0.7226
-19.9245 -21.8855 0.7409
-21.7940 -27.6917 0.7956
-23.1372 -31.6730 0.8361
-17.9911 -26.5798 0.6430
-12.6602 -39.7810 0.3867
-6.1184 -36.8195 0.1385
-2.9878 -23.0672 0.0541
-1.8344 -19.6789 0.0186
-0.9827 -17.1944 -0.0075
-0.3226 -15.1930 -0.0274
0.2010 -13.7318 -0.0434
0.8671 -17.1566 -0.0775
1.3973 -16.1398 -0.0947
1.7456 -14.2114 -0.1026
2.6397 -16.5590 -0.1420
3.2960 -16.7804 -0.1668
3.9797 -17.0111 -0.1925
3.2967 -12.1151 -0.1540
3.5425 -11.3893 -0.1608
3.7647 -10.7306 -0.1669
3.9674 -10.1298 -0.1724
4.1535 -9.5781 -0.1774
3.7519 -7.8665 -0.1578
4.6023 -8.8203 -0.1909
5.0123 -8.8196 -0.2053
5.5522 -9.0017 -0.2248
6.1410 -9.2004 -0.2460
6.6386 -9.2121 -0.2633
6.8475 -8.8170 -0.2691
7.0702 -8.4588 -0.2753
0.7101 -0.7901 -0.0274
0.7159 -0.7413 -0.0274
0.7422 -0.7152 -0.0282
7.6189 -6.8323 -0.2871
7.7448 -6.4591 -0.2897
7.8115 -6.0529 -0.2900
7.9868 -5.7421 -0.2943
8.1036 -5.3957 -0.2965
8.2719 -5.0890 -0.3004
8.3854 -4.7526 -0.3024
8.4973 -4.4209 -0.3042
8.6080 -4.0928 -0.3060
8.6612 -3.7430 -0.3056
8.7696 -3.4218 -0.3072
0.8951 -0.3127 -0.0311
0.9060 -0.2805 -0.0313
0.7042 -0.1906 -0.0241
0.7125 -0.1656 -0.0242
0.7209 -0.1405 -0.0243
13.6600 -2.1565 -0.4571
13.8206 -1.6759 -0.4587
13.9836 -1.1882 -0.4602
49.5749 4.7114 -1.5577
45.4956 5.9782 -1.4148
44.2721 7.4426 -1.3620
38.4157 7.8854 -1.1686
35.8054 8.6996 -1.0764
34.6163 9.7388 -1.0278
33.9278 10.8733 -0.9943
31.9202 11.5085 -0.9227
28.2741 11.3562 -0.8053
27.2788 12.1106 -0.7649
27.1153 13.2223 -0.7478
23.9933 12.7851 -0.6499
23.5933 13.6807 -0.6269
23.1003 14.5264 -0.6012
21.9952 14.9588 -0.5597
20.8904 15.3315 -0.5187
19.7873 15.6442 -0.4782
17.4913 14.8791 -0.4103
16.6284 15.2060 -0.3772
16.2433 15.9606 -0.3552
16.1721 17.0731 -0.3391
14.2144 16.1273 -0.2842
13.3212 16.2537 -0.2520
12.7280 16.7186 -0.2258
12.4622 17.6484 -0.2047
-2.2866 21.8006 0.8842
-3.2145 22.7468 0.9569
-3.9686 22.2809 0.9720
-4.8535 22.5333 1.0194
-6.1663 24.3480 1.1424
-6.9066 23.6678 1.1519
-7.7911 23.5244 1.1878
-8.8491 23.8186 1.2480
-10.0442 24.3233 1.3230
-10.5687 23.1963 1.3104
-11.8494 23.7121 1.3919
-13.3894 24.5483 1.4981
-15.3606 25.9042 1.6448
-16.1850 25.1868 1.6651
-12.9576 18.6556 1.2853
-13.2757 17.7199 1.2735
-14.1579 17.5468 1.3169
-16.0154 18.4515 1.4480
-17.2512 18.4896 1.5192
-20.5733 20.5200 1.7682
-21.0444 19.5330 1.7682
-21.4924 18.5570 1.7682
-21.9186 17.5908 1.7682
-22.3238 16.6334 1.7682
-22.7091 15.6838 1.7682
-10.2696 6.5604 0.7869
-10.5527 6.2189 0.7966
-22.3664 12.1197 1.6650
-22.6613 11.2454 1.6650
-23.6628 10.7003 1.7173
-10.9675 4.4920 0.7869
-22.4269 8.2572 1.5920
-15.7607 5.1675 1.1076
-15.2430 4.3976 1.0613
-19.6056 4.9002 1.3533
-11.6195 2.4640 0.7956
-14.1365 2.4705 0.9608
-21.7520 3.0002 1.4683
-12.2251 1.2403 0.8200
-12.1879 0.7952 0.8129
-18.0449 0.5271 1.1973
-18.3180 -0.1236 1.2098
-23.7650 -1.0153 1.5630
-12.9491 -1.0205 0.8486
-12.9539 -1.4909 0.8463
-22.0938 -3.3512 1.4398
-13.4833 -2.5439 0.8769
-13.4794 -3.0485 0.8754
-26.3191 -6.9552 1.7076
-26.2380 -7.9526 1.7017
-14.1338 -4.8448 0.9169
-20.6725 -7.9269 1.3423
-18.4126 -7.8301 1.1973
-14.7874 -6.9258 0.9636
-15.1153 -7.7531 0.9878
-15.3789 -8.5995 1.0086
-15.6624 -9.5120 1.0317
-16.0007 -10.5220 1.0594
-16.3749 -11.6312 1.0908
-16.7881 -12.8559 1.1262
-17.2479 -14.2187 1.1664
-17.7641 -15.7486 1.2124
-18.3493 -17.4831 1.2655
-19.0203 -19.4718 1.3274
-19.7994 -21.7812 1.4003
-20.7179 -24.5033 1.4874
-15.5518 -19.7922 1.1355
-22.3762 -30.6826 1.6651
-21.9021 -32.4145 1.6651
-21.3792 -34.2262 1.6651
-20.8025 -36.1256 1.6651
-21.4152 -40.4813 1.7682
-20.6706 -42.7134 1.7682
-19.8491 -45.0702 1.7682
-12.6183 -39.7689 1.3258
-5.9988 -36.2950 0.9646
-2.9181 -22.6836 0.5679
-1.7967 -19.4570 0.4582
-0.9599 -17.0549 0.3770
-0.3085 -15.1399 0.3135
0.2127 -13.7357 0.2657
0.8796 -17.1193 0.3085
1.3454 -15.3920 0.2574
1.7580 -14.2156 0.2198
2.6543 -16.5639 0.2355
3.3109 -16.7855 0.2182
3.9951 -17.0163 0.2008
3.3023 -12.0989 0.1285
3.5475 -11.3748 0.1075
3.7692 -10.7178 0.0890
3.9714 -10.1183 0.0724
4.1570 -9.5677 0.0576
3.7547 -7.8583 0.0384
4.6082 -8.8173 0.0331
5.0217 -8.8227 0.0231
5.5621 -9.0051 0.0133
6.1514 -9.2039 0.0030
6.6446 -9.2091 -0.0076
6.8583 -8.8206 -0.0177
7.0724 -8.4522 -0.0270
0.7099 -0.7891 -0.0035
0.7161 -0.7408 -0.0042
0.7427 -0.7151 -0.0050
7.6205 -6.8278 -0.0566
7.7462 -6.4550 -0.0625
7.8127 -6.0492 -0.0674
7.9879 -5.7387 -0.0727
8.1046 -5.3927 -0.0771
8.2728 -5.0863 -0.0816
8.3862 -4.7502 -0.0852
8.4980 -4.4187 -0.0884
8.6086 -4.0910 -0.0912
8.6617 -3.7415 -0.0931
8.7700 -3.4205 -0.0951
0.8951 -0.3126 -0.0098
0.9060 -0.2804 -0.0099
0.7199 -0.1948 -0.0079
0.7284 -0.1693 -0.0079
13.2483 -2.5823 -0.1427
13.4164 -2.1187 -0.1429
13.5870 -1.6487 -0.1425
13.7603 -1.1708 -0.1417
49.5789 4.6986 -0.4358
45.4997 5.9651 -0.3811
44.3013 7.4328 -0.3509
38.4272 7.8736 -0.2853
35.8019 8.6843 -0.2464
34.4463 9.6758 -0.2168
10.7579 3.4425 -0.0617
31.9462 11.5012 -0.1585
28.0393 11.2460 -0.1181
27.1509 12.0370 -0.0923
27.1080 13.2006 -0.0684
24.0045 12.7737 -0.0378
23.5982 13.6650 -0.0128
22.4785 14.1163 0.0128
20.9857 14.2528 0.0374
20.8963 15.3148 0.0647
19.4795 15.3796 0.0882
17.5865 14.9390 0.1072
16.6180 15.1749 0.1297
16.2489 15.9428 0.1573
16.1588 17.0335 0.1899
14.2395 16.1310 0.1999
13.3360 16.2460 0.2210
12.7690 16.7449 0.2477
12.5905 17.7997 0.2841
-2.2036 21.1782 1.3394
-2.8950 20.6079 1.3365
-3.9505 22.2835 1.4828
-4.8333 22.5265 1.5391
-5.6064 22.2103 1.5592
-6.7411 23.1670 1.6721
-7.4068 22.4207 1.6651
-8.0709 21.7730 1.6651
-8.7064 21.1266 1.6651
-9.3144 20.4813 1.6651
-9.8963 19.8375 1.6651
-10.6471 19.5512 1.6960
-11.6659 19.7022 1.7682
-12.2072 19.0224 1.7682
-12.7248 18.3438 1.7682
-13.2197 17.6661 1.7682
-13.6928 16.9895 1.7682
-14.1449 16.3137 1.7682
-14.5766 15.6386 1.7682
-14.9887 14.9640 1.7682
-15.3817 14.2898 1.7682
-15.7563 13.6158 1.7682
-15.1721 12.1861 1.6650
-15.4915 11.5514 1.6650
-15.7950 10.9164 1.6650
-10.2682 6.5639 1.0630
-10.4114 6.1395 1.0599
-10.5525 5.7214 1.0575
-10.6918 5.3085 1.0560
-10.8297 4.8996 1.0553
-10.9667 4.4936 1.0554
-11.0744 4.0789 1.0535
-11.2101 3.6766 1.0552
-11.3460 3.2740 1.0576
-11.4822 2.8702 1.0608
-11.6193 2.4640 1.0648
-11.7575 2.0543 1.0696
-11.8973 1.6401 1.0752
-12.0389 1.2202 1.0817
-12.1830 0.7933 1.0892
-12.3298 0.3582 1.0975
-12.4798 -0.0866 1.1069
-12.6337 -0.5425 1.1174
-12.7918 -1.0113 1.1290
-12.9549 -1.4948 1.1418
-13.1236 -1.9948 1.1559
-13.2987 -2.5138 1.1714
-13.4811 -3.0541 1.1885
-13.6715 -3.6187 1.2073
-13.8713 -4.2108 1.2280
-14.0816 -4.8340 1.2507
-14.3038 -5.4927 1.2757
-14.5397 -6.1918 1.3033
-14.7911 -6.9372 1.3338
-15.0605 -7.7356 1.3675
-15.3506 -8.5954 1.4050
-15.6647 -9.5263 1.4468
-16.0068 -10.5403 1.4936
-16.3818 -11.6521 1.5463
-16.7960 -12.8797 1.6058
-17.1709 -14.1750 1.6651
-16.9024 -15.0060 1.6651
-16.6104 -15.8492 1.6651
-16.2937 -16.7052 1.6651
-15.9511 -17.5743 1.6651
-15.5813 -18.4572 1.6651
-15.1831 -19.3543 1.6651
-15.2109 -20.8926 1.7166
-15.1801 -22.5054 1.7682
-14.6565 -23.5067 1.7682
-14.0955 -24.5254 1.7682
-13.4952 -25.5621 1.7682
-12.8532 -26.6173 1.7682
-12.1671 -27.6915 1.7682
-11.4343 -28.7853 1.7682
-10.6519 -29.8993 1.7682
-9.2437 -29.2216 1.6650
-8.4050 -30.3097 1.6650
-7.5104 -31.4181 1.6650
-5.8478 -29.0295 1.4850
-5.6831 -34.5723 1.7082
-2.8858 -22.5879 1.0786
-1.7612 -19.2549 0.8891
-0.9307 -16.7933 0.7502
-0.2955 -15.1406 0.6547
0.2244 -13.7397 0.5754
0.8339 -15.9671 0.6479
1.3691 -15.5132 0.6103
1.7704 -14.2197 0.5426
2.6689 -16.5689 0.6136
3.3259 -16.7905 0.6038
4.0105 -17.0215 0.5947
3.3080 -12.0827 0.4105
3.5524 -11.3605 0.3755
3.7736 -10.7050 0.3445
3.9754 -10.1069 0.3169
4.1606 -9.5574 0.2922
3.7575 -7.8502 0.2343
4.6142 -8.8144 0.2571
5.0311 -8.8259 0.2518
5.5720 -9.0084 0.2518
6.1618 -9.2074 0.2525
6.6506 -9.2061 0.2481
6.8690 -8.8243 0.2341
7.0746 -8.4457 0.2210
0.7097 -0.7881 0.0204
0.7164 -0.7403 0.0190
0.7432 -0.7149 0.0182
7.6220 -6.8232 0.1737
7.7476 -6.4508 0.1645
7.8140 -6.0454 0.1551
7.9890 -5.7353 0.1487
8.1057 -5.3896 0.1421
8.2737 -5.0835 0.1370
8.3870 -4.7478 0.1318
8.4987 -4.4167 0.1273
8.6092 -4.0892 0.1234
8.6623 -3.7400 0.1194
8.7705 -3.4193 0.1169
0.8951 -0.3125 0.0116
0.9060 -0.2803 0.0115
0.7364 -0.1992 0.0091
0.7451 -0.1732 0.0091
13.3775 -2.6078 0.1628
13.5359 -2.1383 0.1645
13.6962 -1.6631 0.1670
13.8590 -1.1807 0.1705
25.0870 1.4662 0.3360
23.8254 2.2515 0.3295
43.9265 5.7457 0.6297
40.8758 6.8444 0.6095
38.4244 7.8589 0.5980
35.8370 8.6784 0.5837
33.0422 9.2668 0.5648
10.7412 3.4320 0.1932
30.1972 10.8557 0.5728
28.0672 11.2412 0.5626
27.1577 12.0233 0.5764
27.1030 13.1800 0.6102
24.0157 12.7622 0.5746
22.1271 12.7957 0.5635
22.3791 14.0348 0.6076
20.6101 13.9787 0.5974
19.0421 13.9367 0.5903
19.4702 15.3509 0.6464
17.6164 14.9433 0.6274
16.6332 15.1669 0.6366
16.2544 15.9250 0.6697
16.1455 16.9941 0.7174
14.2646 16.1347 0.6850
13.4492 16.3580 0.6995
12.7772 16.7283 0.7216
12.5837 17.7599 0.7738
-1.9986 19.3641 1.6651
-2.6513 18.9865 1.6651
-3.2818 18.5996 1.6651
-3.8907 18.2042 1.6651
-4.4785 17.8009 1.6651
-5.1334 17.6926 1.6941
-5.9173 17.9573 1.7617
-6.4993 17.5731 1.7682
-7.0393 17.1164 1.7682
-7.5596 16.6538 1.7682
-8.0607 16.1857 1.7682
-8.5430 15.7123 1.7682
-9.0070 15.2339 1.7682
-9.4531 14.7510 1.7682
-9.8818 14.2636 1.7682
-10.2935 13.7722 1.7682
-10.6884 13.2767 1.7682
-11.0671 12.7775 1.7682
-11.4298 12.2747 1.7682
-11.0891 11.0813 1.6650
-11.4014 10.6015 1.6650
-11.6995 10.1187 1.6650
-11.9837 9.6329 1.6650
-12.2541 9.1444 1.6650
-12.5111 8.6530 1.6650
-10.2669 6.5675 1.3402
-10.4102 6.1426 1.3348
-10.5514 5.7242 1.3306
-10.6909 5.3109 1.3276
-10.8290 4.9016 1.3257
-10.9660 4.4953 1.3250
-11.0739 4.0802 1.3220
-11.2097 3.6776 1.3236
-11.3457 3.2747 1.3262
-11.4821 2.8705 1.3300
-11.6192 2.4639 1.3350
-11.7576 2.0539 1.3411
-11.8974 1.6393 1.3484
-12.0392 1.2190 1.3570
-12.1834 0.7918 1.3669
-12.3303 0.3562 1.3782
-12.4806 -0.0890 1.3909
-12.6345 -0.5454 1.4051
-12.7929 -1.0147 1.4209
-12.9561 -1.4986 1.4385
-13.1250 -1.9992 1.4579
-13.3003 -2.5188 1.4794
-13.4829 -3.0598 1.5031
-13.6736 -3.6251 1.5291
-13.8736 -4.2180 1.5579
-14.0842 -4.8421 1.5895
-14.3067 -5.5017 1.6244
-14.5430 -6.2019 1.6630
-14.4435 -6.7835 1.6651
-14.3100 -7.3602 1.6651
-14.1610 -7.9401 1.6651
-13.9960 -8.5231 1.6651
-13.8146 -9.1092 1.6651
-13.6165 -9.6984 1.6651
-13.4011 -10.2906 1.6651
-13.1680 -10.8857 1.6651
-12.9165 -11.4837 1.6651
-12.6463 -12.0844 1.6651
-12.4997 -12.8345 1.6844
-12.7929 -14.1163 1.7682
-12.4422 -14.7618 1.7682
-12.0688 -15.4095 1.7682
-11.6721 -16.0590 1.7682
-11.2513 -16.7101 1.7682
-10.8055 -17.3623 1.7682
-10.3340 -18.0154 1.7682
-9.8359 -18.6689 1.7682
-9.3102 -19.3222 1.7682
-8.7561 -19.9748 1.7682
-8.1726 -20.6261 1.7682
-7.5587 -21.2753 1.7682
-6.5098 -20.6417 1.6650
-5.8718 -21.2469 1.6650
-5.2024 -21.8477 1.6650
-4.5006 -22.4431 1.6650
-3.7654 -23.0320 1.6650
-2.8537 -22.4928 1.5859
-1.7382 -19.1866 1.3208
-0.9133 -16.7418 1.1263
-0.2826 -15.1450 0.9968
0.2362 -13.7436 0.8858
0.8314 -15.6654 0.9897
1.3704 -15.3812 0.9535
1.3017 -10.3851 0.6324
1.6193 -10.0007 0.5989
3.1166 -15.6680 0.9239
3.4669 -14.6626 0.8522
3.3136 -12.0665 0.6922
3.5574 -11.3461 0.6432
3.7780 -10.6922 0.5998
3.9793 -10.0954 0.5613
4.1641 -9.5470 0.5268
3.7602 -7.8420 0.4302
4.6202 -8.8114 0.4814
5.0405 -8.8291 0.4812
5.5819 -9.0117 0.4909
6.1723 -9.2109 0.5026
6.6566 -9.2032 0.5041
6.8798 -8.8279 0.4865
7.0768 -8.4391 0.4692
0.7096 -0.7871 0.0443
0.7167 -0.7399 0.0422
0.7438 -0.7148 0.0415
7.6235 -6.8187 0.4042
7.7490 -6.4467 0.3916
7.8188 -6.0444 0.3779
7.9902 -5.7319 0.3703
8.1067 -5.3866 0.3614
8.2747 -5.0808 0.3558
8.3878 -4.7454 0.3490
8.4995 -4.4145 0.3431
8.6099 -4.0873 0.3382
8.6628 -3.7385 0.3320
8.7709 -3.4181 0.3290
0.8951 -0.3124 0.0330
0.9060 -0.2802 0.0328
0.7536 -0.2038 0.0269
0.7626 -0.1772 0.0270
13.3774 -2.6080 0.4699
13.5357 -2.1390 0.4733
13.6959 -1.6642 0.4779
13.8585 -1.1823 0.4839
29.2921 -1.4450 1.0264
27.8069 -0.3748 0.9803
23.7360 0.5302 0.8441
21.6414 1.2597 0.7783
21.7847 2.0528 0.7943
22.0728 2.8805 0.8180
17.3284 2.8958 0.6543
16.2199 3.3115 0.6254
15.2311 3.6822 0.6012
14.3416 4.0158 0.5808
10.7345 3.4247 0.4470
14.4982 5.2044 0.6221
28.3009 11.3187 1.2541
27.2570 12.0505 1.2500
27.0996 13.1603 1.2890
24.0269 12.7508 1.1877
22.0002 12.7051 1.1327
20.3591 12.7507 1.0940
20.5242 13.9014 1.1534
18.9715 13.8660 1.1175
19.4605 15.3220 1.2041
17.6464 14.9477 1.1495
16.6483 15.1590 1.1444
16.2600 15.9072 1.1823
16.1322 16.9547 1.2440
14.2899 16.1384 1.1717
13.4660 16.3524 1.1775
12.7854 16.7116 1.1959
12.5770 17.7201 1.2627
-1.6633 16.2492 1.7682
-2.2184 15.9829 1.7682
-2.7579 15.7050 1.7682
-3.2819 15.4161 1.7682
-3.7906 15.1169 1.7682
-4.2840 14.8078 1.7682
-4.7624 14.4894 1.7682
-5.2259 14.1622 1.7682
-5.6746 13.8266 1.7682
-6.1089 13.4832 1.7682
-6.5288 13.1321 1.7682
-6.9344 12.7740 1.7682
-7.3260 12.4091 1.7682
-7.7038 12.0378 1.7682
-8.0679 11.6603 1.7682
-8.4185 11.2771 1.7682
-8.7557 10.8883 1.7682
-9.0797 10.4942 1.7682
-8.8423 9.5056 1.6650
-9.1229 9.1252 1.6650
-9.3915 8.7405 1.6650
-9.6482 8.3517 1.6650
-9.8931 7.9589 1.6650
-10.1264 7.5623 1.6650
-10.3480 7.1621 1.6650
-10.2656 6.5711 1.6188
-10.4091 6.1458 1.6111
-10.5504 5.7270 1.6050
-10.6900 5.3133 1.6005
-10.8282 4.9037 1.5975
-10.9654 4.4970 1.5960
-11.0733 4.0816 1.5919
-11.2093 3.6786 1.5933
-11.3454 3.2753 1.5962
-11.4819 2.8707 1.6007
-11.6192 2.4638 1.6066
-11.7576 2.0535 1.6140
-11.8976 1.6385 1.6231
-12.0396 1.2178 1.6337
-12.1838 0.7902 1.6461
-12.3309 0.3542 1.6603
-12.3968 -0.0908 1.6650
-12.4165 -0.5388 1.6650
-12.4247 -0.9887 1.6650
-12.4214 -1.4404 1.6650
-12.4063 -1.8938 1.6650
-12.3795 -2.3488 1.6650
-12.3407 -2.8055 1.6650
-12.2898 -3.2635 1.6650
-12.2266 -3.7230 1.6650
-12.1510 -4.1837 1.6650
-12.0628 -4.6455 1.6650
-11.9618 -5.1084 1.6650
-11.8478 -5.5722 1.6650
-11.7206 -6.0367 1.6650
-11.5811 -6.5025 1.6651
-11.4267 -6.9681 1.6651
-11.2585 -7.4339 1.6651
-11.0760 -7.8998 1.6651
-11.0301 -8.4818 1.6882
-11.3251 -9.3755 1.7678
-11.0870 -9.8713 1.7682
-10.8299 -10.3638 1.7682
-10.5562 -10.8552 1.7682
-10.2656 -11.3450 1.7682
-9.9576 -11.8327 1.7682
-9.6320 -12.3182 1.7682
-9.2883 -12.8009 1.7682
-8.9263 -13.2805 1.7682
-8.5455 -13.7563 1.7682
-8.1456 -14.2279 1.7682
-7.7262 -14.6948 1.7682
-7.2869 -15.1563 1.7682
-6.8275 -15.6118 1.7682
-6.3475 -16.0605 1.7682
-5.8466 -16.5018 1.7682
-5.0136 -15.9460 1.6650
-4.5018 -16.3452 1.6650
-3.9694 -16.7350 1.6650
-3.4164 -17.1145 1.6650
-2.8424 -17.4828 1.6650
-2.2474 -17.8388 1.6650
-1.6312 -18.1814 1.6650
-0.8960 -16.6905 1.5013
-0.2639 -14.8277 1.3116
0.2680 -14.8555 1.2937
0.8110 -15.0399 1.2911
1.3697 -15.2296 1.2902
1.2628 -10.0077 0.8377
1.6281 -10.0037 0.8284
3.1293 -15.6660 1.2852
4.0413 -17.0319 1.3859
3.3192 -12.0503 0.9740
3.5624 -11.3317 0.9111
3.7825 -10.6793 0.8553
3.9833 -10.0840 0.8058
4.1677 -9.5367 0.7616
3.7630 -7.8338 0.6262
4.6262 -8.8085 0.7061
5.0499 -8.8323 0.7114
5.5918 -9.0151 0.7309
6.1827 -9.2145 0.7536
6.6627 -9.2002 0.7607
6.8906 -8.8315 0.7399
7.0790 -8.4326 0.7176
0.7094 -0.7861 0.0681
0.7169 -0.7394 0.0655
0.7443 -0.7146 0.0648
7.5710 -6.7658 0.6305
7.7018 -6.4022 0.6152
7.8296 -6.0481 0.6016
7.9913 -5.7285 0.5922
8.1077 -5.3836 0.5810
8.2756 -5.0781 0.5750
8.3886 -4.7430 0.5665
8.5002 -4.4124 0.5592
8.6105 -4.0856 0.5533
8.6633 -3.7370 0.5450
8.7713 -3.4169 0.5414
0.8951 -0.3123 0.0543
0.9060 -0.2801 0.0542
0.7838 -0.2120 0.0463
0.7933 -0.1844 0.0465
13.3773 -2.6083 0.7775
13.5355 -2.1396 0.7825
13.6955 -1.6653 0.7893
13.8579 -1.1838 0.7978
30.6779 -1.5178 1.7682
30.5779 -0.4175 1.7682
23.6918 0.5243 1.3774
21.0694 1.2215 1.2341
20.7235 1.9473 1.2254
20.9843 2.7322 1.2553
16.7253 2.7894 1.0142
16.2354 3.3087 1.0000
15.2457 3.6796 0.9557
14.3554 4.0133 0.9177
10.7300 3.4181 0.7009
14.4953 5.1958 0.9695
24.2671 9.6916 1.6651
23.6078 10.4225 1.6651
22.9206 11.1155 1.6651
22.2086 11.7697 1.6651
21.4750 12.3849 1.6651
20.4041 12.7615 1.6395
19.7873 13.3840 1.6511
18.9624 13.8403 1.6467
17.5612 13.8074 1.5907
17.6581 14.9365 1.6721
16.6635 15.1511 1.6536
16.0393 15.6682 1.6721
15.2271 15.9794 1.6721
13.7861 15.5454 1.5991
13.3804 16.2227 1.6443
12.8020 16.7056 1.6721
12.0028 16.8822 1.6721
-1.3624 13.4205 1.7682
-1.8249 13.2281 1.7682
-2.2762 13.0243 1.7682
-2.7162 12.8095 1.7682
-3.1450 12.5844 1.7682
-3.5623 12.3493 1.7682
-3.9684 12.1048 1.7682
-4.3630 11.8511 1.7682
-4.7463 11.5887 1.7682
-5.1183 11.3181 1.7682
-5.4789 11.0396 1.7682
-5.8282 10.7535 1.7682
-6.1663 10.4602 1.7682
-6.4932 10.1601 1.7682
-6.8088 9.8533 1.7682
-7.1133 9.5403 1.7682
-7.4068 9.2213 1.7682
-7.6892 8.8966 1.7682
-7.4958 8.0662 1.6650
-7.7411 7.7504 1.6650
-7.9761 7.4299 1.6650
-8.2008 7.1049 1.6650
-8.4155 6.7756 1.6650
-8.6199 6.4423 1.6650
-8.8143 6.1050 1.6650
-8.9986 5.7639 1.6650
-9.1728 5.4193 1.6650
-9.3370 5.0713 1.6650
-9.4913 4.7201 1.6650
-9.6355 4.3657 1.6650
-9.7697 4.0084 1.6650
-9.8940 3.6482 1.6650
-10.0082 3.2854 1.6650
-10.1125 2.9200 1.6650
-10.2068 2.5522 1.6650
-10.2910 2.1821 1.6650
-10.3652 1.8099 1.6650
-10.4294 1.4356 1.6650
-10.4833 1.0594 1.6650
-10.5272 0.6813 1.6650
-10.5608 0.3016 1.6650
-10.5842 -0.0796 1.6650
-10.5972 -0.4622 1.6650
-10.5999 -0.8462 1.6650
-10.5920 -1.2313 1.6650
-10.5736 -1.6174 1.6650
-10.5446 -2.0045 1.6650
-10.5048 -2.3922 1.6650
-10.4541 -2.7806 1.6650
-10.3925 -3.1694 1.6650
-10.3198 -3.5585 1.6650
-10.2360 -3.9477 1.6650
-10.1408 -4.3369 1.6650
-10.0341 -4.7258 1.6650
-9.9159 -5.1143 1.6650
-10.0830 -5.6691 1.7155
-10.2421 -6.2542 1.7682
-10.0786 -6.6641 1.7682
-9.9023 -7.0725 1.7682
-9.7128 -7.4792 1.7682
-9.5100 -7.8840 1.7682
-9.2937 -8.2865 1.7682
-9.0638 -8.6865 1.7682
-8.8201 -9.0835 1.7682
-8.5624 -9.4772 1.7682
-8.2905 -9.8674 1.7682
-8.0043 -10.2534 1.7682
-7.7036 -10.6350 1.7682
-7.3882 -11.0117 1.7682
-7.0580 -11.3830 1.7682
-6.7129 -11.7484 1.7682
-6.3526 -12.1074 1.7682
-5.9772 -12.4595 1.7682
-5.5864 -12.8040 1.7682
-5.1802 -13.1405 1.7682
-4.7585 -13.4681 1.7682
-4.3146 -13.7652 1.7655
-3.6426 -13.2714 1.6650
-3.2017 -13.5513 1.6650
-2.7461 -13.8203 1.6650
-2.2761 -14.0776 1.6650
-1.7916 -14.3224 1.6650
-1.2929 -14.5540 1.6650
-0.7801 -14.7716 1.6650
-0.2504 -14.7876 1.6442
0.2759 -14.5976 1.6031
0.8095 -14.7788 1.6050
1.3586 -14.9653 1.6092
1.2689 -9.9896 1.0649
1.6370 -10.0067 1.0590
3.1331 -15.6192 1.6431
3.4767 -14.6007 1.5289
3.3249 -12.0341 1.2561
3.5674 -11.3173 1.1793
3.7869 -10.6665 1.1112
3.9873 -10.0725 1.0508
4.1712 -9.5264 0.9968
3.7657 -7.8257 0.8227
4.6322 -8.8055 0.9316
5.0594 -8.8355 0.9426
5.6018 -9.0185 0.9720
6.1933 -9.2180 1.0058
6.6687 -9.1972 1.0181
6.9014 -8.8352 0.9945
7.0812 -8.4260 0.9667
0.7092 -0.7851 0.0920
0.7172 -0.7390 0.0888
0.7448 -0.7145 0.0882
7.6266 -6.8096 0.8663
7.7518 -6.4384 0.8471
7.8736 -6.0774 0.8299
7.9925 -5.7251 0.8147
8.1088 -5.3805 0.8012
8.2765 -5.0753 0.7947
8.3895 -4.7406 0.7845
8.5009 -4.4103 0.7759
8.6111 -4.0837 0.7689
8.6638 -3.7355 0.7585
8.7717 -3.4156 0.7544
0.8951 -0.3122 0.0758
0.8153 -0.2521 0.0681
0.8251 -0.2231 0.0681
0.8353 -0.1941 0.0683
13.3773 -2.6085 1.0859
13.5352 -2.1403 1.0926
13.6951 -1.6664 1.1014
13.8574 -1.1853 1.1125
20.7358 -1.0289 1.6650
20.6937 -0.2862 1.6650
20.6131 0.4519 1.6650
21.7655 1.2567 1.7682
21.6002 2.0239 1.7682
21.3965 2.7794 1.7682
16.5353 2.7522 1.3820
20.8793 4.2473 1.7682
14.3793 3.4646 1.2361
14.3693 4.0108 1.2562
10.7272 3.4120 0.9555
14.4924 5.1871 1.3177
19.0171 7.5841 1.7682
18.5610 8.1830 1.7682
18.0814 8.7566 1.7682
17.5801 9.3040 1.7682
17.0591 9.8248 1.7682
16.5203 10.3183 1.7682
15.7531 10.6407 1.7447
14.9650 10.9076 1.7186
14.2157 11.1614 1.6966
13.5040 11.4065 1.6787
12.8290 11.6478 1.6651
12.2566 11.9555 1.6651
11.6847 12.2436 1.6660
11.0968 12.4937 1.6651
10.5123 12.7250 1.6651
9.9262 12.9317 1.6651
9.3398 13.1142 1.6651
-0.3446 3.4229 0.5299
-0.4673 3.4084 0.5346
-0.5895 3.3898 0.5392
-0.7111 3.3669 0.5438
-2.6824 10.7698 1.7682
-3.0436 10.5823 1.7682
-3.3960 10.3856 1.7682
-3.7392 10.1802 1.7682
-4.0733 9.9663 1.7682
-4.3982 9.7444 1.7682
-4.7139 9.5147 1.7682
-5.0202 9.2775 1.7682
-5.3172 9.0333 1.7682
-5.6048 8.7822 1.7682
-5.8830 8.5246 1.7682
-6.1517 8.2607 1.7682
-6.4111 7.9908 1.7682
-6.6609 7.7152 1.7682
-6.9014 7.4342 1.7682
-7.0330 7.0483 1.7436
-6.9243 6.4561 1.6650
-7.1239 6.1772 1.6650
-7.3146 5.8941 1.6650
-7.4963 5.6068 1.6650
-7.6691 5.3156 1.6650
-7.8329 5.0207 1.6650
-7.9878 4.7223 1.6650
-8.1337 4.4204 1.6650
-8.2707 4.1153 1.6650
-8.3986 3.8072 1.6650
-8.5176 3.4962 1.6650
-8.6275 3.1825 1.6650
-8.7285 2.8662 1.6650
-8.8203 2.5475 1.6650
-8.9031 2.2265 1.6650
-8.9768 1.9034 1.6650
-9.0413 1.5784 1.6650
-9.0967 1.2515 1.6650
-9.1429 0.9230 1.6650
-9.1798 0.5929 1.6650
-9.2074 0.2615 1.6650
-9.2257 -0.0712 1.6650
-9.2346 -0.4049 1.6650
-9.2340 -0.7395 1.6650
-9.2239 -1.0750 1.6650
-9.2043 -1.4110 1.6650
-9.1749 -1.7474 1.6650
-9.1359 -2.0842 1.6650
-9.0871 -2.4210 1.6650
-9.1191 -2.7854 1.6817
-9.2477 -3.1936 1.7184
-9.3925 -3.6277 1.7608
-9.3378 -3.9992 1.7682
-9.2327 -4.3545 1.7682
-9.1167 -4.7086 1.7682
-8.9897 -5.0614 1.7682
-8.8516 -5.4126 1.7682
-8.7023 -5.7620 1.7682
-8.5417 -6.1093 1.7682
-8.3697 -6.4541 1.7682
-8.1862 -6.7963 1.7682
-7.9912 -7.1355 1.7682
-7.7844 -7.4714 1.7682
-7.5659 -7.8037 1.7682
-7.3356 -8.1320 1.7682
-7.0933 -8.4560 1.7682
-6.8391 -8.7753 1.7682
-6.5728 -9.0895 1.7682
-6.2944 -9.3982 1.7682
-6.0039 -9.7010 1.7682
-5.7012 -9.9975 1.7682
-5.3863 -10.2871 1.7682
-5.0593 -10.5695 1.7682
-4.7200 -10.8441 1.7682
-4.3686 -11.1104 1.7682
-4.0052 -11.3679 1.7682
-3.6297 -11.6160 1.7682
-3.0530 -11.1619 1.6650
-2.6771 -11.3763 1.6650
-2.2903 -11.5802 1.6650
-1.8928 -11.7731 1.6650
-1.4846 -11.9543 1.6650
-1.0662 -12.1233 1.6650
-0.6377 -12.2794 1.6650
-0.1995 -12.4220 1.6650
0.2480 -12.5506 1.6650
0.7125 -12.8076 1.6838
1.1828 -12.9071 1.6838
1.2751 -9.9713 1.2924
1.6460 -10.0097 1.2908
2.6783 -13.2962 1.7082
3.1848 -13.3275 1.7082
3.3313 -12.0206 1.5393
3.5728 -11.3043 1.4483
3.7915 -10.6541 1.3678
3.9913 -10.0610 1.2964
4.1748 -9.5160 1.2326
3.7685 -7.8175 1.0196
4.6382 -8.8025 1.1581
5.0690 -8.8387 1.1752
5.6118 -9.0218 1.2145
6.2039 -9.2216 1.2594
6.6748 -9.1942 1.2766
6.9123 -8.8389 1.2505
7.0834 -8.4194 1.2165
0.7090 -0.7841 0.1160
0.7174 -0.7385 0.1122
0.7454 -0.7144 0.1117
7.6281 -6.8050 1.0985
7.7532 -6.4343 1.0759
7.8749 -6.0736 1.0558
7.9936 -5.7217 1.0379
8.1098 -5.3775 1.0222
8.2774 -5.0726 1.0151
8.3903 -4.7381 1.0033
8.5016 -4.4082 0.9934
8.6117 -4.0819 0.9854
8.6643 -3.7340 0.9727
8.7721 -3.4144 0.9682
0.8951 -0.3121 0.0973
0.9059 -0.2800 0.0972
9.3237 -2.5206 0.9892
13.2208 -3.0721 1.3896
13.3772 -2.6088 1.3954
13.5350 -2.1410 1.4037
13.6948 -1.6675 1.4147
13.8569 -1.1869 1.4283
16.1601 -0.8042 1.6650
16.1388 -0.2260 1.6650
16.0893 0.3494 1.6651
16.0122 0.9207 1.6651
15.9078 1.4862 1.6651
15.7768 2.0446 1.6651
16.5867 2.7552 1.7682
16.3930 3.3286 1.7682
14.4787 3.4827 1.5829
15.9292 4.4391 1.7682
10.7252 3.4062 1.2109
15.3701 5.4932 1.7682
15.0577 5.9964 1.7682
7.3355 3.2295 0.8809
6.7465 3.2627 0.8300
6.5948 3.4854 0.8327
13.6169 7.8315 1.7682
13.2152 8.2426 1.7682
12.7994 8.6337 1.7682
12.3708 9.0043 1.7682
11.9307 9.3542 1.7682
11.4803 9.6834 1.7682
11.0208 9.9916 1.7682
10.5533 10.2789 1.7682
10.0790 10.5452 1.7682
9.5991 10.7907 1.7682
9.1145 11.0154 1.7682
8.6264 11.2197 1.7682
8.1356 11.4037 1.7682
-0.2959 2.9644 0.5278
-0.4022 2.9518 0.5318
-0.5080 2.9355 0.5358
-0.6133 2.9156 0.5398
-0.7178 2.8921 0.5438
-2.6525 9.2498 1.7682
-2.9634 9.0864 1.7682
-3.2668 8.9147 1.7682
-3.5626 8.7351 1.7682
-3.8507 8.5477 1.7682
-4.1310 8.3530 1.7682
-4.4035 8.1511 1.7682
-4.6680 7.9424 1.7682
-4.9245 7.7271 1.7682
-5.1729 7.5055 1.7682
-5.4131 7.2778 1.7682
-5.6452 7.0444 1.7682
-5.8690 6.8053 1.7682
-6.0845 6.5609 1.7682
-6.2916 6.3114 1.7682
-6.4904 6.0571 1.7682
-6.6808 5.7980 1.7682
-6.7803 5.4681 1.7470
-6.7952 5.0864 1.7077
-6.8244 4.7336 1.6757
-6.9279 4.4437 1.6650
-7.0876 4.1927 1.6698
-7.1982 3.9143 1.6650
-7.3213 3.6449 1.6650
-7.4361 3.3726 1.6650
-7.5428 3.0975 1.6650
-7.6414 2.8198 1.6650
-7.7316 2.5397 1.6650
-7.8137 2.2572 1.6650
-7.8874 1.9727 1.6650
-7.9528 1.6863 1.6650
-8.0099 1.3980 1.6650
-8.0586 1.1081 1.6650
-8.1184 0.8187 1.6690
-8.1306 0.5241 1.6650
-8.1539 0.2302 1.6650
-8.2038 -0.0649 1.6721
-8.3003 -0.3659 1.6905
-8.3990 -0.6749 1.7111
-8.5048 -0.9937 1.7351
-8.6150 -1.3235 1.7618
-8.6157 -1.6440 1.7682
-8.5758 -1.9598 1.7682
-8.5265 -2.2754 1.7682
-8.4677 -2.5905 1.7682
-8.3994 -2.9050 1.7682
-8.3215 -3.2188 1.7682
-8.2339 -3.5315 1.7682
-8.1366 -3.8429 1.7682
-8.0295 -4.1529 1.7682
-7.9125 -4.4612 1.7682
-7.7857 -4.7675 1.7682
-7.6489 -5.0716 1.7682
-7.5021 -5.3733 1.7682
-7.3453 -5.6722 1.7682
-7.1784 -5.9681 1.7682
-7.0013 -6.2608 1.7682
-6.8141 -6.5498 1.7682
-6.6167 -6.8350 1.7682
-6.4090 -7.1159 1.7682
-6.1911 -7.3924 1.7682
-5.9630 -7.6639 1.7682
-5.7246 -7.9302 1.7682
-5.4760 -8.1909 1.7682
-5.2171 -8.4457 1.7682
-4.9481 -8.6941 1.7682
-4.6689 -8.9357 1.7682
-4.3796 -9.1702 1.7682
-4.0804 -9.3971 1.7682
-3.7712 -9.6159 1.7682
-3.4523 -9.8263 1.7682
-3.1237 -10.0278 1.7682
-2.6229 -9.6232 1.6650
-2.2957 -9.7948 1.6650
-1.9600 -9.9567 1.6650
-1.6159 -10.1083 1.6650
-1.2637 -10.2494 1.6650
-0.9036 -10.3793 1.6650
-0.5359 -10.4976 1.6650
-0.1611 -10.6038 1.6650
0.2207 -10.6976 1.6650
0.6089 -10.7782 1.6650
1.0145 -10.9680 1.6838
1.4188 -11.0218 1.6838
1.8283 -11.0611 1.6838
2.2424 -11.0854 1.6838
2.6605 -11.0942 1.6838
3.0820 -11.0872 1.6838
3.5571 -11.2245 1.7082
3.7970 -10.6441 1.6257
3.9962 -10.0517 1.5432
4.1795 -9.5079 1.4697
3.7713 -7.8092 1.2174
4.6443 -8.7995 1.3858
4.8615 -8.4640 1.3490
5.0968 -8.1822 1.3223
5.4252 -8.0535 1.3223
5.7499 -7.9104 1.3223
6.2435 -7.9743 1.3601
6.5772 -7.8091 1.3621
0.7088 -0.7831 0.1400
0.7177 -0.7381 0.1356
0.7459 -0.7142 0.1353
7.5764 -6.7529 1.3223
7.7546 -6.4301 1.3058
7.8762 -6.0698 1.2827
7.9948 -5.7183 1.2622
8.1108 -5.3744 1.2442
8.2784 -5.0698 1.2366
8.3911 -4.7357 1.2232
8.5023 -4.4061 1.2119
8.6123 -4.0801 1.2028
8.6648 -3.7325 1.1880
8.7725 -3.4132 1.1830
0.8952 -0.3120 0.1189
0.9060 -0.2799 0.1188
9.3243 -2.5204 1.2096
13.2209 -3.0719 1.6992
13.3771 -2.6090 1.7063
13.4705 -2.1315 1.7082
13.5265 -1.6481 1.7082
13.2166 -1.1336 1.6650
13.2271 -0.6602 1.6650
13.2155 -0.1874 1.6650
13.1819 0.2835 1.6650
13.1267 0.7516 1.6650
13.0501 1.2157 1.6650
12.9526 1.6747 1.6651
12.8345 2.1276 1.6651
12.6964 2.5733 1.6651
12.5389 3.0110 1.6651
13.1278 3.6526 1.7682
10.7239 3.4005 1.4675
12.6960 4.5307 1.7682
12.4532 4.9521 1.7682
7.3599 3.2356 1.0673
6.6536 3.2133 0.9872
6.5313 3.4470 0.9932
7.1055 4.0810 1.1097
11.0041 6.8540 1.7682
10.6736 7.1897 1.7682
10.3317 7.5096 1.7682
9.9794 7.8133 1.7682
9.6176 8.1006 1.7682
9.2471 8.3714 1.7682
8.8689 8.6255 1.7682
8.4839 8.8628 1.7682
8.0930 9.0834 1.7682
7.6969 9.2871 1.7682
7.2965 9.4742 1.7682
6.8926 9.6447 1.7682
-0.2584 2.6118 0.5262
-0.3521 2.6006 0.5297
-0.4453 2.5862 0.5332
-0.5381 2.5685 0.5367
-0.6302 2.5477 0.5402
-0.7215 2.5237 0.5437
-2.6246 8.0690 1.7682
-2.8962 7.9222 1.7682
-3.1614 7.7679 1.7682
-3.4199 7.6063 1.7682
-3.6719 7.4377 1.7682
-3.9170 7.2624 1.7682
-4.1552 7.0806 1.7682
-4.3864 6.8925 1.7682
-4.6105 6.6984 1.7682
-4.8275 6.4985 1.7682
-5.0372 6.2931 1.7682
-5.2396 6.0823 1.7682
-5.4347 5.8664 1.7682
-5.6223 5.6456 1.7682
-5.8024 5.4201 1.7682
-5.9750 5.1901 1.7682
-6.1400 4.9558 1.7682
-6.2974 4.7174 1.7682
-6.4470 4.4752 1.7682
-6.5889 4.2292 1.7682
-6.7231 3.9797 1.7682
-6.8494 3.7269 1.7682
-6.9679 3.4709 1.7682
-7.0785 3.2120 1.7682
-7.1798 2.9497 1.7679
-7.2684 2.6832 1.7664
-7.3568 2.4173 1.7668
-7.4411 2.1501 1.7682
-7.5116 1.8790 1.7682
-7.5741 1.6059 1.7682
-7.6283 1.3311 1.7682
-7.6744 1.0547 1.7682
-7.7123 0.7770 1.7682
-7.7419 0.4979 1.7682
-7.7631 0.2179 1.7682
-7.7761 -0.0631 1.7682
-7.7806 -0.3447 1.7682
-7.7768 -0.6269 1.7682
-7.7644 -0.9095 1.7682
-7.7436 -1.1922 1.7682
-7.7142 -1.4749 1.7682
-7.6762 -1.7573 1.7682
-7.6296 -2.0394 1.7682
-7.5743 -2.3209 1.7682
-7.5103 -2.6015 1.7682
-7.4376 -2.8812 1.7682
-7.3561 -3.1596 1.7682
-7.2658 -3.4366 1.7682
-7.1667 -3.7119 1.7682
-7.0587 -3.9854 1.7682
-6.9418 -4.2567 1.7682
-6.8159 -4.5257 1.7682
-6.6811 -4.7920 1.7682
-6.5374 -5.0555 1.7682
-6.3847 -5.3159 1.7682
-6.2229 -5.5729 1.7682
-6.0522 -5.8262 1.7682
-5.8725 -6.0756 1.7682
-5.6839 -6.3207 1.7682
-5.4862 -6.5613 1.7682
-5.2797 -6.7971 1.7682
-5.0642 -7.0276 1.7682
-4.8400 -7.2527 1.7682
-4.6069 -7.4720 1.7682
-4.3651 -7.6851 1.7682
-4.1147 -7.8917 1.7682
-3.8557 -8.0914 1.7682
-3.5883 -8.2839 1.7682
-3.3126 -8.4688 1.7682
-3.0288 -8.6457 1.7682
-2.7370 -8.8142 1.7682
-2.2952 -8.4508 1.6651
-2.0058 -8.5926 1.6651
-1.7095 -8.7255 1.6651
-1.4064 -8.8490 1.6651
-1.0969 -8.9627 1.6651
-0.7811 -9.0664 1.6650
-0.4595 -9.1596 1.6650
-0.1322 -9.2420 1.6650
0.2003 -9.3131 1.6650
0.5376 -9.3726 1.6650
0.8794 -9.4203 1.6650
1.2253 -9.4556 1.6650
1.5045 -9.0552 1.5906
1.9053 -9.3792 1.6458
2.1565 -8.9605 1.5729
2.7086 -9.7141 1.7082
3.0767 -9.6826 1.7082
3.4459 -9.6367 1.7082
3.8154 -9.5762 1.7082
4.1845 -9.5008 1.7082
3.7752 -7.8034 1.4165
4.4050 -8.3322 1.5296
4.6914 -8.1552 1.5169
4.8303 -7.7433 1.4619
4.9778 -7.3794 1.4169
5.3851 -7.3992 1.4479
5.9493 -7.5896 1.5168
6.3081 -7.4813 1.5305
0.7087 -0.7820 0.1642
0.7179 -0.7376 0.1593
0.7465 -0.7141 0.1591
6.9108 -6.1542 1.4183
7.1508 -5.9244 1.4169
7.3515 -5.6610 1.4099
7.4621 -5.3333 1.3884
7.5703 -5.0127 1.3695
7.6764 -4.6981 1.3531
7.7809 -4.3886 1.3391
7.8839 -4.0833 1.3274
8.0126 -3.7940 1.3223
8.1590 -3.5129 1.3223
8.2927 -3.2252 1.3223
0.8952 -0.3119 0.1407
0.9060 -0.2799 0.1406
9.3272 -2.5207 1.4317
11.2324 -2.6097 1.7082
11.3178 -2.2076 1.7082
11.3850 -1.8021 1.7082
11.4338 -1.3941 1.7082
11.4641 -0.9846 1.7082
13.3570 -0.6686 1.9882
11.1790 -0.1605 1.6650
11.1547 0.2376 1.6650
11.1127 0.6336 1.6650
11.0532 1.0267 1.6650
10.9765 1.4158 1.6650
10.8829 1.8004 1.6650
10.7727 2.1794 1.6651
10.6464 2.5522 1.6651
10.5044 2.9180 1.6651
10.3473 3.2761 1.6651
10.1755 3.6258 1.6651
9.9896 3.9666 1.6651
7.3699 3.2353 1.2535
6.6708 3.2170 1.1597
6.5404 3.4471 1.1643
7.0928 4.0680 1.2954
9.4196 5.8589 1.7682
9.1464 6.1524 1.7682
8.8631 6.4331 1.7682
8.5704 6.7006 1.7682
8.2690 6.9547 1.7682
7.9596 7.1953 1.7682
7.6430 7.4221 1.7682
7.3198 7.6350 1.7682
6.9908 7.8340 1.7682
6.6567 8.0190 1.7682
6.3181 8.1900 1.7682
5.9756 8.3470 1.7682
-0.2287 2.3320 0.5249
-0.3123 2.3219 0.5280
-0.3956 2.3090 0.5312
-0.4784 2.2932 0.5343
-0.5606 2.2745 0.5374
-0.6422 2.2529 0.5405
-0.7229 2.2286 0.5435
-0.8029 2.2014 0.5465
-2.8376 6.9873 1.7682
-3.0719 6.8456 1.7682
-3.3004 6.6973 1.7682
-3.5229 6.5427 1.7682
-3.7394 6.3819 1.7682
-3.9497 6.2152 1.7682
-4.1537 6.0427 1.7682
-4.3513 5.8648 1.7682
-4.5424 5.6816 1.7682
-4.7271 5.4934 1.7682
-4.9050 5.3002 1.7682
-5.0763 5.1024 1.7682
-5.2408 4.9001 1.7682
-5.3985 4.6935 1.7682
-5.5493 4.4828 1.7682
-5.6931 4.2682 1.7682
-5.8300 4.0499 1.7682
-5.9597 3.8280 1.7682
-6.0824 3.6028 1.7682
-6.1979 3.3744 1.7682
-6.3061 3.1431 1.7682
-6.4072 2.9089 1.7682
-6.5009 2.6720 1.7682
-6.5873 2.4327 1.7682
-6.6663 2.1911 1.7682
-6.7379 1.9474 1.7682
-6.8020 1.7017 1.7682
-6.8587 1.4542 1.7682
-6.9078 1.2051 1.7682
-6.9493 0.9546 1.7682
-6.9832 0.7028 1.7682
-7.0095 0.4499 1.7682
-7.0281 0.1960 1.7682
-7.0390 -0.0585 1.7682
-7.0421 -0.3137 1.7682
-7.0375 -0.5692 1.7682
-7.0251 -0.8250 1.7682
-7.0048 -1.0808 1.7682
-6.9766 -1.3365 1.7682
-6.9406 -1.5918 1.7682
-6.8966 -1.8466 1.7682
-6.8446 -2.1006 1.7682
-6.7847 -2.3538 1.7682
-6.7168 -2.6058 1.7682
-6.6408 -2.8565 1.7682
-6.5568 -3.1057 1.7682
-6.4648 -3.3531 1.7682
-6.3646 -3.5986 1.7682
-6.2564 -3.8419 1.7682
-6.1401 -4.0827 1.7682
-6.0158 -4.3210 1.7682
-5.8833 -4.5563 1.7682
-5.7428 -4.7885 1.7682
-5.5942 -5.0173 1.7682
-5.4376 -5.2425 1.7682
-5.2729 -5.4637 1.7682
-5.1003 -5.6808 1.7682
-4.9197 -5.8935 1.7682
-4.7313 -6.1014 1.7682
-4.5350 -6.3044 1.7682
-4.3310 -6.5020 1.7682
-4.1193 -6.6941 1.7682
-3.9000 -6.8802 1.7682
-3.6732 -7.0601 1.7682
-3.4391 -7.2336 1.7682
-3.1977 -7.4002 1.7682
-2.9492 -7.5596 1.7682
-2.6938 -7.7116 1.7682
-2.4316 -7.8558 1.7682
-2.0860 -7.7084 1.7055
-1.7776 -7.6461 1.6651
-1.5126 -7.7579 1.6651
-1.2421 -7.8612 1.6651
-0.9663 -7.9556 1.6651
-0.6855 -8.0407 1.6651
-0.3999 -8.1165 1.6650
-0.1098 -8.1823 1.6650
0.1844 -8.2381 1.6650
0.4824 -8.2836 1.6650
0.7838 -8.3184 1.6650
1.0883 -8.3422 1.6650
1.3954 -8.3549 1.6650
1.7047 -8.3562 1.6650
1.9028 -7.8783 1.5717
2.3013 -8.2280 1.6458
2.5158 -7.8956 1.5858
3.0314 -8.4572 1.7082
3.3528 -8.3969 1.7082
3.6733 -8.3237 1.7082
3.7807 -7.8006 1.6176
4.3097 -8.1385 1.7082
4.3681 -7.5815 1.6135
4.4972 -7.1989 1.5564
4.6928 -6.9476 1.5288
5.1284 -7.0376 1.5794
5.8445 -7.4471 1.7082
6.1367 -7.2700 1.7082
0.7085 -0.7810 0.1884
0.7182 -0.7371 0.1831
0.7470 -0.7139 0.1830
6.5147 -5.7963 1.5381
6.7023 -5.5482 1.5288
6.9237 -5.3274 1.5295
7.1359 -5.0964 1.5301
7.3384 -4.8557 1.5306
7.4499 -4.5564 1.5147
7.5511 -4.2564 1.4996
7.6510 -3.9604 1.4871
7.7498 -3.6676 1.4769
7.8477 -3.3773 1.4692
7.9451 -3.0887 1.4637
0.8953 -0.3118 0.1626
0.9060 -0.2798 0.1625
9.6282 -2.6016 1.7082
9.7174 -2.2576 1.7082
9.7913 -1.9100 1.7082
9.8499 -1.5596 1.7082
9.8930 -1.2071 1.7082
9.9206 -0.8532 1.7082
9.9326 -0.4987 1.7082
9.9291 -0.1444 1.7082
9.6592 0.2037 1.6650
9.6259 0.5465 1.6650
9.5778 0.8870 1.6650
9.5151 1.2244 1.6650
9.4381 1.5581 1.6650
9.3470 1.8874 1.6650
9.2422 2.2117 1.6650
9.1240 2.5304 1.6650
8.9928 2.8428 1.6651
8.8489 3.1484 1.6651
8.6930 3.4467 1.6651
7.3799 3.2351 1.4414
6.6881 3.2208 1.3343
6.5497 3.4471 1.3370
7.0800 4.0550 1.4816
8.2273 5.1102 1.7682
7.9952 5.3705 1.7682
7.7539 5.6200 1.7682
7.5042 5.8586 1.7682
7.2465 6.0860 1.7682
6.9816 6.3019 1.7682
6.7099 6.5061 1.7682
6.4320 6.6986 1.7682
6.1486 6.8793 1.7682
5.8601 7.0480 1.7682
5.5673 7.2046 1.7682
5.2706 7.3493 1.7682
-0.2045 2.1043 0.5238
-0.2800 2.0952 0.5266
-0.3551 2.0835 0.5295
-0.4298 2.0691 0.5323
-0.5040 2.0522 0.5351
-0.5776 2.0327 0.5379
-0.6505 2.0106 0.5406
-0.7226 1.9860 0.5434
-0.7938 1.9589 0.5460
-2.7845 6.2176 1.7682
-2.9934 6.0855 1.7682
-3.1970 5.9474 1.7682
-3.3952 5.8035 1.7682
-3.5878 5.6540 1.7682
-3.7749 5.4991 1.7682
-3.9561 5.3390 1.7682
-4.1316 5.1739 1.7682
-4.3011 5.0040 1.7682
-4.4646 4.8294 1.7682
-4.6220 4.6504 1.7682
-4.7733 4.4671 1.7682
-4.9183 4.2798 1.7682
-5.0570 4.0886 1.7682
-5.1894 3.8936 1.7682
-5.3153 3.6951 1.7682
-5.4347 3.4932 1.7682
-5.5475 3.2882 1.7682
-5.6538 3.0801 1.7682
-5.7534 2.8692 1.7682
-5.8463 2.6556 1.7682
-5.9325 2.4395 1.7682
-6.0119 2.2211 1.7682
-6.0844 2.0005 1.7682
-6.1501 1.7779 1.7682
-6.2088 1.5534 1.7682
-6.2606 1.3274 1.7682
-6.3054 1.0998 1.7682
-6.3431 0.8708 1.7682
-6.3738 0.6408 1.7682
-6.3974 0.4097 1.7682
-6.4139 0.1778 1.7682
-6.4232 -0.0547 1.7682
-6.4253 -0.2877 1.7682
-6.4203 -0.5210 1.7682
-6.4079 -0.7545 1.7682
-6.3883 -0.9879 1.7682
-6.3615 -1.2210 1.7682
-6.3273 -1.4537 1.7682
-6.2857 -1.6859 1.7682
-6.2369 -1.9172 1.7682
-6.1807 -2.1475 1.7682
-6.1171 -2.3767 1.7682
-6.0461 -2.6046 1.7682
-5.9677 -2.8308 1.7682
-5.8820 -3.0552 1.7682
-5.7888 -3.2777 1.7682
-5.6883 -3.4980 1.7682
-5.5804 -3.7159 1.7682
-5.4651 -3.9311 1.7682
-5.3425 -4.1435 1.7682
-5.2125 -4.3528 1.7682
-5.0753 -4.5587 1.7682
-4.9308 -4.7611 1.7682
-4.7790 -4.9598 1.7682
-4.6201 -5.1543 1.7682
-4.4541 -5.3446 1.7682
-4.2811 -5.5303 1.7682
-4.1011 -5.7112 1.7682
-3.9142 -5.8871 1.7682
-3.7204 -6.0576 1.7682
-3.5200 -6.2225 1.7682
-3.3130 -6.3816 1.7682
-3.0996 -6.5345 1.7682
-2.8798 -6.6809 1.7682
-2.6538 -6.8207 1.7682
-2.4219 -6.9535 1.7682
-2.1841 -7.0790 1.7682
-1.8275 -6.7774 1.6651
-1.5931 -6.8811 1.6651
-1.3538 -6.9771 1.6651
-1.1098 -7.0653 1.6651
-0.8613 -7.1453 1.6651
-0.6087 -7.2168 1.6651
-0.3521 -7.2798 1.6650
-0.0919 -7.3338 1.6650
0.1717 -7.3787 1.6650
0.4383 -7.4142 1.6650
0.7076 -7.4401 1.6650
0.9792 -7.4562 1.6650
1.2528 -7.4623 1.6650
1.5280 -7.4582 1.6650
1.8043 -7.4438 1.6650
2.0702 -7.3787 1.6559
2.2212 -6.9522 1.5678
2.6060 -7.2525 1.6458
2.8103 -7.0227 1.6062
2.9944 -6.7716 1.5634
3.5530 -7.3174 1.7082
3.8322 -7.2246 1.7082
4.1089 -7.1206 1.7082
4.3824 -7.0051 1.7082
4.6522 -6.8783 1.7082
4.8476 -6.6438 1.6838
5.1047 -6.4967 1.6838
5.3567 -6.3387 1.6838
0.7083 -0.7800 0.2129
0.7184 -0.7367 0.2070
0.7476 -0.7138 0.2072
6.3016 -5.6016 1.6838
6.5194 -5.3922 1.6838
6.7289 -5.1733 1.6838
7.0301 -5.0170 1.7082
6.9254 -4.5792 1.6376
7.0223 -4.2920 1.6192
7.1176 -4.0095 1.6036
7.2116 -3.7308 1.5905
7.3046 -3.4551 1.5801
7.3969 -3.1818 1.5721
7.4886 -2.9100 1.5666
0.8953 -0.3117 0.1847
0.9061 -0.2797 0.1846
8.4765 -2.2900 1.7082
8.5546 -1.9874 1.7082
8.6197 -1.6817 1.7082
8.6715 -1.3735 1.7082
8.7101 -1.0635 1.7082
8.7353 -0.7522 1.7082
8.7471 -0.4405 1.7082
8.7455 -0.1287 1.7082
8.7306 0.1823 1.7082
8.4822 0.4795 1.6650
8.4421 0.7795 1.6650
8.3895 1.0770 1.6650
8.3244 1.3714 1.6650
8.2471 1.6622 1.6650
8.1579 1.9488 1.6650
8.0570 2.2308 1.6650
7.9447 2.5075 1.6650
7.8214 2.7786 1.6650
7.6875 3.0435 1.6650
7.3901 3.2349 1.6313
6.7057 3.2247 1.5111
6.5590 3.4471 1.5115
7.0527 4.0336 1.6651
6.8713 4.2619 1.6651
6.6817 4.4819 1.6651
6.4913 4.6982 1.6669
6.6686 5.1987 1.7682
6.4440 5.4040 1.7682
6.2127 5.5995 1.7682
5.9752 5.7850 1.7682
5.7319 5.9603 1.7682
5.4834 6.1253 1.7682
5.2301 6.2798 1.7682
4.9725 6.4240 1.7682
4.7111 6.5576 1.7682
-0.1844 1.9152 0.5229
-0.2531 1.9069 0.5255
-0.3215 1.8962 0.5281
-0.3895 1.8831 0.5307
-0.4571 1.8677 0.5332
-0.5240 1.8499 0.5357
-0.5903 1.8297 0.5382
-0.6559 1.8073 0.5407
-0.7207 1.7825 0.5432
-0.7846 1.7555 0.5456
-2.7353 5.5709 1.7682
-2.9227 5.4463 1.7682
-3.1053 5.3163 1.7682
-3.2829 5.1810 1.7682
-3.4554 5.0405 1.7682
-3.6226 4.8952 1.7682
-3.7846 4.7451 1.7682
-3.9412 4.5904 1.7682
-4.0922 4.4314 1.7682
-4.2378 4.2681 1.7682
-4.3776 4.1008 1.7682
-4.5117 3.9296 1.7682
-4.6400 3.7546 1.7682
-4.7625 3.5762 1.7682
-4.8790 3.3944 1.7682
-4.9895 3.2094 1.7682
-5.0939 3.0213 1.7682
-5.1922 2.8304 1.7682
-5.2844 2.6368 1.7682
-5.3703 2.4407 1.7682
-5.4500 2.2421 1.7682
-5.5233 2.0414 1.7682
-5.5903 1.8386 1.7682
-5.6509 1.6339 1.7682
-5.7050 1.4276 1.7682
-5.7526 1.2196 1.7682
-5.7938 1.0103 1.7682
-5.8284 0.7997 1.7682
-5.8564 0.5881 1.7682
-5.8778 0.3756 1.7682
-5.8925 0.1623 1.7682
-5.9006 -0.0515 1.7682
-5.9020 -0.2657 1.7682
-5.8966 -0.4802 1.7682
-5.8845 -0.6947 1.7682
-5.8657 -0.9090 1.7682
-5.8401 -1.1232 1.7682
-5.8077 -1.3368 1.7682
-5.7684 -1.5498 1.7682
-5.7224 -1.7619 1.7682
-5.6696 -1.9731 1.7682
-5.6099 -2.1830 1.7682
-5.5434 -2.3915 1.7682
-5.4700 -2.5985 1.7682
-5.3899 -2.8037 1.7682
-5.3029 -3.0070 1.7682
-5.2092 -3.2080 1.7682
-5.1086 -3.4067 1.7682
-5.0013 -3.6028 1.7682
-4.8873 -3.7961 1.7682
-4.7666 -3.9864 1.7682
-4.6393 -4.1734 1.7682
-4.5053 -4.3571 1.7682
-4.3648 -4.5370 1.7682
-4.2178 -4.7131 1.7682
-4.0643 -4.8850 1.7682
-3.9045 -5.0526 1.7682
-3.7384 -5.2156 1.7682
-3.5661 -5.3737 1.7682
-3.3878 -5.5268 1.7682
-3.2034 -5.6746 1.7682
-3.0132 -5.8168 1.7682
-2.8173 -5.9532 1.7682
-2.6158 -6.0836 1.7682
-2.4088 -6.2077 1.7682
-2.1965 -6.3253 1.7682
-1.9792 -6.4361 1.7682
-1.6545 -6.1586 1.6651
-1.4407 -6.2494 1.6651
-1.2227 -6.3332 1.6651
-1.0007 -6.4097 1.6651
-0.7749 -6.4786 1.6651
-0.5455 -6.5399 1.6651
-0.3128 -6.5931 1.6651
-0.0771 -6.6383 1.6650
0.1613 -6.6751 1.6650
0.4023 -6.7034 1.6650
0.6453 -6.7230 1.6650
0.8903 -6.7337 1.6650
1.1367 -6.7354 1.6650
1.3842 -6.7278 1.6650
1.6326 -6.7110 1.6650
1.8814 -6.6847 1.6650
2.1301 -6.6489 1.6650
2.3544 -6.5363 1.6480
2.4778 -6.1781 1.5708
2.6976 -6.0881 1.5634
2.9438 -6.0516 1.5722
3.4476 -6.4886 1.7082
3.6942 -6.3919 1.7082
3.8814 -6.1952 1.6838
4.1180 -6.0801 1.6838
4.3508 -5.9553 1.6838
4.5791 -5.8208 1.6838
4.8027 -5.6768 1.6838
0.7081 -0.7790 0.2375
0.7187 -0.7362 0.2312
0.7481 -0.7136 0.2316
5.6398 -5.0088 1.6838
5.8325 -4.8199 1.6838
6.1050 -4.6898 1.7082
6.2849 -4.4818 1.7082
6.4564 -4.2660 1.7082
6.6191 -4.0429 1.7082
6.7726 -3.8128 1.7082
6.9166 -3.5761 1.7082
7.0507 -3.3333 1.7082
7.1747 -3.0847 1.7082
7.2883 -2.8309 1.7082
0.8954 -0.3116 0.2069
0.9061 -0.2797 0.2068
7.5638 -2.0430 1.7082
7.6332 -1.7732 1.7082
7.6912 -1.5007 1.7082
7.7377 -1.2260 1.7082
7.7725 -0.9497 1.7082
7.7956 -0.6722 1.7082
7.8070 -0.3943 1.7082
7.8067 -0.1163 1.7082
7.7947 0.1611 1.7082
7.7711 0.4374 1.7082
7.5402 0.6941 1.6650
7.4950 0.9598 1.6650
7.4388 1.2229 1.6650
7.3720 1.4830 1.6650
7.2945 1.7395 1.6650
7.2068 1.9921 1.6650
7.1090 2.2402 1.6650
7.0014 2.4834 1.6650
6.8843 2.7215 1.6650
6.7580 2.9538 1.6650
6.6229 3.1802 1.6650
6.4792 3.4003 1.6651
6.3274 3.6136 1.6651
6.1677 3.8201 1.6651
6.0007 4.0193 1.6651
5.8265 4.2110 1.6651
5.6458 4.3949 1.6651
5.4587 4.5709 1.6651
5.2657 4.7388 1.6651
5.3812 5.2019 1.7682
5.1652 5.3626 1.7682
4.9442 5.5141 1.7682
4.7188 5.6565 1.7682
4.4892 5.7896 1.7682
4.2560 5.9135 1.7682
-0.1675 1.7555 0.5222
-0.2305 1.7479 0.5245
-0.2932 1.7381 0.5269
-0.3555 1.7260 0.5293
-0.4174 1.7118 0.5316
-0.4788 1.6955 0.5339
-0.5395 1.6770 0.5362
-0.5997 1.6564 0.5385
-0.6590 1.6336 0.5407
-0.7176 1.6088 0.5429
-0.7753 1.5820 0.5451
-2.6884 5.0184 1.7682
-2.8575 4.8999 1.7682
-3.0221 4.7765 1.7682
-3.1820 4.6482 1.7682
-3.3371 4.5153 1.7682
-3.4874 4.3779 1.7682
-3.6327 4.2361 1.7682
-3.7730 4.0901 1.7682
-3.9082 3.9402 1.7682
-4.0381 3.7864 1.7682
-4.1627 3.6289 1.7682
-4.2820 3.4679 1.7682
-4.3958 3.3036 1.7682
-4.5041 3.1360 1.7682
-4.6068 2.9654 1.7682
-4.7039 2.7919 1.7682
-4.7953 2.6157 1.7682
-4.8810 2.4369 1.7682
-4.9608 2.2557 1.7682
-5.0348 2.0723 1.7682
-5.1029 1.8868 1.7682
-5.1651 1.6993 1.7682
-5.2213 1.5101 1.7682
-5.2714 1.3192 1.7682
-5.3155 1.1269 1.7682
-5.3535 0.9333 1.7682
-5.3854 0.7386 1.7682
-5.4111 0.5428 1.7682
-5.4306 0.3462 1.7682
-5.4440 0.1490 1.7682
-5.4510 -0.0487 1.7682
-5.4518 -0.2468 1.7682
-5.4464 -0.4450 1.7682
-5.4346 -0.6432 1.7682
-5.4165 -0.8413 1.7682
-5.3921 -1.0391 1.7682
-5.3614 -1.2363 1.7682
-5.3243 -1.4329 1.7682
-5.2808 -1.6286 1.7682
-5.2310 -1.8234 1.7682
-5.1749 -2.0169 1.7682
-5.1124 -2.2090 1.7682
-5.0436 -2.3995 1.7682
-4.9685 -2.5883 1.7682
-4.8870 -2.7752 1.7682
-4.7993 -2.9599 1.7682
-4.7053 -3.1424 1.7682
-4.6051 -3.3223 1.7682
-4.4987 -3.4994 1.7682
-4.3861 -3.6737 1.7682
-4.2675 -3.8449 1.7682
-4.1427 -4.0127 1.7682
-4.0120 -4.1770 1.7682
-3.8753 -4.3376 1.7682
-3.7328 -4.4942 1.7682
-3.5845 -4.6467 1.7682
-3.4305 -4.7947 1.7682
-3.2709 -4.9382 1.7682
-3.1058 -5.0769 1.7682
-2.9353 -5.2106 1.7682
-2.7596 -5.3390 1.7682
-2.5787 -5.4619 1.7682
-2.3928 -5.5792 1.7682
-2.2020 -5.6906 1.7682
-2.0066 -5.7958 1.7682
-1.8067 -5.8947 1.7682
-1.5090 -5.6380 1.6651
-1.3127 -5.7185 1.6651
-1.1127 -5.7925 1.6651
-0.9093 -5.8598 1.6651
-0.7025 -5.9200 1.6651
-0.4927 -5.9732 1.6651
-0.2800 -6.0190 1.6651
-0.0648 -6.0574 1.6651
0.1527 -6.0880 1.6650
0.3722 -6.1109 1.6650
0.5935 -6.1259 1.6650
0.8163 -6.1327 1.6650
1.0402 -6.1313 1.6650
1.2649 -6.1216 1.6650
1.4902 -6.1034 1.6650
1.7156 -6.0767 1.6650
1.9409 -6.0413 1.6650
2.1656 -5.9973 1.6650
2.3894 -5.9445 1.6650
2.6798 -6.0358 1.7082
2.8648 -5.8784 1.6838
3.0862 -5.7984 1.6838
3.3051 -5.7096 1.6838
3.5212 -5.6119 1.6838
3.7340 -5.5055 1.6838
3.9432 -5.3904 1.6838
4.1483 -5.2667 1.6838
4.3490 -5.1345 1.6838
0.7079 -0.7779 0.2623
0.7190 -0.7357 0.2557
0.7487 -0.7135 0.2562
5.0993 -4.5246 1.6838
5.2993 -4.3755 1.6926
5.5164 -4.2342 1.7082
5.6774 -4.0454 1.7082
5.8308 -3.8498 1.7082
5.9763 -3.6478 1.7082
6.1136 -3.4396 1.7082
6.2424 -3.2256 1.7082
6.3624 -3.0062 1.7082
6.4733 -2.7818 1.7082
6.5749 -2.5528 1.7082
0.8954 -0.3115 0.2294
0.9062 -0.2796 0.2293
6.8219 -1.8423 1.7082
6.8844 -1.5992 1.7082
6.9367 -1.3536 1.7082
6.9787 -1.1061 1.7082
7.0104 -0.8572 1.7082
7.0317 -0.6072 1.7082
7.0426 -0.3568 1.7082
7.0431 -0.1062 1.7082
7.0333 0.1438 1.7082
7.0131 0.3930 1.7082
6.9827 0.6408 1.7082
8.0801 1.0322 1.9882
6.7172 1.1019 1.6650
6.6584 1.3369 1.6650
6.5902 1.5688 1.6650
6.5128 1.7972 1.6650
6.4263 2.0218 1.6650
6.3311 2.2422 1.6650
6.2273 2.4580 1.6650
6.1152 2.6689 1.6650
5.9952 2.8746 1.6650
5.8674 3.0747 1.6650
5.7322 3.2690 1.6651
5.5899 3.4572 1.6651
5.4407 3.6389 1.6650
5.2852 3.8141 1.6650
5.1235 3.9825 1.6650
2.7762 2.3213 0.9327
4.7831 4.2980 1.6650
4.6052 4.4448 1.6650
4.6966 4.8683 1.7682
4.4980 5.0083 1.7682
4.2951 5.1400 1.7682
4.0884 5.2635 1.7682
3.8781 5.3787 1.7682
-0.1529 1.6188 0.5215
-0.2110 1.6118 0.5237
-0.2689 1.6027 0.5259
-0.3264 1.5915 0.5281
-0.3834 1.5784 0.5302
-0.4400 1.5633 0.5324
-0.4961 1.5462 0.5345
-0.5515 1.5271 0.5366
-0.6062 1.5061 0.5386
-0.6602 1.4832 0.5407
-0.7134 1.4584 0.5427
-0.7657 1.4317 0.5446
-0.8170 1.4032 0.5466
-2.7963 4.4263 1.7682
-2.9452 4.3084 1.7682
-3.0897 4.1861 1.7682
-3.2298 4.0595 1.7682
-3.3652 3.9287 1.7682
-3.4960 3.7941 1.7682
-3.6221 3.6556 1.7682
-3.7433 3.5134 1.7682
-3.8596 3.3678 1.7682
-3.9709 3.2188 1.7682
-4.0771 3.0666 1.7682
-4.1782 2.9114 1.7682
-4.2741 2.7532 1.7682
-4.3647 2.5924 1.7682
-4.4500 2.4289 1.7682
-4.5300 2.2630 1.7682
-4.6045 2.0948 1.7682
-4.6735 1.9245 1.7682
-4.7370 1.7522 1.7682
-4.7950 1.5781 1.7682
-4.8473 1.4023 1.7682
-4.8940 1.2249 1.7682
-4.9350 1.0462 1.7682
-4.9703 0.8663 1.7682
-4.9998 0.6853 1.7682
-5.0235 0.5034 1.7682
-5.0415 0.3207 1.7682
-5.0536 0.1374 1.7682
-5.0599 -0.0463 1.7682
-5.0602 -0.2303 1.7682
-5.0547 -0.4144 1.7682
-5.0433 -0.5985 1.7682
-5.0260 -0.7825 1.7682
