ply
format ascii 1.0
element vertex 2142
property float32 x
property float32 y
property float32 z
end_header
5.2340 0.2731 0.1303
5.3750 0.4742 0.1347
5.5247 0.6879 0.1395
5.6846 0.9158 0.1449
5.8559 1.1603 0.1509
6.0406 1.4238 0.1576
6.2408 1.7094 0.1651
6.4592 2.0208 0.1735
6.6989 2.3627 0.1830
6.9639 2.7407 0.1938
7.3331 3.1943 0.2081
23.2976 11.1589 0.6756
24.4107 12.7877 0.7245
24.8601 14.1819 0.7565
26.8283 16.6073 0.8384
28.6352 19.1794 0.9207
30.8127 22.2791 1.0213
18.3832 14.3232 0.6294
8.8020 7.3802 0.3119
8.1757 7.3703 0.3006
-0.4868 16.4982 0.8807
-1.0671 16.3008 0.8736
-1.6364 16.1072 0.8676
-2.1544 15.6129 0.8464
-2.7437 15.7014 0.8577
-3.0893 14.5747 0.8032
-3.4957 13.9963 0.7792
-3.9377 13.6614 0.7693
-4.6347 14.1510 0.8071
-5.5365 15.0559 0.8709
-5.9294 14.4966 0.8516
-6.3047 13.9624 0.8341
-6.6643 13.4505 0.8184
-7.0102 12.9582 0.8042
-7.3438 12.4832 0.7915
-7.6668 12.0234 0.7801
-7.9804 11.5771 0.7700
-8.2857 11.1424 0.7610
-8.5839 10.7180 0.7532
-8.8759 10.3023 0.7464
-9.1311 9.8599 0.7380
-9.4266 9.4735 0.7343
-9.7049 9.0774 0.7304
-10.0000 8.7022 0.7288
-9.6925 7.8418 0.6856
-10.4271 7.8344 0.7172
-10.6961 7.4516 0.7169
-10.6286 6.8517 0.6953
-10.7363 6.3880 0.6868
-11.6029 6.3514 0.7269
-11.8775 5.9584 0.7299
-12.1562 5.5617 0.7339
-11.1256 4.6150 0.6609
-11.3675 4.2442 0.6653
-11.6286 3.8724 0.6715
-11.8955 3.4925 0.6786
-12.1689 3.1033 0.6867
-12.4499 2.7034 0.6958
-12.9782 2.3341 0.7194
-13.2840 1.9000 0.7311
-13.5992 1.4495 0.7441
-13.9213 0.9804 0.7582
-14.2648 0.4914 0.7742
-14.6270 -0.0211 0.7921
-15.0046 -0.5603 0.8117
-15.4035 -1.1295 0.8334
-15.8277 -1.7333 0.8576
-16.3159 -2.3817 0.8863
-16.6932 -3.0519 0.9103
-17.2831 -3.8050 0.9473
-17.6346 -4.5513 0.9728
-19.9020 -5.9055 1.1063
-19.1433 -6.4360 1.0738
-18.4272 -6.9403 1.0444
-20.2940 -8.4865 1.1639
-14.4497 -6.6611 0.8397
-23.8458 -12.0477 1.4064
-24.3012 -13.3928 1.4568
-24.5096 -14.6776 1.4959
-17.8882 -11.6038 1.1134
-18.7514 -13.1427 1.1924
-20.2484 -15.3034 1.3180
-22.1664 -18.0378 1.4798
-24.1460 -21.1324 1.6567
-24.0927 -22.6621 1.7028
-23.3331 -23.5810 1.7028
-22.5392 -24.4752 1.7028
-21.7118 -25.3434 1.7028
-20.8516 -26.1845 1.7028
-19.9593 -26.9969 1.7028
-19.0359 -27.7794 1.7028
-16.0917 -25.3898 1.5153
-16.0625 -27.4758 1.5995
-15.1126 -28.1194 1.5995
-14.1659 -28.7885 1.6028
-13.1640 -29.3664 1.6028
-7.3402 -18.0856 0.9692
-4.8128 -13.1979 0.6955
-4.3815 -13.5009 0.7006
-3.6031 -12.6279 0.6463
-2.8552 -11.5634 0.5845
-2.2338 -10.6791 0.5339
-1.3217 -7.6839 0.3804
-0.9723 -7.1865 0.3529
-0.7070 -7.1464 0.3485
-0.4598 -7.3201 0.3550
-0.2016 -7.5015 0.3622
0.0692 -7.6917 0.3703
0.3543 -7.8920 0.3794
0.6556 -8.1036 0.3895
0.9042 -7.7201 0.3715
1.1356 -7.3908 0.3565
1.3503 -7.0851 0.3431
1.5505 -6.8001 0.3311
1.8656 -7.0114 0.3437
2.2117 -7.2546 0.3586
2.5911 -7.5211 0.3754
2.9410 -7.6359 0.3855
3.3576 -7.8645 0.4021
3.8634 -8.2198 0.4264
4.2782 -8.3140 0.4383
4.4919 -8.0097 0.4299
4.6984 -7.7158 0.4224
4.8986 -7.4309 0.4156
5.0931 -7.1539 0.4097
3.3035 -4.3048 0.2529
3.4195 -4.1396 0.2500
3.5332 -3.9778 0.2476
3.6450 -3.8186 0.2455
3.7553 -3.6617 0.2438
3.8642 -3.5066 0.2424
4.3799 -3.6971 0.2662
10.3050 -8.0840 0.6082
3.3384 -2.4307 0.1918
3.4234 -2.3094 0.1918
3.5086 -2.1880 0.1921
1.0076 -0.5792 0.0540
1.0099 -0.5333 0.0531
1.0430 -0.5039 0.0539
3.8546 -1.6944 0.1960
3.9437 -1.5674 0.1977
4.0343 -1.4381 0.1997
4.1267 -1.3063 0.2020
4.2212 -1.1715 0.2047
4.3182 -1.0331 0.2077
4.4180 -0.8908 0.2111
4.5209 -0.7440 0.2149
4.6275 -0.5920 0.2192
4.7381 -0.4342 0.2239
4.8534 -0.2697 0.2291
4.9740 -0.0978 0.2349
5.1005 0.0827 0.2414
5.2337 0.2728 0.2485
5.3747 0.4739 0.2563
5.5245 0.6875 0.2651
5.6842 0.9154 0.2747
5.8556 1.1598 0.2855
6.0402 1.4232 0.2975
6.2404 1.7087 0.3110
6.4587 2.0201 0.3261
6.6983 2.3619 0.3431
6.9633 2.7398 0.3625
7.3320 3.1931 0.3884
12.6891 6.0764 0.6853
12.2239 6.4022 0.6740
11.7756 6.7162 0.6640
12.0056 7.4303 0.6936
27.3681 18.3271 1.6228
22.4354 16.2188 1.3680
25.8308 20.1222 1.6228
8.8035 7.3801 0.5710
8.1772 7.3702 0.5489
-0.4855 16.4987 1.2540
-1.0659 16.3012 1.2430
-1.6353 16.1076 1.2338
-2.1533 15.6131 1.2029
-2.7425 15.7005 1.2181
-3.0886 14.5758 1.1403
-3.4950 13.9973 1.1056
-3.9366 13.6606 1.0908
-4.6335 14.1502 1.1438
-5.5359 15.0568 1.2337
-5.9289 14.4974 1.2059
-6.3042 13.9631 1.1807
-6.6639 13.4511 1.1580
-7.0098 12.9588 1.1375
-7.3435 12.4837 1.1191
-7.6665 12.0239 1.1027
-7.9801 11.5775 1.0881
-8.2855 11.1428 1.0751
-8.5837 10.7183 1.0638
-8.8758 10.3025 1.0540
-9.1302 9.8593 1.0419
-9.4265 9.4737 1.0366
-9.7049 9.0775 1.0310
-9.9999 8.7023 1.0287
-9.6924 7.8418 0.9676
-10.2671 7.7142 0.9967
-10.5320 7.3372 0.9962
-12.0290 7.7544 1.1107
-10.7364 6.3879 0.9694
-11.6037 6.3517 1.0262
-11.8795 5.9591 1.0307
-12.1583 5.5624 1.0365
-11.1292 4.6162 0.9336
-11.3676 4.2439 0.9398
-11.6288 3.8721 0.9487
-11.8957 3.4922 0.9590
-12.1692 3.1029 0.9707
-12.4502 2.7029 0.9840
-12.9716 2.3323 1.0171
-13.2764 1.8983 1.0340
-13.5927 1.4481 1.0529
-13.9218 0.9797 1.0739
-14.2654 0.4906 1.0971
-14.6255 -0.0220 1.1228
-15.0042 -0.5611 1.1513
-15.4043 -1.1306 1.1828
-15.8285 -1.7344 1.2178
-16.3015 -2.3807 1.2582
-16.6942 -3.0533 1.2942
-17.2842 -3.8066 1.3477
-17.6358 -4.5531 1.3848
-19.8691 -5.8974 1.5732
-19.1438 -6.4379 1.5306
-18.4263 -6.9417 1.4897
-19.2428 -8.0488 1.5753
-14.3567 -6.6197 1.1919
-18.9723 -9.5875 1.5997
-15.5485 -8.5708 1.3336
-16.9435 -10.1487 1.4808
-17.9334 -11.6354 1.5997
-18.3249 -12.8461 1.6714
-18.2232 -13.7755 1.7028
-17.7528 -14.4490 1.7028
-17.2579 -15.1068 1.7028
-16.7390 -15.7480 1.7028
-16.1966 -16.3718 1.7028
-15.6313 -16.9772 1.7028
-15.0436 -17.5633 1.7028
-14.4342 -18.1294 1.7028
-13.8036 -18.6745 1.7028
-13.1526 -19.1978 1.7028
-11.7251 -18.5041 1.5995
-11.0772 -18.9524 1.5995
-10.4122 -19.3781 1.5995
-9.7309 -19.7803 1.5995
-9.0342 -20.1585 1.5995
-7.3346 -18.0768 1.4096
-4.8117 -13.1987 1.0130
-4.3804 -13.5017 1.0215
-3.6007 -12.6238 0.9428
-2.8533 -11.5601 0.8535
-2.2323 -10.6763 0.7802
-1.3208 -7.6826 0.5566
-0.9715 -7.1854 0.5167
-0.7064 -7.1468 0.5108
-0.4593 -7.3205 0.5207
-0.2011 -7.5019 0.5318
0.0698 -7.6921 0.5442
0.3549 -7.8924 0.5579
0.6562 -8.1041 0.5732
0.9047 -7.7194 0.5471
1.1360 -7.3902 0.5255
1.3506 -7.0846 0.5061
1.5509 -6.7996 0.4887
1.8661 -7.0118 0.5077
2.2123 -7.2550 0.5300
2.5917 -7.5216 0.5552
2.9413 -7.6355 0.5704
3.3582 -7.8649 0.5954
3.8641 -8.2203 0.6317
4.2784 -8.3136 0.6496
4.4921 -8.0094 0.6374
4.6986 -7.7155 0.6265
4.8987 -7.4306 0.6167
5.0933 -7.1537 0.6081
3.3036 -4.3046 0.3755
3.4196 -4.1396 0.3713
3.5333 -3.9777 0.3678
3.6451 -3.8186 0.3648
3.7553 -3.6617 0.3623
3.8642 -3.5066 0.3603
4.3803 -3.6974 0.3958
10.3050 -8.0839 0.9042
3.3384 -2.4307 0.2851
3.4234 -2.3095 0.2851
3.5086 -2.1881 0.2855
1.0074 -0.5791 0.0802
1.0097 -0.5333 0.0789
1.0428 -0.5038 0.0800
3.8546 -1.6945 0.2911
3.9436 -1.5675 0.2936
4.0342 -1.4382 0.2964
4.1266 -1.3064 0.2998
4.2212 -1.1716 0.3037
4.3181 -1.0333 0.3080
4.4178 -0.8910 0.3129
4.5208 -0.7442 0.3184
4.6273 -0.5922 0.3246
4.7380 -0.4344 0.3314
4.8532 -0.2700 0.3390
4.9738 -0.0980 0.3473
5.1003 0.0824 0.3566
5.2335 0.2725 0.3669
5.3744 0.4735 0.3783
5.5242 0.6871 0.3909
5.6839 0.9149 0.4048
5.8552 1.1593 0.4204
6.0398 1.4226 0.4378
6.2400 1.7081 0.4572
6.4582 2.0194 0.4790
6.6977 2.3611 0.5036
6.9626 2.7389 0.5315
7.3309 3.1919 0.5691
12.6902 6.0756 1.0033
12.2250 6.4015 0.9859
11.7767 6.7155 0.9705
12.0075 7.4299 1.0128
18.4950 12.3828 1.5997
18.0026 13.0117 1.5997
17.4886 13.6210 1.5997
8.8051 7.3800 0.8308
8.1786 7.3701 0.7978
-0.4751 16.1866 1.5977
-1.0471 16.0318 1.5871
-1.6196 15.9652 1.5871
-2.1522 15.6134 1.5606
-2.7413 15.6996 1.5797
-3.0714 14.4993 1.4706
-3.4943 13.9982 1.4331
-3.9355 13.6598 1.4133
-4.6022 14.0574 1.4720
-5.5241 15.0271 1.5947
-5.9284 14.4981 1.5614
-6.3037 13.9638 1.5285
-6.6634 13.4517 1.4987
-7.0094 12.9593 1.4719
-7.3432 12.4842 1.4479
-7.6662 12.0243 1.4264
-7.9798 11.5778 1.4073
-8.2853 11.1431 1.3903
-8.5835 10.7186 1.3755
-8.8756 10.3028 1.3627
-9.1292 9.8586 1.3468
-9.4264 9.4738 1.3400
-9.7048 9.0776 1.3326
-9.9999 8.7024 1.3296
-9.6924 7.8419 1.2506
-9.9472 7.4738 1.2481
-10.2038 7.1085 1.2475
-12.0290 7.7543 1.4355
-10.7366 6.3879 1.2530
-11.6057 6.3526 1.3267
-11.8816 5.9599 1.3326
-12.1604 5.5631 1.3402
-11.1328 4.6174 1.2075
-11.3678 4.2436 1.2152
-11.6291 3.8718 1.2269
-11.8960 3.4918 1.2404
-12.1695 3.1025 1.2558
-12.4505 2.7025 1.2732
-12.9719 2.3318 1.3163
-13.2769 1.8977 1.3385
-13.5931 1.4475 1.3632
-13.9223 0.9790 1.3907
-14.2659 0.4898 1.4211
-14.6261 -0.0228 1.4548
-15.0049 -0.5621 1.4921
-15.4050 -1.1316 1.5334
-15.8293 -1.7356 1.5792
-16.0279 -2.3419 1.6047
-15.9021 -2.9096 1.5997
-15.8058 -3.4822 1.5997
-15.6895 -4.0518 1.5997
-15.5532 -4.6177 1.5997
-15.3971 -5.1792 1.5997
-15.2212 -5.7357 1.5997
-15.0257 -6.2863 1.5997
-14.3395 -6.6132 1.5488
-14.5765 -7.3677 1.5997
-15.1798 -8.3694 1.6954
-14.9566 -8.9604 1.7028
-14.6471 -9.5051 1.7028
-14.3181 -10.0393 1.7028
-13.9700 -10.5624 1.7028
-13.6030 -11.0736 1.7028
-13.2175 -11.5723 1.7028
-12.8140 -12.0577 1.7028
-12.3929 -12.5293 1.7028
-11.9545 -12.9863 1.7028
-11.4994 -13.4281 1.7028
-11.0281 -13.8541 1.7028
-10.5411 -14.2635 1.7028
-10.0389 -14.6560 1.7028
-8.9448 -14.1194 1.5995
-8.4463 -14.4543 1.5995
-7.9352 -14.7716 1.5995
-7.4123 -15.0707 1.5995
-6.8780 -15.3512 1.5995
-6.3331 -15.6127 1.5995
-4.8106 -13.1994 1.3317
-4.3792 -13.5024 1.3434
-3.5983 -12.6197 1.2400
-2.8514 -11.5568 1.1231
-2.2307 -10.6735 1.0273
-1.3199 -7.6813 0.7332
-0.9707 -7.1843 0.6810
-0.7059 -7.1472 0.6737
-0.4587 -7.3209 0.6871
-0.2005 -7.5023 0.7020
0.0704 -7.6925 0.7186
0.3555 -7.8928 0.7371
0.6569 -8.1045 0.7576
0.9051 -7.7188 0.7232
1.1364 -7.3895 0.6949
1.3510 -7.0841 0.6696
1.5512 -6.7991 0.6468
1.8667 -7.0122 0.6723
2.2128 -7.2554 0.7020
2.5924 -7.5220 0.7356
2.9416 -7.6350 0.7558
3.3589 -7.8654 0.7893
3.8648 -8.2208 0.8377
4.2787 -8.3133 0.8615
4.4924 -8.0091 0.8456
4.6988 -7.7152 0.8313
4.8989 -7.4303 0.8185
5.0934 -7.1535 0.8071
3.3037 -4.3045 0.4985
3.4197 -4.1394 0.4930
3.5334 -3.9776 0.4884
3.6451 -3.8185 0.4844
3.7553 -3.6616 0.4812
3.8643 -3.5066 0.4786
4.3806 -3.6976 0.5257
10.3051 -8.0839 1.2011
3.3384 -2.4307 0.3787
3.4234 -2.3095 0.3787
3.5085 -2.1881 0.3792
1.0072 -0.5790 0.1066
1.0096 -0.5332 0.1048
1.0427 -0.5037 0.1063
3.8545 -1.6946 0.3866
3.9436 -1.5675 0.3897
4.0342 -1.4383 0.3935
4.1266 -1.3065 0.3979
4.2211 -1.1717 0.4029
4.3180 -1.0334 0.4087
4.4177 -0.8912 0.4151
4.5206 -0.7444 0.4223
4.6272 -0.5924 0.4303
4.7378 -0.4346 0.4392
4.8530 -0.2702 0.4491
4.9736 -0.0983 0.4601
5.1000 0.0821 0.4722
5.2333 0.2721 0.4857
5.3742 0.4731 0.5005
5.5239 0.6867 0.5170
5.6836 0.9145 0.5353
5.8549 1.1588 0.5557
6.0395 1.4221 0.5784
6.2395 1.7075 0.6038
6.4577 2.0187 0.6324
6.6972 2.3603 0.6646
6.9620 2.7380 0.7011
7.3298 3.1907 0.7502
12.6913 6.0748 1.3224
12.1826 6.3779 1.2943
11.7778 6.7147 1.2780
12.0093 7.4296 1.3332
14.9660 10.0181 1.7028
14.5806 10.5363 1.7035
14.1718 11.0356 1.7036
8.6485 7.2475 1.0719
8.2109 7.3978 1.0515
-0.3854 13.1651 1.5997
-0.8566 13.1298 1.5997
-1.3258 13.0781 1.5997
-1.7925 13.0100 1.5997
-2.2560 12.9257 1.5997
-2.7160 12.8254 1.5997
-3.1617 12.6691 1.5947
-3.6114 12.5376 1.5947
-4.0558 12.3906 1.5947
-4.4945 12.2283 1.5947
-4.9270 12.0510 1.5947
-5.3528 11.8589 1.5947
-5.7714 11.6522 1.5947
-6.1823 11.4312 1.5947
-6.5850 11.1963 1.5947
-6.9792 10.9476 1.5947
-7.3643 10.6855 1.5947
-7.7400 10.4103 1.5947
-8.1057 10.1224 1.5947
-8.4611 9.8221 1.5947
-8.8058 9.5097 1.5947
-9.1394 9.1856 1.5947
-9.4615 8.8503 1.5947
-9.7718 8.5040 1.5947
-9.7014 7.8492 1.5363
-9.7872 7.3536 1.5072
-10.0397 6.9942 1.5064
-10.8874 7.0183 1.5947
-10.7368 6.3878 1.5379
-11.0787 6.0640 1.5544
-11.2928 5.6644 1.5546
-11.4926 5.2572 1.5548
-11.1364 4.6186 1.4828
-11.3680 4.2433 1.4919
-11.6293 3.8714 1.5064
-11.8962 3.4915 1.5231
-12.1698 3.1021 1.5422
-12.3985 2.6907 1.5572
-12.8750 2.3138 1.6047
-12.9572 1.8514 1.6047
-12.9831 1.3819 1.5997
-13.0329 0.9158 1.5997
-13.0665 0.4479 1.5997
-13.0838 -0.0212 1.5997
-13.0848 -0.4909 1.5997
-13.0693 -0.9609 1.5997
-13.0375 -1.4303 1.5997
-12.9892 -1.8988 1.5997
-12.9246 -2.3658 1.5997
-12.8435 -2.8306 1.5997
-12.7461 -3.2927 1.5997
-12.6325 -3.7517 1.5997
-12.5027 -4.2067 1.5997
-12.6542 -4.7695 1.6382
-12.9811 -5.4322 1.7028
-12.7921 -5.9009 1.7028
-12.5865 -6.3632 1.7028
-12.3644 -6.8185 1.7028
-12.1262 -7.2662 1.7028
-11.8720 -7.7057 1.7028
-11.6021 -8.1365 1.7028
-11.3167 -8.5580 1.7028
-11.0162 -8.9695 1.7028
-10.7009 -9.3707 1.7028
-10.3711 -9.7609 1.7028
-10.0272 -10.1396 1.7028
-9.6696 -10.5062 1.7028
-9.2986 -10.8603 1.7028
-8.9148 -11.2014 1.7028
-8.5184 -11.5290 1.7028
-8.1101 -11.8425 1.7028
-7.2525 -11.4505 1.6059
-6.8192 -11.6723 1.5995
-6.4045 -11.9249 1.5995
-5.9805 -12.1627 1.5995
-5.5477 -12.3853 1.5995
-5.1066 -12.5924 1.5995
-4.6577 -12.7836 1.5995
-4.2016 -12.9587 1.5995
-3.5958 -12.6156 1.5384
-2.8494 -11.5534 1.3937
-2.2292 -10.6707 1.2752
-1.3190 -7.6800 0.9105
-0.9699 -7.1832 0.8459
-0.7053 -7.1476 0.8373
-0.4581 -7.3213 0.8542
-0.1999 -7.5027 0.8730
0.0710 -7.6930 0.8938
0.3561 -7.8933 0.9170
0.6575 -8.1050 0.9428
0.9056 -7.7181 0.9001
1.1368 -7.3889 0.8651
1.3514 -7.0835 0.8337
1.5516 -6.7986 0.8055
1.8672 -7.0126 0.8375
2.2134 -7.2558 0.8748
2.5930 -7.5224 0.9168
2.9419 -7.6346 0.9420
3.3596 -7.8658 0.9841
3.8655 -8.2213 1.0446
4.2789 -8.3129 1.0743
4.4926 -8.0088 1.0546
4.6990 -7.7149 1.0369
4.8991 -7.4301 1.0210
5.0936 -7.1532 1.0070
3.3038 -4.3044 0.6220
3.4197 -4.1393 0.6153
3.5334 -3.9775 0.6095
3.6452 -3.8184 0.6046
3.7554 -3.6616 0.6006
3.8643 -3.5065 0.5974
4.3809 -3.6978 0.6562
10.3051 -8.0839 1.4992
3.3384 -2.4307 0.4727
3.4234 -2.3095 0.4727
3.5085 -2.1881 0.4733
1.0069 -0.5789 0.1330
1.0095 -0.5332 0.1307
1.0425 -0.5037 0.1326
3.8545 -1.6946 0.4824
3.9435 -1.5676 0.4863
4.0341 -1.4384 0.4910
4.1265 -1.3066 0.4964
4.2210 -1.1718 0.5027
4.3179 -1.0336 0.5097
4.4176 -0.8913 0.5177
4.5205 -0.7446 0.5266
4.6270 -0.5926 0.5365
4.7376 -0.4349 0.5475
4.8529 -0.2705 0.5598
4.9734 -0.0986 0.5733
5.0998 0.0818 0.5883
5.2330 0.2718 0.6049
5.3739 0.4728 0.6233
5.5236 0.6862 0.6437
5.6833 0.9140 0.6663
5.8545 1.1583 0.6915
6.0391 1.4215 0.7196
6.2391 1.7068 0.7510
6.4572 2.0180 0.7863
6.6966 2.3595 0.8262
6.9614 2.7371 0.8713
7.3286 3.1894 0.9321
13.1554 6.2955 1.7028
12.2281 6.4004 1.6134
12.6425 7.2062 1.7031
12.3639 7.6474 1.7035
12.0674 8.0762 1.7036
11.7587 8.4955 1.7041
11.4366 8.9039 1.7048
8.5119 7.1316 1.3078
8.2123 7.3976 1.3034
-0.1005 3.4426 0.4972
-0.2240 3.4371 0.4977
-0.3472 3.4273 0.4982
-0.4700 3.4134 0.4987
-0.5924 3.3953 0.4992
-0.7140 3.3730 0.4997
-2.6698 10.7008 1.5997
-3.0500 10.5910 1.5997
-3.4258 10.4680 1.5997
-3.7969 10.3321 1.5997
-4.1628 10.1833 1.5997
-4.5231 10.0220 1.5997
-4.8773 9.8482 1.5997
-5.2086 9.6318 1.5947
-5.5484 9.4346 1.5947
-5.8810 9.2257 1.5947
-6.2060 9.0054 1.5947
-6.5230 8.7740 1.5947
-6.8316 8.5318 1.5947
-7.1316 8.2790 1.5947
-7.4224 8.0160 1.5947
-7.7039 7.7431 1.5947
-7.9757 7.4606 1.5947
-8.2374 7.1688 1.5947
-8.4888 6.8682 1.5947
-8.7296 6.5589 1.5947
-8.9594 6.2415 1.5947
-9.1780 5.9163 1.5947
-9.3852 5.5836 1.5947
-9.6110 5.2604 1.5997
-9.7952 4.9130 1.5997
-9.9672 4.5592 1.5997
-10.1268 4.1996 1.5997
-10.2738 3.8346 1.5997
-10.4081 3.4646 1.5997
-10.5294 3.0899 1.5997
-10.6376 2.7111 1.5997
-10.7325 2.3287 1.5997
-10.8140 1.9429 1.5997
-10.8818 1.5544 1.5996
-10.9368 1.1636 1.5997
-10.9776 0.7708 1.5997
-11.0047 0.3766 1.5997
-11.0180 -0.0185 1.5997
-11.0175 -0.4141 1.5997
-11.0031 -0.8096 1.5997
-10.9748 -1.2048 1.5997
-10.9327 -1.5989 1.5997
-10.8767 -1.9917 1.5997
-11.0112 -2.4276 1.6300
-11.3631 -2.9363 1.6951
-11.3108 -3.3601 1.7028
-11.1928 -3.7670 1.7028
-11.0604 -4.1699 1.7028
-10.9138 -4.5682 1.7028
-10.7530 -4.9614 1.7028
-10.5782 -5.3491 1.7028
-10.3897 -5.7307 1.7028
-10.1876 -6.1059 1.7028
-9.9722 -6.4739 1.7028
-9.7435 -6.8345 1.7028
-9.5020 -7.1870 1.7028
-9.2479 -7.5312 1.7028
-8.9813 -7.8664 1.7028
-8.7028 -8.1923 1.7028
-8.4124 -8.5083 1.7028
-8.1107 -8.8142 1.7028
-7.7979 -9.1093 1.7028
-7.4744 -9.3935 1.7028
-7.1406 -9.6661 1.7028
-6.7968 -9.9269 1.7028
-6.0528 -9.5585 1.5995
-5.7124 -9.7801 1.5995
-5.3639 -9.9897 1.5995
-5.0077 -10.1867 1.5995
-4.6443 -10.3710 1.5995
-4.2740 -10.5422 1.5995
-3.8974 -10.7002 1.5995
-3.5150 -10.8445 1.5995
-3.1272 -10.9751 1.5995
-2.7345 -11.0917 1.5995
-2.2276 -10.6679 1.5244
-1.3180 -7.6787 1.0887
-0.9692 -7.1821 1.0117
-0.7047 -7.1480 1.0017
-0.4576 -7.3217 1.0221
-0.1993 -7.5031 1.0448
0.0716 -7.6934 1.0700
0.3567 -7.8937 1.0980
0.6581 -8.1054 1.1290
0.9061 -7.7174 1.0779
1.1373 -7.3883 1.0361
1.3518 -7.0830 0.9987
1.5519 -6.7981 0.9650
1.8678 -7.0130 1.0036
2.2140 -7.2562 1.0484
2.5936 -7.5229 1.0990
2.9422 -7.6342 1.1292
3.3602 -7.8663 1.1799
3.8662 -8.2217 1.2525
4.2792 -8.3125 1.2882
4.4928 -8.0084 1.2647
4.6992 -7.7146 1.2435
4.8993 -7.4298 1.2247
5.0938 -7.1530 1.2079
3.3039 -4.3042 0.7461
3.4198 -4.1392 0.7381
3.5335 -3.9774 0.7312
3.6452 -3.8183 0.7253
3.7554 -3.6615 0.7206
3.8643 -3.5065 0.7168
4.3813 -3.6981 0.7875
9.4113 -7.3827 1.6428
3.3384 -2.4307 0.5672
3.4234 -2.3095 0.5672
3.5085 -2.1881 0.5679
1.0067 -0.5788 0.1595
1.0094 -0.5332 0.1568
1.0424 -0.5036 0.1591
3.8544 -1.6947 0.5787
3.9434 -1.5677 0.5834
4.0340 -1.4385 0.5890
4.1264 -1.3068 0.5955
4.2209 -1.1720 0.6029
4.3178 -1.0337 0.6113
4.4175 -0.8915 0.6208
4.5204 -0.7448 0.6314
4.6269 -0.5928 0.6432
4.7375 -0.4351 0.6564
4.8527 -0.2707 0.6710
4.9732 -0.0989 0.6871
5.0996 0.0815 0.7050
5.2328 0.2715 0.7248
5.3737 0.4724 0.7467
5.5233 0.6858 0.7710
5.6830 0.9136 0.7980
5.8541 1.1578 0.8280
6.0387 1.4209 0.8615
6.2386 1.7062 0.8990
6.4567 2.0173 0.9411
6.6960 2.3587 0.9886
6.9607 2.7362 1.0424
7.3275 3.1882 1.1148
10.3335 4.9440 1.5997
10.1395 5.3060 1.5997
9.9326 5.6604 1.5997
9.7133 6.0067 1.5997
9.4818 6.3445 1.5997
9.8361 7.1050 1.7032
9.5659 7.4461 1.7034
8.6025 7.2061 1.5785
8.2949 7.4706 1.5720
-0.0868 2.9820 0.4995
-0.1938 2.9771 0.4999
-0.3005 2.9686 0.5003
-0.4069 2.9565 0.5008
-0.5128 2.9407 0.5012
-0.6182 2.9212 0.5017
-0.7229 2.8982 0.5022
-0.8267 2.8715 0.5027
-2.9695 9.0754 1.6072
-3.2762 8.9165 1.5997
-3.5922 8.7888 1.5997
-3.9034 8.6501 1.5997
-4.2095 8.5008 1.5997
-4.5100 8.3408 1.5997
-4.8046 8.1704 1.5997
-5.0929 7.9900 1.5997
-5.3746 7.7996 1.5997
-5.6494 7.5995 1.5997
-5.9170 7.3899 1.5997
-6.1770 7.1712 1.5997
-6.4292 6.9436 1.5997
-6.6732 6.7073 1.5997
-6.9087 6.4627 1.5997
-7.1356 6.2101 1.5997
-7.3534 5.9496 1.5997
-7.5620 5.6817 1.5997
-7.7611 5.4067 1.5997
-7.9505 5.1249 1.5997
-8.1299 4.8367 1.5997
-8.2992 4.5423 1.5997
-8.4580 4.2421 1.5997
-8.6063 3.9365 1.5997
-8.7439 3.6259 1.5997
-8.8705 3.3106 1.5997
-8.9861 2.9909 1.5997
-9.0904 2.6673 1.5997
-9.1833 2.3401 1.5997
-9.2648 2.0098 1.5997
-9.3346 1.6767 1.5997
-9.3926 1.3412 1.5997
-9.4387 1.0037 1.5996
-9.4731 0.6647 1.5996
-9.4955 0.3245 1.5995
-9.5071 -0.0165 1.5997
-9.5645 -0.3600 1.6096
-9.8077 -0.7223 1.6528
-10.0773 -1.1069 1.7028
-10.0376 -1.4687 1.7028
-9.9851 -1.8292 1.7028
-9.9200 -2.1878 1.7028
-9.8422 -2.5441 1.7028
-9.7518 -2.8978 1.7028
-9.6489 -3.2482 1.7028
-9.5336 -3.5951 1.7028
-9.4060 -3.9380 1.7028
-9.2662 -4.2764 1.7028
-9.1144 -4.6099 1.7028
-8.9508 -4.9381 1.7028
-8.7755 -5.2606 1.7028
-8.5887 -5.5769 1.7028
-8.3906 -5.8866 1.7028
-8.1814 -6.1894 1.7028
-7.9614 -6.4848 1.7028
-7.7308 -6.7724 1.7028
-7.4899 -7.0519 1.7028
-7.2390 -7.3229 1.7028
-6.9782 -7.5850 1.7028
-6.7081 -7.8378 1.7028
-6.4288 -8.0810 1.7028
-6.1407 -8.3143 1.7028
-5.8441 -8.5373 1.7028
-5.2036 -8.2192 1.5995
-4.9102 -8.4085 1.5995
-4.6099 -8.5874 1.5995
-4.3030 -8.7554 1.5995
-3.9901 -8.9125 1.5995
-3.6714 -9.0582 1.5995
-3.3473 -9.1926 1.5995
-3.0183 -9.3152 1.5995
-2.6848 -9.4260 1.5995
-2.3473 -9.5247 1.5995
-2.0060 -9.6112 1.5995
-1.3171 -7.6774 1.2679
-0.9684 -7.1810 1.1784
-0.7041 -7.1484 1.1672
-0.4570 -7.3221 1.1911
-0.1987 -7.5035 1.2177
0.0722 -7.6938 1.2473
0.3574 -7.8941 1.2800
0.6588 -8.1059 1.3163
0.9066 -7.7167 1.2567
1.1377 -7.3877 1.2082
1.3522 -7.0824 1.1646
1.5523 -6.7976 1.1255
1.8684 -7.0134 1.1708
2.2146 -7.2566 1.2232
2.5942 -7.5233 1.2823
2.9425 -7.6338 1.3175
3.3609 -7.8668 1.3770
3.8669 -8.2222 1.4618
4.2795 -8.3122 1.5035
4.4931 -8.0081 1.4760
4.6995 -7.7143 1.4515
4.8995 -7.4296 1.4295
5.0939 -7.1528 1.4101
3.3040 -4.3041 0.8710
3.4199 -4.1391 0.8617
3.5336 -3.9773 0.8537
3.6453 -3.8183 0.8469
3.7555 -3.6614 0.8413
3.8644 -3.5064 0.8369
4.3816 -3.6983 0.9195
8.0602 -6.3228 1.6428
3.3384 -2.4307 0.6622
3.4234 -2.3095 0.6622
3.5085 -2.1882 0.6631
1.0065 -0.5787 0.1862
1.0093 -0.5331 0.1831
1.0422 -0.5036 0.1857
3.8544 -1.6948 0.6756
3.9434 -1.5678 0.6811
4.0339 -1.4386 0.6876
4.1263 -1.3069 0.6951
4.2208 -1.1721 0.7037
4.3177 -1.0339 0.7135
4.4174 -0.8917 0.7245
4.5203 -0.7450 0.7368
4.6267 -0.5930 0.7506
4.7373 -0.4353 0.7659
4.8525 -0.2710 0.7828
4.9730 -0.0991 0.8016
5.0994 0.0812 0.8224
5.2326 0.2711 0.8454
5.3734 0.4720 0.8709
5.5230 0.6854 0.8992
5.6826 0.9131 0.9305
5.8538 1.1573 0.9654
6.0383 1.4204 1.0043
6.2382 1.7056 1.0478
6.4562 2.0165 1.0968
6.6955 2.3579 1.1519
6.9601 2.7353 1.2146
7.3264 3.1870 1.2987
8.8706 4.2432 1.5997
8.7053 4.5545 1.5997
8.5290 4.8595 1.5997
8.3418 5.1576 1.5997
8.1442 5.4484 1.5997
7.9364 5.7317 1.5997
7.7187 6.0070 1.5997
7.4914 6.2741 1.5997
7.7231 6.9542 1.7030
-0.0763 2.6277 0.5013
-0.1706 2.6234 0.5016
-0.2646 2.6159 0.5020
-0.3584 2.6051 0.5024
-0.4517 2.5911 0.5028
-0.5445 2.5739 0.5032
-0.6367 2.5535 0.5036
-0.7282 2.5298 0.5041
-0.8189 2.5031 0.5045
-3.0637 8.3398 1.7028
-3.3596 8.2209 1.7028
-3.6383 8.0637 1.6969
-3.8466 7.7687 1.6635
-4.0506 7.4920 1.6349
-4.2475 7.2237 1.6092
-4.4761 7.0228 1.5997
-4.7239 6.8557 1.5997
-4.9657 6.6801 1.5997
-5.2010 6.4961 1.5997
-5.4297 6.3039 1.5997
-5.6516 6.1040 1.5997
-5.8662 5.8964 1.5997
-6.0734 5.6814 1.5997
-6.2728 5.4593 1.5997
-6.4644 5.2304 1.5997
-6.6479 4.9949 1.5997
-6.8229 4.7531 1.5997
-6.9894 4.5053 1.5997
-7.1470 4.2518 1.5997
-7.2957 3.9930 1.5997
-7.4353 3.7290 1.5997
-7.5655 3.4603 1.5997
-7.6862 3.1871 1.5997
-7.7974 2.9098 1.5997
-7.8987 2.6287 1.5997
-7.9987 2.3467 1.6014
-8.0715 2.0565 1.5997
-8.1427 1.7661 1.5997
-8.2750 1.4860 1.6136
-8.4582 1.2074 1.6392
-8.6467 0.9191 1.6676
-8.8586 0.6211 1.7023
-8.8818 0.3030 1.7028
-8.8912 -0.0160 1.7028
-8.8894 -0.3352 1.7028
-8.8763 -0.6543 1.7028
-8.8520 -0.9729 1.7028
-8.8165 -1.2907 1.7028
-8.7697 -1.6072 1.7028
-8.7117 -1.9220 1.7028
-8.6427 -2.2348 1.7028
-8.5625 -2.5451 1.7028
-8.4714 -2.8526 1.7028
-8.3694 -3.1569 1.7028
-8.2566 -3.4576 1.7028
-8.1331 -3.7543 1.7028
-7.9991 -4.0467 1.7028
-7.8546 -4.3343 1.7028
-7.7000 -4.6168 1.7028
-7.5353 -4.8939 1.7028
-7.3607 -5.1651 1.7028
-7.1764 -5.4302 1.7028
-6.9826 -5.6887 1.7028
-6.7796 -5.9403 1.7028
-6.5676 -6.1848 1.7028
-6.3468 -6.4217 1.7028
-6.1175 -6.6507 1.7028
-5.8800 -6.8716 1.7028
-5.6345 -7.0840 1.7028
-5.3813 -7.2877 1.7028
-5.1208 -7.4823 1.7028
-4.8479 -7.6590 1.7009
-4.3014 -7.3677 1.5995
-4.0378 -7.5235 1.5995
-3.7686 -7.6698 1.5995
-3.4941 -7.8065 1.5995
-3.2146 -7.9333 1.5995
-2.9304 -8.0501 1.5995
-2.6421 -8.1566 1.5995
-2.3498 -8.2526 1.5995
-2.0540 -8.3382 1.5995
-1.7552 -8.4130 1.5995
-1.3162 -7.6761 1.4484
-0.9676 -7.1799 1.3463
-0.7036 -7.1488 1.3340
-0.4564 -7.3225 1.3614
-0.1981 -7.5039 1.3920
0.0728 -7.6942 1.4258
0.3580 -7.8946 1.4634
0.6594 -8.1063 1.5051
0.9071 -7.7160 1.4368
1.1381 -7.3871 1.3815
1.3526 -7.0819 1.3318
1.5526 -6.7971 1.2872
1.8690 -7.0138 1.3393
2.2152 -7.2570 1.3993
2.5948 -7.5237 1.4670
2.9428 -7.6334 1.5072
3.2491 -7.6042 1.5228
3.5211 -7.4860 1.5228
3.7886 -7.3579 1.5228
4.0513 -7.2200 1.5228
4.3089 -7.0726 1.5228
4.5610 -6.9158 1.5228
4.8073 -6.7498 1.5228
3.3041 -4.3040 0.9968
3.4200 -4.1390 0.9862
3.5336 -3.9772 0.9770
3.6453 -3.8182 0.9693
3.7555 -3.6614 0.9629
3.8644 -3.5064 0.9579
4.3820 -3.6986 1.0525
7.0420 -5.5240 1.6428
3.3384 -2.4307 0.7580
3.4234 -2.3095 0.7580
3.5085 -2.1882 0.7590
1.0063 -0.5786 0.2131
1.0092 -0.5331 0.2095
1.0421 -0.5035 0.2125
3.8543 -1.6949 0.7733
3.9433 -1.5679 0.7795
4.0339 -1.4387 0.7869
4.1262 -1.3070 0.7955
4.2207 -1.1723 0.8053
4.3176 -1.0340 0.8164
4.4173 -0.8918 0.8290
4.5201 -0.7451 0.8431
4.6266 -0.5933 0.8587
4.7372 -0.4356 0.8762
4.8524 -0.2712 0.8955
4.9728 -0.0994 0.9170
5.0992 0.0809 0.9407
5.2323 0.2708 0.9669
5.3731 0.4716 0.9960
5.5227 0.6850 1.0282
5.6823 0.9127 1.0640
5.8534 1.1567 1.1037
6.0378 1.4198 1.1481
6.2377 1.7049 1.1978
6.4557 2.0158 1.2536
6.6949 2.3570 1.3165
6.9594 2.7343 1.3879
7.3253 3.1857 1.4838
7.7636 3.7128 1.5997
7.6197 3.9857 1.5997
7.4662 4.2530 1.5997
7.3032 4.5144 1.5997
7.1310 4.7696 1.5997
6.9498 5.0181 1.5997
6.7599 5.2598 1.5997
6.5616 5.4943 1.5997
6.3551 5.7213 1.5997
-0.0680 2.3466 0.5027
-0.1521 2.3427 0.5030
-0.2361 2.3359 0.5033
-0.3198 2.3263 0.5037
-0.4032 2.3137 0.5040
-0.4860 2.2982 0.5044
-0.5684 2.2799 0.5048
-0.6500 2.2588 0.5052
-0.7309 2.2348 0.5056
-0.8110 2.2080 0.5060
-2.9930 7.3250 1.7028
-3.2528 7.2102 1.7028
-3.5083 7.0863 1.7028
-3.7591 6.9535 1.7028
-4.0051 6.8120 1.7028
-4.2458 6.6620 1.7028
-4.4810 6.5037 1.7028
-4.7105 6.3372 1.7028
-4.9339 6.1628 1.7028
-5.1147 5.9384 1.6908
-5.2810 5.7040 1.6772
-5.4470 5.4752 1.6666
-5.6104 5.2484 1.6580
-5.7718 5.0233 1.6514
-5.9314 4.7992 1.6468
-6.0898 4.5756 1.6441
-6.2472 4.3520 1.6433
-6.4041 4.1280 1.6445
-6.5607 3.9029 1.6475
-6.7174 3.6763 1.6525
-6.8747 3.4477 1.6595
-7.0328 3.2165 1.6685
-7.1922 2.9820 1.6795
-7.3578 2.7455 1.6937
-7.4931 2.4935 1.7028
-7.5796 2.2234 1.7028
-7.6566 1.9505 1.7028
-7.7239 1.6749 1.7028
-7.7815 1.3970 1.7028
-7.8293 1.1172 1.7028
-7.8672 0.8358 1.7028
-7.8952 0.5531 1.7028
-7.9132 0.2695 1.7028
-7.9212 -0.0147 1.7028
-7.9192 -0.2991 1.7028
-7.9071 -0.5834 1.7028
-7.8850 -0.8672 1.7028
-7.8529 -1.1502 1.7028
-7.8107 -1.4320 1.7028
-7.7586 -1.7123 1.7028
-7.6965 -1.9908 1.7028
-7.6246 -2.2670 1.7028
-7.5429 -2.5407 1.7028
-7.4515 -2.8114 1.7028
-7.3505 -3.0789 1.7028
-7.2401 -3.3428 1.7028
-7.1202 -3.6029 1.7028
-6.9911 -3.8586 1.7028
-6.8528 -4.1097 1.7028
-6.7057 -4.3560 1.7028
-6.5497 -4.5970 1.7028
-6.3852 -4.8324 1.7028
-6.2123 -5.0621 1.7028
-6.0311 -5.2855 1.7028
-5.8419 -5.5025 1.7028
-5.6450 -5.7127 1.7028
-5.4406 -5.9160 1.7028
-5.2288 -6.1119 1.7028
-5.0100 -6.3002 1.7028
-4.7845 -6.4807 1.7028
-4.5524 -6.6532 1.7028
-4.3142 -6.8173 1.7028
-3.8686 -6.6278 1.6185
-3.5886 -6.6880 1.5995
-3.3490 -6.8175 1.5995
-3.1047 -6.9383 1.5995
-2.8560 -7.0504 1.5995
-2.6033 -7.1535 1.5995
-2.3468 -7.2475 1.5995
-2.0870 -7.3323 1.5995
-1.8241 -7.4076 1.5995
-1.5584 -7.4734 1.5995
-1.2904 -7.5297 1.5995
-0.9668 -7.1787 1.5156
-0.7030 -7.1492 1.5021
-0.4558 -7.3229 1.5332
-0.1975 -7.5044 1.5677
0.0734 -7.6947 1.6060
0.3574 -7.8681 1.6428
0.6396 -7.8548 1.6428
0.9075 -7.7153 1.6184
1.1386 -7.3865 1.5562
1.3530 -7.0813 1.5003
1.5530 -6.7966 1.4502
1.8695 -7.0142 1.5092
2.1399 -7.0088 1.5228
2.3907 -6.9307 1.5228
2.6387 -6.8435 1.5228
2.8834 -6.7472 1.5228
3.1245 -6.6420 1.5228
3.3617 -6.5281 1.5228
3.5946 -6.4056 1.5228
3.8230 -6.2745 1.5228
4.0465 -6.1352 1.5228
4.2649 -5.9878 1.5228
3.3042 -4.3039 1.1237
3.4200 -4.1389 1.1117
3.5337 -3.9771 1.1014
3.6454 -3.8181 1.0927
3.7555 -3.6613 1.0855
3.8644 -3.5063 1.0799
4.3823 -3.6988 1.1867
6.2464 -4.8999 1.6428
3.3384 -2.4307 0.8545
3.4234 -2.3095 0.8545
3.5084 -2.1882 0.8557
1.0061 -0.5785 0.2402
1.0090 -0.5330 0.2362
1.0419 -0.5035 0.2395
3.8543 -1.6949 0.8717
3.9433 -1.5680 0.8787
4.0338 -1.4388 0.8870
4.1261 -1.3071 0.8967
4.2206 -1.1724 0.9077
4.3175 -1.0342 0.9202
4.4172 -0.8920 0.9344
4.5200 -0.7453 0.9502
4.6264 -0.5935 0.9678
4.7370 -0.4358 0.9874
4.8522 -0.2715 1.0091
4.9726 -0.0997 1.0332
5.0990 0.0805 1.0599
5.2321 0.2704 1.0894
5.3729 0.4713 1.1221
5.5224 0.6846 1.1583
5.6820 0.9122 1.1985
5.8531 1.1562 1.2432
6.0374 1.4192 1.2931
6.2373 1.7043 1.3489
6.4552 2.0151 1.4116
6.6943 2.3562 1.4824
6.9588 2.7334 1.5626
7.0143 3.0498 1.5997
6.8959 3.2971 1.5997
6.7686 3.5397 1.5997
6.6328 3.7775 1.5997
6.4885 4.0100 1.5997
6.3361 4.2371 1.5997
6.1757 4.4583 1.5997
6.0075 4.6734 1.5997
5.8317 4.8822 1.5997
5.6488 5.0844 1.5997
-0.0612 2.1177 0.5038
-0.1371 2.1143 0.5041
-0.2129 2.1081 0.5044
-0.2885 2.0994 0.5047
-0.3637 2.0880 0.5050
-0.4385 2.0740 0.5054
-0.5128 2.0574 0.5057
-0.5864 2.0382 0.5060
-0.6594 2.0165 0.5064
-0.7316 1.9923 0.5068
-0.8030 1.9655 0.5072
-2.9301 6.4957 1.7028
-3.1604 6.3843 1.7028
-3.3865 6.2649 1.7028
-3.6082 6.1376 1.7028
-3.8252 6.0026 1.7028
-4.0373 5.8601 1.7028
-4.2441 5.7102 1.7028
-4.4456 5.5531 1.7028
-4.6413 5.3891 1.7028
-4.8311 5.2182 1.7028
-5.0147 5.0409 1.7028
-5.1920 4.8571 1.7028
-5.3627 4.6673 1.7028
-5.5265 4.4716 1.7028
-5.6834 4.2703 1.7028
-5.8331 4.0635 1.7028
-5.9754 3.8516 1.7028
-6.1101 3.6348 1.7028
-6.2372 3.4134 1.7028
-6.3563 3.1876 1.7028
-6.4675 2.9577 1.7028
-6.5705 2.7241 1.7028
-6.6652 2.4869 1.7028
-6.7515 2.2465 1.7028
-6.8293 2.0031 1.7028
-6.8985 1.7571 1.7028
-6.9590 1.5087 1.7028
-7.0107 1.2583 1.7028
-7.0535 1.0062 1.7028
-7.0874 0.7526 1.7028
-7.1124 0.4979 1.7028
-7.1283 0.2424 1.7028
-7.1352 -0.0137 1.7028
-7.1331 -0.2698 1.7028
-7.1219 -0.5259 1.7028
-7.1016 -0.7815 1.7028
-7.0723 -1.0364 1.7028
-7.0340 -1.2902 1.7028
-6.9867 -1.5425 1.7028
-6.9305 -1.7932 1.7028
-6.8653 -2.0418 1.7028
-6.7914 -2.2881 1.7028
-6.7087 -2.5318 1.7028
-6.6173 -2.7725 1.7028
-6.5175 -3.0099 1.7028
-6.4091 -3.2438 1.7028
-6.2925 -3.4738 1.7028
-6.1677 -3.6996 1.7028
-6.0348 -3.9210 1.7028
-5.8940 -4.1376 1.7028
-5.7456 -4.3492 1.7028
-5.5895 -4.5555 1.7028
-5.4262 -4.7563 1.7028
-5.2556 -4.9512 1.7028
-5.0780 -5.1400 1.7028
-4.8937 -5.3224 1.7028
-4.7029 -5.4983 1.7028
-4.5058 -5.6673 1.7028
-4.3026 -5.8292 1.7028
-4.0936 -5.9839 1.7028
-3.8790 -6.1311 1.7028
-3.4373 -5.8903 1.5995
-3.2261 -6.0139 1.5995
-3.0104 -6.1299 1.5995
-2.7906 -6.2381 1.5995
-2.5668 -6.3384 1.5995
-2.3395 -6.4306 1.5995
-2.1088 -6.5146 1.5995
-1.8751 -6.5903 1.5995
-1.6387 -6.6576 1.5995
-1.3999 -6.7163 1.5995
-1.1590 -6.7664 1.5995
-0.9162 -6.8078 1.5995
-0.6720 -6.8404 1.5995
-0.4267 -6.8641 1.5995
-0.1805 -6.8789 1.5995
0.0662 -6.8849 1.5995
0.3131 -6.8818 1.5995
0.5599 -6.8698 1.5995
0.8280 -7.0340 1.6428
1.0800 -7.0033 1.6428
1.3310 -6.9635 1.6428
1.5533 -6.7961 1.6147
1.7993 -6.7492 1.6171
1.9818 -6.4895 1.5702
2.1542 -6.2440 1.5279
2.3696 -6.1447 1.5228
2.5892 -6.0580 1.5228
2.8056 -5.9634 1.5228
3.0184 -5.8609 1.5228
3.2275 -5.7507 1.5228
3.4324 -5.6329 1.5228
3.6329 -5.5077 1.5228
3.8288 -5.3753 1.5228
3.3042 -4.3037 1.2517
3.4201 -4.1388 1.2384
3.5337 -3.9770 1.2269
3.6455 -3.8180 1.2173
3.7556 -3.6613 1.2093
3.8644 -3.5063 1.2030
4.3827 -3.6990 1.3221
5.6070 -4.3983 1.6428
3.3384 -2.4307 0.9520
3.4234 -2.3096 0.9520
3.5084 -2.1882 0.9533
1.0059 -0.5784 0.2675
1.0089 -0.5330 0.2631
1.0418 -0.5034 0.2668
3.8542 -1.6950 0.9711
3.9432 -1.5681 0.9789
4.0337 -1.4389 0.9881
4.1261 -1.3072 0.9988
4.2205 -1.1725 1.0111
4.3174 -1.0343 1.0250
4.4170 -0.8922 1.0407
4.5199 -0.7455 1.0583
4.6263 -0.5937 1.0779
4.7368 -0.4360 1.0997
4.8520 -0.2717 1.1238
4.9724 -0.1000 1.1506
5.0987 0.0802 1.1802
5.2318 0.2701 1.2130
5.3726 0.4709 1.2493
5.5221 0.6841 1.2896
5.6816 0.9117 1.3343
5.8527 1.1557 1.3840
6.0370 1.4186 1.4394
6.2368 1.7036 1.5015
6.4547 2.0143 1.5712
6.4905 2.2839 1.5997
6.4007 2.5136 1.5997
6.3028 2.7398 1.5997
6.1967 2.9621 1.5997
6.0828 3.1804 1.5997
5.9612 3.3943 1.5997
5.8319 3.6035 1.5997
5.6953 3.8078 1.5997
5.5515 4.0069 1.5997
5.4007 4.2006 1.5997
5.2431 4.3886 1.5997
5.0790 4.5707 1.5997
-0.0555 1.9278 0.5048
-0.1247 1.9246 0.5050
-0.1937 1.9190 0.5053
-0.2625 1.9110 0.5056
-0.3309 1.9006 0.5059
-0.3990 1.8878 0.5062
-0.4666 1.8727 0.5065
-0.5336 1.8552 0.5068
-0.6001 1.8353 0.5071
-0.6658 1.8132 0.5075
-0.7307 1.7888 0.5078
-0.7947 1.7621 0.5082
-2.8724 5.8033 1.7028
-3.0780 5.6948 1.7028
-3.2796 5.5792 1.7028
-3.4770 5.4566 1.7028
-3.6699 5.3271 1.7028
-3.8580 5.1910 1.7028
-4.0412 5.0483 1.7028
-4.2192 4.8992 1.7028
-4.3918 4.7439 1.7028
-4.5588 4.5827 1.7028
-4.7200 4.4157 1.7028
-4.8752 4.2432 1.7028
-5.0242 4.0652 1.7028
-5.1669 3.8822 1.7028
-5.3029 3.6942 1.7028
-5.4323 3.5015 1.7028
-5.5548 3.3044 1.7028
-5.6703 3.1031 1.7028
-5.7786 2.8977 1.7028
-5.8796 2.6887 1.7028
-5.9731 2.4762 1.7028
-6.0592 2.2606 1.7028
-6.1375 2.0419 1.7028
-6.2081 1.8207 1.7028
-6.2709 1.5970 1.7028
-6.3257 1.3712 1.7028
-6.3726 1.1435 1.7028
-6.4113 0.9142 1.7028
-6.4420 0.6837 1.7028
-6.4645 0.4522 1.7028
-6.4788 0.2199 1.7028
-6.4848 -0.0128 1.7028
-6.4827 -0.2457 1.7028
-6.4722 -0.4784 1.7028
-6.4536 -0.7107 1.7028
-6.4267 -0.9422 1.7028
-6.3916 -1.1728 1.7028
-6.3483 -1.4021 1.7028
-6.2969 -1.6298 1.7028
-6.2374 -1.8556 1.7028
-6.1699 -2.0794 1.7028
-6.0945 -2.3006 1.7028
-6.0112 -2.5192 1.7028
-5.9202 -2.7347 1.7028
-5.8215 -2.9470 1.7028
-5.7152 -3.1558 1.7028
-5.6015 -3.3607 1.7028
-5.4805 -3.5616 1.7028
-5.3524 -3.7582 1.7028
-5.2173 -3.9501 1.7028
-5.0753 -4.1372 1.7028
-4.9266 -4.3193 1.7028
-4.7714 -4.4960 1.7028
-4.6100 -4.6671 1.7028
-4.4424 -4.8325 1.7028
-4.2689 -4.9918 1.7028
-4.0897 -5.1450 1.7028
-3.9050 -5.2917 1.7028
-3.7150 -5.4317 1.7028
-3.5201 -5.5650 1.7028
-3.1190 -5.3461 1.5995
-2.9272 -5.4579 1.5995
-2.7313 -5.5629 1.5995
-2.5316 -5.6607 1.5995
-2.3285 -5.7514 1.5995
-2.1221 -5.8347 1.5995
-1.9127 -5.9106 1.5995
-1.7006 -5.9790 1.5995
-1.4860 -6.0397 1.5995
-1.2693 -6.0926 1.5995
-1.0507 -6.1377 1.5995
-0.8305 -6.1749 1.5995
-0.6090 -6.2041 1.5995
-0.3864 -6.2253 1.5995
-0.1631 -6.2384 1.5995
0.0606 -6.2441 1.5997
0.2845 -6.2411 1.5997
0.5082 -6.2299 1.5997
0.7315 -6.2106 1.5997
0.9540 -6.1833 1.5997
1.2072 -6.3133 1.6428
1.4332 -6.2687 1.6428
1.6576 -6.2158 1.6428
1.8800 -6.1549 1.6428
2.1001 -6.0858 1.6428
2.3176 -6.0088 1.6428
2.4743 -5.7883 1.6052
2.6236 -5.5758 1.5709
2.7669 -5.3719 1.5399
2.9256 -5.2123 1.5228
3.1112 -5.1054 1.5228
3.2929 -4.9918 1.5228
3.4703 -4.8717 1.5228
3.3043 -4.3036 1.3811
3.4202 -4.1387 1.3664
3.5338 -3.9770 1.3538
3.6455 -3.8180 1.3431
3.7556 -3.6612 1.3344
3.8645 -3.5063 1.3274
4.3830 -3.6993 1.4590
5.0814 -3.9860 1.6428
3.3384 -2.4307 1.0504
3.4234 -2.3096 1.0505
3.5084 -2.1883 1.0518
1.0056 -0.5782 0.2951
1.0088 -0.5329 0.2903
1.0416 -0.5034 0.2944
3.8541 -1.6951 1.0715
3.9431 -1.5682 1.0801
4.0336 -1.4390 1.0902
4.1260 -1.3074 1.1020
4.2204 -1.1727 1.1155
4.3173 -1.0345 1.1309
4.4169 -0.8924 1.1481
4.5197 -0.7457 1.1675
4.6261 -0.5939 1.1891
4.7367 -0.4363 1.2131
4.8518 -0.2720 1.2397
4.9722 -0.1003 1.2692
5.0985 0.0799 1.3018
5.2316 0.2697 1.3379
5.3723 0.4705 1.3779
5.5218 0.6837 1.4223
5.6813 0.9112 1.4715
5.8523 1.1552 1.5262
6.0366 1.4180 1.5873
6.0258 1.6455 1.5997
5.9599 1.8594 1.5997
5.8864 2.0707 1.5997
5.8053 2.2792 1.5997
5.7168 2.4844 1.5997
5.6209 2.6863 1.5997
5.5179 2.8844 1.5997
5.4078 3.0785 1.5997
5.2909 3.2685 1.5997
5.1673 3.4540 1.5997
5.0371 3.6349 1.5997
4.9006 3.8108 1.5997
4.7579 3.9816 1.5997
4.6092 4.1471 1.5997
-0.0508 1.7673 0.5056
-0.1142 1.7644 0.5058
-0.1774 1.7593 0.5060
-0.2405 1.7519 0.5063
-0.3032 1.7423 0.5066
-0.3656 1.7306 0.5068
-0.4276 1.7167 0.5071
-0.4891 1.7006 0.5074
-0.5499 1.6824 0.5077
-0.6102 1.6621 0.5080
-0.6696 1.6396 0.5084
-0.7283 1.6151 0.5087
-0.7861 1.5885 0.5090
-2.8182 5.2147 1.7028
-3.0029 5.1089 1.7028
-3.1837 4.9968 1.7028
-3.3604 4.8783 1.7028
-3.5327 4.7536 1.7028
-3.7006 4.6230 1.7028
-3.8636 4.4865 1.7028
-4.0218 4.3444 1.7028
-4.1747 4.1968 1.7028
-4.3224 4.0438 1.7028
-4.4646 3.8858 1.7028
-4.6011 3.7229 1.7028
-4.7317 3.5552 1.7028
-4.8563 3.3830 1.7028
-4.9748 3.2066 1.7028
-5.0870 3.0260 1.7028
-5.1927 2.8416 1.7028
-5.2918 2.6535 1.7028
-5.3843 2.4621 1.7028
-5.4699 2.2675 1.7028
-5.5486 2.0699 1.7028
-5.6203 1.8697 1.7028
-5.6849 1.6670 1.7028
-5.7423 1.4621 1.7028
-5.7924 1.2553 1.7028
-5.8352 1.0468 1.7028
-5.8705 0.8368 1.7028
-5.8984 0.6257 1.7028
-5.9189 0.4137 1.7028
-5.9318 0.2010 1.7028
-5.9372 -0.0121 1.7028
-5.9350 -0.2253 1.7028
-5.9253 -0.4383 1.7028
-5.9080 -0.6510 1.7028
-5.8832 -0.8630 1.7028
-5.8508 -1.0741 1.7028
-5.8110 -1.2839 1.7028
-5.7637 -1.4923 1.7028
-5.7091 -1.6990 1.7028
-5.6471 -1.9037 1.7028
-5.5778 -2.1061 1.7028
-5.5013 -2.3060 1.7028
-5.4178 -2.5032 1.7028
-5.3272 -2.6974 1.7028
-5.2297 -2.8883 1.7028
-5.1254 -3.0758 1.7028
-5.0145 -3.2594 1.7028
-4.8970 -3.4391 1.7028
-4.7731 -3.6146 1.7028
-4.6430 -3.7856 1.7028
-4.5067 -3.9520 1.7028
-4.3646 -4.1134 1.7028
-4.2166 -4.2698 1.7028
-4.0631 -4.4209 1.7028
-3.9042 -4.5664 1.7028
-3.7401 -4.7062 1.7028
-3.5710 -4.8402 1.7028
-3.3971 -4.9680 1.7028
-3.2187 -5.0896 1.7028
-2.8518 -4.8892 1.5995
-2.6762 -4.9912 1.5995
-2.4969 -5.0869 1.5995
-2.3143 -5.1761 1.5995
-2.1284 -5.2587 1.5995
-1.9396 -5.3347 1.5995
-1.7481 -5.4038 1.5995
-1.5541 -5.4660 1.5995
-1.3579 -5.5212 1.5995
-1.1598 -5.5694 1.5995
-0.9599 -5.6103 1.5995
-0.7587 -5.6446 1.5997
-0.5561 -5.6711 1.5997
-0.3527 -5.6902 1.5997
-0.1486 -5.7020 1.5997
0.0558 -5.7064 1.5997
0.2604 -5.7034 1.5997
0.4648 -5.6929 1.5997
0.6688 -5.6751 1.5997
0.8721 -5.6499 1.5997
1.0745 -5.6173 1.5997
1.2755 -5.5774 1.5997
1.4751 -5.5302 1.5997
1.7180 -5.6232 1.6428
1.9190 -5.5599 1.6428
2.1176 -5.4894 1.6428
2.3137 -5.4117 1.6428
2.5068 -5.3269 1.6428
2.6967 -5.2351 1.6428
2.8833 -5.1364 1.6428
3.0384 -4.9854 1.6279
3.1676 -4.8015 1.6035
3.2932 -4.6227 1.5819
3.3044 -4.3035 1.5120
3.4203 -4.1386 1.4959
3.5339 -3.9769 1.4821
3.6456 -3.8179 1.4705
3.7557 -3.6611 1.4609
3.8645 -3.5062 1.4533
4.3834 -3.6995 1.5974
4.6413 -3.6407 1.6428
3.3384 -2.4307 1.1500
3.4233 -2.3096 1.1501
3.5084 -2.1883 1.1516
1.0054 -0.5781 0.3230
1.0087 -0.5329 0.3178
1.0414 -0.5033 0.3222
3.8541 -1.6952 1.1730
3.9431 -1.5683 1.1824
4.0336 -1.4392 1.1935
4.1259 -1.3075 1.2064
4.2203 -1.1728 1.2212
4.3171 -1.0347 1.2379
4.4168 -0.8925 1.2568
4.5196 -0.7459 1.2780
4.6260 -0.5941 1.3016
4.7365 -0.4365 1.3278
4.8516 -0.2723 1.3569
4.9720 -0.1006 1.3891
5.0983 0.0796 1.4248
5.2313 0.2694 1.4643
5.3720 0.4701 1.5080
5.5215 0.6833 1.5564
5.6438 0.9048 1.5997
5.6054 1.1060 1.5997
5.5597 1.3056 1.5997
5.5068 1.5033 1.5997
5.4469 1.6988 1.5997
5.3799 1.8920 1.5997
5.3060 2.0826 1.5997
5.2253 2.2703 1.5997
5.1380 2.4549 1.5997
5.0440 2.6361 1.5997
4.9437 2.8137 1.5997
4.8370 2.9875 1.5997
4.7242 3.1572 1.5997
4.6054 3.3227 1.5997
4.4808 3.4837 1.5997
4.3506 3.6401 1.5997
4.2149 3.7915 1.5997
-0.0467 1.6299 0.5062
-0.1052 1.6272 0.5065
-0.1635 1.6225 0.5067
-0.2216 1.6157 0.5069
-0.2795 1.6068 0.5072
-0.3371 1.5960 0.5074
-0.3942 1.5831 0.5077
-0.4509 1.5683 0.5080
-0.5070 1.5514 0.5082
-0.5625 1.5326 0.5085
-0.6174 1.5119 0.5088
-0.6715 1.4892 0.5091
-0.7248 1.4647 0.5094
-0.7772 1.4382 0.5098
-0.8287 1.4100 0.5101
-2.9330 4.6037 1.7028
-3.0959 4.4946 1.7028
-3.2547 4.3798 1.7028
-3.4094 4.2595 1.7028
-3.5597 4.1338 1.7028
-3.7054 4.0028 1.7028
-3.8464 3.8669 1.7028
-3.9825 3.7260 1.7028
-4.1135 3.5804 1.7028
-4.2393 3.4302 1.7028
-4.3597 3.2757 1.7028
-4.4746 3.1171 1.7028
-4.5837 2.9544 1.7028
-4.6871 2.7881 1.7028
-4.7845 2.6181 1.7028
-4.8758 2.4448 1.7028
-4.9609 2.2684 1.7028
-5.0398 2.0890 1.7028
-5.1123 1.9070 1.7028
-5.1783 1.7224 1.7028
-5.2377 1.5357 1.7028
-5.2905 1.3469 1.7028
-5.3366 1.1563 1.7028
-5.3759 0.9641 1.7028
-5.4084 0.7707 1.7028
-5.4340 0.5761 1.7028
-5.4527 0.3808 1.7028
-5.4645 0.1848 1.7028
-5.4693 -0.0115 1.7028
-5.4672 -0.2079 1.7028
-5.4580 -0.4042 1.7028
-5.4420 -0.6000 1.7028
-5.4190 -0.7953 1.7028
-5.3890 -0.9897 1.7028
-5.3521 -1.1830 1.7028
-5.3084 -1.3749 1.7028
-5.2579 -1.5652 1.7028
-5.2006 -1.7537 1.7028
-5.1366 -1.9400 1.7028
-5.0660 -2.1241 1.7028
-4.9889 -2.3056 1.7028
-4.9053 -2.4844 1.7028
-4.8153 -2.6601 1.7028
-4.7191 -2.8325 1.7028
-4.6168 -3.0016 1.7028
-4.5084 -3.1669 1.7028
-4.3942 -3.3283 1.7028
-4.2742 -3.4856 1.7028
-4.1486 -3.6386 1.7028
-4.0175 -3.7871 1.7028
-3.8812 -3.9309 1.7028
-3.7397 -4.0698 1.7028
-3.5933 -4.2036 1.7028
-3.4421 -4.3321 1.7028
-3.2863 -4.4552 1.7028
-3.1261 -4.5727 1.7028
-2.9617 -4.6844 1.7028
-2.6522 -4.5482 1.6168
-2.4700 -4.6078 1.6045
-2.2972 -4.6812 1.5995
-2.1293 -4.7636 1.5997
-1.9582 -4.8395 1.5997
-1.7843 -4.9092 1.5997
-1.6080 -4.9726 1.5997
-1.4295 -5.0296 1.5997
-1.2489 -5.0802 1.5997
-1.0666 -5.1243 1.5997
-0.8827 -5.1617 1.5997
-0.6974 -5.1926 1.5997
-0.5111 -5.2167 1.5997
-0.3240 -5.2341 1.5997
-0.1363 -5.2448 1.5997
0.0518 -5.2486 1.5997
0.2399 -5.2456 1.5997
0.4279 -5.2359 1.5997
0.6155 -5.2193 1.5997
0.8025 -5.1959 1.5997
0.9885 -5.1658 1.5997
1.1733 -5.1290 1.5997
1.3568 -5.0854 1.5997
1.5387 -5.0352 1.5997
1.7186 -4.9785 1.5997
1.8964 -4.9152 1.5997
2.1277 -4.9760 1.6428
2.3052 -4.8979 1.6428
2.4798 -4.8134 1.6428
2.6513 -4.7226 1.6428
2.8193 -4.6256 1.6428
2.9838 -4.5225 1.6428
3.1444 -4.4136 1.6428
3.3011 -4.2988 1.6428
3.4204 -4.1384 1.6271
3.5339 -3.9768 1.6121
3.6456 -3.8178 1.5994
3.7557 -3.6611 1.5890
3.8646 -3.5062 1.5807
4.1444 -3.4977 1.6428
4.2671 -3.3472 1.6428
3.3384 -2.4307 1.2509
3.4233 -2.3096 1.2509
3.5084 -2.1883 1.2526
1.0052 -0.5780 0.3513
1.0086 -0.5329 0.3456
1.0413 -0.5033 0.3504
3.8540 -1.6953 1.2759
3.9430 -1.5683 1.2861
4.0335 -1.4393 1.2981
4.1258 -1.3076 1.3121
4.2202 -1.1729 1.3282
4.3170 -1.0348 1.3464
4.4167 -0.8927 1.3669
4.5194 -0.7461 1.3899
4.6258 -0.5943 1.4155
4.7363 -0.4367 1.4440
4.8514 -0.2725 1.4756
4.9718 -0.1009 1.5106
5.0981 0.0793 1.5493
5.2311 0.2690 1.5922
5.2408 0.4582 1.5997
5.2191 0.6455 1.5997
5.1906 0.8317 1.5997
5.1554 1.0168 1.5997
5.1135 1.2003 1.5997
5.0651 1.3822 1.5997
5.0101 1.5622 1.5997
4.9487 1.7399 1.5997
4.8809 1.9153 1.5997
4.8069 2.0880 1.5997
4.7267 2.2579 1.5997
4.6405 2.4246 1.5997
4.5483 2.5881 1.5997
4.4504 2.7481 1.5997
4.3468 2.9044 1.5997
4.2377 3.0567 1.5997
4.1232 3.2050 1.5997
4.0036 3.3490 1.5997
3.8788 3.4885 1.5997
-0.0431 1.5108 0.5068
-0.0974 1.5083 0.5070
-0.1514 1.5039 0.5072
-0.2053 1.4976 0.5075
-0.2590 1.4894 0.5077
-0.3123 1.4793 0.5079
-0.3653 1.4674 0.5082
-0.4178 1.4536 0.5084
-0.4698 1.4379 0.5087
-0.5213 1.4205 0.5090
-0.5721 1.4012 0.5092
-0.6222 1.3802 0.5095
-0.6716 1.3574 0.5098
-0.7202 1.3328 0.5101
-0.7678 1.3066 0.5104
-0.8146 1.2787 0.5107
-2.8670 4.1626 1.7028
-3.0142 4.0563 1.7028
-3.1575 3.9449 1.7028
-3.2967 3.8285 1.7028
-3.4317 3.7073 1.7028
-3.5623 3.5813 1.7028
-3.6884 3.4508 1.7028
-3.8098 3.3160 1.7028
-3.9263 3.1769 1.7028
-4.0378 3.0338 1.7028
-4.1441 2.8869 1.7028
-4.2453 2.7362 1.7028
-4.3410 2.5821 1.7028
-4.4312 2.4247 1.7028
-4.5157 2.2642 1.7028
-4.5946 2.1007 1.7028
-4.6676 1.9346 1.7028
-4.7347 1.7660 1.7028
-4.7957 1.5950 1.7028
-4.8507 1.4220 1.7028
-4.8995 1.2471 1.7028
-4.9422 1.0706 1.7028
-4.9785 0.8926 1.7028
-5.0085 0.7134 1.7028
-5.0321 0.5333 1.7028
-5.0494 0.3523 1.7028
-5.0602 0.1708 1.7028
-5.0645 -0.0110 1.7028
-5.0624 -0.1928 1.7028
-5.0539 -0.3746 1.7028
-5.0389 -0.5560 1.7028
-5.0174 -0.7368 1.7028
-4.9896 -0.9167 1.7028
-4.9553 -1.0957 1.7028
-4.9147 -1.2733 1.7028
-4.8678 -1.4495 1.7028
-4.8146 -1.6239 1.7028
-4.7552 -1.7965 1.7028
-4.6897 -1.9668 1.7028
-4.6181 -2.1348 1.7028
-4.5406 -2.3002 1.7028
-4.4572 -2.4628 1.7028
-4.3680 -2.6224 1.7028
-4.2731 -2.7787 1.7028
-4.1726 -2.9316 1.7028
-4.0667 -3.0810 1.7028
-3.9555 -3.2265 1.7028
-3.8391 -3.3679 1.7028
-3.7177 -3.5053 1.7028
-3.5914 -3.6382 1.7028
-3.4603 -3.7666 1.7028
-3.3247 -3.8903 1.7028
-3.1847 -4.0090 1.7028
-3.0404 -4.1228 1.7028
-2.8921 -4.2313 1.7028
-2.7399 -4.3345 1.7028
-2.5838 -4.4319 1.7027
-2.2779 -4.2504 1.5997
-2.1251 -4.3316 1.5997
-1.9694 -4.4072 1.5997
-1.8110 -4.4772 1.5997
-1.6502 -4.5415 1.5997
-1.4870 -4.6000 1.5997
-1.3218 -4.6525 1.5997
-1.1548 -4.6992 1.5997
-0.9861 -4.7398 1.5997
-0.8159 -4.7743 1.5997
-0.6446 -4.8026 1.5997
-0.4723 -4.8248 1.5997
-0.2992 -4.8408 1.5997
-0.1256 -4.8504 1.5997
0.0483 -4.8539 1.5997
0.2223 -4.8510 1.5997
0.3961 -4.8418 1.5997
0.5696 -4.8263 1.5997
0.7424 -4.8046 1.5997
0.9144 -4.7766 1.5997
1.0853 -4.7424 1.5997
1.2549 -4.7021 1.5997
1.4230 -4.6555 1.5997
1.5893 -4.6030 1.5997
1.7537 -4.5444 1.5997
1.9158 -4.4799 1.5997
2.0756 -4.4095 1.5997
2.2327 -4.3333 1.5997
2.3870 -4.2515 1.5997
2.6067 -4.2763 1.6428
2.7587 -4.1810 1.6428
2.9071 -4.0802 1.6428
3.0518 -3.9740 1.6428
3.1927 -3.8627 1.6428
3.3293 -3.7463 1.6428
3.4617 -3.6250 1.6428
3.5896 -3.4990 1.6428
3.7128 -3.3684 1.6428
3.8312 -3.2334 1.6428
3.9447 -3.0942 1.6428
3.3384 -2.4307 1.3532
3.4233 -2.3096 1.3532
3.5083 -2.1884 1.3550
1.0049 -0.5779 0.3799
1.0084 -0.5328 0.3738
1.0411 -0.5032 0.3790
3.8540 -1.6953 1.3801
3.9429 -1.5684 1.3911
4.0334 -1.4394 1.4041
4.1257 -1.3077 1.4193
4.2201 -1.1731 1.4366
4.3169 -1.0350 1.4563
4.4165 -0.8929 1.4785
4.5193 -0.7463 1.5033
4.6257 -0.5945 1.5310
4.7362 -0.4370 1.5617
4.8512 -0.2728 1.5959
4.8681 -0.0991 1.5997
4.8670 0.0754 1.5997
4.8596 0.2496 1.5997
4.8460 0.4234 1.5997
4.8260 0.5965 1.5997
4.7998 0.7687 1.5997
4.7674 0.9399 1.5997
4.7288 1.1096 1.5997
4.6842 1.2779 1.5997
4.5837 1.4288 1.5825
4.5276 1.5914 1.5825
4.4658 1.7519 1.5825
4.3982 1.9100 1.5825
4.3720 2.0879 1.5997
4.2923 2.2422 1.5997
4.2073 2.3935 1.5997
4.1168 2.5415 1.5997
4.0211 2.6862 1.5997
3.9204 2.8272 1.5997
3.8146 2.9645 1.5997
3.7040 3.0978 1.5997
3.5888 3.2270 1.5997
-0.0400 1.4065 0.5074
-0.0905 1.4041 0.5075
-0.1409 1.4000 0.5077
-0.1910 1.3941 0.5079
-0.2410 1.3865 0.5082
-0.2906 1.3771 0.5084
-0.3399 1.3659 0.5086
-0.3888 1.3531 0.5088
-0.4373 1.3385 0.5091
-0.4851 1.3222 0.5093
-0.5324 1.3043 0.5096
-0.5791 1.2847 0.5098
-0.6250 1.2634 0.5101
-0.6702 1.2405 0.5104
-0.7146 1.2161 0.5107
-0.7581 1.1901 0.5109
-0.8007 1.1626 0.5112
-2.8037 3.7734 1.7028
-2.9371 3.6698 1.7028
-3.0666 3.5615 1.7028
-3.1923 3.4487 1.7028
-3.3138 3.3316 1.7028
-3.4311 3.2102 1.7028
-3.5440 3.0848 1.7028
-3.6524 2.9554 1.7028
-3.7562 2.8223 1.7028
-3.8551 2.6855 1.7028
-3.9492 2.5454 1.7028
-4.0382 2.4020 1.7028
-4.1221 2.2555 1.7028
-4.2008 2.1062 1.7028
-4.2741 1.9541 1.7028
-4.3420 1.7995 1.7028
-4.4044 1.6426 1.7028
-4.4612 1.4836 1.7028
-4.5123 1.3226 1.7028
-4.5576 1.1599 1.7028
-4.5972 0.9957 1.7028
-4.6310 0.8301 1.7028
-4.6588 0.6634 1.7028
-4.6807 0.4958 1.7028
-4.6967 0.3274 1.7028
-4.7066 0.1586 1.7028
-4.7106 -0.0105 1.7028
-4.7086 -0.1797 1.7028
-4.7005 -0.3487 1.7028
-4.6865 -0.5174 1.7028
-4.6664 -0.6856 1.7028
-4.6404 -0.8530 1.7028
-4.6084 -1.0194 1.7028
-4.5705 -1.1846 1.7028
-4.5268 -1.3484 1.7028
-4.4772 -1.5106 1.7028
-4.4219 -1.6710 1.7028
-4.3608 -1.8294 1.7028
-4.2941 -1.9855 1.7028
-4.2219 -2.1393 1.7028
-4.1442 -2.2904 1.7028
-4.0611 -2.4387 1.7028
-3.9728 -2.5840 1.7028
-3.8793 -2.7261 1.7028
-3.7807 -2.8649 1.7028
-3.6772 -3.0000 1.7028
-3.5689 -3.1315 1.7028
-3.4559 -3.2591 1.7028
-3.3383 -3.3825 1.7028
-3.2164 -3.5018 1.7028
-3.0902 -3.6166 1.7028
-2.9599 -3.7269 1.7028
-2.8257 -3.8325 1.7028
-2.6878 -3.9333 1.7028
-2.5462 -4.0291 1.7028
-2.4012 -4.1198 1.7028
-2.1167 -3.9507 1.5997
-1.9746 -4.0259 1.5997
-1.8298 -4.0961 1.5997
-1.6826 -4.1610 1.5997
-1.5331 -4.2206 1.5997
-1.3815 -4.2748 1.5997
-1.2279 -4.3236 1.5997
-1.0726 -4.3668 1.5997
-0.9158 -4.4044 1.5997
-0.7577 -4.4363 1.5997
-0.5985 -4.4625 1.5997
-0.4384 -4.4830 1.5997
-0.2776 -4.4977 1.5997
-0.1163 -4.5066 1.5997
0.0453 -4.5096 1.5997
0.2069 -4.5068 1.5997
0.3684 -4.4982 1.5997
0.5295 -4.4837 1.5997
0.6900 -4.4634 1.5997
0.8497 -4.4373 1.5997
1.0085 -4.4055 1.5997
1.1660 -4.3679 1.5997
1.3221 -4.3246 1.5997
1.4766 -4.2757 1.5997
1.6292 -4.2212 1.5997
1.7798 -4.1612 1.5997
1.9282 -4.0957 1.5997
2.0741 -4.0249 1.5997
2.2173 -3.9489 1.5997
2.3578 -3.8677 1.5997
2.4953 -3.7814 1.5997
2.6295 -3.6902 1.5997
2.7603 -3.5942 1.5997
2.8876 -3.4935 1.5997
3.0112 -3.3882 1.5997
3.1309 -3.2785 1.5997
3.3340 -3.2498 1.6428
3.4484 -3.1285 1.6428
3.5584 -3.0031 1.6428
3.6637 -2.8738 1.6428
3.3384 -2.4307 1.4569
3.4233 -2.3096 1.4569
3.5083 -2.1884 1.4589
1.0047 -0.5778 0.4089
1.0083 -0.5327 0.4024
1.0410 -0.5032 0.4080
3.8539 -1.6954 1.4859
3.9429 -1.5685 1.4978
4.0333 -1.4395 1.5118
4.1256 -1.3079 1.5280
4.2200 -1.1732 1.5467
4.3168 -1.0351 1.5678
4.4164 -0.8931 1.5917
4.4670 -0.7379 1.5997
4.4895 -0.5773 1.5997
4.5062 -0.4160 1.5997
4.5171 -0.2543 1.5997
4.5220 -0.0923 1.5997
4.5211 0.0697 1.5997
4.5144 0.2315 1.5997
4.5018 0.3930 1.5997
4.4833 0.5538 1.5997
4.4591 0.7138 1.5997
4.4291 0.8728 1.5997
4.3934 1.0305 1.5997
4.3052 1.1741 1.5825
4.2587 1.3271 1.5825
4.2068 1.4782 1.5825
4.1494 1.6274 1.5825
4.0867 1.7743 1.5825
4.0625 1.9396 1.5997
3.9886 2.0831 1.5997
3.9097 2.2237 1.5997
