ply
format ascii 1.0
element vertex 2077
property float32 x
property float32 y
property float32 z
end_header
6.9493 1.6569 -1.2126
7.0050 1.9383 -1.2318
6.6353 2.0950 -1.1774
6.4829 2.3057 -1.1623
6.2723 2.4878 -1.1378
6.1280 2.6888 -1.1262
5.9365 2.8629 -1.1068
5.8706 3.0954 -1.1121
5.7806 3.3181 -1.1143
5.9518 3.7063 -1.1694
5.9874 4.0334 -1.2010
7.5729 5.5063 -1.5535
7.1803 5.6252 -1.5093
7.0498 5.9428 -1.5213
6.8251 6.1853 -1.5153
6.6089 6.4356 -1.5129
6.4714 6.7702 -1.5312
6.6968 7.5286 -1.6421
8.6300 10.4320 -2.1991
8.8398 11.5010 -2.3482
9.0554 12.6985 -2.5160
8.7289 13.2180 -2.5462
8.2961 13.5980 -2.5512
8.0556 14.3347 -2.6239
17.8432 34.5970 -6.1884
16.3171 34.6287 -6.0624
15.8647 37.0547 -6.3588
-13.7592 25.8100 -4.1731
-14.6954 25.3413 -4.1648
-15.8503 25.2120 -4.2194
-18.0990 26.6279 -4.5465
-18.0599 24.6297 -4.2988
-18.8780 23.9054 -4.2739
-20.2785 23.8738 -4.3817
-21.8633 23.9505 -4.5230
-22.3443 22.7869 -4.4387
-31.3260 29.7432 -5.9918
-33.8756 29.9379 -6.2548
-32.0228 26.3250 -5.7215
-31.4322 24.0111 -5.4467
-31.3646 22.2321 -5.2825
-31.7217 20.8245 -5.2035
-34.8788 21.1548 -5.5834
-27.9208 15.5992 -4.3700
-28.0471 14.3808 -4.2999
-28.8648 13.5212 -4.3423
-30.9582 13.1755 -4.5777
-33.2867 12.7831 -4.8461
-40.1690 -5.3826 -5.5186
-35.9910 -6.1379 -4.9783
-32.8825 -6.8240 -4.5861
-31.6031 -7.7449 -4.4509
-16.3177 -4.6224 -2.3241
-26.9807 -8.6948 -3.8922
-25.0587 -9.0752 -3.6671
-23.7530 -9.5750 -3.5318
-23.5573 -10.4888 -3.5647
-23.5163 -11.4937 -3.6274
-22.4229 -11.9696 -3.5318
-21.1778 -12.2963 -3.4122
-19.9285 -12.5434 -3.2905
-18.7703 -12.7725 -3.1822
-17.6908 -12.9860 -3.0855
-16.9546 -13.4033 -3.0485
-17.1349 -14.5700 -3.1830
-17.3977 -15.8986 -3.3467
-17.5256 -17.2041 -3.4996
-16.5074 -17.4055 -3.4306
-15.5340 -17.5981 -3.3693
-14.7140 -17.9212 -3.3408
-14.8333 -19.4438 -3.5369
-17.7439 -25.0687 -4.4590
-16.5797 -25.2950 -4.4083
-16.4998 -27.2502 -4.6617
-0.2278 -29.2038 -4.5463
0.7145 -25.5072 -3.9883
0.2125 -3.3258 -0.5230
1.7994 -18.0025 -2.8503
2.0533 -15.0682 -2.4052
2.4827 -14.3554 -2.3130
2.9471 -14.0280 -2.2844
3.4449 -13.9025 -2.2911
3.7013 -12.9338 -2.1598
4.0842 -12.5528 -2.1269
4.2884 -11.7340 -2.0199
4.4238 -10.8787 -1.9053
3.5656 -7.9401 -1.4169
3.7237 -7.5555 -1.3756
3.7852 -7.0327 -1.3085
3.9816 -6.8015 -1.2952
4.2294 -6.6647 -1.3010
4.4899 -6.5443 -1.3119
4.7537 -6.4223 -1.3245
5.0109 -6.2854 -1.3360
5.4056 -6.3029 -1.3836
6.8511 0.8699 -1.0170
6.8430 1.1195 -1.0198
6.8953 1.3837 -1.0329
6.9491 1.6558 -1.0476
7.0047 1.9370 -1.0640
6.6371 2.0943 -1.0170
6.4838 2.3047 -1.0036
6.2694 2.4851 -0.9815
6.1290 2.6876 -0.9718
5.9369 2.8614 -0.9547
5.8711 3.0938 -0.9590
5.7805 3.3162 -0.9604
5.9514 3.7039 -1.0074
5.9896 4.0326 -1.0347
6.2694 4.5559 -1.1072
7.1825 5.6235 -1.2991
7.0516 5.9408 -1.3088
6.8270 6.1832 -1.3030
6.6098 6.4324 -1.3002
6.4712 6.7656 -1.3150
6.7002 7.5274 -1.4102
8.6419 10.4391 -1.8891
8.8928 11.5617 -2.0253
8.7289 12.2314 -2.0781
8.7561 13.2488 -2.1872
8.3232 13.6312 -2.1904
8.0221 14.2625 -2.2347
7.6633 14.8450 -2.2715
16.3330 34.6283 -5.1827
16.2694 37.9595 -5.5653
16.3909 42.3716 -6.0943
15.6627 45.2396 -6.3923
2.6127 8.5215 -1.1846
5.4689 45.9231 -6.0007
-19.6892 40.3768 -5.4033
-14.7999 27.7835 -3.7703
-15.3141 26.4271 -3.6429
-16.1091 25.6409 -3.5969
-20.4355 30.0845 -4.3029
-21.9884 30.0051 -4.3842
-18.9980 24.0709 -3.6005
-20.1880 23.7798 -3.6494
-22.2726 24.4112 -3.8526
-22.3853 22.8397 -3.7160
-33.8962 29.9691 -5.2245
-31.7458 26.1081 -4.7325
-31.1327 23.7918 -4.4991
-31.2808 22.1811 -4.3918
-31.6382 20.7773 -4.3245
-28.7685 17.4549 -3.8360
-28.9800 16.1963 -3.7768
-29.4607 15.1103 -3.7596
-29.3753 13.7645 -3.6774
-31.3527 13.3471 -3.8569
-33.3918 12.8268 -4.0435
-37.5726 12.9129 -4.4860
-47.0539 14.3141 -5.5483
-48.7236 -4.7704 -5.5386
-40.3450 -5.4108 -4.6119
-36.2316 -6.1835 -4.1710
-32.8709 -6.8263 -3.8167
-31.6041 -7.7502 -3.7068
-16.3136 -4.6241 -1.9358
-26.9046 -8.6755 -3.2348
-24.9875 -9.0548 -3.0489
-23.7789 -9.5909 -2.9493
-23.9314 -10.6615 -3.0221
-23.8888 -11.6824 -3.0767
-22.5234 -12.0301 -2.9637
-21.1688 -12.2981 -2.8509
-19.9198 -12.5451 -2.7507
-17.5760 -11.9668 -2.4935
-17.2709 -12.6853 -2.5222
-16.9511 -13.4085 -2.5536
-17.1370 -14.5806 -2.6690
-17.4001 -15.9107 -2.8081
-17.5164 -17.2059 -2.9364
-16.4983 -17.4073 -2.8805
-15.5251 -17.5998 -2.8309
-14.7146 -17.9344 -2.8107
-14.8371 -19.4628 -2.9785
-17.7328 -25.0719 -3.7546
-16.5689 -25.2984 -3.7145
-16.5065 -27.2838 -3.9352
-1.5870 -36.7115 -4.8525
-0.2169 -29.2972 -3.8874
0.7244 -25.5026 -3.4011
0.2137 -3.3235 -0.4460
1.7981 -17.9200 -2.4231
2.0960 -15.3372 -2.0922
2.5017 -14.4329 -1.9886
2.9652 -14.0882 -1.9631
3.4662 -13.9663 -1.9706
3.9175 -13.6703 -1.9557
4.0975 -12.5784 -1.8269
4.2979 -11.7471 -1.7344
4.4948 -11.0422 -1.6597
3.5658 -7.9335 -1.2155
3.7441 -7.5905 -1.1873
3.7888 -7.0340 -1.1248
3.9832 -6.7994 -1.1134
4.2315 -6.6637 -1.1192
4.4920 -6.5433 -1.1290
4.7558 -6.4214 -1.1403
5.0137 -6.2855 -1.1509
5.4090 -6.3035 -1.1925
6.8510 0.8691 -0.8585
6.8429 1.1187 -0.8607
6.8951 1.3827 -0.8716
6.9489 1.6547 -0.8837
7.0045 1.9357 -0.8973
6.6390 2.0936 -0.8577
6.4848 2.3037 -0.8459
6.2665 2.4825 -0.8265
6.1300 2.6866 -0.8185
5.9373 2.8600 -0.8036
5.8715 3.0923 -0.8068
5.7805 3.3143 -0.8076
5.9509 3.7015 -0.8466
5.9918 4.0318 -0.8694
6.2706 4.5541 -0.9296
7.1846 5.6219 -1.0902
7.0535 5.9388 -1.0977
6.8002 6.1552 -1.0875
6.6107 6.4292 -1.0888
6.4710 6.7610 -1.1002
6.7036 7.5262 -1.1796
8.6428 10.4330 -1.5785
8.9892 11.6786 -1.7091
9.1582 12.8234 -1.8187
8.7860 13.2837 -1.8291
8.3331 13.6362 -1.8262
8.0678 14.3315 -1.8698
7.7308 14.9619 -1.9047
16.3489 34.6280 -4.3080
16.8135 39.1877 -4.7715
16.7829 43.3354 -5.1716
15.9288 45.9504 -5.3822
2.6161 8.5209 -0.9809
-19.6078 40.2433 -4.3646
-15.3571 28.8517 -3.1699
-15.2375 26.3138 -2.9339
-16.3544 26.0488 -2.9528
-20.4957 30.1920 -3.4862
-20.1711 27.5416 -3.2459
-19.5052 24.7273 -2.9807
-20.0986 23.6871 -2.9270
-23.7328 26.0247 -3.3043
-31.8136 32.4750 -4.2474
-31.3252 29.7697 -4.0215
-30.1141 26.6368 -3.7272
-31.7842 26.1506 -3.8021
-32.9883 25.2199 -3.8228
-31.1979 22.1308 -3.5101
-31.5556 20.7306 -3.4544
-30.0723 18.2523 -3.2096
-30.1036 16.8298 -3.1387
-29.8562 15.3180 -3.0467
-37.6881 17.6649 -3.7711
-34.4121 14.6536 -3.3824
-35.2785 13.5550 -3.4122
-46.9125 16.1266 -4.4725
-48.7077 -4.7735 -4.4233
-40.3316 -5.4134 -3.6844
-36.1595 -6.1757 -3.3281
-32.8594 -6.8285 -3.0517
-31.6052 -7.7554 -2.9665
-16.3086 -4.6255 -1.5494
-26.8946 -8.6775 -2.5906
-24.9780 -9.0566 -2.4432
-23.7760 -9.5953 -2.3656
-23.1715 -10.3288 -2.3489
-20.5837 -10.0718 -2.1297
-17.5588 -9.3838 -1.8575
-16.6756 -9.6932 -1.8069
-16.8637 -10.6265 -1.8752
-17.2784 -11.7710 -1.9756
-17.4649 -12.8352 -2.0575
-16.9477 -13.4137 -2.0614
-17.1391 -14.5912 -2.1573
-17.3660 -15.8893 -2.2672
-17.5072 -17.2078 -2.3765
-16.4893 -17.4091 -2.3336
-15.5163 -17.6016 -2.2957
-14.7152 -17.9475 -2.2830
-14.8408 -19.4817 -2.4224
-17.6418 -24.9619 -3.0404
-16.4854 -25.1907 -3.0115
-16.3313 -27.0166 -3.1760
-1.5799 -36.8843 -4.0318
-0.1879 -26.7920 -2.9427
0.7342 -25.4981 -2.8176
0.2148 -3.3211 -0.3697
1.8128 -17.9970 -2.0202
2.0770 -15.1555 -1.7177
2.5063 -14.4271 -1.6531
2.9887 -14.1737 -1.6439
3.4717 -13.9665 -1.6417
3.9196 -13.6593 -1.6292
4.1575 -12.7473 -1.5449
4.2995 -11.7388 -1.4474
4.5058 -11.0585 -1.3890
3.5661 -7.9270 -1.0158
3.7450 -7.5860 -0.9931
3.7924 -7.0353 -0.9423
3.9848 -6.7974 -0.9329
4.2337 -6.6627 -0.9384
4.4942 -6.5423 -0.9473
4.7578 -6.4204 -0.9573
5.0166 -6.2856 -0.9670
5.4124 -6.3042 -1.0026
6.8508 0.8683 -0.7010
6.8427 1.1178 -0.7026
6.8949 1.3817 -0.7111
6.9487 1.6535 -0.7208
7.0042 1.9344 -0.7315
6.6408 2.0930 -0.6991
6.4857 2.3027 -0.6890
6.2665 2.4811 -0.6727
6.1311 2.6855 -0.6659
5.9377 2.8586 -0.6534
5.8720 3.0908 -0.6555
5.7804 3.3123 -0.6556
5.9504 3.6991 -0.6868
5.9941 4.0310 -0.7050
6.2718 4.5523 -0.7531
7.1867 5.6202 -0.8824
7.0553 5.9368 -0.8876
6.8309 6.1791 -0.8823
6.6116 6.4261 -0.8786
6.4708 6.7565 -0.8868
6.7069 7.5249 -0.9503
8.6402 10.4227 -1.2691
8.9993 11.6834 -1.3745
9.1556 12.8102 -1.4588
8.8007 13.2955 -1.4683
8.4269 13.7785 -1.4781
8.0702 14.3233 -1.4950
17.8920 34.5960 -3.5189
16.3648 34.6277 -3.4375
16.6379 38.7375 -3.7585
16.7818 43.2831 -4.1104
16.1720 46.5935 -4.3367
2.6195 8.5202 -0.7783
-19.5273 40.1112 -3.3375
-15.5235 29.1867 -2.4563
-17.0041 29.3855 -2.5058
-17.6730 28.1676 -2.4382
-21.9315 32.3272 -2.8461
-20.8450 28.4784 -2.5553
-22.3007 28.2870 -2.5923
-23.0554 27.1861 -2.5504
-31.4124 34.4632 -3.3175
-33.0935 33.7975 -3.3469
-30.2915 28.8004 -2.9421
-30.5853 27.0654 -2.8604
-32.4457 26.7059 -2.9293
-36.4288 27.8613 -3.1825
-29.5286 17.9285 -2.3689
-31.5791 17.6605 -2.4728
-31.0689 15.9452 -2.3792
-37.3999 17.5350 -2.8064
-34.4867 14.6895 -2.5404
-45.2940 17.4077 -3.2814
-46.5498 16.0057 -3.3226
-48.6919 -4.7766 -3.3131
-40.1286 -5.3906 -2.7484
-36.1472 -6.1782 -2.4959
-31.3182 -6.5127 -2.1837
-31.6062 -7.7607 -2.2291
-16.3059 -4.6276 -1.1651
-26.8847 -8.6795 -1.9494
-23.1685 -8.4054 -1.7077
-21.7939 -8.8004 -1.6357
-20.3651 -9.0831 -1.5591
-19.0741 -9.3384 -1.4922
-17.8989 -9.5709 -1.4335
-16.8664 -9.8097 -1.3855
-17.0802 -10.7691 -1.4418
-17.2800 -11.7788 -1.5019
-17.4666 -12.8440 -1.5664
-16.9442 -13.4189 -1.5713
-17.1411 -14.6017 -1.6474
-17.4048 -15.9346 -1.7376
-17.4980 -17.2096 -1.8193
-16.4803 -17.4109 -1.7892
-15.5075 -17.6034 -1.7630
-14.7159 -17.9607 -1.7573
-14.8446 -19.5005 -1.8680
-17.6303 -24.9642 -2.3464
-16.4740 -25.1929 -2.3279
-16.3378 -27.0496 -2.4619
-3.7518 -47.8735 -4.1227
-1.5661 -36.9004 -3.1939
-0.1745 -26.3494 -2.2950
0.7384 -25.3029 -2.2204
0.2159 -3.3188 -0.2938
1.8196 -17.9945 -1.6086
2.1319 -15.5122 -1.4021
2.5109 -14.4213 -1.3195
2.9937 -14.1713 -1.3142
3.4771 -13.9668 -1.3143
3.9218 -13.6483 -1.3049
4.1594 -12.7378 -1.2389
4.3011 -11.7307 -1.1621
4.4977 -11.0277 -1.1142
3.5663 -7.9205 -0.8173
3.7458 -7.5816 -0.8001
3.7960 -7.0367 -0.7605
3.9864 -6.7953 -0.7533
4.2152 -6.6293 -0.7549
4.4963 -6.5413 -0.7665
4.7599 -6.4195 -0.7753
5.0195 -6.2857 -0.7839
5.4159 -6.3049 -0.8135
6.8507 0.8676 -0.5442
6.8425 1.1169 -0.5451
6.2927 1.2601 -0.5033
6.9485 1.6524 -0.5586
7.0040 1.9332 -0.5665
6.6427 2.0923 -0.5412
6.4867 2.3016 -0.5329
6.2675 2.4801 -0.5198
6.1321 2.6844 -0.5141
5.9381 2.8572 -0.5038
5.8724 3.0893 -0.5049
5.7803 3.3104 -0.5044
5.9499 3.6967 -0.5276
5.9963 4.0301 -0.5412
6.2730 4.5505 -0.5772
7.1888 5.6186 -0.6755
7.0572 5.9348 -0.6785
6.8328 6.1771 -0.6734
6.6125 6.4229 -0.6694
6.4707 6.7520 -0.6744
6.7052 7.5181 -0.7213
8.6376 10.4124 -0.9615
8.9848 11.6562 -1.0380
9.1530 12.7971 -1.1011
8.8061 13.2935 -1.1070
8.4310 13.7740 -1.1119
8.0725 14.3151 -1.1221
17.9081 34.5957 -2.6369
16.3806 34.6274 -2.5702
16.7321 38.9161 -2.8168
16.7808 43.2312 -3.0556
16.1197 46.3851 -3.2056
2.6230 8.5195 -0.5764
-22.5611 42.4509 -2.4851
-17.0139 29.4232 -1.7402
-23.4018 37.3233 -2.2343
-20.1973 27.6097 -1.7036
-22.4854 28.5372 -1.7935
-6.5482 7.7255 -0.4957
-30.7827 29.2807 -2.0303
-32.2977 28.5930 -2.0464
-36.6642 28.0523 -2.1604
-33.9680 17.4384 -1.7387
-45.1655 17.3628 -2.1790
-48.6762 -4.7797 -2.2071
-40.1153 -5.3933 -1.8330
-31.1766 -5.3325 -1.4382
-30.1605 -6.2762 -1.4070
-31.6072 -7.7659 -1.4938
-16.3036 -4.6298 -0.7820
-26.9422 -8.7032 -1.3140
-25.0219 -9.0831 -1.2430
-23.7702 -9.6039 -1.2049
-23.9354 -10.6815 -1.2404
-23.5421 -11.5324 -1.2496
-22.4957 -12.0356 -1.2253
-16.8677 -9.8159 -0.9447
-19.8940 -12.5502 -1.1480
-18.6974 -12.7523 -1.1139
-17.4683 -12.8527 -1.0767
-16.9407 -13.4240 -1.0827
-17.1432 -14.6123 -1.1388
-17.4071 -15.9465 -1.2047
-17.4889 -17.2114 -1.2642
-16.5730 -17.5201 -1.2546
-15.5922 -17.7113 -1.2398
-14.8569 -18.1453 -1.2445
-10.8302 -14.2372 -0.9590
-17.6188 -24.9665 -1.6549
-16.4625 -25.1949 -1.6469
-16.3444 -27.0825 -1.7489
-3.7456 -48.0367 -3.0456
-1.5429 -36.6910 -2.3441
-0.1661 -26.6514 -1.7177
0.7528 -25.4572 -1.6571
0.2171 -3.3164 -0.2183
1.8257 -17.9867 -1.1984
2.1379 -15.5124 -1.0474
2.5154 -14.4155 -0.9875
2.9986 -14.1689 -0.9859
3.4826 -13.9670 -0.9882
3.9240 -13.6374 -0.9824
4.1613 -12.7284 -0.9346
4.3028 -11.7225 -0.8784
4.4991 -11.0206 -0.8438
3.5666 -7.9141 -0.6199
3.7467 -7.5772 -0.6081
3.7980 -7.0350 -0.5792
3.9880 -6.7933 -0.5746
4.2380 -6.6607 -0.5796
4.4984 -6.5403 -0.5865
4.7620 -6.4185 -0.5941
5.0223 -6.2858 -0.6016
5.4193 -6.3056 -0.6251
6.8505 0.8668 -0.3880
6.8424 1.1161 -0.3883
5.9661 1.1939 -0.3395
5.9483 1.4137 -0.3398
7.0037 1.9319 -0.4021
6.6445 2.0916 -0.3837
6.3327 2.2457 -0.3682
6.1380 2.4275 -0.3597
6.0044 2.6270 -0.3551
5.9385 2.8557 -0.3548
5.8728 3.0878 -0.3549
5.7802 3.3085 -0.3537
5.7912 3.5961 -0.3593
5.8815 3.9507 -0.3706
6.2742 4.5488 -0.4020
7.1909 5.6169 -0.4693
7.0590 5.9328 -0.4700
6.8347 6.1750 -0.4652
6.6134 6.4198 -0.4610
6.4705 6.7475 -0.4629
6.7136 7.5225 -0.4940
8.6400 10.4082 -0.6557
8.9826 11.6452 -0.7050
9.1504 12.7841 -0.7450
8.8116 13.2915 -0.7468
8.4141 13.7352 -0.7451
8.0748 14.3070 -0.7505
17.9242 34.5953 -1.7572
16.3963 34.6270 -1.7052
16.6882 38.7736 -1.8535
16.7797 43.1796 -2.0061
16.1919 46.5350 -2.1037
2.6273 8.5221 -0.3753
-19.0859 39.2689 -1.2943
-20.3249 38.2722 -1.2627
-11.5876 15.8495 -0.5350
-11.8699 15.0729 -0.5144
-6.5441 7.7247 -0.2672
-12.7388 11.2825 -0.4236
-13.0213 10.7266 -0.4143
-13.6850 10.4747 -0.4179
-10.2095 7.2504 -0.3000
-33.9758 17.4479 -0.8781
-49.7375 -3.0977 -1.1182
-45.2630 -4.4489 -1.0269
-40.1409 -5.4011 -0.9210
-31.1660 -5.3346 -0.7248
-29.0966 -6.0589 -0.6873
-29.3242 -7.2096 -0.7051
-15.7214 -4.4672 -0.3856
-26.9329 -8.7054 -0.6753
-25.0130 -9.0851 -0.6425
-23.7673 -9.6083 -0.6268
-23.9367 -10.6881 -0.6494
-23.5328 -11.5343 -0.6582
-22.4865 -12.0374 -0.6498
-16.8689 -9.8222 -0.5047
-19.8854 -12.5519 -0.6173
-18.7996 -12.8293 -0.6069
-17.4701 -12.8613 -0.5878
-16.9373 -13.4292 -0.5953
-17.1453 -14.6228 -0.6310
-17.4095 -15.9584 -0.6725
-17.4798 -17.2132 -0.7106
-16.5639 -17.5218 -0.7105
-15.5832 -17.7127 -0.7073
-14.8572 -18.1581 -0.7158
-10.8330 -14.2510 -0.5558
-17.6859 -25.0802 -0.9697
-16.5223 -25.3061 -0.9719
-16.5329 -27.4172 -1.0478
-1.4048 -12.3552 -0.4975
-3.7184 -47.9293 -1.9533
-1.5372 -36.8986 -1.5234
-0.1566 -26.7914 -1.1218
0.7625 -25.4525 -1.0818
0.2182 -3.3141 -0.1431
1.8318 -17.9789 -0.7897
2.1439 -15.5127 -0.6937
2.5200 -14.4098 -0.6567
3.0036 -14.1665 -0.6586
3.4880 -13.9672 -0.6631
3.9261 -13.6266 -0.6613
4.1694 -12.7380 -0.6325
4.3044 -11.7144 -0.5959
4.5005 -11.0134 -0.5745
3.5668 -7.9076 -0.4235
3.7476 -7.5728 -0.4169
3.7996 -7.0328 -0.3984
3.9896 -6.7912 -0.3964
4.2402 -6.6597 -0.4011
4.5005 -6.5394 -0.4070
4.7640 -6.4176 -0.4134
5.0252 -6.2859 -0.4197
5.4227 -6.3062 -0.4372
6.8504 0.8661 -0.2321
6.6940 1.0910 -0.2268
5.9679 1.1935 -0.2023
5.9479 1.4127 -0.2019
6.8674 1.8931 -0.2335
6.5069 2.0471 -0.2218
6.3339 2.2448 -0.2166
6.1387 2.4264 -0.2108
6.0051 2.6258 -0.2072
5.9389 2.8543 -0.2061
5.8732 3.0863 -0.2052
5.7802 3.3066 -0.2034
5.7911 3.5940 -0.2055
5.8804 3.9477 -0.2107
6.0913 4.4136 -0.2205
7.1537 5.5846 -0.2621
6.8929 5.7897 -0.2558
6.6947 6.0449 -0.2521
6.5326 6.3374 -0.2499
6.4297 6.7007 -0.2504
6.4397 7.2109 -0.2557
7.6255 9.1799 -0.3094
8.1946 10.6161 -0.3405
7.7565 10.8287 -0.3309
8.2080 12.3714 -0.3605
8.3473 13.6151 -0.3787
8.0771 14.2989 -0.3800
17.9402 34.5950 -0.8790
16.4120 34.6267 -0.8417
16.6874 38.7313 -0.9011
16.7786 43.1281 -0.9609
16.1395 46.3271 -0.9888
-3.7465 39.6428 -0.5081
-7.3881 36.1521 -0.4051
-9.2275 28.9115 -0.2811
-14.0007 31.6655 -0.2644
-15.0418 30.9736 -0.2451
-20.7777 39.1546 -0.2931
-20.1387 27.5619 -0.1612
-12.4272 15.7893 -0.0861
-6.5364 7.7196 -0.0391
-9.6059 9.8242 -0.0423
-33.9982 30.1245 -0.1075
-10.0426 7.6898 -0.0218
-10.2075 7.2518 -0.0179
-12.5993 7.6576 -0.0134
-14.4637 8.0967 -0.0112
-16.4341 8.4422 -0.0086
-22.4385 9.5655 -0.0026
-28.1917 10.8432 0.0012
-36.0387 12.4003 0.0063
-44.1996 10.0709 0.0185
-49.7124 -3.1002 0.0042
-38.9492 -3.8321 -0.0021
-40.1365 -5.4049 -0.0087
-31.1557 -5.3368 -0.0126
-32.8138 -6.8376 -0.0201
-31.6093 -7.7763 -0.0269
-16.2991 -4.6342 -0.0181
-26.9235 -8.7075 -0.0378
-25.0041 -9.0872 -0.0431
-23.7644 -9.6126 -0.0493
-23.9380 -10.6947 -0.0590
-23.5263 -11.5375 -0.0679
-22.4773 -12.0392 -0.0753
-16.8701 -9.8284 -0.0650
-19.8769 -12.5536 -0.0876
-18.7913 -12.8309 -0.0942
-17.4718 -12.8700 -0.0992
-16.9339 -13.4343 -0.1084
-17.1474 -14.6333 -0.1234
-17.4118 -15.9702 -0.1406
-17.3433 -17.0894 -0.1568
-16.3511 -17.3077 -0.1653
-15.4015 -17.5178 -0.1739
-14.6176 -17.8775 -0.1843
-14.6503 -19.2864 -0.2064
-17.6747 -25.0829 -0.2783
-16.5113 -25.3089 -0.2910
-16.5394 -27.4505 -0.3268
-11.8634 -25.5358 -0.3366
-10.8498 -25.7249 -0.3504
-9.8519 -25.9110 -0.3647
-1.4000 -12.3562 -0.2173
-0.9605 -12.4431 -0.2258
-1.5225 -36.8918 -0.6910
-0.1462 -26.7918 -0.5179
0.7722 -25.4478 -0.5077
0.2193 -3.3118 -0.0682
1.8310 -17.9038 -0.3808
2.0896 -15.0781 -0.3312
2.5245 -14.4040 -0.3268
2.9800 -14.0302 -0.3290
3.2230 -12.8861 -0.3124
3.3154 -11.4914 -0.2881
3.6759 -11.2172 -0.2909
4.1619 -11.3146 -0.3038
3.9968 -9.7714 -0.2717
3.5224 -7.8023 -0.2249
3.6025 -7.2738 -0.2174
3.7808 -6.9927 -0.2169
3.9575 -6.7318 -0.2169
4.1463 -6.5081 -0.2180
4.3759 -6.3544 -0.2216
4.6469 -6.2562 -0.2273
4.9453 -6.1827 -0.2343
5.3328 -6.1985 -0.2454
6.8502 0.8653 -0.0765
6.6958 1.0905 -0.0740
5.9699 1.1930 -0.0652
5.8153 1.3803 -0.0627
7.0032 1.9294 -0.0744
6.6482 2.0903 -0.0696
6.4894 2.2986 -0.0668
6.2703 2.4769 -0.0634
6.1351 2.6811 -0.0608
5.9393 2.8529 -0.0576
5.8737 3.0848 -0.0557
5.7801 3.3047 -0.0534
5.9485 3.6896 -0.0534
6.0029 4.0277 -0.0522
6.2765 4.5453 -0.0526
7.1951 5.6136 -0.0579
7.0627 5.9289 -0.0543
6.8384 6.1709 -0.0499
6.6152 6.4135 -0.0455
6.4753 6.7440 -0.0415
6.7202 7.5200 -0.0396
7.6580 9.2127 -0.0407
8.2258 10.6491 -0.0385
7.8284 10.9210 -0.0311
7.3843 11.1214 -0.0235
8.4433 13.7607 -0.0193
8.0794 14.2908 -0.0101
17.9563 34.5947 -0.0013
16.6102 35.0110 0.0216
16.6865 38.6890 0.0486
16.7503 43.0068 0.0811
16.1494 46.2981 0.1159
-3.7102 39.4178 0.3863
-8.2892 40.6376 0.4786
-9.9532 41.2056 0.5138
-9.0755 28.4699 0.3961
-11.1136 30.9848 0.4545
-11.3923 28.5078 0.4405
-17.9622 40.6617 0.6615
-16.1248 33.2312 0.5689
-20.3033 38.2896 0.6895
-20.1145 27.5448 0.6071
-12.4272 15.7980 0.3665
-6.6388 7.8446 0.1917
-9.6172 9.8404 0.2675
-23.1179 22.0196 0.6324
-21.7136 19.2479 0.5849
-10.0840 8.3138 0.2677
-10.0421 7.6924 0.2631
-10.2055 7.2531 0.2641
-12.5967 7.6587 0.3187
-14.4632 8.0991 0.3621
-16.4336 8.4445 0.4075
-19.6049 9.2026 0.4818
-22.4250 9.5624 0.5465
-28.1912 10.8458 0.6815
-36.0382 12.4030 0.8647
-44.2001 10.0724 1.0396
-23.1065 3.5502 0.5373
-23.2397 2.7232 0.5377
-45.2583 -1.2024 1.0289
-49.6968 -3.1033 1.1258
-38.7243 -3.8136 0.8743
-34.4986 -4.6495 0.7766
-31.1410 -5.3382 0.6991
-31.3820 -6.5436 0.7028
-25.8002 -6.3512 0.5765
-16.2969 -4.6364 0.3635
-26.9141 -8.7096 0.5994
-24.9952 -9.0892 0.5559
-23.7616 -9.6169 0.5280
-23.9393 -10.7013 0.5316
-23.5230 -11.5424 0.5222
-22.4681 -12.0410 0.4988
-16.8714 -9.8346 0.3748
-19.8684 -12.5553 0.4417
-18.7831 -12.8326 0.4181
-17.4735 -12.8787 0.3897
-16.9304 -13.4395 0.3784
-17.1495 -14.6437 0.3844
-17.4142 -15.9821 0.3917
-17.4616 -17.2168 0.3943
-16.4447 -17.4179 0.3732
-15.4725 -17.6102 0.3531
-14.7182 -18.0129 0.3381
-14.8594 -19.5757 0.3440
-17.5843 -24.9730 0.4107
-16.4290 -25.2023 0.3877
-16.3639 -27.1814 0.3909
-11.8502 -25.5324 0.2974
-10.8369 -25.7215 0.2782
-9.8392 -25.9075 0.2595
-3.3399 -43.4895 0.1930
-1.3803 -33.7638 0.1286
-0.1359 -26.7922 0.0855
0.6907 -22.4760 0.0579
0.2204 -3.3095 0.0065
1.8374 -17.8995 0.0245
2.1558 -15.5131 0.0120
2.5290 -14.3983 0.0025
2.7657 -12.9978 -0.0055
3.2385 -12.9284 -0.0132
3.3650 -11.6480 -0.0190
3.6943 -11.2601 -0.0252
3.6054 -9.7915 -0.0279
4.0010 -9.7723 -0.0339
3.5673 -7.8948 -0.0324
3.7493 -7.5641 -0.0360
3.8030 -7.0285 -0.0381
3.9928 -6.7872 -0.0414
4.2444 -6.6577 -0.0452
4.5005 -6.5314 -0.0491
4.7681 -6.4156 -0.0531
5.0309 -6.2862 -0.0569
5.4295 -6.3076 -0.0623
6.8501 0.8646 0.0790
6.6976 1.0900 0.0788
5.9720 1.1926 0.0719
5.5145 1.3080 0.0682
5.3691 1.4783 0.0683
6.6500 2.0896 0.0874
6.4904 2.2976 0.0882
6.2712 2.4759 0.0884
6.1361 2.6801 0.0899
5.9397 2.8515 0.0907
5.8741 3.0833 0.0937
5.7800 3.3029 0.0965
5.9481 3.6872 0.1042
6.0051 4.0269 0.1107
6.2777 4.5435 0.1219
7.1972 5.6120 0.1476
6.9350 5.8182 0.1505
6.7341 6.0731 0.1551
6.6161 6.4104 0.1620
6.4793 6.7438 0.1691
6.5114 7.2815 0.1817
7.6625 9.2119 0.2291
7.1928 9.3052 0.2312
6.7967 9.4748 0.2356
7.1857 10.8139 0.2696
7.6844 12.5137 0.3132
8.0817 14.2827 0.3595
17.9723 34.5943 0.8766
16.6094 34.9756 0.8936
16.6856 38.6469 0.9966
16.7493 42.9557 1.1194
16.1592 46.2692 1.2197
7.4550 47.0732 1.3332
-3.2463 34.6306 1.1230
-5.2026 40.0244 1.3273
-6.7172 40.3263 1.3688
-7.6760 37.7022 1.3108
-8.8944 36.8808 1.3146
-11.5329 41.2789 1.5097
-9.1755 28.8185 1.0823
-12.0586 33.6560 1.2992
-11.4565 28.6967 1.1397
-13.7825 31.2279 1.2772
-17.4561 36.0043 1.5179
-20.7190 39.1033 1.7013
-18.3973 31.9058 1.4341
-19.3254 30.9034 1.4368
-22.0318 32.5761 1.5686
-11.5902 15.8809 0.7930
-11.8978 15.1333 0.7849
-6.6382 7.8481 0.4234
-22.6521 24.9140 1.4006
-9.6164 9.8443 0.5777
-19.5696 18.6483 1.1448
-13.4745 11.9495 0.7690
-10.0681 8.3041 0.5616
-10.0416 7.6951 0.5483
-10.2035 7.2544 0.5463
-29.3754 19.3399 1.5442
-12.5942 7.6598 0.6510
-14.4627 8.1015 0.7359
-16.4332 8.4469 0.8241
-19.0334 8.9369 0.9419
-22.4110 9.5590 1.0955
-27.4093 10.5477 1.3248
-33.8240 11.6437 1.6182
-34.1409 10.4011 1.6182
-34.4295 9.1554 1.6182
-34.6898 7.9063 1.6182
-25.5934 4.8762 1.1859
-22.0078 3.3814 1.0138
-22.1688 2.5975 1.0162
-37.7098 3.0544 1.7213
-37.8379 1.7040 1.7213
-37.9365 0.3485 1.7213
-35.7253 -0.9515 1.6180
-35.7615 -2.2360 1.6180
-35.7692 -3.5260 1.6180
-34.4871 -4.6518 1.5609
-31.0709 -5.3300 1.4083
-30.4564 -6.3549 1.3835
-25.6250 -6.3121 1.1676
-16.2946 -4.6385 0.7454
-26.9048 -8.7117 1.2367
-24.9863 -9.0912 1.1552
-23.7587 -9.6212 1.1058
-23.9406 -10.7079 1.1229
-23.5197 -11.5473 1.1128
-22.4589 -12.0429 1.0732
-16.8726 -9.8409 0.8151
-19.8598 -12.5570 0.9712
-18.7748 -12.8342 0.9306
-17.4752 -12.8874 0.8792
-16.9270 -13.4446 0.8656
-17.1515 -14.6543 0.8930
-17.4166 -15.9940 0.9247
-17.4526 -17.2186 0.9468
-16.4358 -17.4197 0.9128
-15.4638 -17.6120 0.8812
-14.7189 -18.0261 0.8627
-14.8630 -19.5943 0.8984
-17.5719 -24.9741 1.0987
-16.4170 -25.2034 1.0654
-16.3702 -27.2140 1.1068
-9.6827 -17.4843 0.6850
-8.9542 -17.6294 0.6661
-8.2402 -17.7717 0.6483
-8.8588 -21.0488 0.7421
-9.8266 -25.9041 0.8835
-2.5617 -33.5283 0.9061
-1.3067 -32.2711 0.8504
-0.1127 -24.0599 0.6186
0.6470 -20.7940 0.5222
0.2215 -3.3072 0.0812
1.8501 -17.9557 0.4311
2.1062 -15.1144 0.3553
2.5335 -14.3926 0.3316
2.7346 -12.8283 0.2899
2.8259 -11.2641 0.2500
3.2306 -11.1678 0.2436
3.1835 -9.6916 0.2081
3.5710 -9.6877 0.2049
4.0052 -9.7732 0.2039
3.5675 -7.8885 0.1626
3.6445 -7.3467 0.1498
3.8047 -7.0264 0.1419
3.9944 -6.7852 0.1360
4.2466 -6.6567 0.1326
4.4956 -6.5203 0.1293
4.7702 -6.4147 0.1270
5.0337 -6.2863 0.1244
5.4329 -6.3083 0.1252
6.8499 0.8638 0.2345
6.6994 1.0895 0.2318
6.0736 1.2121 0.2127
5.4582 1.2938 0.1939
5.4091 1.4884 0.1953
6.6518 2.0889 0.2445
6.3373 2.2421 0.2376
6.1409 2.4231 0.2353
6.0074 2.6224 0.2358
5.9401 2.8501 0.2392
5.8745 3.0818 0.2432
5.7800 3.3010 0.2465
5.7909 3.5878 0.2550
5.9503 3.9879 0.2710
7.5991 5.4967 0.3589
7.2413 5.6431 0.3554
6.9777 5.8505 0.3566
6.7745 6.1058 0.3615
6.6169 6.4073 0.3696
6.5238 6.7857 0.3824
6.4726 7.2334 0.3993
7.6669 9.2109 0.4993
7.1972 9.3043 0.4964
6.7195 9.3603 0.4925
7.2137 10.8478 0.5641
6.9158 11.2531 0.5795
7.1265 12.5838 0.6428
12.2316 23.5229 1.1939
15.3032 32.1938 1.6263
13.9587 32.2971 1.6263
12.6294 32.3531 1.6263
11.3166 32.3632 1.6263
9.9722 32.1687 1.6182
8.6096 31.7477 1.6008
7.4545 31.9770 1.6182
6.6238 33.8493 1.7213
5.3419 33.6451 1.7213
1.8966 15.5111 0.7993
0.9171 10.6532 0.5536
0.3236 6.4555 0.3386
0.0873 6.1046 0.3236
-0.1305 6.0692 0.3255
-0.3457 6.0277 0.3275
-0.5583 5.9802 0.3294
-0.7681 5.9270 0.3314
-0.9752 5.8680 0.3334
-1.1793 5.8034 0.3354
-6.8486 28.4433 1.6739
-7.7357 27.7259 1.6635
-8.5550 26.9022 1.6473
-9.4686 26.4559 1.6553
-10.2290 25.6471 1.6416
-10.9316 24.7905 1.6253
-11.0692 22.8498 1.5363
-11.6703 22.0424 1.5219
-12.3701 21.4683 1.5241
-13.1684 21.0716 1.5405
-11.1583 16.5089 1.2447
-14.5596 19.9613 1.5545
-12.0203 15.2977 1.2326
-6.6377 7.8516 0.6557
-15.5159 17.0737 1.4806
-9.6157 9.8482 0.8887
-12.8303 12.2318 1.1511
-18.8328 16.7085 1.6436
-10.0678 8.3073 0.8565
-10.0411 7.6977 0.8342
-10.2015 7.2557 0.8290
-19.2621 12.6862 1.5337
-12.5670 7.6459 0.9819
-14.1389 7.9227 1.0856
-16.2022 8.3308 1.2242
-18.8541 8.8553 1.4037
-22.0297 9.3990 1.6180
-22.3035 8.5850 1.6180
-22.5547 7.7661 1.6180
-22.7835 6.9425 1.6180
-22.9899 6.1145 1.6180
-24.6527 5.6195 1.7213
-22.9386 4.3708 1.5905
-22.0121 3.3821 1.5172
-23.1350 2.7104 1.5867
-25.1967 2.0402 1.7213
-25.2729 1.1372 1.7213
-25.3251 0.2313 1.7213
-25.3531 -0.6770 1.7213
-25.3567 -1.5875 1.7213
-24.3313 -2.4008 1.6530
-23.7757 -3.2096 1.6182
-23.7094 -4.0702 1.6181
-23.6198 -4.9317 1.6181
-23.5065 -5.7940 1.6180
-16.2094 -4.6171 1.1223
-21.7527 -7.0477 1.5165
-23.6398 -8.6063 1.6613
-22.5370 -9.1316 1.5983
-22.0121 -9.8509 1.5772
-12.8711 -6.3228 0.9330
-20.5376 -11.0188 1.5078
-16.8738 -9.8471 1.2565
-18.7616 -11.8693 1.4190
-17.8072 -12.1798 1.3700
-17.0660 -12.5929 1.3377
-16.9244 -13.4505 1.3538
-11.5391 -9.8649 0.9437
-17.4189 -16.0059 1.4592
-11.1209 -10.9787 0.9563
-16.4269 -17.4215 1.4532
-15.4551 -17.6137 1.4100
-14.7199 -18.0396 1.3886
-14.8665 -19.6129 1.4545
-15.8944 -22.6067 1.6180
-15.2210 -23.3854 1.6180
-14.5170 -24.1531 1.6180
-9.6738 -17.4833 1.1357
-8.9455 -17.6284 1.1120
-8.2316 -17.7707 1.0900
-8.8671 -21.0908 1.2596
-10.1341 -26.7456 1.5573
-10.2507 -30.2823 1.7213
-9.2662 -30.9834 1.7213
-8.2473 -31.6627 1.7213
-7.1938 -32.3184 1.7213
-6.1058 -32.9493 1.7213
-4.6848 -31.5437 1.6182
-3.5973 -32.0847 1.6182
-2.4778 -32.5973 1.6182
-1.0838 -27.0250 1.3220
-0.0890 -20.7262 1.0003
0.6563 -20.8351 0.9932
0.2227 -3.3049 0.1558
1.8502 -17.8909 0.8351
2.1677 -15.5136 0.7179
2.2387 -12.6901 0.5829
2.7397 -12.8294 0.5857
2.7837 -11.0787 0.5034
2.7878 -9.6243 0.4358
3.1594 -9.6070 0.4342
3.5751 -9.6886 0.4377
4.0094 -9.7741 0.4421
3.6544 -8.0733 0.3661
3.6676 -7.3873 0.3365
3.8064 -7.0242 0.3219
3.9960 -6.7832 0.3134
4.2060 -6.5888 0.3074
4.4383 -6.4332 0.3038
4.7176 -6.3404 0.3036
5.0365 -6.2864 0.3060
5.4363 -6.3090 0.3129
6.8498 0.8631 0.3903
6.7012 1.0890 0.3850
6.0760 1.2117 0.3526
5.5509 1.3150 0.3259
5.2707 1.4494 0.3136
6.6537 2.0883 0.4019
6.3962 2.2617 0.3929
6.1910 2.4414 0.3874
6.0565 2.6423 0.3868
5.9405 2.8487 0.3879
5.8749 3.0803 0.3929
5.8329 3.3293 0.4004
5.8439 3.6186 0.4124
5.9492 3.9849 0.4326
6.4553 4.6667 0.4846
7.2013 5.6087 0.5594
6.9392 5.8149 0.5590
6.7371 6.0685 0.5641
6.6178 6.4042 0.5774
6.4873 6.7435 0.5914
6.7302 7.5164 0.6428
7.6713 9.2099 0.7700
7.2017 9.3035 0.7622
6.7485 9.3938 0.7556
6.3894 9.6009 0.7599
6.7304 10.9425 0.8538
6.3076 11.1283 0.8575
6.6214 12.7222 0.9698
7.6417 16.0606 1.2132
8.4289 19.4823 1.4607
8.4847 21.7112 1.6182
7.6355 21.8090 1.6182
6.7908 21.8762 1.6182
5.9517 21.9133 1.6182
5.1193 21.9212 1.6182
4.5681 23.2958 1.7213
3.6999 23.2442 1.7213
1.3941 11.3645 0.8445
0.9212 10.6510 0.7952
0.3265 6.4633 0.4854
0.0815 5.5507 0.4198
-0.1027 4.8646 0.3710
-0.2505 4.3971 0.3385
-0.4062 4.3686 0.3399
-0.5602 4.3354 0.3413
-0.7126 4.2976 0.3427
-0.8631 4.2554 0.3441
-1.0117 4.2086 0.3456
-1.1584 4.1576 0.3471
-1.3029 4.1022 0.3486
-1.4453 4.0426 0.3501
-1.6041 4.0260 0.3557
-7.8954 17.9213 1.6180
-8.5755 17.7169 1.6366
-9.0753 17.1541 1.6235
-9.5441 16.5756 1.6096
-10.2293 16.3795 1.6344
-11.0309 16.3306 1.6772
-11.5270 15.8129 1.6743
-12.0568 15.3526 1.6788
-6.6372 7.8551 0.8887
-13.0266 14.3417 1.6822
-9.6149 9.8521 1.2006
-9.7283 9.2788 1.1775
-9.8367 8.7309 1.1566
-9.9406 8.2057 1.1378
-10.0405 7.7003 1.1209
-10.1995 7.2571 1.1126
-11.1855 7.3695 1.1942
-12.5531 7.6400 1.3139
-14.1314 7.9211 1.4522
-16.0130 8.2361 1.6180
-16.2632 7.6407 1.6180
-16.4954 7.0397 1.6180
-16.7096 6.4335 1.6180
-16.9058 5.8224 1.6180
-17.0838 5.2068 1.6180
-17.2438 4.5871 1.6180
-18.4951 4.2165 1.7213
-18.6266 3.5495 1.7213
-18.7387 2.8792 1.7213
-18.8314 2.2060 1.7213
-18.9046 1.5302 1.7213
-18.9581 0.8523 1.7213
-18.9921 0.1725 1.7213
-19.0063 -0.5088 1.7213
-19.0008 -1.1911 1.7213
-18.9755 -1.8742 1.7213
-18.9302 -2.5576 1.7213
-18.8650 -3.2409 1.7213
-17.7596 -3.7106 1.6278
-17.5555 -4.3299 1.6182
-16.1925 -4.6151 1.5026
-17.2993 -5.6081 1.6181
-17.1424 -6.2445 1.6181
-16.9662 -6.8784 1.6181
-16.7707 -7.5095 1.6180
-12.8478 -6.3149 1.2556
-15.4429 -8.2901 1.5309
-15.0590 -8.7930 1.5165
-16.2155 -10.2644 1.6613
-15.9140 -10.8911 1.6613
-15.5920 -11.5119 1.6613
-15.2495 -12.1265 1.6613
-11.5649 -9.8929 1.2906
-14.1252 -12.9874 1.6180
-10.5767 -10.4480 1.2463
-13.3175 -14.1330 1.6181
-12.8833 -14.6925 1.6181
-12.4289 -15.2424 1.6181
-11.9541 -15.7820 1.6181
-11.4592 -16.3105 1.6182
-11.0897 -17.0514 1.6397
-11.0715 -18.4355 1.7213
-10.0133 -18.1126 1.6445
-9.8683 -19.4650 1.7213
-8.4936 -18.3545 1.5831
-8.5808 -20.4315 1.7213
-7.9059 -20.8890 1.7213
-7.2105 -21.3281 1.7213
-6.4949 -21.7478 1.7213
-5.7596 -22.1472 1.7213
-5.0047 -22.5254 1.7213
-4.2308 -22.8813 1.7213
-3.2325 -21.8236 1.6182
-2.4706 -22.1135 1.6182
-1.6923 -22.3796 1.6182
-0.8983 -22.6209 1.6182
-0.0813 -20.7996 1.4738
0.6163 -19.3287 1.3584
0.2238 -3.3026 0.2305
1.8567 -17.8866 1.2412
1.7648 -12.5956 0.8702
1.9851 -11.2283 0.7734
2.3429 -10.9515 0.7530
2.7882 -11.0798 0.7616
2.7519 -9.4878 0.6528
3.1634 -9.6078 0.6628
3.5792 -9.6894 0.6711
4.0135 -9.7748 0.6808
3.5680 -7.8757 0.5525
3.6371 -7.3200 0.5181
3.8081 -7.0221 0.5023
3.9976 -6.7811 0.4911
4.2079 -6.5875 0.4839
4.4401 -6.4319 0.4802
4.7199 -6.3397 0.4821
5.0394 -6.2865 0.4879
5.4397 -6.3096 0.5010
6.0643 0.7635 0.4838
6.1086 0.9919 0.4910
6.0782 1.2113 0.4930
5.5529 1.3146 0.4551
5.1389 1.4123 0.4264
5.1701 1.6217 0.4349
6.3396 2.2403 0.5416
6.1424 2.4209 0.5338
6.0090 2.6201 0.5321
5.9409 2.8473 0.5370
5.8754 3.0787 0.5430
5.7798 3.2972 0.5473
5.7907 3.5836 0.5628
5.8749 3.9329 0.5871
6.2813 4.5382 0.6469
7.2034 5.6070 0.7661
7.0700 5.9209 0.7781
6.8460 6.1628 0.7816
6.6187 6.4010 0.7858
6.4913 6.7433 0.8035
6.6965 7.4738 0.8666
7.6758 9.2090 1.0417
7.2061 9.3026 1.0288
6.7529 9.3930 1.0178
6.3141 9.4804 1.0085
5.9103 9.6014 1.0047
6.2598 11.0346 1.1379
6.6266 12.7207 1.2949
7.4752 15.6954 1.5798
7.0302 16.2325 1.6182
6.4026 16.3649 1.6182
5.7747 16.4738 1.6182
5.1475 16.5597 1.6182
4.5217 16.6226 1.6182
3.8983 16.6632 1.6182
3.4868 17.7444 1.7213
2.8311 17.7411 1.7213
1.3490 10.9614 1.0650
0.8995 10.3532 1.0087
0.3295 6.4712 0.6330
0.0838 5.5565 0.5463
-0.1009 4.8690 0.4818
-0.2451 4.3321 0.4319
-0.3611 3.9003 0.3923
-0.4799 3.7249 0.3784
-0.6225 3.7632 0.3866
-0.7698 3.8028 0.3956
-0.9225 3.8438 0.4054
-1.0813 3.8864 0.4160
-1.2470 3.9309 0.4276
-1.4204 3.9776 0.4403
-1.6027 4.0265 0.4542
-6.1880 14.0584 1.6180
-6.6543 13.7591 1.6180
-7.1009 13.4325 1.6163
-7.5501 13.1218 1.6180
-7.9380 12.7192 1.6097
-8.3354 12.3478 1.6065
-8.7980 12.0763 1.6180
-9.1876 11.7057 1.6180
-6.9113 8.1838 1.1693
-10.4165 11.4738 1.6979
-9.6141 9.8560 1.5139
-9.7276 9.2823 1.4834
-9.8360 8.7342 1.4559
-9.9400 8.2086 1.4311
-10.0400 7.7030 1.4088
-10.1976 7.2584 1.3972
-11.1795 7.3683 1.4983
-12.3221 7.5020 1.6180
-12.5568 7.0408 1.6180
-12.7768 6.5736 1.6180
-12.9821 6.1010 1.6180
-13.1725 5.6232 1.6180
-13.3480 5.1405 1.6180
-13.5085 4.6535 1.6180
-13.6540 4.1624 1.6180
-14.5451 3.8699 1.7073
-14.7866 3.3715 1.7213
-14.8930 2.8383 1.7213
-14.9832 2.3022 1.7213
-15.0571 1.7637 1.7213
-15.1146 1.2231 1.7213
-15.1558 0.6807 1.7213
-15.1804 0.1370 1.7213
-15.1886 -0.4076 1.7213
-15.1802 -0.9529 1.7213
-15.1553 -1.4983 1.7213
-15.1136 -2.0436 1.7213
-15.0554 -2.5883 1.7213
-14.9803 -3.1321 1.7213
-14.8886 -3.6745 1.7213
-14.7800 -4.2151 1.7213
-14.0254 -4.5495 1.6474
-13.6432 -4.9727 1.6182
-13.4934 -5.4736 1.6182
-13.3279 -5.9713 1.6181
-12.8520 -6.3205 1.5819
-12.9490 -6.9552 1.6181
-12.7355 -7.4405 1.6181
-12.5061 -7.9208 1.6180
-12.2614 -8.3961 1.6180
-12.0010 -8.8658 1.6181
-11.7245 -9.3289 1.6181
-11.4322 -9.7853 1.6181
-11.1242 -10.2344 1.6181
-10.5602 -10.4383 1.5821
-10.4612 -11.1089 1.6182
-10.1063 -11.5333 1.6182
-10.1860 -12.5005 1.6930
-9.9461 -13.1404 1.7213
-9.5198 -13.5603 1.7213
-9.0776 -13.9685 1.7213
-8.6195 -14.3646 1.7213
-8.1460 -14.7477 1.7213
-7.6571 -15.1174 1.7213
-7.1531 -15.4730 1.7213
-6.6344 -15.8139 1.7213
-6.1012 -16.1394 1.7213
-5.5538 -16.4488 1.7213
-4.9927 -16.7415 1.7213
-4.4183 -17.0169 1.7213
-3.8309 -17.2743 1.7213
-3.2311 -17.5130 1.7213
-2.4625 -16.6704 1.6182
-1.8767 -16.8578 1.6182
-1.2807 -17.0258 1.6182
-0.6753 -17.1738 1.6182
-0.0609 -17.3012 1.6182
0.5618 -17.4074 1.6182
0.2249 -3.3003 0.3053
1.6116 -15.4684 1.4259
1.7755 -12.6367 1.1623
1.9328 -10.9090 1.0025
2.0644 -9.6324 0.8856
2.3725 -9.4133 0.8670
2.7679 -9.5302 0.8806
3.1674 -9.6086 0.8921
3.5833 -9.6902 0.9053
4.0177 -9.7755 0.9203
3.5683 -7.8693 0.7478
3.7335 -7.5079 0.7213
3.8098 -7.0199 0.6830
3.9992 -6.7791 0.6692
4.2530 -6.6538 0.6676
4.4898 -6.4999 0.6642
4.7763 -6.4118 0.6686
5.0422 -6.2866 0.6705
5.4431 -6.3103 0.6898
5.9002 0.7422 0.6058
5.9291 0.9621 0.6130
5.9732 1.1896 0.6227
5.5549 1.3142 0.5849
5.0222 1.3794 0.5349
4.8992 1.5358 0.5287
6.4941 2.2936 0.7111
6.2749 2.4717 0.6984
6.1401 2.6757 0.6958
5.9413 2.8459 0.6866
5.8758 3.0772 0.6937
5.7797 3.2953 0.6983
5.9462 3.6777 0.7366
6.0140 4.0236 0.7653
6.2824 4.5364 0.8229
7.2056 5.6054 0.9736
7.0719 5.9189 0.9877
6.8479 6.1607 0.9910
6.6196 6.3979 0.9949
6.4954 6.7432 1.0166
6.7305 7.5067 1.0999
7.0168 8.4127 1.2009
7.2105 9.3018 1.2966
6.7571 9.3920 1.2811
6.3183 9.4793 1.2678
5.9258 9.6188 1.2637
6.2644 11.0333 1.4266
6.6189 12.6943 1.6182
6.1283 12.8549 1.6182
5.5748 12.8584 1.6010
5.0842 12.9802 1.6010
4.6414 13.2243 1.6182
4.1432 13.3104 1.6182
3.6448 13.3782 1.6182
3.1470 13.4280 1.6182
2.8193 14.3174 1.7213
2.2930 14.3327 1.7213
1.3025 10.5492 1.2672
0.9031 10.3474 1.2448
0.3324 6.4791 0.7816
0.0860 5.5623 0.6737
-0.0991 4.8734 0.5933
-0.2436 4.3356 0.5313
-0.3599 3.9031 0.4819
-0.4785 3.7253 0.4641
-0.6211 3.7636 0.4737
-0.7685 3.8032 0.4841
-0.9212 3.8442 0.4955
-1.0799 3.8869 0.5081
-1.2456 3.9314 0.5217
-1.4191 3.9781 0.5367
-1.6014 4.0271 0.5531
-5.3103 12.0755 1.6907
-5.4724 11.3246 1.6186
-5.8488 11.0726 1.6180
-6.2176 10.8138 1.6180
-6.5763 10.5444 1.6180
-6.9247 10.2646 1.6180
-7.2626 9.9748 1.6180
-7.5898 9.6754 1.6180
-6.8962 8.1704 1.4113
-8.2112 9.0493 1.6180
-8.5051 8.7233 1.6180
-8.7876 8.3892 1.6180
-9.0585 8.0472 1.6180
-9.3177 7.6979 1.6180
-9.5650 7.3415 1.6180
-9.8003 6.9783 1.6180
-10.0235 6.6088 1.6180
-10.2345 6.2332 1.6180
-10.4332 5.8520 1.6180
-10.6194 5.4654 1.6180
-10.7932 5.0738 1.6180
-10.9543 4.6776 1.6180
-11.1028 4.2770 1.6180
-11.2385 3.8724 1.6180
-11.7256 3.5753 1.6699
-12.2032 3.2474 1.7213
-12.3064 2.8064 1.7213
-12.3957 2.3626 1.7213
-12.4710 1.9163 1.7213
-12.5324 1.4678 1.7213
-12.5798 1.0176 1.7213
-12.6130 0.5660 1.7213
-12.6322 0.1133 1.7213
-12.6372 -0.3400 1.7213
-12.6280 -0.7937 1.7213
-12.6046 -1.2474 1.7213
-12.5670 -1.7007 1.7213
-12.5151 -2.1532 1.7213
-12.4489 -2.6046 1.7213
-12.3684 -3.0545 1.7213
-12.2736 -3.5025 1.7213
-12.1645 -3.9483 1.7213
-12.0412 -4.3914 1.7213
-11.9035 -4.8314 1.7213
-11.7516 -5.2681 1.7213
-11.5855 -5.7009 1.7213
-11.4052 -6.1295 1.7213
-11.2107 -6.5534 1.7213
-10.9345 -6.9294 1.7107
-10.6865 -7.3220 1.7064
-10.5070 -7.7665 1.7154
-10.2923 -8.1942 1.7213
-10.0280 -8.5885 1.7213
-9.7500 -8.9757 1.7213
-9.4584 -9.3551 1.7213
-9.1533 -9.7264 1.7213
-8.8349 -10.0891 1.7213
-8.5034 -10.4428 1.7213
-8.1588 -10.7869 1.7213
-7.8015 -11.1210 1.7213
-7.4316 -11.4447 1.7213
-7.0492 -11.7574 1.7213
-6.6548 -12.0586 1.7213
-6.2485 -12.3479 1.7213
-5.8306 -12.6248 1.7213
-5.4014 -12.8887 1.7213
-4.9612 -13.1392 1.7213
-4.5105 -13.3759 1.7213
-4.0495 -13.5981 1.7213
-3.5787 -13.8055 1.7213
-3.0984 -13.9975 1.7213
-2.6092 -14.1736 1.7213
-2.0037 -13.6016 1.6334
-1.5096 -13.6096 1.6182
-1.0272 -13.7279 1.6182
-0.5383 -13.8296 1.6182
-0.0435 -13.9144 1.6182
0.4567 -13.9817 1.6182
0.2261 -3.2987 0.3804
1.4706 -14.0627 1.6182
1.7805 -12.6377 1.4529
1.9371 -10.9095 1.2547
2.3606 -10.9946 1.2667
2.3867 -9.4552 1.0928
2.7718 -9.5309 1.1066
3.1714 -9.6094 1.1224
3.5874 -9.6911 1.1404
4.0220 -9.7764 1.1609
3.5685 -7.8629 0.9436
3.7344 -7.5036 0.9115
3.8115 -7.0178 0.8645
4.0008 -6.7771 0.8480
4.2552 -6.6528 0.8471
4.4919 -6.4990 0.8438
4.7784 -6.4109 0.8504
5.0451 -6.2867 0.8538
5.4465 -6.3110 0.8795
5.8616 0.7367 0.7366
5.8251 0.9445 0.7368
5.7839 1.1511 0.7375
5.5570 1.3138 0.7154
5.1076 1.4019 0.6648
4.9184 1.5409 0.6483
6.4516 2.2772 0.8625
6.2759 2.4706 0.8524
6.1411 2.6747 0.8487
5.9417 2.8444 0.8369
5.8762 3.0757 0.8450
5.7797 3.2933 0.8500
5.9453 3.6751 0.8959
6.0162 4.0228 0.9307
6.2836 4.5346 0.9999
7.2077 5.6037 1.1821
7.0414 5.8898 1.1929
6.8208 6.1326 1.1963
6.6205 6.3947 1.2050
6.4994 6.7430 1.2308
6.7292 7.5003 1.3295
6.7353 8.0696 1.3925
6.3231 8.1511 1.3722
6.7614 9.3909 1.5457
6.3225 9.4783 1.5284
5.9415 9.6364 1.5251
5.9088 10.3979 1.6182
5.5091 10.5562 1.6182
5.1056 10.6991 1.6182
4.6988 10.8266 1.6182
4.2894 10.9388 1.6182
3.8781 11.0356 1.6182
3.4653 11.1171 1.6182
3.0516 11.1835 1.6182
0.7886 3.3590 0.4838
0.6676 3.3835 0.4858
0.5459 3.4039 0.4877
0.4237 3.4201 0.4898
0.3009 3.4322 0.4918
0.1779 3.4400 0.4939
0.0546 3.4437 0.4960
-0.0687 3.4432 0.4981
-0.1919 3.4386 0.5003
-0.3149 3.4297 0.5024
-0.4375 3.4166 0.5046
-0.5597 3.3994 0.5068
-0.6812 3.3781 0.5090
-0.8020 3.3526 0.5112
-1.0786 3.8874 0.6006
-1.2442 3.9319 0.6164
-1.4177 3.9786 0.6336
-1.6000 4.0276 0.6526
-4.5815 10.4277 1.7213
-4.9349 10.2209 1.7213
-5.2799 10.0032 1.7213
-5.6163 9.7751 1.7213
-5.8546 9.3934 1.6954
-5.9696 8.8544 1.6408
-6.1774 8.4893 1.6180
-6.4590 8.2386 1.6180
-6.7315 7.9795 1.6180
-6.9947 7.7125 1.6180
-7.2483 7.4378 1.6180
-7.4922 7.1558 1.6180
-7.7263 6.8668 1.6180
-7.9504 6.5711 1.6180
-8.1643 6.2689 1.6180
-8.3679 5.9607 1.6180
-8.5611 5.6467 1.6180
-8.7438 5.3272 1.6180
-8.9159 5.0026 1.6180
-9.0772 4.6731 1.6180
-9.2276 4.3391 1.6180
-9.6031 4.1017 1.6588
-10.1016 3.8923 1.7213
-10.2264 3.5245 1.7213
-10.3394 3.1532 1.7213
-10.4404 2.7788 1.7213
-10.5293 2.4015 1.7213
-10.6062 2.0217 1.7213
-10.6708 1.6397 1.7213
-10.7233 1.2558 1.7213
-10.7635 0.8704 1.7213
-10.7914 0.4838 1.7213
-10.8070 0.0964 1.7213
-10.8101 -0.2916 1.7213
-10.8009 -0.6798 1.7213
-10.7793 -1.0678 1.7213
-10.7452 -1.4553 1.7213
-10.6987 -1.8421 1.7213
-10.6398 -2.2276 1.7213
-10.5684 -2.6117 1.7213
-10.4846 -2.9938 1.7213
-10.3884 -3.3738 1.7213
-10.2798 -3.7512 1.7213
-10.1589 -4.1257 1.7213
-10.0256 -4.4969 1.7213
-9.8801 -4.8645 1.7213
-9.7224 -5.2280 1.7213
-9.5525 -5.5872 1.7213
-9.3705 -5.9417 1.7213
-9.1765 -6.2910 1.7213
-8.9706 -6.6348 1.7213
-8.7529 -6.9727 1.7213
-8.5235 -7.3044 1.7213
-8.2825 -7.6294 1.7213
-8.0301 -7.9474 1.7213
-7.7664 -8.2580 1.7213
-7.4915 -8.5607 1.7213
-7.2057 -8.8553 1.7213
-6.9090 -9.1412 1.7213
-6.6019 -9.4181 1.7213
-6.2843 -9.6855 1.7213
-5.9566 -9.9432 1.7213
-5.6190 -10.1907 1.7213
-5.2718 -10.4276 1.7213
-4.9152 -10.6534 1.7213
-4.5496 -10.8679 1.7213
-4.1752 -11.0706 1.7213
-3.7924 -11.2611 1.7213
-3.4016 -11.4390 1.7213
-3.0031 -11.6041 1.7213
-2.5973 -11.7558 1.7213
-2.1846 -11.8938 1.7213
-1.6597 -11.2981 1.6182
-1.2601 -11.4012 1.6182
-0.8552 -11.4905 1.6182
-0.4456 -11.5657 1.6182
-0.0318 -11.6264 1.6182
0.3858 -11.6725 1.6182
0.2273 -3.2981 0.4560
1.2301 -11.7197 1.6182
1.6558 -11.7202 1.6182
1.9415 -10.9100 1.5082
2.3651 -10.9957 1.5241
2.3906 -9.4558 1.3159
2.7757 -9.5315 1.3337
3.1754 -9.6100 1.3539
3.5915 -9.6918 1.3769
4.0262 -9.7773 1.4028
3.5688 -7.8565 1.1401
3.7353 -7.4992 1.1026
3.8132 -7.0156 1.0467
4.0024 -6.7750 1.0276
4.2573 -6.6518 1.0275
4.4941 -6.4980 1.0242
4.7805 -6.4099 1.0330
5.0480 -6.2868 1.0380
5.4499 -6.3117 1.0701
5.6996 0.7157 0.8480
5.7411 0.9301 0.8596
5.7837 1.1502 0.8727
5.5590 1.3134 0.8467
5.1096 1.4016 0.7866
4.8007 1.5031 0.7482
4.5496 1.6049 0.7189
6.2768 2.4696 1.0072
6.1421 2.6736 1.0025
5.9421 2.8430 0.9881
5.8766 3.0742 0.9972
5.7796 3.2914 1.0026
5.9452 3.6729 1.0562
6.0184 4.0220 1.0971
6.2848 4.5329 1.1778
7.2098 5.6020 1.3919
7.0756 5.9149 1.4102
6.8517 6.1566 1.4130
6.6214 6.3915 1.4163
6.5035 6.7429 1.4464
6.4934 7.2326 1.5058
6.7015 8.0235 1.6252
6.3270 8.1503 1.6097
6.0419 8.3853 1.6182
5.7175 8.5647 1.6182
5.3879 8.7313 1.6182
5.0535 8.8851 1.6182
4.7149 9.0260 1.6182
4.3725 9.1540 1.6182
4.0270 9.2689 1.6182
3.6788 9.3708 1.6182
3.3284 9.4597 1.6182
2.9764 9.5356 1.6182
0.7882 2.8841 0.4862
0.6842 2.9091 0.4879
0.5795 2.9304 0.4896
0.4741 2.9482 0.4913
0.3682 2.9624 0.4930
0.2618 2.9729 0.4948
0.1553 2.9797 0.4966
0.0485 2.9830 0.4984
-0.0583 2.9825 0.5003
-0.1650 2.9784 0.5021
-0.2716 2.9707 0.5040
-0.3778 2.9593 0.5059
-0.4836 2.9443 0.5078
-0.5889 2.9257 0.5097
-0.6934 2.9034 0.5116
-0.7973 2.8776 0.5135
-1.2428 3.9324 0.7117
-1.4163 3.9791 0.7312
-1.5986 4.0282 0.7527
-3.9707 9.0457 1.7213
-4.2791 8.8703 1.7213
-4.5806 8.6852 1.7213
-4.8748 8.4908 1.7213
-5.1615 8.2872 1.7213
-5.4405 8.0748 1.7213
-5.7115 7.8538 1.7213
-5.9743 7.6246 1.7213
-6.2287 7.3874 1.7213
-6.4636 7.1306 1.7184
-6.6461 6.8232 1.7045
-6.8329 6.5291 1.6948
-7.0171 6.2392 1.6872
-7.1991 5.9527 1.6817
-7.3796 5.6687 1.6783
-7.6255 5.4339 1.6915
-7.8947 5.2090 1.7113
-8.1116 4.9438 1.7213
-8.2729 4.6434 1.7213
-8.4240 4.3383 1.7213
-8.5651 4.0288 1.7213
-8.6958 3.7152 1.7213
-8.8161 3.3979 1.7213
-8.9261 3.0771 1.7213
-9.0255 2.7531 1.7213
-9.1142 2.4263 1.7213
-9.1923 2.0969 1.7213
-9.2597 1.7652 1.7213
-9.3163 1.4316 1.7213
-9.3621 1.0963 1.7213
-9.3970 0.7597 1.7213
-9.4210 0.4220 1.7213
-9.4340 0.0836 1.7213
-9.4361 -0.2552 1.7213
-9.4271 -0.5941 1.7213
-9.4072 -0.9328 1.7213
-9.3762 -1.2710 1.7213
-9.3343 -1.6083 1.7213
-9.2813 -1.9445 1.7213
-9.2174 -2.2793 1.7213
-9.1424 -2.6122 1.7213
-9.0565 -2.9430 1.7213
-8.9597 -3.2714 1.7213
-8.8521 -3.5971 1.7213
-8.7336 -3.9196 1.7213
-8.6043 -4.2388 1.7213
-8.4643 -4.5542 1.7213
-8.3137 -4.8655 1.7213
-8.1526 -5.1724 1.7213
-7.9809 -5.4746 1.7213
-7.7990 -5.7716 1.7213
-7.6067 -6.0633 1.7213
-7.4043 -6.3492 1.7213
-7.1919 -6.6290 1.7213
-6.9697 -6.9024 1.7213
-6.7377 -7.1689 1.7213
-6.4962 -7.4284 1.7213
-6.2453 -7.6804 1.7213
-5.9851 -7.9246 1.7213
-5.7160 -8.1606 1.7213
-5.4382 -8.3882 1.7213
-5.1517 -8.6069 1.7213
-4.8569 -8.8164 1.7213
-4.5541 -9.0165 1.7213
-4.2435 -9.2068 1.7213
-3.9253 -9.3869 1.7213
-3.5999 -9.5565 1.7213
-3.2676 -9.7154 1.7213
-2.9287 -9.8632 1.7213
-2.5836 -9.9995 1.7213
-2.2326 -10.1242 1.7213
-1.8761 -10.2369 1.7213
-1.4237 -9.7182 1.6182
-1.0792 -9.8009 1.6182
-0.7308 -9.8715 1.6182
-0.3786 -9.9299 1.6182
-0.0233 -9.9758 1.6182
0.3348 -10.0091 1.6182
0.2286 -3.2975 0.5320
1.0574 -10.0369 1.6182
1.4211 -10.0310 1.6182
1.7856 -10.0119 1.6182
2.1504 -9.9793 1.6182
2.3946 -9.4569 1.5406
2.7797 -9.5320 1.5622
3.1794 -9.6106 1.5869
3.5956 -9.6925 1.6148
3.9791 -9.6535 1.6252
3.5690 -7.8500 1.3376
3.7361 -7.4948 1.2945
3.7551 -6.9035 1.2108
4.0040 -6.7729 1.2082
4.2316 -6.6072 1.2011
4.4957 -6.4963 1.2056
4.7558 -6.3731 1.2099
5.0509 -6.2869 1.2235
5.4534 -6.3124 1.2620
5.5074 0.6910 0.9475
5.5475 0.8981 0.9604
5.5887 1.1107 0.9749
5.5611 1.3131 0.9789
5.1117 1.4013 0.9093
4.6878 1.4668 0.8440
4.6990 1.6566 0.8576
6.2778 2.4685 1.1631
6.1431 2.6724 1.1573
5.9425 2.8416 1.1402
5.8771 3.0726 1.1504
5.7795 3.2895 1.1562
5.9443 3.6703 1.2174
6.0207 4.0212 1.2647
5.8182 4.1939 1.2560
5.5391 4.3013 1.2313
6.9500 5.8064 1.5943
6.7449 6.0568 1.6003
6.6073 6.3739 1.6252
6.3570 6.5866 1.6252
6.0995 6.7893 1.6252
5.8102 6.9515 1.6182
5.5410 7.1326 1.6182
5.2661 7.3031 1.6182
4.9858 7.4627 1.6182
4.7007 7.6114 1.6182
4.4112 7.7492 1.6182
4.1178 7.8757 1.6182
3.8209 7.9912 1.6182
3.5208 8.0953 1.6182
3.2182 8.1882 1.6182
2.9135 8.2698 1.6182
0.7864 2.5158 0.4881
0.6955 2.5410 0.4896
0.6039 2.5631 0.4910
0.5117 2.5821 0.4925
0.4188 2.5978 0.4940
0.3255 2.6104 0.4956
0.2318 2.6197 0.4971
0.1379 2.6258 0.4987
0.0438 2.6286 0.5003
-0.0503 2.6282 0.5019
-0.1444 2.6246 0.5036
-0.2383 2.6177 0.5052
-0.3319 2.6076 0.5069
-0.4251 2.5943 0.5086
-0.5178 2.5778 0.5102
-0.6100 2.5581 0.5119
-0.7014 2.5352 0.5136
-0.7920 2.5092 0.5153
-1.4149 3.9797 0.8296
-1.5972 4.0287 0.8537
-3.4996 7.9801 1.7213
-3.7731 7.8281 1.7213
-4.0406 7.6673 1.7213
-4.3018 7.4981 1.7213
-4.5564 7.3206 1.7213
-4.8044 7.1352 1.7213
-5.0453 6.9420 1.7213
-5.2792 6.7413 1.7213
-5.5056 6.5334 1.7213
-5.7246 6.3185 1.7213
-5.9358 6.0969 1.7213
-6.1391 5.8689 1.7213
-6.3343 5.6347 1.7213
-6.5214 5.3946 1.7213
-6.7001 5.1488 1.7213
-6.8703 4.8977 1.7213
-7.0319 4.6414 1.7213
-7.1847 4.3804 1.7213
-7.3286 4.1148 1.7213
-7.4636 3.8449 1.7213
-7.5895 3.5710 1.7213
-7.7062 3.2934 1.7213
-7.8136 3.0123 1.7213
-7.9117 2.7281 1.7213
-8.0003 2.4410 1.7213
-8.0795 2.1512 1.7213
-8.1491 1.8591 1.7213
-8.2090 1.5650 1.7213
-8.2593 1.2692 1.7213
-8.2999 0.9718 1.7213
-8.3306 0.6732 1.7213
-8.3516 0.3738 1.7213
-8.3628 0.0737 1.7213
-8.3641 -0.2268 1.7213
-8.3556 -0.5273 1.7213
-8.3372 -0.8275 1.7213
-8.3089 -1.1272 1.7213
-8.2708 -1.4262 1.7213
-8.2227 -1.7240 1.7213
-8.1649 -2.0203 1.7213
-8.0972 -2.3150 1.7213
-8.0198 -2.6077 1.7213
-7.9326 -2.8981 1.7213
-7.8357 -3.1860 1.7213
-7.7292 -3.4709 1.7213
-7.6130 -3.7526 1.7213
-7.4874 -4.0309 1.7213
-7.3523 -4.3053 1.7213
-7.2079 -4.5757 1.7213
-7.0541 -4.8417 1.7213
-6.8913 -5.1030 1.7213
-6.7193 -5.3592 1.7213
-6.5385 -5.6102 1.7213
-6.3488 -5.8556 1.7213
-6.1505 -6.0950 1.7213
-5.9437 -6.3283 1.7213
-5.7285 -6.5550 1.7213
-5.5051 -6.7750 1.7213
-5.2737 -6.9878 1.7213
-5.0346 -7.1932 1.7213
-4.7878 -7.3909 1.7213
-4.5336 -7.5806 1.7213
-4.2723 -7.7620 1.7213
-4.0040 -7.9349 1.7213
-3.7291 -8.0990 1.7213
-3.4477 -8.2539 1.7213
-3.1603 -8.3994 1.7213
-2.8670 -8.5352 1.7213
-2.5681 -8.6612 1.7213
-2.2640 -8.7770 1.7213
-1.9550 -8.8824 1.7213
-1.6414 -8.9771 1.7213
-1.3237 -9.0610 1.7213
-0.9421 -8.5867 1.6182
-0.6365 -8.6446 1.6182
-0.3280 -8.6916 1.6182
-0.0169 -8.7277 1.6182
0.2962 -8.7526 1.6182
0.2298 -3.2969 0.6086
0.9273 -8.7686 1.6182
1.2444 -8.7593 1.6182
1.5619 -8.7385 1.6182
1.8795 -8.7060 1.6182
2.1966 -8.6617 1.6182
2.5129 -8.6056 1.6182
2.8279 -8.5376 1.6182
3.1546 -8.4946 1.6252
3.4669 -8.4025 1.6252
3.5693 -7.8436 1.5361
3.3702 -6.7551 1.3416
3.5154 -6.4580 1.3029
3.8610 -6.5263 1.3399
4.2293 -6.5992 1.3811
4.4984 -6.4961 1.3885
4.7846 -6.4080 1.4017
5.0538 -6.2871 1.4103
5.4569 -6.3131 1.4553
5.3077 0.6653 1.0376
5.3463 0.8648 1.0515
5.3860 1.0696 1.0673
5.4268 1.2805 1.0850
5.1138 1.4010 1.0331
4.7238 1.4772 0.9657
4.3111 1.5190 0.8931
4.3036 1.6912 0.9050
6.1441 2.6713 1.3134
5.9429 2.8401 1.2936
5.8775 3.0711 1.3048
5.7794 3.2875 1.3109
5.9443 3.6681 1.3799
6.0230 4.0203 1.4337
5.8210 4.1933 1.4235
5.5384 4.2982 1.3943
6.2579 5.2249 1.6252
6.0525 5.4316 1.6252
5.8400 5.6300 1.6252
5.5964 5.7948 1.6182
5.3717 5.9751 1.6182
5.1410 6.1465 1.6182
4.9046 6.3088 1.6182
4.6630 6.4619 1.6182
4.4166 6.6055 1.6182
4.1657 6.7396 1.6182
3.9108 6.8640 1.6182
3.6522 6.9787 1.6182
3.3903 7.0836 1.6182
3.1255 7.1786 1.6182
2.8582 7.2636 1.6182
0.7834 2.2207 0.4897
0.7031 2.2462 0.4909
0.6220 2.2688 0.4922
0.5402 2.2886 0.4935
0.4578 2.3056 0.4948
0.3749 2.3197 0.4962
0.2916 2.3310 0.4976
0.2080 2.3393 0.4990
0.1241 2.3448 0.5004
0.0401 2.3473 0.5018
-0.0440 2.3470 0.5033
-0.1280 2.3437 0.5047
-0.2118 2.3376 0.5062
-0.2954 2.3285 0.5077
-0.3787 2.3166 0.5092
-0.4615 2.3018 0.5107
-0.5437 2.2841 0.5122
-0.6253 2.2636 0.5137
-0.7062 2.2403 0.5152
-0.7863 2.2142 0.5167
-1.5958 4.0293 0.9555
-3.1250 7.1326 1.7213
-3.3704 6.9986 1.7213
-3.6106 6.8568 1.7213
-3.8451 6.7072 1.7213
-4.0740 6.5501 1.7213
-4.2969 6.3857 1.7213
-4.5137 6.2143 1.7213
-4.7241 6.0360 1.7213
-4.9280 5.8511 1.7213
-5.1251 5.6598 1.7213
-5.3154 5.4624 1.7213
-5.4986 5.2591 1.7213
-5.6746 5.0501 1.7213
-5.8433 4.8357 1.7213
-6.0044 4.6161 1.7213
-6.1580 4.3916 1.7213
-6.3037 4.1624 1.7213
-6.4416 3.9287 1.7213
-6.5715 3.6909 1.7213
-6.6933 3.4492 1.7213
-6.8069 3.2037 1.7213
-6.9122 2.9549 1.7213
-7.0091 2.7029 1.7213
-7.0976 2.4480 1.7213
-7.1775 2.1904 1.7213
-7.2488 1.9304 1.7213
-7.3115 1.6683 1.7213
-7.3654 1.4043 1.7213
-7.4106 1.1388 1.7213
