ply
format ascii 1.0
element vertex 2162
property float32 x
property float32 y
property float32 z
end_header
-36.8330 -30.4313 -4.1497
4.6491 -1.2083 -0.3022
4.6441 -1.0308 -0.2987
4.6384 -0.8564 -0.2956
4.5908 -0.6784 -0.2903
4.5449 -0.5060 -0.2855
4.5319 -0.3406 -0.2831
4.5226 -0.1772 -0.2814
4.4786 -0.0149 -0.2779
1.8170 0.0591 -0.1126
1.8550 0.1270 -0.1149
5.4056 0.5655 -0.3352
5.8356 0.8228 -0.3627
5.8234 1.0352 -0.3633
5.5355 1.1901 -0.3471
5.2928 1.3380 -0.3340
5.0546 1.4724 -0.3215
4.7907 1.5839 -0.3075
4.7474 1.7607 -0.3080
4.7287 1.9493 -0.3105
4.7011 2.1381 -0.3130
4.6725 2.3307 -0.3158
4.6431 2.5277 -0.3192
4.7139 2.7898 -0.3301
4.8437 3.1063 -0.3462
4.9875 3.4568 -0.3644
5.0015 3.7388 -0.3744
5.0765 4.0865 -0.3901
5.2101 4.5111 -0.4118
5.3614 4.9892 -0.4370
5.4682 5.4672 -0.4606
5.5805 5.9944 -0.4872
5.7003 6.5810 -0.5172
5.7987 7.2006 -0.5484
5.5720 7.4507 -0.5512
5.2057 7.5076 -0.5406
4.9604 7.7315 -0.5429
4.7810 8.0746 -0.5540
4.3797 8.0409 -0.5400
4.0250 8.0648 -0.5310
3.9183 8.6102 -0.5568
4.0539 9.8279 -0.6252
4.2091 11.3409 -0.7108
4.8203 14.5681 -0.9010
4.5371 15.5614 -0.9512
4.4173 17.4555 -1.0560
4.9896 23.1805 -1.3899
4.2419 23.8287 -1.4182
4.7330 33.5063 -1.9821
1.9904 18.9794 -1.1175
-42.5530 5.7366 -2.6416
-42.4138 4.1765 -2.6272
-42.4905 2.6508 -2.6297
-46.9266 -16.1808 -3.1331
-40.4902 -15.6067 -2.7441
-40.2906 -17.2128 -2.7757
-40.3193 -18.9618 -2.8278
-40.3548 -20.7764 -2.8857
-40.3976 -22.6659 -2.9502
-39.4166 -24.0126 -2.9445
-36.4804 -24.0581 -2.7925
-36.7166 -26.1495 -2.8851
-38.5040 -29.5586 -3.1118
-37.2925 -30.8148 -3.1060
4.6170 -1.2003 -0.1924
4.5840 -1.0178 -0.1888
4.5752 -0.8451 -0.1865
4.5292 -0.6697 -0.1830
4.5097 -0.5024 -0.1808
4.5004 -0.3386 -0.1793
4.4913 -0.1764 -0.1780
4.4468 -0.0151 -0.1755
1.8169 0.0590 -0.0715
1.8540 0.1268 -0.0729
5.2124 0.5448 -0.2049
5.6325 0.7937 -0.2217
5.7725 1.0257 -0.2278
5.5127 1.1848 -0.2184
5.2718 1.3323 -0.2099
5.0472 1.4699 -0.2023
4.7962 1.5854 -0.1938
4.7487 1.7608 -0.1937
4.7251 1.9474 -0.1949
4.6970 2.1358 -0.1962
4.6683 2.3282 -0.1977
4.6389 2.5250 -0.1996
4.7092 2.7866 -0.2062
4.8386 3.1025 -0.2160
4.8996 3.3954 -0.2234
4.9061 3.6670 -0.2289
4.9466 3.9814 -0.2367
5.0693 4.3886 -0.2493
5.2035 4.8417 -0.2636
5.4061 5.4045 -0.2828
5.5570 5.9686 -0.3010
5.6534 6.5262 -0.3180
5.7371 7.1234 -0.3361
5.5652 7.4408 -0.3407
5.2018 7.5011 -0.3341
4.9513 7.7166 -0.3349
4.7677 8.0514 -0.3412
4.3565 7.9976 -0.3315
4.0109 8.0360 -0.3264
3.8482 8.4555 -0.3371
3.9495 9.5739 -0.3753
4.2554 11.4646 -0.4426
4.8257 14.5831 -0.5553
4.5219 15.5081 -0.5833
4.4379 17.5354 -0.6526
4.9536 23.0116 -0.8485
4.4144 24.7956 -0.9073
4.4882 31.7707 -1.1552
1.9902 18.9759 -0.6866
-7.6551 29.4933 -1.0990
-41.5259 7.1185 -1.6355
-41.5003 5.5914 -1.6307
-41.4765 4.0810 -1.6281
-41.4474 2.5825 -1.6275
-41.4207 1.0929 -1.6290
-42.7118 -14.7310 -1.8315
-38.7787 -14.9503 -1.6896
-38.7784 -16.5701 -1.7193
-38.7813 -18.2419 -1.7522
-38.7878 -19.9731 -1.7886
-38.7979 -21.7719 -1.8287
-37.7079 -22.9752 -1.8198
-36.7664 -24.2502 -1.8198
-36.7166 -26.1530 -1.8672
-37.1065 -28.4894 -1.9425
-37.6236 -31.0921 -2.0314
-36.5897 -32.5138 -2.0419
4.5855 -1.1925 -0.0843
4.5318 -1.0066 -0.0820
4.5138 -0.8341 -0.0805
4.4876 -0.6639 -0.0791
4.4784 -0.4993 -0.0780
4.4694 -0.3366 -0.0770
4.4605 -0.1755 -0.0761
4.4156 -0.0153 -0.0748
1.8167 0.0588 -0.0305
1.8531 0.1266 -0.0310
5.0341 0.5258 -0.0838
5.4133 0.7624 -0.0899
5.7480 1.0208 -0.0952
5.4902 1.1795 -0.0909
5.2510 1.3266 -0.0870
5.0280 1.4639 -0.0835
4.8018 1.5868 -0.0801
4.7486 1.7604 -0.0796
4.7210 1.9453 -0.0796
4.6929 2.1336 -0.0798
4.6641 2.3257 -0.0801
4.6347 2.5224 -0.0805
4.7044 2.7833 -0.0828
4.8068 3.0817 -0.0859
4.8105 3.3332 -0.0874
4.8145 3.5980 -0.0892
4.8234 3.8817 -0.0913
4.9361 4.2728 -0.0956
5.0561 4.7040 -0.1005
5.2165 5.2143 -0.1067
5.4559 5.8593 -0.1151
5.6018 6.4660 -0.1223
5.6782 7.0496 -0.1286
5.5533 7.4242 -0.1311
5.1924 7.4869 -0.1281
4.9209 7.6685 -0.1275
4.7395 8.0031 -0.1295
4.3323 7.9524 -0.1256
3.9882 7.9897 -0.1233
3.8280 8.4103 -0.1271
3.9066 9.4693 -0.1403
4.2963 11.5739 -0.1686
4.8251 14.5804 -0.2091
4.5403 15.5696 -0.2202
4.4550 17.6015 -0.2459
4.9318 22.9083 -0.3166
4.1315 23.2043 -0.3179
4.3327 30.6674 -0.4171
1.9900 18.9725 -0.2566
2.7222 39.5870 -0.5333
-7.6540 29.4870 -0.4123
-41.2169 7.0623 -0.6809
-41.1943 5.5470 -0.6818
-41.1718 4.0478 -0.6837
-41.1495 2.5607 -0.6865
-41.1273 1.0820 -0.6901
-41.9113 -14.4584 -0.7979
-38.3919 -14.8044 -0.7453
-38.3470 -16.3890 -0.7602
-38.3009 -18.0192 -0.7764
-38.2533 -19.7012 -0.7941
-38.2041 -21.4422 -0.8133
-37.4189 -22.8025 -0.8182
-37.0081 -24.4131 -0.8325
-36.9579 -26.3284 -0.8567
-37.3539 -28.6831 -0.8939
-37.2923 -30.8222 -0.9230
-37.2343 -33.0905 -0.9551
4.5543 -1.1848 0.0223
4.5016 -1.0003 0.0224
4.4656 -0.8255 0.0226
4.4565 -0.6596 0.0230
4.4477 -0.4962 0.0234
4.4389 -0.3347 0.0238
4.4301 -0.1746 0.0242
4.3848 -0.0156 0.0245
1.8166 0.0587 0.0104
1.8521 0.1264 0.0108
4.2357 0.4421 0.0254
5.2143 0.7340 0.0320
5.6432 1.0018 0.0356
5.4678 1.1742 0.0354
5.2304 1.3210 0.0348
5.0089 1.4579 0.0343
4.8013 1.5862 0.0338
4.7445 1.7585 0.0345
4.7169 1.9432 0.0353
4.6887 2.1313 0.0363
4.6600 2.3232 0.0372
4.6306 2.5197 0.0383
4.6997 2.7801 0.0402
4.7230 3.0275 0.0419
4.7246 3.2733 0.0436
4.7263 3.5317 0.0453
4.7280 3.8045 0.0472
4.8099 4.1630 0.0501
4.9170 4.5741 0.0535
5.0398 5.0371 0.0574
5.2559 5.6439 0.0628
5.4041 6.2370 0.0679
5.6240 6.9816 0.0745
5.5386 7.4039 0.0775
5.1796 7.4678 0.0769
4.8942 7.6262 0.0773
4.6913 7.9209 0.0791
4.2972 7.8872 0.0778
3.9745 7.9617 0.0776
3.8077 8.3650 0.0806
3.8727 9.3863 0.0896
4.3228 11.6443 0.1101
4.8323 14.6007 0.1370
4.5595 15.6343 0.1457
4.4685 17.6535 0.1635
4.8885 22.7054 0.2092
4.0701 22.8580 0.2097
4.0551 28.6995 0.2624
1.9898 18.9690 0.1730
2.7071 39.3636 0.3583
-7.6530 29.4807 0.2737
-33.4781 6.9772 0.2176
-32.4649 5.5601 0.2055
-32.2032 4.3337 0.1988
-32.4410 3.1868 0.1954
-33.2676 2.0676 0.1957
-41.1273 1.0787 0.2364
-41.9005 -14.4581 0.2006
-38.3918 -14.8075 0.1814
-38.7286 -16.5554 0.1808
-38.3008 -18.0225 0.1769
-38.6419 -19.9048 0.1768
-38.2040 -21.4455 0.1734
-37.3902 -22.7885 0.1686
-37.0080 -24.4165 0.1661
-36.9578 -26.3319 0.1653
-37.3538 -28.6867 0.1668
-37.8770 -31.3092 0.1693
-37.2342 -33.0944 0.1669
4.5236 -1.1771 0.1274
4.4726 -0.9942 0.1254
4.4381 -0.8208 0.1241
4.4259 -0.6555 0.1236
4.4173 -0.4931 0.1233
4.4087 -0.3327 0.1232
4.4002 -0.1738 0.1233
4.3544 -0.0158 0.1224
1.8164 0.0585 0.0513
1.8512 0.1262 0.0526
4.2072 0.4388 0.1205
4.1597 0.5852 0.1202
5.4220 0.9621 0.1582
5.4414 1.1681 0.1606
5.2050 1.3142 0.1556
4.9844 1.4504 0.1511
4.7776 1.5780 0.1470
4.7359 1.7549 0.1482
4.7099 1.9399 0.1500
4.6833 2.1284 0.1521
4.6558 2.3207 0.1544
4.6264 2.5170 0.1569
4.6424 2.7458 0.1613
4.6421 2.9753 0.1654
4.6418 3.2154 0.1700
4.6412 3.4676 0.1750
4.6405 3.7336 0.1805
4.6899 4.0587 0.1886
4.7853 4.4511 0.1993
4.8879 4.8848 0.2114
5.0700 5.4437 0.2282
5.1009 5.8865 0.2396
5.5587 6.8998 0.2732
5.5203 7.3787 0.2849
5.1674 7.4494 0.2810
4.8581 7.5691 0.2793
4.6109 7.7844 0.2816
4.2716 7.8395 0.2784
3.9328 7.8774 0.2751
3.7706 8.2829 0.2849
3.8217 9.2618 0.3141
4.3439 11.7003 0.3919
4.8522 14.6596 0.4855
4.5764 15.6909 0.5145
4.4785 17.6917 0.5751
4.8416 22.4855 0.7254
4.0383 22.6772 0.7270
4.0558 28.7023 0.9156
1.9896 18.9655 0.6026
2.7655 40.2096 1.2741
0.9721 29.6109 0.9368
-7.6241 29.3669 0.9563
-20.9866 41.4050 1.4511
-21.2234 38.3941 1.3689
-21.9832 36.6048 1.3297
-22.7738 35.0133 1.2980
-23.7073 33.7377 1.2786
-24.9478 32.9276 1.2780
-26.6801 32.7086 1.3026
-29.6020 33.7452 1.3817
-32.1966 22.0150 1.1754
-31.9391 20.1980 1.1349
-29.7817 17.3715 1.0318
-29.5234 15.8308 0.9989
-29.9790 14.7168 0.9922
-30.4574 13.6194 0.9874
-30.7473 12.4467 0.9780
-30.9346 11.2497 0.9666
-30.8549 9.9839 0.9486
-30.7926 8.7577 0.9326
-30.5802 7.5238 0.9136
-30.1702 6.2854 0.8903
-29.7696 5.0962 0.8689
-29.6742 3.9911 0.8577
-24.3708 2.3922 0.6985
-24.1053 1.4963 0.6859
-24.0474 0.6289 0.6802
-24.1826 -0.2347 0.6808
-24.4615 -1.1151 0.6863
-24.8903 -2.0306 0.6968
-25.3855 -2.9902 0.7100
-26.2871 -4.0563 0.7356
-41.8896 -14.4578 1.1988
-28.5070 -10.9974 0.8230
-27.0837 -11.5798 0.7900
-26.6438 -12.5396 0.7864
-26.0881 -13.4405 0.7805
-25.6579 -14.4052 0.7793
-24.9876 -15.2317 0.7719
-24.6073 -16.2373 0.7745
-24.5259 -17.4767 0.7881
-25.1121 -19.2878 0.8255
-25.6834 -21.2326 0.8654
-25.7470 -22.8871 0.8914
-25.0008 -23.8817 0.8915
4.4933 -1.1696 0.2313
4.4557 -0.9908 0.2279
4.4212 -0.8180 0.2251
4.3957 -0.6513 0.2230
4.3873 -0.4901 0.2221
4.3789 -0.3308 0.2214
4.3706 -0.1730 0.2211
4.3244 -0.0160 0.2191
1.8163 0.0584 0.0923
1.8502 0.1260 0.0944
4.1791 0.4355 0.2145
4.1370 0.5817 0.2138
4.1105 0.7291 0.2141
5.2308 1.1225 0.2751
5.1767 1.3066 0.2752
4.9582 1.4423 0.2667
4.7532 1.5696 0.2592
4.7253 1.7506 0.2615
4.6992 1.9352 0.2643
4.6726 2.1231 0.2675
4.6454 2.3151 0.2711
4.6170 2.5115 0.2751
4.5927 2.7160 0.2799
4.5771 2.9332 0.2858
4.5616 3.1595 0.2923
4.5590 3.4058 0.3003
4.5561 3.6652 0.3091
4.5756 3.9593 0.3205
4.6604 4.3343 0.3377
4.7531 4.7495 0.3571
4.8939 5.2540 0.3822
4.9099 5.6655 0.3997
4.9380 6.1288 0.4203
5.3095 7.0962 0.4740
5.1271 7.3906 0.4817
4.8282 7.5218 0.4793
4.5681 7.7115 0.4812
4.2417 7.7840 0.4765
3.9018 7.8147 0.4700
3.7482 8.2329 0.4872
4.5668 11.0667 0.6454
4.3595 11.7413 0.6758
4.7599 14.3797 0.8180
4.5339 15.5438 0.8750
5.0612 19.9918 1.1151
4.7999 22.2902 1.2336
3.9925 22.4185 1.2325
4.1257 29.1945 1.5965
1.9894 18.9620 1.0327
2.0222 29.4000 1.5965
0.9669 29.4496 1.5965
-0.0952 31.3693 1.6998
-1.2197 31.3468 1.6998
-2.3429 31.2863 1.6998
-3.4636 31.1884 1.6998
-4.5807 31.0527 1.6998
-5.6930 30.8797 1.6998
-6.7993 30.6692 1.6998
-7.4195 28.5766 1.5967
-8.4442 28.3093 1.5967
-9.4600 28.0075 1.5967
-10.4659 27.6714 1.5967
-11.6265 27.6961 1.6198
-12.6234 27.2865 1.6198
-13.6069 26.8431 1.6198
-14.5759 26.3661 1.6198
-15.5295 25.8562 1.6198
-16.4664 25.3136 1.6198
-17.3610 24.7041 1.6175
-18.1756 23.9870 1.6100
-18.9221 23.1954 1.5991
-19.6896 22.4431 1.5925
-20.4349 21.6734 1.5864
-21.1866 20.9152 1.5830
-21.9410 20.1590 1.5816
-22.6860 19.3908 1.5814
-23.2345 18.4603 1.5696
-23.6118 17.4168 1.5491
-24.0005 16.4085 1.5320
-24.2286 15.3197 1.5076
-24.3204 14.1838 1.4777
-24.2075 12.9782 1.4387
-24.1244 11.8407 1.4046
-24.0770 10.7643 1.3755
-24.1518 9.7748 1.3559
-24.4369 8.8847 1.3502
-24.8613 8.0425 1.3537
-25.1611 7.1540 1.3521
-24.8113 6.1024 1.3176
-22.1517 4.6131 1.1641
-21.7097 3.7147 1.1305
-21.4535 2.8837 1.1084
-21.2950 2.0886 1.0930
-21.2192 1.3155 1.0833
-21.1158 0.5506 1.0737
-21.0842 -0.2063 1.0692
-21.0880 -0.9629 1.0678
-21.1818 -1.7297 1.0724
-21.4266 -2.5255 1.0860
-21.9085 -3.3824 1.1131
-22.5782 -4.3194 1.1514
-23.2041 -5.3077 1.1894
-23.8867 -6.3728 1.2323
-24.4505 -7.4715 1.2713
-24.5450 -8.4735 1.2881
-24.3079 -9.3795 1.2894
-24.0133 -10.2691 1.2895
-23.5828 -11.1010 1.2840
-23.2732 -11.9923 1.2868
-22.8537 -12.8329 1.2853
-22.4876 -13.7098 1.2887
-22.2056 -14.6546 1.2990
-21.8970 -15.6056 1.3101
-21.6562 -16.6356 1.3278
-21.5130 -17.7871 1.3545
-21.5276 -19.1386 1.3950
-21.5779 -20.6144 1.4425
4.4715 -1.1643 0.3346
4.4388 -0.9874 0.3299
4.4045 -0.8153 0.3255
4.3690 -0.6477 0.3215
4.3576 -0.4872 0.3197
4.3495 -0.3289 0.3186
4.3413 -0.1722 0.3178
4.2948 -0.0163 0.3147
1.8161 0.0582 0.1334
1.8493 0.1258 0.1363
4.1512 0.4323 0.3074
4.1230 0.5794 0.3072
4.0967 0.7263 0.3075
4.9728 1.0667 0.3765
4.9878 1.2585 0.3814
4.9322 1.4344 0.3815
4.7405 1.5650 0.3714
4.7148 1.7463 0.3746
4.6886 1.9304 0.3784
4.6619 2.1179 0.3827
4.6347 2.3094 0.3876
4.5979 2.5007 0.3923
4.5736 2.7043 0.3989
4.5578 2.9203 0.4069
4.5412 3.1449 0.4158
4.5238 3.3790 0.4257
4.5055 3.6241 0.4365
4.4719 3.8691 0.4469
4.5429 4.2246 0.4695
4.6253 4.6213 0.4954
4.7241 5.0712 0.5257
4.7323 5.4600 0.5487
4.7405 5.8830 0.5743
4.8318 6.4570 0.6137
4.9731 7.1679 0.6645
4.8116 7.4954 0.6790
4.5375 7.6591 0.6793
4.2058 7.7173 0.6712
3.8543 7.7187 0.6594
3.6919 8.1086 0.6814
4.6028 11.1529 0.9234
4.3752 11.7826 0.9625
4.6245 13.9693 1.1274
4.3458 14.8978 1.1896
4.7048 18.5826 1.4701
4.3810 20.3433 1.5965
3.6477 20.4806 1.5965
2.9103 20.5927 1.5965
1.5481 14.7545 1.1391
1.4268 20.7408 1.5965
0.7263 22.1203 1.6998
-0.0672 22.1313 1.6998
-0.8606 22.1151 1.6998
-1.6530 22.0718 1.6998
-2.4436 22.0014 1.6998
-3.2314 21.9040 1.6998
-4.0156 21.7796 1.6998
-4.7953 21.6284 1.6998
-5.5697 21.4505 1.6998
-6.3378 21.2460 1.6998
-7.0914 20.9933 1.6980
-7.3757 19.4994 1.5967
-8.0748 19.2339 1.5967
-8.7648 18.9443 1.5967
-7.3591 14.5165 1.2441
-10.1144 18.2941 1.5967
-10.7724 17.9343 1.5967
-11.5833 17.8054 1.6198
-12.2253 17.3945 1.6198
-12.8533 16.9612 1.6198
-13.4666 16.5061 1.6198
-14.0644 16.0296 1.6198
-14.6461 15.5321 1.6198
-15.2108 15.0143 1.6198
-15.7579 14.4764 1.6198
-16.2867 13.9193 1.6198
-16.7965 13.3434 1.6198
-17.2866 12.7494 1.6198
-17.7563 12.1378 1.6198
-18.2051 11.5094 1.6198
-18.5871 10.8384 1.6158
-18.8741 10.1172 1.6059
-19.1122 9.3790 1.5941
-19.3787 8.6622 1.5870
-19.5362 7.9051 1.5733
-19.5507 7.1066 1.5505
-19.4713 6.2972 1.5229
-19.3655 5.5046 1.4958
-19.0589 4.6861 1.4559
-18.8914 3.9327 1.4290
-18.7497 3.2067 1.4064
-18.6632 2.5072 1.3899
-18.5413 1.8170 1.3728
-18.4541 1.1426 1.3602
-18.4396 0.4793 1.3546
-18.4391 -0.1818 1.3519
-18.4804 -0.8453 1.3540
-18.6384 -1.5235 1.3664
-18.7778 -2.2148 1.3792
-18.9590 -2.9285 1.3969
-19.1553 -3.6661 1.4178
-19.4110 -4.4416 1.4451
-19.6233 -5.2370 1.4715
-19.8126 -6.0559 1.4985
-19.9390 -6.8851 1.5232
-19.9757 -7.7096 1.5437
-19.8846 -8.5052 1.5567
-19.6704 -9.2610 1.5624
-19.5147 -10.0573 1.5752
-19.3011 -10.8397 1.5859
-19.0588 -11.6211 1.5968
-18.7766 -12.3934 1.6070
-18.4930 -13.1814 1.6198
-18.0343 -13.8552 1.6198
-17.5504 -14.5126 1.6198
-17.0419 -15.1525 1.6198
-16.5094 -15.7740 1.6198
4.4543 -1.1602 0.4377
4.4220 -0.9840 0.4314
4.3877 -0.8125 0.4254
4.3527 -0.6456 0.4201
4.3283 -0.4842 0.4163
4.3203 -0.3271 0.4147
4.3123 -0.1714 0.4136
4.2655 -0.0165 0.4093
1.8160 0.0581 0.1746
1.8483 0.1256 0.1782
4.1367 0.4304 0.4007
4.1090 0.5771 0.4003
4.0829 0.7235 0.4005
4.0578 0.8701 0.4014
4.7891 1.2080 0.4783
4.8006 1.3957 0.4847
4.7299 1.5611 0.4835
4.7042 1.7420 0.4876
4.6780 1.9256 0.4923
4.6513 2.1127 0.4977
4.6212 2.3023 0.5036
4.5789 2.4899 0.5090
4.5547 2.6927 0.5173
4.5385 2.9076 0.5275
4.5216 3.1309 0.5388
4.5039 3.3637 0.5513
4.4852 3.6073 0.5651
4.4146 3.8191 0.5736
4.4930 4.1777 0.6035
4.5559 4.5515 0.6340
4.6201 4.9590 0.6679
4.5962 5.3025 0.6921
4.6032 5.7121 0.7241
4.6130 6.1640 0.7606
4.6610 6.7175 0.8083
4.7973 7.4723 0.8785
4.4876 7.5741 0.8716
4.1703 7.6515 0.8632
3.8300 7.6693 0.8497
3.6306 7.9732 0.8689
4.6394 11.2407 1.2066
4.4067 11.8663 1.2566
4.5238 13.6640 1.4295
4.2074 14.4220 1.4926
3.9430 15.5723 1.5965
3.3811 15.6990 1.5965
2.8154 15.8062 1.5965
2.2464 15.8936 1.5965
1.5467 14.7402 1.4744
1.1014 16.0092 1.5965
0.5607 17.0744 1.6998
-0.0518 17.0830 1.6998
-0.6643 17.0705 1.6998
-1.2760 17.0368 1.6998
-1.8862 16.9819 1.6998
-2.4942 16.9059 1.6998
-3.0994 16.8089 1.6998
-3.7009 16.6910 1.6998
-4.2982 16.5523 1.6998
-4.8905 16.3930 1.6998
-5.4772 16.2131 1.6998
-6.0574 16.0130 1.6998
-6.6307 15.7928 1.6998
-6.9360 14.9902 1.6383
-7.2832 14.3655 1.5967
-7.7981 14.1033 1.5967
-8.3039 13.8233 1.5967
-8.8000 13.5257 1.5967
-9.2858 13.2108 1.5967
-9.7606 12.8789 1.5967
-10.2240 12.5304 1.5967
-10.6753 12.1657 1.5967
-11.2748 11.9556 1.6198
-11.7065 11.5539 1.6198
-12.1243 11.1370 1.6198
-12.5276 10.7053 1.6198
-12.9159 10.2594 1.6198
-13.2888 9.7996 1.6198
-13.6457 9.3266 1.6198
-13.9861 8.8408 1.6198
-14.3096 8.3428 1.6198
-14.6158 7.8333 1.6198
-14.9041 7.3126 1.6198
-15.1742 6.7815 1.6198
-15.4258 6.2405 1.6198
-15.6378 5.6830 1.6176
-15.7308 5.0862 1.6054
-15.7284 4.4695 1.5858
-15.8014 3.8839 1.5762
-15.8197 3.2919 1.5632
-15.8552 2.7104 1.5542
-15.8923 2.1337 1.5473
-15.9610 1.5629 1.5456
-15.9586 0.9869 1.5389
-15.9494 0.4133 1.5336
-15.8550 -0.1576 1.5221
-15.8682 -0.7271 1.5229
-15.8789 -1.2992 1.5254
-15.9728 -1.8852 1.5380
-16.0415 -2.4791 1.5501
-16.0406 -3.0713 1.5576
-16.0323 -3.6698 1.5666
-16.0102 -4.2740 1.5764
-16.0048 -4.8934 1.5901
-15.9723 -5.5167 1.6035
-15.8491 -6.1183 1.6101
-15.6613 -6.7001 1.6124
-15.4509 -7.2758 1.6146
-15.2429 -7.8571 1.6193
-14.9731 -8.4104 1.6198
-14.6790 -8.9519 1.6198
-14.3650 -9.4829 1.6198
-14.0314 -10.0026 1.6198
-13.6787 -10.5103 1.6198
-13.3072 -11.0052 1.6198
-12.9175 -11.4867 1.6198
-12.5099 -11.9541 1.6198
4.4371 -1.1561 0.5405
4.4053 -0.9806 0.5325
4.3711 -0.8098 0.5251
4.3364 -0.6436 0.5184
4.3024 -0.4817 0.5125
4.2915 -0.3252 0.5100
4.2836 -0.1706 0.5085
4.2364 -0.0167 0.5031
1.8159 0.0580 0.2160
1.8473 0.1254 0.2203
4.1227 0.4287 0.4937
4.0950 0.5748 0.4931
4.0692 0.7207 0.4933
4.0441 0.8669 0.4942
4.6048 1.1611 0.5681
4.6137 1.3410 0.5753
4.6216 1.5250 0.5833
4.6285 1.7135 0.5922
4.6343 1.9073 0.6019
4.6407 2.1074 0.6127
4.6023 2.2924 0.6187
4.5600 2.4792 0.6251
4.5358 2.6811 0.6352
4.5193 2.8949 0.6476
4.5021 3.1170 0.6613
4.4840 3.3484 0.6764
4.4394 3.5700 0.6891
4.3585 3.7701 0.6977
4.4440 4.1317 0.7352
4.5038 4.4989 0.7719
4.5695 4.9041 0.8133
4.4921 5.1818 0.8327
4.4842 5.5638 0.8683
4.4853 5.9929 0.9101
4.5136 6.5044 0.9632
4.5636 7.1076 1.0282
4.4496 7.5093 1.0631
4.1342 7.5847 1.0526
3.8042 7.6171 1.0380
3.6079 7.9226 1.0618
4.6836 11.3466 1.4978
4.4512 11.9851 1.5607
4.1095 12.4116 1.5965
3.6607 12.5470 1.5965
3.2076 12.6667 1.5965
2.7506 12.7704 1.5965
2.2905 12.8582 1.5965
1.8277 12.9299 1.5965
1.3743 13.0965 1.6102
0.9541 13.8669 1.6998
0.4562 13.8914 1.6998
-0.0422 13.8985 1.6998
-0.5405 13.8882 1.6998
-1.0382 13.8606 1.6998
-1.5347 13.8157 1.6998
-2.0293 13.7535 1.6998
-2.5216 13.6741 1.6998
-3.0108 13.5776 1.6998
-3.4965 13.4640 1.6998
-3.9781 13.3336 1.6998
-4.4550 13.1864 1.6998
-4.9266 13.0226 1.6998
-5.3924 12.8424 1.6998
-5.8518 12.6460 1.6998
-6.3043 12.4335 1.6998
-6.7492 12.2053 1.6998
-6.8461 11.3955 1.6193
-7.1527 10.9928 1.5967
-7.5466 10.7354 1.5967
-7.9314 10.4643 1.5967
-8.3068 10.1797 1.5967
-8.6722 9.8819 1.5967
-9.0271 9.5712 1.5967
-9.3712 9.2481 1.5967
-9.7040 8.9128 1.5967
-10.0250 8.5658 1.5967
-10.3339 8.2074 1.5967
-10.6303 7.8381 1.5967
-11.0715 7.5661 1.6198
-11.3454 7.1706 1.6198
-11.6055 6.7652 1.6198
-11.8513 6.3506 1.6198
-12.0826 5.9272 1.6198
-12.2989 5.4954 1.6198
-12.5000 5.0559 1.6198
-12.6856 4.6090 1.6198
-12.8553 4.1554 1.6198
-13.0090 3.6956 1.6198
-13.1465 3.2302 1.6198
-13.2674 2.7598 1.6198
-13.3716 2.2848 1.6198
-6.9353 0.9306 0.8347
-13.5292 1.3237 1.6198
-13.5822 0.8388 1.6198
-13.6179 0.3518 1.6198
-13.6362 -0.1366 1.6198
-7.0270 -0.3225 0.8347
-13.6202 -1.1155 1.6198
-13.5859 -1.6046 1.6198
-13.5339 -2.0927 1.6198
-13.4644 -2.5791 1.6198
-13.3773 -3.0632 1.6198
-13.2727 -3.5443 1.6198
-13.1506 -4.0218 1.6198
-13.0113 -4.4951 1.6198
-6.7873 -2.6207 0.8552
-12.6813 -5.4263 1.6198
-6.6769 -3.1447 0.8658
-6.6579 -3.4325 0.8779
-6.6372 -3.7288 0.8914
-6.6260 -4.0414 0.9079
-6.6174 -4.3690 0.9268
-6.6104 -4.7130 0.9480
-6.6133 -5.0821 0.9731
-6.6171 -5.4731 1.0010
-6.6075 -5.8763 1.0299
-6.5868 -6.2948 1.0604
4.4201 -1.1520 0.6430
4.3886 -0.9773 0.6335
4.3544 -0.8071 0.6245
4.3201 -0.6415 0.6164
4.2865 -0.4802 0.6093
4.2628 -0.3234 0.6045
4.2551 -0.1698 0.6027
4.2076 -0.0169 0.5960
1.8157 0.0578 0.2576
1.8464 0.1251 0.2626
4.1086 0.4269 0.5867
4.0811 0.5725 0.5858
4.0554 0.7180 0.5860
4.0304 0.8636 0.5870
4.0052 1.0096 0.5887
4.4399 1.2901 0.6595
4.4454 1.4664 0.6683
4.4496 1.6469 0.6780
4.4525 1.8321 0.6885
4.5398 2.0613 0.7136
4.5834 2.2826 0.7334
4.5411 2.4686 0.7410
4.5170 2.6695 0.7527
4.5002 2.8822 0.7673
4.4827 3.1031 0.7833
4.4623 3.3318 0.8007
4.3840 3.5250 0.8094
4.3036 3.7221 0.8192
4.3330 4.0279 0.8523
4.4526 4.4472 0.9073
4.5148 4.8449 0.9553
4.4519 5.1348 0.9809
4.3706 5.4224 1.0058
4.3665 5.8335 1.0529
4.3745 6.3033 1.1093
4.4120 6.8708 1.1811
4.4164 7.4527 1.2537
4.0963 7.5145 1.2391
3.7728 7.5535 1.2229
3.5918 7.8865 1.2556
4.2029 10.1813 1.5965
3.8339 10.3221 1.5965
3.4603 10.4498 1.5965
3.0825 10.5644 1.5965
0.8467 3.3432 0.5004
0.7259 3.3700 0.5003
0.6044 3.3927 0.5003
0.4822 3.4113 0.5002
0.3595 3.4256 0.5001
0.2364 3.4358 0.5001
0.1130 3.4418 0.5001
-0.0105 3.4436 0.5001
-0.1339 3.4411 0.5001
-0.2573 3.4345 0.5001
-0.3803 3.4237 0.5002
-0.5030 3.4087 0.5003
-0.6251 3.3895 0.5003
-0.7465 3.3662 0.5005
-2.9444 11.3371 1.6998
-3.3498 11.2268 1.6998
-3.7512 11.1023 1.6998
-4.1481 10.9638 1.6998
-4.5400 10.8115 1.6998
-4.9265 10.6454 1.6998
-5.3070 10.4658 1.6998
-5.6812 10.2729 1.6998
-6.0485 10.0670 1.6998
-6.4085 9.8481 1.6998
-6.7608 9.6167 1.6998
-6.7812 8.9458 1.6223
-6.9891 8.5641 1.5967
-7.2958 8.3126 1.5967
-7.5936 8.0504 1.5967
-7.8822 7.7777 1.5967
-8.1611 7.4948 1.5967
-8.4301 7.2021 1.5967
-8.6888 6.8999 1.5967
-8.9368 6.5885 1.5967
-9.1738 6.2684 1.5967
-9.3995 5.9398 1.5967
-9.6136 5.6032 1.5967
-9.8158 5.2590 1.5967
-10.0059 4.9076 1.5967
-10.1835 4.5493 1.5967
-10.3484 4.1847 1.5967
-10.5005 3.8142 1.5967
-10.6393 3.4382 1.5967
-10.9205 3.1014 1.6198
-11.0341 2.7103 1.6198
-6.7911 1.4121 0.9880
-6.7798 1.1579 0.9788
-6.7694 0.9078 0.9711
-6.7598 0.6609 0.9649
-6.7509 0.4164 0.9600
-6.7428 0.1737 0.9565
-6.7354 -0.0680 0.9543
-6.7286 -0.3094 0.9535
-6.7225 -0.5511 0.9539
-6.7170 -0.7939 0.9557
-6.7122 -1.0384 0.9589
-6.7080 -1.2854 0.9634
-6.7044 -1.5357 0.9693
-6.7014 -1.7901 0.9767
-6.6991 -2.0493 0.9856
-6.6974 -2.3144 0.9960
-6.6938 -2.5851 1.0078
-6.6865 -2.8617 1.0206
-6.6790 -3.1463 1.0352
-6.6665 -3.4375 1.0508
-6.6501 -3.7366 1.0678
-6.6325 -4.0460 1.0867
-6.6174 -4.3697 1.1083
-6.6084 -4.7122 1.1336
-6.6126 -5.0823 1.1639
-6.7615 -5.5932 1.2238
-8.5606 -7.6142 1.5967
-8.2879 -7.9214 1.5967
4.4030 -1.1479 0.7454
4.3719 -0.9739 0.7343
4.3378 -0.8043 0.7238
4.3038 -0.6394 0.7144
4.2706 -0.4788 0.7061
4.2379 -0.3219 0.6989
4.2259 -0.1689 0.6960
4.1790 -0.0172 0.6883
1.8156 0.0577 0.2994
1.8454 0.1249 0.3051
4.0946 0.4251 0.6796
4.0672 0.5702 0.6785
4.0417 0.7152 0.6786
4.0168 0.8604 0.6797
3.9916 1.0059 0.6816
4.2777 1.2426 0.7381
4.2810 1.4119 0.7475
4.2830 1.5849 0.7579
4.2890 1.7644 0.7702
4.4409 2.0160 0.8105
4.5646 2.2728 0.8480
4.5223 2.4579 0.8566
4.4982 2.6580 0.8701
4.4812 2.8696 0.8867
4.4633 3.0892 0.9051
4.4075 3.2904 0.9177
4.3297 3.4809 0.9275
4.2496 3.6750 0.9385
4.2187 3.9212 0.9627
4.4022 4.3964 1.0404
4.4610 4.7867 1.0948
4.4121 5.0885 1.1275
4.3205 5.3596 1.1531
4.2530 5.6814 1.1892
4.2429 6.1130 1.2475
4.2692 6.6479 1.3251
4.3757 7.3832 1.4400
4.0589 7.4451 1.4233
3.7434 7.4940 1.4066
3.5429 7.7785 1.4357
3.6260 8.7830 1.5965
3.3078 8.9049 1.5965
2.9856 9.0155 1.5965
0.8370 2.8683 0.5024
0.7333 2.8952 0.5023
0.6288 2.9186 0.5022
0.5235 2.9384 0.5021
0.4177 2.9546 0.5021
0.3114 2.9671 0.5020
0.2048 2.9760 0.5020
0.0979 2.9812 0.5020
-0.0090 2.9828 0.5020
-0.1160 2.9806 0.5020
-0.2229 2.9748 0.5020
-0.3294 2.9654 0.5021
-0.4357 2.9523 0.5021
-0.5414 2.9356 0.5022
-0.6466 2.9152 0.5023
-0.7510 2.8913 0.5024
-2.8904 9.6862 1.6998
-3.2366 9.5785 1.6998
-3.5789 9.4586 1.6998
-3.9169 9.3268 1.6998
-4.2501 9.1831 1.6998
-4.5782 9.0277 1.6998
-4.9007 8.8608 1.6998
-5.2172 8.6827 1.6998
-5.5274 8.4934 1.6998
-5.8309 8.2932 1.6998
-6.1273 8.0824 1.6998
-6.4161 7.8611 1.6998
-6.6971 7.6297 1.6998
-6.7293 7.1334 1.6411
-6.7955 6.7047 1.5967
-7.0354 6.4602 1.5967
-7.2666 6.2073 1.5967
-7.4889 5.9463 1.5967
-7.7019 5.6774 1.5967
-7.9054 5.4009 1.5967
-8.0991 5.1173 1.5967
-8.2828 4.8268 1.5967
-8.4561 4.5297 1.5967
-8.6189 4.2265 1.5967
-8.7710 3.9175 1.5967
-8.9120 3.6031 1.5967
-9.0419 3.2837 1.5967
-9.1605 2.9596 1.5967
-9.2675 2.6312 1.5967
-9.3628 2.2990 1.5967
-6.7688 1.4069 1.1441
-6.7622 1.1544 1.1344
-6.7557 0.9054 1.1263
-6.7492 0.6593 1.1197
-6.7428 0.4154 1.1146
-6.7365 0.1730 1.1109
-6.7302 -0.0685 1.1087
-6.7238 -0.3097 1.1079
-6.7175 -0.5512 1.1086
-6.7111 -0.7937 1.1107
-6.7047 -1.0378 1.1142
-6.6983 -1.2841 1.1192
-6.6917 -1.5334 1.1257
-6.6851 -1.7863 1.1338
-6.6784 -2.0435 1.1435
-6.6777 -2.3081 1.1559
-6.6856 -2.5826 1.1717
-8.9850 -3.8462 1.5967
-8.8477 -4.1687 1.5967
-8.6988 -4.4862 1.5967
-8.5383 -4.7983 1.5967
-6.7994 -4.1485 1.2976
-8.1837 -5.4047 1.5967
-7.9900 -5.6982 1.5967
-7.7856 -5.9846 1.5967
-6.7615 -5.5939 1.4260
-7.3460 -6.5347 1.5967
-7.1113 -6.7976 1.5967
4.3859 -1.1438 0.8477
4.3552 -0.9705 0.8351
4.3212 -0.8016 0.8231
4.2876 -0.6374 0.8124
4.2546 -0.4773 0.8029
4.2223 -0.3210 0.7947
4.1968 -0.1681 0.7888
4.1626 -0.0174 0.7822
1.8154 0.0575 0.3416
1.8444 0.1247 0.3479
4.0805 0.4233 0.7725
4.0533 0.5680 0.7712
4.0280 0.7125 0.7713
4.0031 0.8571 0.7724
3.9780 1.0021 0.7746
3.9527 1.1479 0.7777
4.1274 1.3608 0.8216
4.1273 1.5269 0.8325
4.2013 1.7280 0.8599
4.3455 1.9723 0.9039
4.5425 2.2614 0.9617
4.5035 2.4473 0.9720
4.4794 2.6465 0.9873
4.4621 2.8569 1.0060
4.4292 3.0652 1.0233
4.3537 3.2498 1.0327
4.2763 3.4375 1.0435
4.1966 3.6287 1.0557
4.1145 3.8240 1.0694
4.3063 4.3001 1.1592
4.4082 4.7295 1.2321
4.3728 5.0426 1.2725
4.2812 5.3103 1.3010
4.1849 5.5898 1.3324
4.1289 5.9482 1.3822
4.1345 6.4374 1.4610
4.2473 7.1658 1.5913
3.9993 7.3351 1.5965
3.7229 7.4522 1.5924
3.4611 7.5982 1.5965
3.1855 7.7154 1.5965
2.9061 7.8227 1.5965
0.8279 2.4999 0.5039
0.7375 2.5270 0.5038
0.6461 2.5509 0.5037
0.5540 2.5716 0.5037
0.4613 2.5891 0.5036
0.3681 2.6034 0.5035
0.2744 2.6145 0.5035
0.1805 2.6224 0.5035
0.0863 2.6270 0.5035
-0.0080 2.6284 0.5035
-0.1022 2.6265 0.5035
-0.1964 2.6213 0.5035
-0.2903 2.6130 0.5035
-0.3839 2.6014 0.5036
-0.4771 2.5866 0.5037
-0.5697 2.5685 0.5037
-0.6617 2.5473 0.5038
-0.7529 2.5229 0.5039
-2.8436 8.4147 1.6998
-3.1443 8.3092 1.6998
-3.4411 8.1931 1.6998
-3.7337 8.0666 1.6998
-4.0217 7.9298 1.6998
-4.3049 7.7828 1.6998
-4.5827 7.6260 1.6998
-4.8550 7.4594 1.6998
-5.1213 7.2832 1.6998
-5.3813 7.0976 1.6998
-5.6346 6.9029 1.6998
-5.8811 6.6994 1.6998
-6.1203 6.4871 1.6998
-6.3520 6.2664 1.6998
-6.5758 6.0375 1.6998
-6.6908 5.7148 1.6746
-6.6855 5.3077 1.6237
-6.7608 4.9830 1.5967
-6.9389 4.7399 1.5967
-7.1084 4.4906 1.5967
-7.2690 4.2353 1.5967
-7.4205 3.9743 1.5967
-7.5628 3.7080 1.5967
-7.6956 3.4365 1.5967
-7.8187 3.1604 1.5967
-7.9320 2.8799 1.5967
-8.0353 2.5954 1.5967
-8.1284 2.3071 1.5967
-8.2113 2.0156 1.5967
-8.2838 1.7211 1.5967
-8.3457 1.4240 1.5967
-6.9325 0.9285 1.3182
-8.4377 0.8235 1.5967
-8.4675 0.5209 1.5967
-8.4865 0.2172 1.5967
-7.0138 -0.0719 1.3183
-6.8998 -0.3183 1.2973
-8.4782 -0.6964 1.5967
-8.4535 -1.0005 1.5967
-8.4180 -1.3037 1.5967
-8.3715 -1.6056 1.5967
-8.3142 -1.9058 1.5967
-8.2460 -2.2040 1.5967
-8.1672 -2.4998 1.5967
-8.0776 -2.7927 1.5967
-6.8388 -2.6423 1.3688
-7.8670 -3.3683 1.5967
-7.7461 -3.6504 1.5967
-7.6151 -3.9280 1.5967
-7.4740 -4.2009 1.5967
-6.7993 -4.1491 1.4825
-7.1624 -4.7309 1.5967
-6.9923 -4.9874 1.5967
-6.8130 -5.2376 1.5967
-6.6245 -5.4813 1.5967
-6.4273 -5.7182 1.5967
-6.3830 -6.1022 1.6381
4.3689 -1.1397 0.9502
4.3385 -0.9672 0.9360
4.3046 -0.7989 0.9224
4.2713 -0.6353 0.9104
4.2387 -0.4759 0.8998
4.2067 -0.3202 0.8905
4.1759 -0.1676 0.8827
4.1481 -0.0177 0.8767
1.8153 0.0574 0.3841
1.8435 0.1245 0.3910
4.0665 0.4215 0.8656
4.0393 0.5657 0.8641
4.0142 0.7097 0.8641
3.9894 0.8538 0.8654
3.9644 0.9984 0.8677
3.9391 1.1436 0.8711
3.9134 1.2900 0.8756
3.9907 1.4761 0.9046
4.1164 1.6927 0.9468
4.2534 1.9301 0.9942
4.4037 2.1919 1.0476
4.4847 2.4367 1.0876
4.4606 2.6350 1.1045
4.4431 2.8443 1.1253
4.3758 3.0277 1.1356
4.3007 3.2098 1.1459
4.2237 3.3948 1.1576
4.1445 3.5832 1.1709
4.0628 3.7755 1.1859
4.1877 4.1812 1.2659
4.3561 4.6731 1.3672
4.3339 4.9971 1.4162
4.2422 5.2614 1.4475
4.1459 5.5371 1.4821
4.0444 5.8259 1.5201
4.0071 6.2384 1.5897
3.7956 6.4033 1.5965
3.5625 6.5333 1.5965
3.3249 6.6550 1.5965
3.0833 6.7681 1.5965
2.8378 6.8727 1.5965
0.8192 2.2049 0.5052
0.7392 2.2319 0.5050
0.6585 2.2562 0.5050
0.5769 2.2776 0.5049
0.4947 2.2962 0.5048
0.4120 2.3119 0.5047
0.3287 2.3247 0.5047
0.2451 2.3347 0.5047
0.1612 2.3417 0.5046
0.0771 2.3458 0.5046
-0.0071 2.3471 0.5046
-0.0913 2.3454 0.5046
-0.1754 2.3408 0.5047
-0.2593 2.3333 0.5047
-0.3428 2.3229 0.5047
-0.4260 2.3096 0.5048
-0.5087 2.2934 0.5049
-0.5908 2.2744 0.5050
-0.6723 2.2525 0.5051
-0.7529 2.2278 0.5052
-0.8327 2.2003 0.5053
-3.0655 7.2983 1.6998
-3.3261 7.1853 1.6998
-3.5826 7.0633 1.6998
-3.8347 6.9322 1.6998
-4.0821 6.7922 1.6998
-4.3244 6.6435 1.6998
-4.5614 6.4864 1.6998
-4.7928 6.3208 1.6998
-5.0183 6.1472 1.6998
-5.2375 5.9656 1.6998
-5.4503 5.7762 1.6998
-5.6563 5.5794 1.6998
-5.8553 5.3753 1.6998
-6.0470 5.1643 1.6998
-6.2312 4.9464 1.6998
-6.4076 4.7220 1.6998
-6.5761 4.4915 1.6998
-6.6512 4.2012 1.6783
-6.6441 3.8706 1.6396
-6.6437 3.5577 1.6061
-6.7310 3.2995 1.5967
-6.8487 3.0578 1.5967
-6.9578 2.8118 1.5967
-7.0582 2.5620 1.5967
-7.1496 2.3087 1.5967
-7.2320 2.0521 1.5967
-7.3052 1.7926 1.5967
-7.3692 1.5305 1.5967
-7.4237 1.2661 1.5967
-6.9325 0.9280 1.4820
-7.5044 0.7318 1.5967
-7.5304 0.4627 1.5967
-7.5468 0.1926 1.5967
-7.0068 -0.0724 1.4811
-6.8998 -0.3189 1.4591
-7.5377 -0.6197 1.5967
-7.5153 -0.8900 1.5967
-7.4831 -1.1595 1.5967
-7.4413 -1.4278 1.5967
-7.3898 -1.6946 1.5967
-7.3287 -1.9595 1.5967
-7.2581 -2.2221 1.5967
-7.1780 -2.4822 1.5967
-6.8388 -2.6429 1.5404
-6.9898 -2.9934 1.5967
-6.8820 -3.2438 1.5967
-6.7651 -3.4902 1.5967
-6.6393 -3.7324 1.5967
-6.5048 -3.9700 1.5967
-6.4368 -4.2522 1.6155
-6.4209 -4.5805 1.6508
-6.4118 -4.9298 1.6920
-6.2627 -5.1826 1.6998
-6.0759 -5.4062 1.6998
-5.8811 -5.6230 1.6998
4.3518 -1.1356 1.0528
4.3216 -0.9638 1.0370
4.2879 -0.7961 1.0220
4.2550 -0.6332 1.0086
4.2227 -0.4745 0.9968
4.1914 -0.3193 0.9866
4.1620 -0.1674 0.9782
4.1335 -0.0180 0.9713
1.8151 0.0572 0.4270
1.8425 0.1243 0.4344
4.0524 0.4197 0.9589
4.0254 0.5634 0.9572
4.0004 0.7069 0.9572
3.9757 0.8506 0.9585
3.9507 0.9946 0.9610
3.9255 1.1393 0.9647
3.8998 1.2852 0.9696
3.9144 1.4475 0.9860
4.0341 1.6585 1.0311
4.1642 1.8892 1.0815
4.3066 2.1432 1.1383
4.4659 2.4260 1.2032
4.4418 2.6234 1.2219
4.3959 2.8136 1.2368
4.3231 2.9909 1.2463
4.2486 3.1705 1.2574
4.1720 3.3528 1.2700
4.0932 3.5384 1.2844
4.0119 3.7277 1.3006
4.0744 4.0676 1.3679
4.2725 4.5829 1.4892
4.2952 4.9520 1.5586
4.2036 5.2129 1.5928
4.0219 5.3710 1.5965
3.8254 5.5100 1.5965
3.6242 5.6419 1.5965
3.4185 5.7666 1.5965
3.2086 5.8839 1.5965
2.9948 5.9936 1.5965
2.7772 6.0957 1.5965
0.8104 1.9625 0.5062
0.7392 1.9894 0.5060
0.6671 2.0139 0.5060
0.5942 2.0359 0.5059
0.5207 2.0553 0.5058
0.4465 2.0721 0.5057
0.3718 2.0863 0.5057
0.2967 2.0979 0.5056
0.2212 2.1069 0.5056
0.1455 2.1133 0.5056
0.0696 2.1171 0.5056
-0.0064 2.1182 0.5056
-0.0824 2.1166 0.5056
-0.1583 2.1125 0.5056
-0.2340 2.1057 0.5056
-0.3094 2.0963 0.5057
-0.3845 2.0842 0.5057
-0.4591 2.0696 0.5058
-0.5332 2.0523 0.5059
-0.6067 2.0325 0.5060
-0.6794 2.0102 0.5061
-0.7514 1.9853 0.5062
-0.8225 1.9579 0.5063
-2.9959 6.4715 1.6998
-3.2269 6.3614 1.6998
-3.4539 6.2431 1.6998
-3.6765 6.1169 1.6998
-3.8947 5.9828 1.6998
-4.1080 5.8411 1.6998
-4.3163 5.6918 1.6998
-4.5191 5.5352 1.6998
-4.7164 5.3715 1.6998
-4.9078 5.2008 1.6998
-5.0931 5.0233 1.6998
-5.2721 4.8394 1.6998
-5.4445 4.6491 1.6998
-5.6101 4.4528 1.6998
-5.7687 4.2506 1.6998
-5.9200 4.0428 1.6998
-6.0640 3.8297 1.6998
-6.2003 3.6115 1.6998
-6.3289 3.3885 1.6998
-6.4494 3.1609 1.6998
-6.5619 2.9291 1.6998
-6.6110 2.6711 1.6857
-6.6038 2.3965 1.6600
-6.5989 2.1303 1.6377
-6.5966 1.8712 1.6185
-6.5938 1.6175 1.6017
-6.6301 1.3764 1.5967
-6.6788 1.1385 1.5967
-6.7190 0.8988 1.5967
-6.7513 0.6578 1.5968
-6.7737 0.4156 1.5967
-6.7880 0.1727 1.5967
-6.7936 -0.0708 1.5967
-6.7905 -0.3144 1.5967
-6.7786 -0.5579 1.5967
-6.7580 -0.8009 1.5967
-6.7287 -1.0432 1.5967
-6.6998 -1.2861 1.5989
-6.6440 -1.5241 1.5967
-6.5887 -1.7622 1.5967
-6.5248 -1.9982 1.5967
-6.4915 -2.2454 1.6063
-6.4806 -2.5051 1.6240
-6.4690 -2.7709 1.6440
-6.4612 -3.0460 1.6679
-6.4537 -3.3301 1.6948
-6.3519 -3.5714 1.6998
-6.2229 -3.7985 1.6998
-6.0857 -4.0209 1.6998
-5.9405 -4.2383 1.6998
-5.7875 -4.4504 1.6998
-5.6268 -4.6570 1.6998
-5.4587 -4.8576 1.6998
-5.2834 -5.0522 1.6998
4.3346 -1.1315 1.1556
4.3045 -0.9603 1.1383
4.2712 -0.7934 1.1218
4.2387 -0.6311 1.1071
4.2067 -0.4730 1.0942
4.1772 -0.3186 1.0834
4.1480 -0.1672 1.0741
4.1192 -0.0182 1.0664
1.8149 0.0570 0.4703
1.8415 0.1241 0.4783
4.0382 0.4179 1.0526
4.0113 0.5611 1.0507
3.9866 0.7041 1.0507
3.9619 0.8473 1.0520
3.9370 0.9908 1.0547
3.9118 1.1350 1.0587
3.8890 1.2812 1.0648
3.8712 1.4312 1.0738
3.9542 1.6253 1.1128
4.0779 1.8497 1.1661
4.2127 2.0961 1.2259
4.4470 2.4153 1.3191
4.4140 2.6066 1.3368
4.3434 2.7797 1.3453
4.2712 2.9545 1.3555
4.1971 3.1316 1.3673
4.1210 3.3114 1.3809
4.0426 3.4942 1.3963
3.9617 3.6806 1.4136
3.9660 3.9589 1.4654
4.1491 4.4500 1.5916
3.9976 4.6084 1.5965
3.8285 4.7473 1.5965
3.6546 4.8800 1.5965
3.4762 5.0065 1.5965
3.2935 5.1265 1.5965
3.1066 5.2399 1.5965
2.9159 5.3466 1.5965
2.7216 5.4465 1.5965
0.8015 1.7591 0.5070
0.7376 1.7860 0.5069
0.6728 1.8106 0.5068
0.6072 1.8329 0.5067
0.5409 1.8530 0.5066
0.4739 1.8707 0.5066
0.4064 1.8860 0.5065
0.3385 1.8990 0.5064
0.2701 1.9096 0.5064
0.2014 1.9179 0.5064
0.1324 1.9237 0.5064
0.0633 1.9271 0.5064
-0.0058 1.9281 0.5064
-0.0750 1.9267 0.5064
-0.1441 1.9229 0.5064
-0.2130 1.9167 0.5064
-0.2817 1.9081 0.5065
-0.3500 1.8971 0.5065
-0.4179 1.8837 0.5066
-0.4853 1.8680 0.5066
-0.5522 1.8499 0.5067
-0.6184 1.8295 0.5068
-0.6839 1.8068 0.5069
-0.7486 1.7818 0.5070
-0.8123 1.7546 0.5071
-2.9326 5.7807 1.6998
-3.1388 5.6731 1.6998
-3.3411 5.5583 1.6998
-3.5393 5.4363 1.6998
-3.7330 5.3073 1.6998
-3.9222 5.1715 1.6998
-4.1064 5.0291 1.6998
-4.2855 4.8802 1.6998
-4.4593 4.7249 1.6998
-4.6275 4.5636 1.6998
-4.7899 4.3963 1.6998
-4.9464 4.2233 1.6998
-5.0966 4.0447 1.6998
-5.2405 3.8609 1.6998
-5.3778 3.6720 1.6998
-5.5084 3.4783 1.6998
-5.6320 3.2799 1.6998
-5.7485 3.0772 1.6998
-5.8578 2.8704 1.6998
-5.9597 2.6598 1.6998
-6.0540 2.4455 1.6998
-6.1407 2.2279 1.6998
-6.2196 2.0073 1.6998
-6.2907 1.7839 1.6998
-6.3537 1.5580 1.6998
-6.4086 1.3299 1.6998
-6.4554 1.0999 1.6998
-6.4940 0.8682 1.6998
-6.5242 0.6352 1.6998
-6.5461 0.4011 1.6998
-6.5454 0.1659 1.6961
-6.5392 -0.0687 1.6932
-6.5331 -0.3030 1.6924
-6.5269 -0.5377 1.6939
-6.5207 -0.7733 1.6975
-6.5008 -1.0084 1.6998
-6.4637 -1.2413 1.6998
-6.4183 -1.4729 1.6998
-6.3646 -1.7028 1.6998
-6.3026 -1.9307 1.6998
-6.2324 -2.1564 1.6998
-6.1541 -2.3794 1.6998
-6.0678 -2.5996 1.6998
-5.9736 -2.8167 1.6998
-5.8716 -3.0303 1.6998
-5.7619 -3.2402 1.6998
-5.6446 -3.4461 1.6998
-5.5199 -3.6477 1.6998
-5.3880 -3.8447 1.6998
-5.2490 -4.0369 1.6998
-5.1031 -4.2241 1.6998
-4.9505 -4.4059 1.6998
-4.7913 -4.5822 1.6998
4.3174 -1.1274 1.2589
4.2874 -0.9569 1.2399
4.2545 -0.7906 1.2220
4.2223 -0.6291 1.2060
4.1921 -0.4717 1.1924
4.1629 -0.3179 1.1806
4.1340 -0.1669 1.1705
4.1054 -0.0185 1.1620
1.8148 0.0569 0.5142
1.8405 0.1238 0.5226
4.0240 0.4161 1.1467
3.9972 0.5588 1.1446
3.9727 0.7014 1.1445
3.9481 0.8440 1.1460
3.9233 0.9870 1.1488
3.8984 1.1308 1.1532
3.8809 1.2782 1.1614
3.8631 1.4278 1.1712
3.8766 1.5930 1.1923
3.9941 1.8113 1.2482
4.1218 2.0505 1.3108
4.4311 2.4063 1.4363
4.3660 2.5778 1.4449
4.2942 2.7477 1.4534
4.2214 2.9196 1.4638
4.1475 3.0941 1.4763
4.0722 3.2717 1.4909
3.9953 3.4529 1.5077
3.9167 3.6383 1.5269
3.8777 3.8703 1.5654
3.8095 4.0853 1.5965
3.6594 4.2180 1.5965
3.5047 4.3452 1.5965
3.3456 4.4668 1.5965
3.1823 4.5827 1.5965
3.0151 4.6927 1.5965
2.8441 4.7966 1.5965
2.6696 4.8944 1.5965
0.7924 1.5856 0.5077
0.7347 1.6123 0.5076
0.6761 1.6370 0.5075
0.6168 1.6596 0.5074
0.5566 1.6802 0.5073
0.4959 1.6986 0.5073
0.4345 1.7148 0.5072
0.3726 1.7289 0.5072
0.3103 1.7409 0.5071
0.2476 1.7506 0.5071
0.1846 1.7582 0.5070
0.1214 1.7635 0.5070
0.0581 1.7667 0.5070
-0.0054 1.7676 0.5070
-0.0688 1.7663 0.5070
-0.1321 1.7628 0.5070
-0.1953 1.7571 0.5071
-0.2582 1.7492 0.5071
-0.3209 1.7391 0.5072
-0.3831 1.7268 0.5072
-0.4449 1.7124 0.5073
-0.5062 1.6957 0.5073
-0.5669 1.6770 0.5074
-0.6269 1.6561 0.5075
-0.6862 1.6332 0.5076
-0.7446 1.6081 0.5077
-0.8022 1.5811 0.5078
-2.8736 5.1933 1.6998
-3.0588 5.0881 1.6998
-3.2401 4.9763 1.6998
-3.4174 4.8581 1.6998
-3.5905 4.7337 1.6998
-3.7590 4.6032 1.6998
-3.9229 4.4667 1.6998
-4.0819 4.3245 1.6998
-4.2357 4.1767 1.6998
-4.3843 4.0234 1.6998
-4.5273 3.8650 1.6998
-4.6647 3.7014 1.6998
-4.7963 3.5331 1.6998
-4.9217 3.3601 1.6998
-5.0411 3.1827 1.6998
-5.1540 3.0011 1.6998
-5.2604 2.8155 1.6998
-5.3603 2.6261 1.6998
-5.4533 2.4333 1.6998
-5.5394 2.2371 1.6998
-5.6185 2.0380 1.6998
-5.6905 1.8361 1.6998
-5.7553 1.6316 1.6998
-5.8127 1.4249 1.6998
-5.8628 1.2161 1.6998
-5.9053 1.0056 1.6998
-5.9404 0.7937 1.6998
-5.9678 0.5805 1.6998
-5.9876 0.3664 1.6998
-5.9997 0.1516 1.6998
-6.0041 -0.0636 1.6998
-6.0008 -0.2788 1.6998
-5.9898 -0.4940 1.6998
-5.9711 -0.7086 1.6998
-5.9446 -0.9226 1.6998
-5.9105 -1.1356 1.6998
-5.8688 -1.3473 1.6998
-5.8194 -1.5574 1.6998
-5.7625 -1.7658 1.6998
-5.6981 -1.9720 1.6998
-5.6263 -2.1759 1.6998
-5.5472 -2.3771 1.6998
-5.4609 -2.5754 1.6998
-5.3674 -2.7706 1.6998
-5.2669 -2.9624 1.6998
-5.1595 -3.1504 1.6998
-5.0454 -3.3346 1.6998
-4.9246 -3.5146 1.6998
-4.7974 -3.6901 1.6998
-4.6639 -3.8611 1.6998
-4.5243 -4.0271 1.6998
-4.3787 -4.1880 1.6998
4.3001 -1.1233 1.3626
4.2702 -0.9534 1.3420
4.2376 -0.7879 1.3226
4.2070 -0.6271 1.3058
4.1776 -0.4704 1.2911
4.1486 -0.3171 1.2784
4.1199 -0.1667 1.2675
4.0915 -0.0188 1.2583
1.8146 0.0567 0.5586
1.8394 0.1236 0.5675
4.0097 0.4143 1.2413
3.9830 0.5565 1.2390
3.9587 0.6985 1.2390
3.9342 0.8407 1.2405
3.9094 0.9831 1.2435
3.8903 1.1281 1.2500
3.8728 1.2752 1.2588
3.8550 1.4245 1.2694
3.8366 1.5763 1.2816
3.9126 1.7740 1.3280
4.0337 2.0062 1.3931
4.4309 2.4057 1.5598
4.3637 2.5760 1.5683
4.2919 2.7458 1.5774
4.2191 2.9177 1.5887
4.1304 3.0810 1.5965
4.0159 3.2260 1.5965
3.8963 3.3669 1.5965
3.7718 3.5033 1.5965
3.6425 3.6352 1.5965
3.5087 3.7623 1.5965
3.3705 3.8846 1.5965
3.2281 4.0019 1.5965
3.0816 4.1140 1.5965
2.9313 4.2208 1.5965
2.7773 4.3222 1.5965
0.8344 1.4070 0.5085
0.7830 1.4354 0.5083
0.7307 1.4620 0.5082
0.6775 1.4867 0.5081
0.6235 1.5095 0.5080
0.5688 1.5304 0.5080
0.5133 1.5493 0.5079
0.4573 1.5664 0.5078
0.4007 1.5814 0.5078
0.3437 1.5944 0.5077
0.2862 1.6054 0.5077
0.2284 1.6145 0.5076
0.1703 1.6214 0.5076
0.1120 1.6264 0.5076
0.0535 1.6293 0.5076
-0.0049 1.6302 0.5076
-0.0634 1.6290 0.5076
-0.1218 1.6257 0.5076
-0.1801 1.6205 0.5076
-0.2382 1.6131 0.5077
-0.2959 1.6038 0.5077
-0.3534 1.5924 0.5078
-0.4104 1.5791 0.5078
-0.4669 1.5637 0.5079
-0.5228 1.5464 0.5080
-0.5781 1.5271 0.5081
-0.6328 1.5059 0.5081
-0.6866 1.4828 0.5082
-0.7397 1.4578 0.5083
-0.7918 1.4309 0.5085
-2.8176 4.6864 1.6998
-2.9846 4.5834 1.6998
-3.1479 4.4745 1.6998
-3.3072 4.3598 1.6998
-3.4624 4.2395 1.6998
-3.6132 4.1137 1.6998
-3.7596 3.9826 1.6998
-3.9012 3.8464 1.6998
-4.0379 3.7051 1.6998
-4.1696 3.5591 1.6998
-4.2960 3.4084 1.6998
-4.4170 3.2532 1.6998
-4.5324 3.0939 1.6998
-4.6422 2.9304 1.6998
-4.7460 2.7631 1.6998
-4.8439 2.5921 1.6998
-4.9357 2.4176 1.6998
-5.0212 2.2400 1.6998
-5.1003 2.0593 1.6998
-5.1730 1.8759 1.6998
-5.2391 1.6899 1.6998
-5.2986 1.5016 1.6998
-5.3513 1.3113 1.6998
-5.3972 1.1191 1.6998
-5.4362 0.9253 1.6998
-5.4682 0.7301 1.6998
-5.4933 0.5339 1.6998
-5.5113 0.3368 1.6998
-5.5223 0.1391 1.6998
-5.5261 -0.0590 1.6998
-5.5229 -0.2571 1.6998
-5.5126 -0.4551 1.6998
-5.4952 -0.6526 1.6998
-5.4706 -0.8495 1.6998
-5.4391 -1.0455 1.6998
-5.4004 -1.2402 1.6998
-5.3548 -1.4336 1.6998
-5.3023 -1.6252 1.6998
-5.2429 -1.8149 1.6998
-5.1766 -2.0024 1.6998
-5.1037 -2.1875 1.6998
-5.0241 -2.3699 1.6998
-4.9379 -2.5494 1.6998
-4.8453 -2.7257 1.6998
-4.7464 -2.8986 1.6998
-4.6413 -3.0680 1.6998
-4.5300 -3.2334 1.6998
-4.4129 -3.3948 1.6998
-4.2900 -3.5520 1.6998
-4.1614 -3.7046 1.6998
-4.0274 -3.8525 1.6998
4.2830 -1.1191 1.4671
4.2528 -0.9499 1.4447
4.2216 -0.7853 1.4242
4.1920 -0.6253 1.4063
4.1629 -0.4691 1.3906
4.1341 -0.3164 1.3769
4.1057 -0.1665 1.3651
4.0775 -0.0191 1.3552
1.8145 0.0566 0.6036
1.8384 0.1234 0.6129
3.9953 0.4124 1.3366
3.9688 0.5541 1.3341
3.9446 0.6957 1.3340
3.9202 0.8373 1.3356
3.8993 0.9803 1.3401
3.8821 1.1254 1.3478
3.8646 1.2722 1.3572
3.8467 1.4211 1.3685
3.8284 1.5725 1.3817
3.8334 1.7377 1.4056
3.9481 1.9633 1.4731
4.1982 2.2790 1.5965
4.1123 2.4272 1.5965
4.0212 2.5722 1.5965
3.9250 2.7138 1.5965
3.8238 2.8519 1.5965
3.7179 2.9862 1.5965
3.6072 3.1167 1.5965
3.4920 3.2431 1.5965
3.3724 3.3652 1.5965
3.2486 3.4830 1.5965
3.1207 3.5963 1.5965
2.9889 3.7050 1.5965
2.8533 3.8088 1.5965
2.7142 3.9078 1.5965
0.8199 1.2758 0.5090
0.7733 1.3038 0.5089
0.7257 1.3302 0.5088
0.6772 1.3548 0.5087
0.6279 1.3778 0.5086
0.5779 1.3989 0.5085
0.5272 1.4184 0.5084
0.4758 1.4360 0.5084
0.4239 1.4517 0.5083
0.3714 1.4657 0.5082
0.3186 1.4778 0.5082
0.2653 1.4881 0.5082
0.2117 1.4964 0.5081
0.1578 1.5029 0.5081
0.1038 1.5075 0.5081
0.0496 1.5102 0.5081
-0.0046 1.5110 0.5081
-0.0588 1.5099 0.5081
-0.1129 1.5069 0.5081
-0.1670 1.5020 0.5081
-0.2208 1.4952 0.5082
-0.2743 1.4865 0.5082
-0.3275 1.4760 0.5082
-0.3804 1.4636 0.5083
-0.4327 1.4493 0.5084
-0.4846 1.4332 0.5084
-0.5359 1.4153 0.5085
-0.5865 1.3956 0.5086
-0.6364 1.3741 0.5087
-0.6855 1.3509 0.5088
-0.7339 1.3260 0.5089
-0.7813 1.2994 0.5090
-0.8278 1.2711 0.5091
-2.9147 4.1427 1.6998
-3.0622 4.0364 1.6998
-3.2059 3.9249 1.6998
-3.3455 3.8084 1.6998
-3.4809 3.6870 1.6998
-3.6119 3.5607 1.6998
-3.7385 3.4299 1.6998
-3.8603 3.2946 1.6998
-3.9772 3.1550 1.6998
-4.0891 3.0113 1.6998
-4.1959 2.8637 1.6998
-4.2974 2.7123 1.6998
-4.3934 2.5573 1.6998
-4.4839 2.3990 1.6998
-4.5687 2.2375 1.6998
-4.6478 2.0730 1.6998
-4.7209 1.9057 1.6998
-4.7880 1.7359 1.6998
-4.8491 1.5637 1.6998
-4.9040 1.3894 1.6998
-4.9526 1.2132 1.6998
-4.9949 1.0352 1.6998
-5.0309 0.8559 1.6998
-5.0604 0.6752 1.6998
-5.0834 0.4936 1.6998
-5.1000 0.3112 1.6998
-5.1100 0.1283 1.6998
-5.1134 -0.0550 1.6998
-5.1103 -0.2383 1.6998
-5.1005 -0.4215 1.6998
-5.0843 -0.6043 1.6998
-5.0614 -0.7864 1.6998
-5.0321 -0.9677 1.6998
-4.9962 -1.1478 1.6998
-4.9538 -1.3267 1.6998
-4.9051 -1.5039 1.6998
-4.8500 -1.6793 1.6998
-4.7886 -1.8527 1.6998
-4.7209 -2.0239 1.6998
-4.6472 -2.1926 1.6998
-4.5674 -2.3585 1.6998
-4.4816 -2.5215 1.6998
-4.3900 -2.6814 1.6998
-4.2926 -2.8380 1.6998
-4.1897 -2.9909 1.6998
-4.0812 -3.1401 1.6998
-3.9674 -3.2854 1.6998
-3.8485 -3.4264 1.6998
-3.7244 -3.5632 1.6998
4.2668 -1.1153 1.5726
4.2360 -0.9465 1.5484
4.2062 -0.7828 1.5268
4.1769 -0.6234 1.5077
4.1481 -0.4678 1.4908
4.1196 -0.3156 1.4762
4.0914 -0.1663 1.4635
4.0633 -0.0194 1.4529
1.8143 0.0564 0.6493
1.8373 0.1232 0.6590
3.9808 0.4106 1.4326
3.9545 0.5518 1.4299
3.9304 0.6929 1.4298
3.9079 0.8344 1.4321
3.8910 0.9778 1.4384
3.8739 1.1226 1.4466
3.8564 1.2691 1.4567
3.8384 1.4176 1.4687
3.8201 1.5687 1.4828
3.8011 1.7227 1.4990
3.8648 1.9215 1.5509
3.9037 2.1187 1.5965
3.8239 2.2566 1.5965
3.7392 2.3915 1.5965
3.6499 2.5232 1.5965
3.5559 2.6517 1.5965
3.4574 2.7767 1.5965
3.3546 2.8980 1.5965
3.2475 3.0156 1.5965
3.1364 3.1293 1.5965
3.0213 3.2389 1.5965
2.9024 3.3443 1.5965
2.7798 3.4454 1.5965
2.6538 3.5421 1.5965
0.8056 1.1597 0.5095
0.7631 1.1874 0.5094
0.7197 1.2135 0.5093
0.6755 1.2380 0.5092
0.6304 1.2610 0.5091
0.5845 1.2824 0.5090
0.5380 1.3021 0.5089
0.4908 1.3202 0.5088
0.4430 1.3366 0.5088
0.3946 1.3514 0.5087
0.3458 1.3644 0.5087
0.2966 1.3757 0.5086
0.2470 1.3852 0.5086
0.1971 1.3930 0.5086
0.1469 1.3991 0.5085
0.0966 1.4033 0.5085
0.0462 1.4059 0.5085
-0.0043 1.4066 0.5085
-0.0547 1.4056 0.5085
-0.1052 1.4028 0.5085
-0.1554 1.3982 0.5086
-0.2055 1.3919 0.5086
-0.2554 1.3838 0.5086
-0.3049 1.3739 0.5087
-0.3541 1.3624 0.5087
-0.4028 1.3491 0.5088
-0.4511 1.3341 0.5088
-0.4988 1.3174 0.5089
-0.5459 1.2990 0.5090
-0.5924 1.2790 0.5091
-0.6381 1.2574 0.5092
-0.6831 1.2341 0.5093
-0.7272 1.2093 0.5094
-0.7705 1.1829 0.5095
-0.8128 1.1551 0.5096
-2.8481 3.7537 1.6998
-2.9816 3.6500 1.6998
-3.1114 3.5416 1.6998
-3.2373 3.4286 1.6998
-3.3591 3.3111 1.6998
-3.4767 3.1894 1.6998
-3.5899 3.0635 1.6998
-3.6986 2.9336 1.6998
-3.8026 2.7999 1.6998
-3.9018 2.6626 1.6998
-3.9961 2.5217 1.6998
-4.0853 2.3776 1.6998
-4.1694 2.2303 1.6998
-4.2482 2.0801 1.6998
-4.3215 1.9271 1.6998
-4.3894 1.7715 1.6998
-4.4517 1.6135 1.6998
-4.5084 1.4534 1.6998
-4.5593 1.2913 1.6998
-4.6044 1.1275 1.6998
-4.6436 0.9620 1.6998
-4.6769 0.7952 1.6998
-4.7043 0.6273 1.6998
-4.7256 0.4584 1.6998
-4.7408 0.2889 1.6998
-4.7500 0.1188 1.6998
-4.7530 -0.0515 1.6998
-4.7500 -0.2219 1.6998
-4.7408 -0.3922 1.6998
-4.7256 -0.5621 1.6998
-4.7042 -0.7313 1.6998
-4.6768 -0.8998 1.6998
-4.6433 -1.0672 1.6998
-4.6039 -1.2334 1.6998
-4.5585 -1.3980 1.6998
-4.5071 -1.5610 1.6998
-4.4499 -1.7222 1.6998
-4.3870 -1.8812 1.6998
-4.3183 -2.0378 1.6998
-4.2441 -2.1920 1.6998
-4.1643 -2.3434 1.6998
-4.0790 -2.4919 1.6998
-3.9885 -2.6373 1.6998
-3.8928 -2.7794 1.6998
-3.7919 -2.9179 1.6998
-3.6861 -3.0528 1.6998
-3.5755 -3.1838 1.6998
-3.4602 -3.3108 1.6998
4.0414 -1.0568 1.5965
4.0752 -0.9110 1.5965
4.1038 -0.7641 1.5965
4.1270 -0.6163 1.5965
4.1331 -0.4665 1.5920
4.1049 -0.3149 1.5763
4.0769 -0.1661 1.5629
4.0491 -0.0197 1.5515
1.8142 0.0562 0.6957
1.8363 0.1229 0.7057
3.9661 0.4087 1.5294
3.9401 0.5494 1.5266
3.9161 0.6900 1.5265
3.8995 0.8322 1.5312
3.8827 0.9754 1.5379
3.8655 1.1198 1.5466
3.8480 1.2660 1.5573
3.8300 1.4142 1.5701
3.8116 1.5649 1.5851
3.7788 1.7122 1.5965
3.7137 1.8460 1.5965
3.6439 1.9774 1.5965
3.5695 2.1061 1.5965
3.4906 2.2321 1.5965
3.4072 2.3551 1.5965
3.3195 2.4750 1.5965
3.2277 2.5918 1.5965
3.1317 2.7051 1.5965
3.0318 2.8149 1.5965
2.9281 2.9211 1.5965
2.8207 3.0235 1.5965
2.7097 3.1219 1.5965
0.8291 1.0275 0.5100
0.7914 1.0561 0.5099
0.7526 1.0834 0.5098
0.7130 1.1092 0.5097
0.6724 1.1336 0.5096
0.6311 1.1566 0.5095
0.5890 1.1781 0.5094
0.5462 1.1981 0.5093
0.5027 1.2166 0.5093
0.4586 1.2335 0.5092
0.4139 1.2489 0.5091
0.3687 1.2626 0.5091
0.3231 1.2748 0.5090
0.2771 1.2854 0.5090
0.2308 1.2943 0.5090
0.1842 1.3016 0.5089
0.1373 1.3073 0.5089
0.0903 1.3113 0.5089
0.0432 1.3136 0.5089
-0.0040 1.3143 0.5089
-0.0511 1.3133 0.5089
-0.0983 1.3107 0.5089
-0.1452 1.3064 0.5089
-0.1921 1.3005 0.5090
-0.2386 1.2929 0.5090
-0.2849 1.2837 0.5090
-0.3309 1.2729 0.5091
-0.3764 1.2605 0.5091
-0.4215 1.2464 0.5092
-0.4661 1.2308 0.5093
-0.5101 1.2136 0.5093
-0.5535 1.1949 0.5094
-0.5962 1.1747 0.5095
-0.6382 1.1529 0.5096
-0.6794 1.1297 0.5097
-0.7198 1.1051 0.5098
-0.7593 1.0790 0.5099
-0.7979 1.0515 0.5100
-0.8355 1.0227 0.5102
-2.9049 3.3061 1.6998
-3.0224 3.2005 1.6998
-3.1361 3.0908 1.6998
-3.2458 2.9771 1.6998
-3.3514 2.8596 1.6998
-3.4528 2.7383 1.6998
-3.5499 2.6134 1.6998
-3.6424 2.4852 1.6998
-3.7303 2.3536 1.6998
-3.8136 2.2190 1.6998
-3.8919 2.0815 1.6998
-3.9654 1.9412 1.6998
-4.0338 1.7984 1.6998
-4.0971 1.6531 1.6998
-4.1552 1.5057 1.6998
-4.2080 1.3562 1.6998
-4.2554 1.2048 1.6998
-4.2974 1.0519 1.6998
-4.3339 0.8975 1.6998
-4.3649 0.7418 1.6998
-4.3903 0.5850 1.6998
-4.4100 0.4274 1.6998
-4.4242 0.2692 1.6998
-4.4326 0.1105 1.6998
-4.4354 -0.0485 1.6998
-4.4324 -0.2075 1.6998
-4.4238 -0.3664 1.6998
-4.4094 -0.5249 1.6998
-4.3894 -0.6828 1.6998
-4.3637 -0.8399 1.6998
-4.3324 -0.9961 1.6998
-4.2955 -1.1511 1.6998
-4.2530 -1.3048 1.6998
-4.2050 -1.4568 1.6998
-4.1516 -1.6071 1.6998
-4.0928 -1.7554 1.6998
-4.0286 -1.9015 1.6998
-3.9593 -2.0453 1.6998
-3.8847 -2.1865 1.6998
-3.8052 -2.3250 1.6998
-3.7206 -2.4606 1.6998
-3.6312 -2.5931 1.6998
-3.5371 -2.7223 1.6998
-3.4384 -2.8480 1.6998
-3.3351 -2.9702 1.6998
-3.2275 -3.0885 1.6998
3.7836 -0.9897 1.5965
3.8153 -0.8532 1.5965
3.8421 -0.7157 1.5965
3.8639 -0.5774 1.5965
3.8807 -0.4384 1.5965
3.8926 -0.2989 1.5965
3.8994 -0.1592 1.5965
3.9012 -0.0193 1.5965
1.8140 0.0561 0.7430
1.8352 0.1227 0.7532
3.8767 0.3992 1.5965
3.8585 0.5377 1.5965
3.8354 0.6754 1.5965
3.8074 0.8122 1.5965
3.7745 0.9479 1.5965
3.7368 1.0822 1.5965
3.6944 1.2151 1.5965
3.6472 1.3463 1.5965
3.5954 1.4758 1.5965
3.5390 1.6032 1.5965
3.4781 1.7286 1.5965
3.4128 1.8516 1.5965
3.3432 1.9722 1.5965
3.2693 2.0902 1.5965
3.1913 2.2055 1.5965
3.1092 2.3179 1.5965
3.0232 2.4273 1.5965
2.9334 2.5335 1.5965
2.8399 2.6364 1.5965
2.7428 2.7359 1.5965
2.6422 2.8318 1.5965
0.8115 0.9348 0.5104
0.7771 0.9629 0.5103
0.7417 0.9897 0.5102
0.7054 1.0153 0.5101
0.6683 1.0396 0.5100
0.6303 1.0625 0.5099
0.5916 1.0840 0.5098
0.5521 1.1042 0.5097
0.5120 1.1230 0.5096
0.4712 1.1403 0.5096
0.4299 1.1562 0.5095
0.3880 1.1706 0.5095
0.3457 1.1835 0.5094
