ply
format ascii 1.0
element vertex 2167
property float32 x
property float32 y
property float32 z
end_header
2.3397 -9.0305 1.5925
2.6474 -8.8898 1.5925
2.9484 -8.7398 1.5925
3.2425 -8.5807 1.5925
3.6026 -8.5871 1.6255
4.0562 -8.7706 1.6958
4.3460 -8.5742 1.6958
4.6277 -8.3695 1.6958
4.9011 -8.1568 1.6958
5.1660 -7.9364 1.6958
5.4222 -7.7087 1.6958
5.6697 -7.4740 1.6958
5.9084 -7.2326 1.6958
6.1380 -6.9849 1.6958
6.3586 -6.7310 1.6958
6.5700 -6.4714 1.6958
6.7721 -6.2064 1.6958
6.9650 -5.9361 1.6958
7.1484 -5.6610 1.6958
7.3223 -5.3813 1.6958
7.4868 -5.0973 1.6958
7.6417 -4.8093 1.6958
7.7870 -4.5175 1.6958
7.2260 -3.8510 1.5467
7.0721 -3.4477 1.4900
6.8569 -3.0420 1.4241
6.6607 -2.6720 1.3655
6.6588 -2.3964 1.3494
6.9753 -2.2297 1.3989
7.3151 -2.0508 1.4538
7.6819 -1.8577 1.5147
8.6579 -1.7660 1.6958
8.7058 -1.4510 1.6958
8.7440 -1.1350 1.6958
8.6329 -0.8053 1.6688
8.4694 -0.4828 1.6338
8.3185 -0.1737 1.6031
8.2636 0.1256 1.5927
8.2534 0.4235 1.5927
8.2340 0.7210 1.5927
8.2055 1.0178 1.5927
8.1678 1.3137 1.5927
8.1210 1.6086 1.5927
8.0650 1.9021 1.5927
7.9999 2.1941 1.5927
7.9258 2.4843 1.5927
7.8425 2.7725 1.5927
7.7502 3.0584 1.5927
7.6489 3.3420 1.5927
7.5387 3.6228 1.5927
7.4189 3.9004 1.5926
7.2909 4.1753 1.5926
7.1541 4.4467 1.5927
7.0084 4.7145 1.5927
6.8538 4.9783 1.5927
6.6904 5.2380 1.5927
6.5184 5.4933 1.5927
6.3377 5.7439 1.5927
6.1486 5.9896 1.5927
5.9509 6.2302 1.5927
5.7449 6.4653 1.5927
5.5306 6.6947 1.5927
5.3081 6.9182 1.5927
5.0775 7.1353 1.5927
4.8389 7.3460 1.5927
4.6121 7.5819 1.5995
4.3384 7.7465 1.5927
4.1049 7.9908 1.6037
3.9115 8.3391 1.6362
3.7074 8.7049 1.6722
3.4577 9.0037 1.6958
3.1486 9.1705 1.6958
2.8322 9.3279 1.6958
0.7640 2.8853 0.5164
0.6597 2.9103 0.5134
0.5547 2.9317 0.5104
0.4490 2.9494 0.5074
0.3428 2.9635 0.5045
0.2362 2.9739 0.5015
0.1293 2.9807 0.4986
0.0223 2.9837 0.4957
-0.0848 2.9831 0.4928
-0.1918 2.9789 0.4899
-0.2986 2.9710 0.4871
-0.4051 2.9594 0.4843
-0.5112 2.9441 0.4815
-0.6167 2.9252 0.4788
-0.7215 2.9027 0.4761
-0.8256 2.8766 0.4734
-3.3454 10.2555 1.6960
-3.7337 10.1918 1.6962
-4.1216 10.1132 1.6963
-4.5081 10.0188 1.6963
-4.8927 9.9090 1.6961
-5.2750 9.7842 1.6960
-5.6544 9.6442 1.6958
-5.6638 8.9128 1.5927
-5.6073 8.1629 1.4852
-6.3580 8.5805 1.5927
-6.6975 8.3931 1.5927
-7.0310 8.1917 1.5927
-7.3580 7.9764 1.5927
-7.6777 7.7474 1.5927
-7.9894 7.5048 1.5927
-8.2925 7.2489 1.5927
-6.2374 5.0705 1.1570
-9.3329 7.0478 1.6758
-9.6203 6.7385 1.6758
-9.8959 6.4165 1.6758
-10.1589 6.0824 1.6758
-10.4088 5.7367 1.6758
-10.6448 5.3798 1.6758
-10.8665 5.0124 1.6758
-11.0732 4.6351 1.6758
-11.2643 4.2485 1.6758
-11.4394 3.8533 1.6758
-11.2714 3.3531 1.6286
-10.9187 2.8276 1.5586
-11.8470 2.6200 1.6734
-11.9627 2.2002 1.6747
-11.8956 1.7509 1.6531
-12.0250 1.3329 1.6613
-12.0470 0.9009 1.6573
-12.1601 0.4731 1.6683
-12.1779 0.0382 1.6687
-10.9175 -0.3562 1.4965
-12.0640 -0.8260 1.6568
-11.9411 -1.2477 1.6456
-8.6322 -1.2152 1.1955
-8.0026 -1.4200 1.1156
-11.4219 -2.4507 1.6052
-8.3971 -2.1183 1.1916
-9.1506 -2.6597 1.3133
-10.8811 -3.5892 1.5820
-7.2157 -2.6697 1.0646
-7.0316 -2.8914 1.0544
-7.0576 -3.2017 1.0776
-10.4651 -5.2063 1.6298
-10.3303 -5.6087 1.6440
-10.1519 -5.9914 1.6540
-9.8931 -6.3262 1.6534
-5.8099 7.2530 1.5927
-6.0939 7.0733 1.5927
-6.3719 6.8820 1.5927
-6.6433 6.6791 1.5927
-6.9075 6.4650 1.5927
-7.1640 6.2398 1.5927
-6.2528 5.0646 1.3436
-7.6518 5.7572 1.5927
-7.8821 5.5005 1.5927
-8.5253 5.5069 1.6758
-8.7463 5.2164 1.6758
-8.9561 4.9163 1.6758
-9.1539 4.6072 1.6758
-9.3395 4.2894 1.6758
-9.5123 3.9636 1.6758
-9.6719 3.6302 1.6758
-9.8179 3.2898 1.6758
-9.9499 2.9431 1.6758
-10.0340 2.5820 1.6702
-10.0454 2.2055 1.6551
-10.0449 1.8320 1.6408
-10.0601 1.4656 1.6316
-10.0995 1.1046 1.6289
-10.1408 0.7437 1.6289
-10.1398 0.3802 1.6246
-10.0221 0.0176 1.6040
-9.8899 -0.3361 1.5835
-9.8083 -0.6848 1.5735
-9.7470 -1.0314 1.5690
-9.6135 -1.3661 1.5552
-9.5416 -1.7056 1.5536
-9.4921 -2.0491 1.5580
-8.3929 -2.1283 1.3908
-9.2779 -2.7089 1.5547
-9.1618 -3.0341 1.5549
-9.0396 -3.3566 1.5564
-8.9897 -3.7086 1.5728
-9.0378 -4.1122 1.6095
-9.0050 -4.4924 1.6351
-8.8313 -4.8072 1.6381
-8.6343 -5.1081 1.6389
-8.4572 -5.4205 1.6460
-8.1590 -5.6507 1.6314
-7.8560 -5.8671 1.6172
-7.5489 -6.0699 1.6032
-7.2961 -6.3090 1.6023
-7.0235 -6.5265 1.5988
-6.7389 -6.7267 1.5941
-6.4719 -6.9397 1.5953
-6.2021 -7.1464 1.5975
-5.9329 -7.3518 1.6020
-5.6419 -7.5269 1.6023
-5.3369 -7.6777 1.6001
-5.0294 -7.8181 1.5983
-4.7171 -7.9436 1.5961
-4.4173 -8.0845 1.5995
-4.1123 -8.2118 1.6025
-3.8042 -8.3284 1.6057
-3.4932 -8.4343 1.6092
-3.1824 -8.5363 1.6143
-2.8694 -8.6290 1.6198
-2.5539 -8.7107 1.6255
-2.2364 -8.7814 1.6314
-1.9163 -8.8370 1.6367
-1.5944 -8.8778 1.6414
-1.2716 -8.9044 1.6457
-0.9159 -8.6086 1.5925
-0.6034 -8.5893 1.5925
-0.2934 -8.5590 1.5925
0.0137 -8.5180 1.5925
0.3175 -8.4664 1.5925
0.6177 -8.4045 1.5925
0.9141 -8.3325 1.5925
1.2061 -8.2507 1.5925
1.4937 -8.1593 1.5925
1.7765 -8.0586 1.5925
2.0542 -7.9488 1.5925
2.3266 -7.8302 1.5925
2.5934 -7.7031 1.5925
2.8545 -7.5676 1.5925
3.3112 -7.9055 1.6958
3.5762 -7.7446 1.6958
3.8344 -7.5756 1.6958
4.0857 -7.3990 1.6958
4.3298 -7.2151 1.6958
4.5666 -7.0240 1.6958
4.7960 -6.8261 1.6958
5.0177 -6.6216 1.6958
5.2318 -6.4110 1.6958
5.4379 -6.1943 1.6958
5.6361 -5.9720 1.6958
5.8263 -5.7442 1.6958
6.0083 -5.5113 1.6958
6.1820 -5.2734 1.6958
6.3475 -5.0310 1.6958
6.5045 -4.7842 1.6958
6.6530 -4.5333 1.6958
6.7931 -4.2786 1.6958
6.9245 -4.0203 1.6958
7.0473 -3.7586 1.6958
7.1614 -3.4939 1.6958
7.2669 -3.2263 1.6958
6.7664 -2.7164 1.5583
6.6613 -2.3991 1.5160
7.5305 -2.4090 1.6958
7.4931 -2.1023 1.6718
7.6622 -1.8544 1.6958
7.7148 -1.5748 1.6958
7.7584 -1.2941 1.6958
7.7932 -1.0124 1.6958
7.8192 -0.7300 1.6958
7.8362 -0.4472 1.6958
7.8443 -0.1641 1.6958
7.8435 0.1191 1.6958
7.8339 0.4020 1.6958
7.8154 0.6846 1.6958
7.7260 0.9588 1.6823
7.5909 1.2215 1.6606
7.4593 1.4783 1.6413
7.3338 1.7306 1.6251
7.2101 1.9786 1.6109
7.0877 2.2229 1.5986
6.9864 2.4713 1.5927
6.9029 2.7257 1.5927
6.8113 2.9778 1.5927
6.7116 3.2274 1.5927
6.6032 3.4739 1.5926
6.4876 3.7177 1.5926
6.3640 3.9583 1.5926
6.2324 4.1955 1.5926
6.0930 4.4290 1.5927
5.9458 4.6586 1.5927
5.7908 4.8840 1.5927
5.6281 5.1050 1.5927
5.4728 5.3358 1.5970
5.3359 5.5912 1.6095
5.1953 5.8521 1.6240
5.0505 6.1194 1.6407
4.9010 6.3939 1.6597
4.7480 6.6793 1.6818
4.5600 6.9303 1.6958
4.3253 7.1189 1.6958
4.0835 7.3006 1.6958
3.8347 7.4750 1.6958
3.5792 7.6418 1.6958
3.3170 7.8008 1.6958
3.0485 7.9517 1.6958
2.7737 8.0942 1.6958
0.7626 2.5169 0.5187
0.6715 2.5422 0.5161
0.5797 2.5643 0.5135
0.4871 2.5832 0.5109
0.3940 2.5989 0.5082
0.3004 2.6114 0.5056
0.2065 2.6207 0.5030
0.1123 2.6266 0.5004
0.0180 2.6294 0.4979
-0.0764 2.6288 0.4953
-0.1707 2.6251 0.4928
-0.2648 2.6180 0.4903
-0.3587 2.6078 0.4878
-0.4521 2.5942 0.4854
-0.5450 2.5775 0.4830
-0.6374 2.5576 0.4806
-0.7290 2.5344 0.4783
-0.8198 2.5081 0.4760
-3.2565 8.8728 1.6958
-3.5913 8.7971 1.6958
-3.9246 8.7086 1.6958
-4.2561 8.6072 1.6958
-4.5851 8.4930 1.6958
-4.9112 8.3660 1.6958
-4.9155 7.7260 1.5927
-5.2146 7.5825 1.5927
-5.5092 7.4270 1.5927
-5.7989 7.2596 1.5927
-6.0832 7.0804 1.5927
-6.3614 6.8895 1.5927
-6.6331 6.6871 1.5927
-6.8976 6.4734 1.5927
-7.1544 6.2486 1.5927
-6.2469 5.0739 1.3440
-7.6429 5.7668 1.5927
-7.8735 5.5104 1.5927
-8.5166 5.5178 1.6758
-8.7381 5.2277 1.6758
-8.9483 4.9279 1.6758
-9.1466 4.6191 1.6758
-9.3326 4.3017 1.6758
-9.5059 3.9761 1.6758
-9.6660 3.6430 1.6758
-9.8126 3.3029 1.6758
-9.9451 2.9564 1.6758
-10.0341 2.5966 1.6709
-10.0451 2.2198 1.6557
-10.0453 1.8462 1.6414
-10.0585 1.4793 1.6318
-10.0977 1.1183 1.6289
-10.1395 0.7575 1.6289
-10.1440 0.3942 1.6254
-10.0268 0.0312 1.6048
-9.8950 -0.3228 1.5843
-9.8103 -0.6715 1.5736
-9.7496 -1.0183 1.5692
-8.6426 -1.2161 1.3979
-9.5426 -1.6924 1.5533
-9.4954 -2.0363 1.5580
-8.4033 -2.1187 1.3920
-9.1557 -2.6597 1.5335
-9.1662 -3.0218 1.5548
-7.9235 -2.9299 1.3634
-8.9883 -3.6938 1.5715
-9.0357 -4.0964 1.6079
-9.0093 -4.4792 1.6347
-8.8387 -4.7956 1.6380
-8.6420 -5.0968 1.6389
-8.4662 -5.4100 1.6461
-5.1186 6.3833 1.5927
-5.3657 6.2218 1.5927
-5.6072 6.0503 1.5927
-5.8428 5.8689 1.5927
-6.0719 5.6779 1.5927
-6.2942 5.4774 1.5927
-6.2624 5.0681 1.5324
-6.7161 5.0490 1.5927
-6.9149 4.8216 1.5927
-7.1052 4.5859 1.5927
-7.2863 4.3422 1.5927
-7.4580 4.0908 1.5927
-8.0174 4.0321 1.6758
-8.1770 3.7527 1.6758
-8.3254 3.4664 1.6758
-8.4624 3.1739 1.6758
-8.5830 2.8739 1.6749
-8.6776 2.5649 1.6713
-8.7578 2.2519 1.6674
-8.7828 1.9268 1.6556
-8.7953 1.6028 1.6440
-8.8241 1.2845 1.6379
-8.8469 0.9667 1.6332
-8.8134 0.6457 1.6206
-8.7317 0.3270 1.6015
-8.6559 0.0149 1.5860
-8.6135 -0.2928 1.5790
-8.5801 -0.5989 1.5758
-8.5271 -0.9020 1.5715
-8.5024 -1.2077 1.5746
-8.4746 -1.5141 1.5795
-8.4498 -1.8231 1.5873
-8.3978 -2.1283 1.5925
-8.2993 -2.4218 1.5911
-8.1814 -2.7079 1.5883
-8.0605 -2.9912 1.5871
-8.0047 -3.3003 1.6012
-7.9449 -3.6127 1.6172
-7.8711 -3.9241 1.6331
-7.7157 -4.1972 1.6347
-7.5336 -4.4539 1.6329
-7.3434 -4.7033 1.6313
-7.1330 -4.9365 1.6273
-6.9028 -5.1513 1.6206
-6.6672 -5.3568 1.6142
-6.4342 -5.5594 1.6101
-6.2267 -5.7813 1.6143
-6.0115 -5.9955 1.6188
-5.7858 -6.1984 1.6225
-5.5523 -6.3918 1.6263
-5.3069 -6.5697 1.6285
-5.0445 -6.7230 1.6272
-4.7772 -6.8652 1.6259
-4.5058 -6.9962 1.6245
-4.2306 -7.1158 1.6230
-3.9523 -7.2241 1.6214
-3.6795 -7.3373 1.6234
-3.4056 -7.4446 1.6265
-3.1287 -7.5418 1.6296
-2.8492 -7.6289 1.6329
-2.5675 -7.7058 1.6362
-2.2839 -7.7725 1.6397
-1.9989 -7.8290 1.6433
-1.7128 -7.8753 1.6469
-1.3757 -7.6328 1.5925
-1.0959 -7.6402 1.5925
-0.8174 -7.6375 1.5925
-0.5405 -7.6249 1.5925
-0.2654 -7.6025 1.5925
0.0073 -7.5704 1.5925
0.2775 -7.5289 1.5925
0.5449 -7.4781 1.5925
0.8090 -7.4183 1.5925
1.0697 -7.3495 1.5925
1.3266 -7.2721 1.5925
1.5795 -7.1863 1.5925
1.8281 -7.0921 1.5925
2.0723 -6.9900 1.5925
2.3117 -6.8800 1.5925
2.5461 -6.7625 1.5925
2.9554 -7.0679 1.6958
3.1939 -6.9273 1.6958
3.4265 -6.7794 1.6958
3.6531 -6.6245 1.6958
3.8734 -6.4626 1.6958
4.0873 -6.2942 1.6958
4.2946 -6.1195 1.6958
4.4953 -5.9387 1.6958
4.6891 -5.7520 1.6958
4.8760 -5.5597 1.6958
5.0558 -5.3622 1.6958
5.2284 -5.1595 1.6958
5.3937 -4.9520 1.6958
5.5516 -4.7398 1.6958
5.7021 -4.5234 1.6958
5.8450 -4.3028 1.6958
5.9803 -4.0783 1.6958
6.1080 -3.8502 1.6958
6.2278 -3.6187 1.6958
6.3399 -3.3840 1.6958
6.4441 -3.1463 1.6958
6.5404 -2.9060 1.6958
6.6287 -2.6632 1.6958
6.7091 -2.4181 1.6958
6.7815 -2.1710 1.6958
6.8458 -1.9221 1.6958
6.9021 -1.6717 1.6958
6.9502 -1.4198 1.6958
6.9903 -1.1669 1.6958
7.0223 -0.9130 1.6958
7.0461 -0.6585 1.6958
7.0618 -0.4034 1.6958
7.0694 -0.1481 1.6958
7.0688 0.1072 1.6958
7.0601 0.3624 1.6958
7.0433 0.6172 1.6958
7.0184 0.8713 1.6958
6.9855 1.1247 1.6958
6.9444 1.3770 1.6958
6.8953 1.6280 1.6958
6.8381 1.8775 1.6958
6.7730 2.1254 1.6958
6.6999 2.3714 1.6958
6.6189 2.6152 1.6958
6.5300 2.8567 1.6958
6.4332 3.0956 1.6958
6.3286 3.3316 1.6958
6.2164 3.5647 1.6958
6.0964 3.7946 1.6958
5.9688 4.0209 1.6958
5.8336 4.2436 1.6958
5.6909 4.4623 1.6958
5.5409 4.6769 1.6958
5.3835 4.8871 1.6958
5.2189 5.0927 1.6958
5.0472 5.2934 1.6958
4.8684 5.4890 1.6958
4.6827 5.6793 1.6958
4.4903 5.8641 1.6958
4.2911 6.0430 1.6958
4.0854 6.2160 1.6958
3.8733 6.3826 1.6958
3.6549 6.5427 1.6958
3.4305 6.6961 1.6958
3.2001 6.8425 1.6958
2.9640 6.9817 1.6958
2.7223 7.1134 1.6958
0.7599 2.2218 0.5206
0.6794 2.2473 0.5182
0.5981 2.2700 0.5159
0.5161 2.2898 0.5136
0.4335 2.3067 0.5112
0.3504 2.3208 0.5089
0.2668 2.3320 0.5065
0.1829 2.3403 0.5042
0.0988 2.3457 0.5019
0.0146 2.3481 0.4996
-0.0697 2.3476 0.4973
-0.1539 2.3442 0.4951
-0.2380 2.3379 0.4928
-0.3218 2.3287 0.4906
-0.4052 2.3166 0.4884
-0.4882 2.3016 0.4863
-0.5707 2.2837 0.4842
-0.6524 2.2630 0.4821
-0.7335 2.2394 0.4801
-0.8137 2.2130 0.4781
-3.1807 7.7782 1.6958
-3.4735 7.6954 1.6958
-3.7642 7.6014 1.6958
-4.0525 7.4961 1.6958
-4.3377 7.3797 1.6958
-4.4675 7.0133 1.6400
-4.5998 6.6809 1.5927
-4.8567 6.5402 1.5927
-5.1091 6.3893 1.5927
-5.3564 6.2281 1.5927
-5.5982 6.0570 1.5927
-5.8340 5.8760 1.5927
-6.0633 5.6853 1.5927
-6.2858 5.4852 1.5927
-6.2564 5.0774 1.5328
-6.7084 5.0575 1.5927
-6.9075 4.8305 1.5927
-7.0981 4.5951 1.5927
-7.2796 4.3516 1.5927
-7.4516 4.1005 1.5927
-8.0111 4.0426 1.6758
-8.1711 3.7634 1.6758
-8.3200 3.4775 1.6758
-8.4574 3.1851 1.6758
-8.5792 2.8856 1.6750
-8.6743 2.5767 1.6714
-8.7565 2.2643 1.6679
-8.7820 1.9392 1.6560
-8.7950 1.6151 1.6444
-8.8230 1.2966 1.6381
-8.8463 0.9789 1.6334
-8.8163 0.6580 1.6213
-8.7349 0.3390 1.6023
-8.6574 0.0267 1.5863
-8.6145 -0.2811 1.5791
-8.5816 -0.5872 1.5760
-8.5297 -0.8905 1.5717
-8.5033 -1.1960 1.5744
-8.4759 -1.5024 1.5793
-8.4509 -1.8114 1.5870
-8.4012 -2.1170 1.5925
-8.3036 -2.4108 1.5912
-8.1861 -2.6971 1.5884
-7.9280 -2.9298 1.5602
-8.0068 -3.2884 1.6006
-7.9474 -3.6008 1.6165
-7.8743 -3.9124 1.6325
-7.7227 -4.1873 1.6348
-7.5407 -4.4443 1.6329
-7.3508 -4.6939 1.6314
-4.5707 5.6940 1.5927
-4.7891 5.5476 1.5927
-5.0023 5.3923 1.5927
-5.2102 5.2285 1.5927
-5.4122 5.0563 1.5927
-5.6079 4.8758 1.5927
-5.7970 4.6874 1.5927
-5.9791 4.4911 1.5927
-6.1538 4.2874 1.5927
-6.3208 4.0764 1.5927
-6.4798 3.8585 1.5927
-6.6303 3.6340 1.5927
-6.7722 3.4032 1.5927
-6.9050 3.1665 1.5927
-7.3952 3.0768 1.6758
-7.5150 2.8164 1.6758
-7.6245 2.5510 1.6758
-7.7216 2.2806 1.6754
-7.8025 2.0047 1.6739
-7.8349 1.7176 1.6644
-7.8701 1.4331 1.6580
-7.8958 1.1484 1.6521
-7.9030 0.8628 1.6448
-7.9002 0.5783 1.6378
-7.8810 0.2947 1.6299
-7.8517 0.0133 1.6222
-7.8133 -0.2656 1.6150
-7.7660 -0.5419 1.6083
-7.6943 -0.8136 1.5988
-7.6180 -1.0815 1.5907
-7.5947 -1.3562 1.5958
-7.5577 -1.6298 1.6004
-7.4926 -1.8979 1.6015
-7.4087 -2.1607 1.6008
-7.3151 -2.4197 1.6002
-7.2214 -2.6782 1.6019
-7.1715 -2.9549 1.6158
-7.1068 -3.2295 1.6290
-7.0269 -3.5010 1.6415
-6.8939 -3.7476 1.6440
-6.7416 -3.9829 1.6442
-6.5807 -4.2118 1.6445
-6.4059 -4.4300 1.6434
-6.2059 -4.6278 1.6379
-6.0001 -4.8171 1.6325
-5.7888 -4.9977 1.6273
-5.5804 -5.1769 1.6246
-5.3774 -5.3585 1.6253
-5.1683 -5.5319 1.6262
-4.9554 -5.6993 1.6278
-4.7332 -5.8537 1.6282
-4.4998 -5.9909 1.6264
-4.2624 -6.1188 1.6246
-4.0216 -6.2372 1.6230
-3.7776 -6.3461 1.6213
-3.5400 -6.4621 1.6239
-3.2999 -6.5713 1.6272
-3.0563 -6.6710 1.6304
-2.8117 -6.7666 1.6348
-2.5638 -6.8525 1.6392
-2.3115 -6.9236 1.6423
-2.0569 -6.9844 1.6451
-1.7403 -6.7986 1.5925
-1.4892 -6.8269 1.5925
-1.2383 -6.8460 1.5925
-0.9879 -6.8559 1.5925
-0.7383 -6.8567 1.5925
-0.4898 -6.8486 1.5925
-0.2429 -6.8317 1.5925
0.0022 -6.8061 1.5925
0.2453 -6.7719 1.5925
0.4860 -6.7293 1.5925
0.7240 -6.6785 1.5925
0.9591 -6.6196 1.5925
1.1911 -6.5528 1.5925
1.4196 -6.4783 1.5925
1.6445 -6.3962 1.5925
1.8655 -6.3068 1.5925
2.0823 -6.2102 1.5925
2.2949 -6.1066 1.5925
2.6653 -6.3850 1.6958
2.8819 -6.2605 1.6958
3.0933 -6.1292 1.6958
3.2994 -5.9913 1.6958
3.5000 -5.8471 1.6958
3.6948 -5.6967 1.6958
3.8838 -5.5405 1.6958
4.0669 -5.3786 1.6958
4.2438 -5.2112 1.6958
4.4145 -5.0387 1.6958
4.5789 -4.8611 1.6958
4.7367 -4.6787 1.6958
4.8880 -4.4918 1.6958
5.0327 -4.3006 1.6958
5.1705 -4.1052 1.6958
5.3016 -3.9060 1.6958
5.4256 -3.7031 1.6958
5.5428 -3.4967 1.6958
5.6528 -3.2872 1.6958
5.7557 -3.0746 1.6958
5.8515 -2.8592 1.6958
5.9400 -2.6413 1.6958
6.0213 -2.4210 1.6958
6.0953 -2.1985 1.6958
6.1619 -1.9742 1.6958
6.2211 -1.7481 1.6958
6.2730 -1.5205 1.6958
6.3174 -1.2916 1.6958
6.3543 -1.0616 1.6958
6.3838 -0.8307 1.6958
6.4059 -0.5992 1.6958
6.4204 -0.3672 1.6958
6.4275 -0.1349 1.6958
6.4271 0.0974 1.6958
6.4192 0.3295 1.6958
6.4039 0.5613 1.6958
6.3811 0.7925 1.6958
6.3508 1.0230 1.6958
6.3131 1.2524 1.6958
6.2681 1.4807 1.6958
6.2156 1.7076 1.6958
6.1558 1.9329 1.6958
6.0887 2.1563 1.6958
6.0143 2.3778 1.6958
5.9327 2.5970 1.6958
5.8439 2.8138 1.6958
5.7479 3.0280 1.6958
5.6449 3.2393 1.6958
5.5349 3.4475 1.6958
5.4179 3.6525 1.6958
5.2940 3.8540 1.6958
5.1633 4.0518 1.6958
5.0259 4.2456 1.6958
4.8819 4.4354 1.6958
4.7312 4.6208 1.6958
4.5742 4.8016 1.6958
4.4108 4.9777 1.6958
4.2412 5.1488 1.6958
4.0654 5.3147 1.6958
3.8837 5.4752 1.6958
3.6961 5.6301 1.6958
3.5028 5.7791 1.6958
3.3039 5.9221 1.6958
3.0997 6.0588 1.6958
2.8902 6.1890 1.6958
2.6756 6.3125 1.6958
0.7561 1.9793 0.5221
0.6844 2.0049 0.5200
0.6118 2.0280 0.5178
0.5384 2.0485 0.5157
0.4644 2.0664 0.5136
0.3899 2.0818 0.5115
0.3149 2.0945 0.5094
0.2394 2.1047 0.5073
0.1637 2.1122 0.5052
0.0878 2.1170 0.5031
0.0118 2.1192 0.5010
-0.0643 2.1188 0.4990
-0.1403 2.1157 0.4969
-0.2161 2.1100 0.4949
-0.2918 2.1017 0.4929
-0.3671 2.0907 0.4910
-0.4420 2.0771 0.4890
-0.5164 2.0609 0.4871
-0.5901 2.0421 0.4852
-0.6633 2.0208 0.4834
-0.7356 1.9969 0.4816
-0.8072 1.9705 0.4798
-3.1133 6.8865 1.6958
-3.3719 6.7992 1.6958
-3.6280 6.7019 1.6958
-3.8814 6.5948 1.6958
-4.1314 6.4777 1.6958
-4.1824 6.0676 1.6201
-4.3390 5.8366 1.5927
-4.5623 5.6994 1.5927
-4.7808 5.5533 1.5927
-4.9943 5.3984 1.5927
-5.2024 5.2349 1.5927
-5.4046 5.0630 1.5927
-5.6006 4.8829 1.5927
-5.7899 4.6947 1.5927
-5.9723 4.4988 1.5927
-6.1473 4.2953 1.5927
-6.3146 4.0846 1.5927
-6.4739 3.8670 1.5927
-6.6248 3.6427 1.5927
-6.7669 3.4121 1.5927
-6.9001 3.1756 1.5927
-7.3904 3.0866 1.6758
-7.5107 2.8264 1.6758
-7.6205 2.5612 1.6758
-7.7184 2.2910 1.6755
-7.7996 2.0153 1.6739
-7.8341 1.7285 1.6648
-7.8687 1.4439 1.6582
-7.8953 1.1593 1.6524
-7.9030 0.8737 1.6451
-7.9005 0.5891 1.6381
-7.8819 0.3055 1.6302
-7.8530 0.0240 1.6225
-7.8149 -0.2550 1.6153
-7.7680 -0.5314 1.6086
-7.6972 -0.8033 1.5992
-7.6187 -1.0711 1.5905
-7.5958 -1.3458 1.5956
-7.5599 -1.6195 1.6004
-7.4956 -1.8878 1.6015
-7.4121 -2.1507 1.6008
-7.3189 -2.4099 1.6002
-7.2242 -2.6681 1.6016
-7.1736 -2.9444 1.6153
-7.1097 -3.2192 1.6286
-7.0297 -3.4905 1.6409
-6.8995 -3.7385 1.6440
-6.7476 -3.9741 1.6442
-6.5870 -4.2032 1.6445
-4.1253 5.1337 1.5927
-4.3207 4.9999 1.5927
-4.5114 4.8583 1.5927
-4.6971 4.7092 1.5927
-4.8775 4.5526 1.5927
-5.0521 4.3887 1.5927
-5.2208 4.2178 1.5927
-5.3830 4.0400 1.5927
-5.5387 3.8556 1.5927
-5.6873 3.6649 1.5927
-5.8287 3.4681 1.5927
-5.9626 3.2654 1.5927
-6.0886 3.0573 1.5927
-6.2066 2.8440 1.5927
-6.3162 2.6258 1.5927
-6.4172 2.4032 1.5927
-6.8492 2.2899 1.6758
-6.9368 2.0472 1.6758
-7.0149 1.8010 1.6758
-7.0831 1.5515 1.6758
-7.1414 1.2994 1.6758
-7.1726 1.0424 1.6718
-7.1845 0.7837 1.6658
-7.1912 0.5258 1.6610
-7.1881 0.2685 1.6563
-7.1669 0.0120 1.6498
-7.1371 -0.2427 1.6437
-7.0981 -0.4951 1.6379
-7.0339 -0.7434 1.6285
-6.9622 -0.9880 1.6196
-6.8832 -1.2285 1.6113
-6.8190 -1.4697 1.6086
-6.7588 -1.7110 1.6091
-6.6931 -1.9508 1.6106
-6.6157 -2.1871 1.6116
-6.5365 -2.4227 1.6144
-6.4502 -2.6560 1.6178
-6.3551 -2.8861 1.6214
-6.2735 -3.1235 1.6308
-6.1459 -3.3387 1.6306
-6.0016 -3.5433 1.6281
-5.8494 -3.7411 1.6255
-5.6904 -3.9324 1.6230
-5.5341 -4.1237 1.6233
-5.3736 -4.3107 1.6245
-5.2085 -4.4930 1.6263
-5.0365 -4.6684 1.6281
-4.8489 -4.8276 1.6269
-4.6497 -4.9723 1.6234
-4.4497 -5.1129 1.6214
-4.2458 -5.2457 1.6195
-4.0374 -5.3698 1.6175
-3.8287 -5.4902 1.6169
-3.6162 -5.6020 1.6163
-3.4112 -5.7235 1.6208
-3.2021 -5.8377 1.6255
-2.9892 -5.9442 1.6303
-2.7708 -6.0388 1.6340
-2.5492 -6.1248 1.6377
-2.3250 -6.2029 1.6415
-2.0309 -6.0710 1.5925
-1.8053 -6.1159 1.5925
-1.5789 -6.1523 1.5925
-1.3522 -6.1804 1.5925
-1.1255 -6.2001 1.5925
-0.8990 -6.2115 1.5925
-0.6732 -6.2147 1.5925
-0.4482 -6.2097 1.5925
-0.2243 -6.1968 1.5925
-0.0020 -6.1759 1.5925
0.2187 -6.1473 1.5925
0.4374 -6.1110 1.5925
0.6538 -6.0671 1.5925
0.8677 -6.0159 1.5925
1.0789 -5.9574 1.5925
1.2871 -5.8917 1.5925
1.4922 -5.8192 1.5925
1.6938 -5.7398 1.5925
1.8919 -5.6539 1.5925
2.2214 -5.9220 1.6958
2.4240 -5.8170 1.6958
2.6222 -5.7054 1.6958
2.8158 -5.5875 1.6958
3.0046 -5.4636 1.6958
3.1885 -5.3337 1.6958
3.3673 -5.1981 1.6958
3.5408 -5.0570 1.6958
3.7089 -4.9106 1.6958
3.8715 -4.7591 1.6958
4.0285 -4.6027 1.6958
4.1797 -4.4416 1.6958
4.3250 -4.2761 1.6958
4.4643 -4.1062 1.6958
4.5975 -3.9323 1.6958
4.7246 -3.7545 1.6958
4.8455 -3.5730 1.6958
4.9600 -3.3881 1.6958
5.0681 -3.1999 1.6958
5.1697 -3.0086 1.6958
5.2648 -2.8145 1.6958
5.3533 -2.6178 1.6958
5.4351 -2.4186 1.6958
5.5103 -2.2172 1.6958
5.5787 -2.0138 1.6958
5.6404 -1.8085 1.6958
5.6952 -1.6015 1.6958
5.7432 -1.3932 1.6958
5.7844 -1.1835 1.6958
5.8186 -0.9729 1.6958
5.8460 -0.7614 1.6958
5.8665 -0.5492 1.6958
5.8800 -0.3367 1.6958
5.8866 -0.1238 1.6958
5.8864 0.0891 1.6958
5.8791 0.3019 1.6958
5.8650 0.5143 1.6958
5.8440 0.7262 1.6958
5.8161 0.9373 1.6958
5.7813 1.1475 1.6958
5.7397 1.3567 1.6958
5.6913 1.5644 1.6958
5.6360 1.7707 1.6958
5.5741 1.9753 1.6958
5.5054 2.1780 1.6958
5.4300 2.3785 1.6958
5.3480 2.5768 1.6958
5.2595 2.7725 1.6958
5.1644 2.9656 1.6958
5.0629 3.1558 1.6958
4.9550 3.3429 1.6958
4.8408 3.5267 1.6958
4.7203 3.7070 1.6958
4.5937 3.8836 1.6958
4.4610 4.0564 1.6958
4.3223 4.2251 1.6958
4.1778 4.3895 1.6958
4.0274 4.5494 1.6958
3.8715 4.7046 1.6958
3.7099 4.8550 1.6958
3.5430 5.0003 1.6958
3.3707 5.1404 1.6958
3.1933 5.2750 1.6958
3.0109 5.4039 1.6958
2.8237 5.5270 1.6958
0.8150 1.7480 0.5252
0.7515 1.7758 0.5233
0.6870 1.8015 0.5214
0.6217 1.8248 0.5194
0.5556 1.8459 0.5175
0.4888 1.8646 0.5156
0.4215 1.8810 0.5137
0.3537 1.8950 0.5117
0.2854 1.9066 0.5098
0.2167 1.9159 0.5079
0.1478 1.9227 0.5060
0.0787 1.9272 0.5041
0.0095 1.9292 0.5022
-0.0598 1.9288 0.5003
-0.1290 1.9260 0.4985
-0.1980 1.9208 0.4966
-0.2668 1.9131 0.4948
-0.3354 1.9031 0.4930
-0.4036 1.8907 0.4913
-0.4713 1.8759 0.4895
-0.5384 1.8588 0.4878
-0.6050 1.8393 0.4862
-0.6708 1.8175 0.4845
-0.7359 1.7934 0.4829
-0.8001 1.7670 0.4813
-3.0514 6.1439 1.6958
-3.2817 6.0537 1.6958
-3.5092 5.9546 1.6958
-3.7335 5.8468 1.6958
-3.7140 5.3819 1.5927
-3.9179 5.2643 1.5927
-4.1178 5.1386 1.5927
-4.3133 5.0052 1.5927
-4.5042 4.8639 1.5927
-4.6901 4.7150 1.5927
-4.8707 4.5587 1.5927
-5.0456 4.3951 1.5927
-5.2144 4.2244 1.5927
-5.3770 4.0469 1.5927
-5.5329 3.8628 1.5927
-5.6818 3.6723 1.5927
-5.8235 3.4757 1.5927
-5.9576 3.2733 1.5927
-6.0840 3.0653 1.5927
-6.2022 2.8522 1.5927
-6.3122 2.6342 1.5927
-6.4136 2.4117 1.5927
-6.8457 2.2991 1.6758
-6.9337 2.0565 1.6758
-7.0121 1.8104 1.6758
-7.0807 1.5611 1.6758
-7.1393 1.3090 1.6758
-7.1717 1.0522 1.6720
-7.1841 0.7935 1.6660
-7.1911 0.5357 1.6612
-7.1888 0.2783 1.6566
-7.1679 0.0217 1.6501
-7.1384 -0.2330 1.6440
-7.1004 -0.4856 1.6383
-7.0365 -0.7341 1.6288
-6.9651 -0.9787 1.6200
-6.8864 -1.2195 1.6116
-6.8212 -1.4605 1.6086
-6.7611 -1.7018 1.6091
-6.6957 -1.9417 1.6106
-6.6190 -2.1782 1.6116
-6.5396 -2.4138 1.6143
-6.4536 -2.6472 1.6177
-6.3589 -2.8774 1.6213
-6.2763 -3.1143 1.6303
-6.1512 -3.3308 1.6307
-6.0073 -3.5356 1.6282
-5.8553 -3.7337 1.6256
-3.7558 4.6689 1.5927
-3.9324 4.5459 1.5927
-4.1046 4.4159 1.5927
-4.2723 4.2791 1.5927
-4.4350 4.1357 1.5927
-4.5924 3.9858 1.5927
-4.7444 3.8296 1.5927
-4.8906 3.6673 1.5927
-5.0307 3.4991 1.5927
-5.1645 3.3252 1.5927
-5.2916 3.1459 1.5927
-5.4119 2.9615 1.5927
-5.5252 2.7722 1.5927
-5.6311 2.5783 1.5927
-5.7296 2.3801 1.5927
-5.8203 2.1779 1.5927
-5.9031 1.9720 1.5927
-5.9778 1.7628 1.5927
-6.0442 1.5506 1.5927
-6.4207 1.4053 1.6758
-6.4729 1.1768 1.6758
-6.5161 0.9462 1.6758
-6.5500 0.7139 1.6758
-6.5748 0.4803 1.6758
-6.5903 0.2458 1.6758
-6.5820 0.0108 1.6721
-6.5565 -0.2229 1.6664
-6.5232 -0.4549 1.6611
-6.4821 -0.6848 1.6562
-6.4190 -0.9105 1.6478
-6.3491 -1.1326 1.6400
-6.2724 -1.3512 1.6326
-6.1957 -1.5676 1.6274
-6.1318 -1.7862 1.6278
-6.0587 -2.0017 1.6280
-5.9740 -2.2128 1.6274
-5.8862 -2.4223 1.6281
-5.7992 -2.6319 1.6314
-5.7045 -2.8383 1.6348
-5.5873 -3.0331 1.6339
-5.4609 -3.2218 1.6326
-5.3281 -3.4052 1.6314
-5.1890 -3.5832 1.6303
-5.0439 -3.7555 1.6294
-4.8930 -3.9220 1.6286
-4.7365 -4.0825 1.6279
-4.5748 -4.2369 1.6274
-4.4118 -4.3885 1.6284
-4.2362 -4.5259 1.6267
-4.0558 -4.6558 1.6249
-3.8759 -4.7840 1.6250
-3.6923 -4.9056 1.6253
-3.5053 -5.0208 1.6259
-3.3178 -5.1338 1.6282
-3.1292 -5.2439 1.6319
-2.9371 -5.3473 1.6358
-2.7416 -5.4440 1.6398
-2.4634 -5.3605 1.5925
-2.2623 -5.4263 1.5925
-2.0595 -5.4844 1.5925
-1.8553 -5.5348 1.5925
-1.6501 -5.5775 1.5925
-1.4441 -5.6126 1.5925
-1.2377 -5.6400 1.5925
-1.0312 -5.6598 1.5925
-0.8247 -5.6721 1.5925
-0.6186 -5.6769 1.5925
-0.4132 -5.6742 1.5925
-0.2088 -5.6642 1.5925
-0.0055 -5.6470 1.5925
0.1963 -5.6226 1.5925
0.3965 -5.5912 1.5925
0.5947 -5.5528 1.5925
0.7907 -5.5077 1.5925
0.9844 -5.4558 1.5925
1.1755 -5.3973 1.5925
1.3637 -5.3325 1.5925
1.5490 -5.2613 1.5925
1.7311 -5.1841 1.5925
2.0335 -5.4315 1.6958
2.2200 -5.3367 1.6958
2.4025 -5.2357 1.6958
2.5809 -5.1290 1.6958
2.7550 -5.0165 1.6958
2.9245 -4.8985 1.6958
3.0895 -4.7752 1.6958
3.2497 -4.6468 1.6958
3.4050 -4.5133 1.6958
3.5553 -4.3751 1.6958
3.7004 -4.2323 1.6958
3.8403 -4.0850 1.6958
3.9747 -3.9336 1.6958
4.1037 -3.7781 1.6958
4.2272 -3.6188 1.6958
4.3449 -3.4558 1.6958
4.4569 -3.2893 1.6958
4.5631 -3.1196 1.6958
4.6634 -2.9468 1.6958
4.7577 -2.7711 1.6958
4.8459 -2.5927 1.6958
4.9281 -2.4118 1.6958
5.0041 -2.2286 1.6958
5.0740 -2.0433 1.6958
5.1376 -1.8560 1.6958
5.1949 -1.6669 1.6958
5.2459 -1.4763 1.6958
5.2906 -1.2844 1.6958
5.3289 -1.0912 1.6958
5.3608 -0.8971 1.6958
5.3863 -0.7021 1.6958
5.4054 -0.5066 1.6958
5.4180 -0.3105 1.6958
5.4242 -0.1143 1.6958
5.4240 0.0820 1.6958
5.4174 0.2782 1.6958
5.4043 0.4741 1.6958
5.3849 0.6694 1.6958
5.3590 0.8641 1.6958
5.3267 1.0579 1.6958
5.2881 1.2506 1.6958
5.2432 1.4421 1.6958
5.1919 1.6322 1.6958
5.1344 1.8206 1.6958
5.0707 2.0073 1.6958
5.0007 2.1919 1.6958
4.9247 2.3744 1.6958
4.8425 2.5545 1.6958
4.7544 2.7321 1.6958
4.6602 2.9069 1.6958
4.5602 3.0788 1.6958
4.4543 3.2476 1.6958
4.3427 3.4132 1.6958
4.2254 3.5752 1.6958
4.1025 3.7336 1.6958
3.9741 3.8882 1.6958
3.8404 4.0387 1.6958
3.7013 4.1850 1.6958
3.5571 4.3269 1.6958
3.4078 4.4643 1.6958
3.2535 4.5969 1.6958
3.0945 4.7246 1.6958
2.9307 4.8472 1.6958
2.7624 4.9645 1.6958
0.8033 1.5745 0.5260
0.7459 1.6022 0.5243
0.6877 1.6278 0.5225
0.6286 1.6514 0.5208
0.5687 1.6728 0.5190
0.5082 1.6921 0.5172
0.4470 1.7094 0.5155
0.3853 1.7244 0.5137
0.3231 1.7373 0.5119
0.2605 1.7480 0.5102
0.1975 1.7565 0.5084
0.1344 1.7628 0.5067
0.0710 1.7668 0.5049
0.0075 1.7687 0.5032
-0.0560 1.7683 0.5015
-0.1194 1.7658 0.4998
-0.1827 1.7610 0.4981
-0.2458 1.7539 0.4964
-0.3087 1.7447 0.4948
-0.3711 1.7333 0.4932
-0.4332 1.7197 0.4916
-0.4948 1.7040 0.4900
-0.5558 1.6861 0.4885
-0.6161 1.6660 0.4870
-0.6757 1.6439 0.4855
-0.7346 1.6197 0.4841
-0.7926 1.5934 0.4827
-2.9933 5.5140 1.6958
-3.1995 5.4221 1.6958
-3.4028 5.3222 1.6958
-3.3838 4.8975 1.5927
-3.5682 4.7891 1.5927
-3.7490 4.6734 1.5927
-3.9257 4.5507 1.5927
-4.0982 4.4210 1.5927
-4.2660 4.2845 1.5927
-4.4289 4.1413 1.5927
-4.5865 3.9916 1.5927
-4.7387 3.8356 1.5927
-4.8851 3.6736 1.5927
-5.0254 3.5056 1.5927
-5.1595 3.3319 1.5927
-5.2869 3.1529 1.5927
-5.4075 2.9686 1.5927
-5.5210 2.7795 1.5927
-5.6272 2.5858 1.5927
-5.7260 2.3877 1.5927
-5.8170 2.1857 1.5927
-5.9000 1.9799 1.5927
-5.9751 1.7708 1.5927
-6.0419 1.5587 1.5927
-6.4186 1.4140 1.6758
-6.4711 1.1855 1.6758
-6.5146 0.9550 1.6758
-6.5489 0.7227 1.6758
-6.5740 0.4892 1.6758
-6.5899 0.2548 1.6758
-6.5828 0.0198 1.6723
-6.5576 -0.2141 1.6666
-6.5246 -0.4461 1.6613
-6.4839 -0.6761 1.6563
-6.4215 -0.9019 1.6481
-6.3519 -1.1242 1.6403
-6.2755 -1.3429 1.6329
-6.1980 -1.5592 1.6274
-6.1344 -1.7779 1.6278
-6.0618 -1.9936 1.6281
-5.9774 -2.2049 1.6274
-5.8894 -2.4142 1.6280
-5.8027 -2.6240 1.6312
-5.7083 -2.8305 1.6346
-5.5919 -3.0259 1.6340
-5.4659 -3.2147 1.6326
-5.3333 -3.3983 1.6314
-3.4440 4.2766 1.5927
-3.6049 4.1629 1.5927
-3.7618 4.0429 1.5927
-3.9143 3.9168 1.5927
-4.0624 3.7847 1.5927
-4.2056 3.6467 1.5927
-4.3437 3.5030 1.5927
-4.4765 3.3538 1.5927
-4.6037 3.1994 1.5927
-4.7251 3.0398 1.5927
-4.8405 2.8754 1.5927
-4.9497 2.7064 1.5927
-5.0524 2.5330 1.5927
-5.1484 2.3554 1.5927
-5.2376 2.1740 1.5927
-5.3197 1.9891 1.5927
-5.3947 1.8008 1.5927
-5.4623 1.6095 1.5927
-5.5225 1.4156 1.5927
-5.5750 1.2193 1.5927
-5.6198 1.0209 1.5927
-5.6569 0.8207 1.5927
-5.6861 0.6191 1.5927
-6.0051 0.4382 1.6758
-6.0190 0.2242 1.6758
-6.0245 0.0098 1.6758
-6.0173 -0.2046 1.6746
-5.9981 -0.4182 1.6724
-5.9707 -0.6305 1.6703
-5.9327 -0.8411 1.6675
-5.8772 -1.0479 1.6621
-5.8135 -1.2516 1.6566
-5.7424 -1.4521 1.6512
-5.6621 -1.6484 1.6453
-5.5877 -1.8450 1.6434
-5.5103 -2.0398 1.6427
-5.4262 -2.2315 1.6423
-5.3355 -2.4198 1.6422
-5.2407 -2.6058 1.6429
-5.1337 -2.7850 1.6421
-5.0188 -2.9588 1.6409
-4.8978 -3.1279 1.6397
-4.7711 -3.2921 1.6387
-4.6387 -3.4512 1.6378
-4.5010 -3.6050 1.6371
-4.3582 -3.7533 1.6365
-4.2104 -3.8960 1.6360
-4.0579 -4.0329 1.6356
-3.9010 -4.1640 1.6354
-3.7426 -4.2921 1.6365
-3.5804 -4.4147 1.6379
-3.4141 -4.5311 1.6393
-3.2440 -4.6413 1.6409
-2.9767 -4.6004 1.5925
-2.8021 -4.6897 1.5925
-2.6247 -4.7722 1.5925
-2.4448 -4.8477 1.5925
-2.2628 -4.9164 1.5925
-2.0789 -4.9780 1.5925
-1.8933 -5.0327 1.5925
-1.7065 -5.0804 1.5925
-1.5185 -5.1210 1.5925
-1.3298 -5.1546 1.5925
-1.1405 -5.1812 1.5925
-0.9510 -5.2009 1.5925
-0.7615 -5.2136 1.5925
-0.5722 -5.2194 1.5925
-0.3835 -5.2184 1.5925
-0.1955 -5.2107 1.5925
-0.0085 -5.1963 1.5925
0.1773 -5.1753 1.5925
0.3616 -5.1478 1.5925
0.5442 -5.1138 1.5925
0.7250 -5.0736 1.5925
0.9036 -5.0271 1.5925
1.0800 -4.9746 1.5925
1.2538 -4.9161 1.5925
1.4250 -4.8517 1.5925
1.5933 -4.7817 1.5925
1.8726 -5.0111 1.6958
2.0451 -4.9248 1.6958
2.2141 -4.8328 1.6958
2.3793 -4.7354 1.6958
2.5405 -4.6326 1.6958
2.6977 -4.5247 1.6958
2.8507 -4.4117 1.6958
2.9994 -4.2940 1.6958
3.1436 -4.1715 1.6958
3.2831 -4.0446 1.6958
3.4179 -3.9133 1.6958
3.5479 -3.7779 1.6958
3.6729 -3.6384 1.6958
3.7929 -3.4952 1.6958
3.9077 -3.3484 1.6958
4.0173 -3.1981 1.6958
4.1216 -3.0445 1.6958
4.2205 -2.8879 1.6958
4.3139 -2.7283 1.6958
4.4018 -2.5660 1.6958
4.4841 -2.4011 1.6958
4.5607 -2.2338 1.6958
4.6316 -2.0643 1.6958
4.6968 -1.8929 1.6958
4.7561 -1.7195 1.6958
4.8096 -1.5445 1.6958
4.8572 -1.3680 1.6958
4.8990 -1.1903 1.6958
4.9347 -1.0113 1.6958
4.9646 -0.8315 1.6958
4.9884 -0.6508 1.6958
5.0063 -0.4696 1.6958
5.0181 -0.2880 1.6958
5.0240 -0.1061 1.6958
5.0239 0.0759 1.6958
5.0177 0.2577 1.6958
5.0056 0.4392 1.6958
4.9874 0.6203 1.6958
4.9634 0.8007 1.6958
4.9333 0.9803 1.6958
4.8973 1.1589 1.6958
4.8554 1.3363 1.6958
4.8077 1.5123 1.6958
4.7541 1.6868 1.6958
4.6946 1.8596 1.6958
4.6295 2.0305 1.6958
4.5586 2.1994 1.6958
4.4821 2.3660 1.6958
4.4000 2.5302 1.6958
4.3123 2.6919 1.6958
4.2191 2.8507 1.6958
4.1206 3.0067 1.6958
4.0167 3.1595 1.6958
3.9075 3.3090 1.6958
3.7932 3.4551 1.6958
3.6739 3.5976 1.6958
3.5495 3.7363 1.6958
3.4203 3.8710 1.6958
3.2862 4.0015 1.6958
3.1476 4.1278 1.6958
3.0044 4.2496 1.6958
2.8567 4.3668 1.6958
2.7048 4.4792 1.6958
0.7916 1.4244 0.5266
0.7396 1.4518 0.5251
0.6868 1.4774 0.5235
0.6331 1.5010 0.5219
0.5786 1.5228 0.5202
0.5234 1.5426 0.5186
0.4676 1.5605 0.5170
0.4112 1.5764 0.5154
0.3542 1.5903 0.5137
0.2969 1.6022 0.5121
0.2391 1.6121 0.5105
0.1811 1.6199 0.5089
0.1228 1.6258 0.5072
0.0644 1.6295 0.5056
0.0059 1.6312 0.5040
-0.0527 1.6309 0.5025
-0.1112 1.6285 0.5009
-0.1696 1.6241 0.4993
-0.2278 1.6176 0.4978
-0.2857 1.6091 0.4963
-0.3434 1.5986 0.4948
-0.4006 1.5860 0.4933
-0.4574 1.5714 0.4919
-0.5136 1.5549 0.4905
-0.5693 1.5364 0.4891
-0.6242 1.5159 0.4877
-0.6785 1.4935 0.4864
-0.7319 1.4692 0.4851
-0.7845 1.4431 0.4839
-0.8361 1.4151 0.4827
-3.1233 4.8789 1.6958
-3.3058 4.7789 1.6958
-3.2730 4.3879 1.5927
-3.4378 4.2808 1.5927
-3.5988 4.1674 1.5927
-3.7559 4.0476 1.5927
-3.9086 3.9217 1.5927
-4.0568 3.7898 1.5927
-4.2002 3.6520 1.5927
-4.3385 3.5086 1.5927
-4.4715 3.3596 1.5927
-4.5990 3.2053 1.5927
-4.7206 3.0460 1.5927
-4.8363 2.8818 1.5927
-4.9457 2.7129 1.5927
-5.0486 2.5397 1.5927
-5.1449 2.3623 1.5927
-5.2343 2.1810 1.5927
-5.3167 1.9962 1.5927
-5.3920 1.8080 1.5927
-5.4599 1.6169 1.5927
-5.5203 1.4230 1.5927
-5.5731 1.2268 1.5927
-5.6183 1.0284 1.5927
-5.6556 0.8284 1.5927
-5.6851 0.6268 1.5927
-6.0044 0.4464 1.6758
-6.0187 0.2324 1.6758
-6.0245 0.0179 1.6758
-6.0179 -0.1965 1.6747
-5.9990 -0.4101 1.6725
-5.9719 -0.6225 1.6703
-5.9344 -0.8331 1.6676
-5.8795 -1.0401 1.6623
-5.8161 -1.2439 1.6568
-5.7453 -1.4445 1.6514
-5.6653 -1.6410 1.6456
-5.5906 -1.8375 1.6434
-5.5134 -2.0324 1.6428
-5.4295 -2.2243 1.6424
-5.3391 -2.4127 1.6422
-5.2441 -2.5986 1.6428
-5.1380 -2.7783 1.6422
-5.0233 -2.9523 1.6409
-4.9025 -3.1216 1.6398
-3.1771 3.9409 1.5927
-3.3247 3.8353 1.5927
-3.4685 3.7240 1.5927
-3.6084 3.6071 1.5927
-3.7440 3.4847 1.5927
-3.8751 3.3570 1.5927
-4.0016 3.2242 1.5927
-4.1231 3.0863 1.5927
-4.2395 2.9437 1.5927
-4.3505 2.7964 1.5927
-4.4560 2.6448 1.5927
-4.5557 2.4889 1.5927
-4.6495 2.3291 1.5927
-4.7372 2.1656 1.5927
-4.8186 1.9986 1.5927
-4.8936 1.8283 1.5927
-4.9620 1.6551 1.5927
-5.0237 1.4791 1.5927
-5.0785 1.3008 1.5927
-5.1264 1.1202 1.5927
-5.1673 0.9379 1.5927
-5.2011 0.7539 1.5927
-5.2276 0.5687 1.5927
-5.2469 0.3825 1.5927
-5.2590 0.1956 1.5927
-5.2637 0.0084 1.5927
-5.2611 -0.1789 1.5927
-5.5205 -0.3848 1.6744
-5.4945 -0.5800 1.6720
-5.4577 -0.7734 1.6686
-5.4135 -0.9647 1.6652
-5.3586 -1.1530 1.6608
-5.2947 -1.3381 1.6558
-5.2250 -1.5202 1.6512
-5.1571 -1.7018 1.6493
-5.0828 -1.8804 1.6476
-5.0066 -2.0576 1.6475
-4.9239 -2.2317 1.6475
-4.8347 -2.4023 1.6475
-4.7393 -2.5692 1.6476
-4.6377 -2.7322 1.6477
-4.5277 -2.8894 1.6469
-4.4114 -3.0416 1.6460
-4.2899 -3.1891 1.6451
-4.1634 -3.3319 1.6444
-4.0321 -3.4696 1.6438
-3.8962 -3.6022 1.6434
-3.7560 -3.7295 1.6430
-3.6116 -3.8514 1.6428
-3.3574 -3.8466 1.5925
-3.2100 -3.9539 1.5925
-3.0589 -4.0553 1.5925
-2.9044 -4.1508 1.5925
-2.7469 -4.2402 1.5925
-2.5865 -4.3234 1.5925
-2.4235 -4.4004 1.5925
-2.2582 -4.4711 1.5925
-2.0908 -4.5354 1.5925
-1.9215 -4.5934 1.5925
-1.7507 -4.6449 1.5925
-1.5786 -4.6899 1.5925
-1.4054 -4.7286 1.5925
-1.2314 -4.7607 1.5925
-1.0569 -4.7864 1.5925
-0.8820 -4.8057 1.5925
-0.7071 -4.8187 1.5925
-0.5323 -4.8252 1.5925
-0.3579 -4.8255 1.5925
-0.1840 -4.8195 1.5925
-0.0111 -4.8073 1.5925
0.1608 -4.7890 1.5925
0.3315 -4.7646 1.5925
0.5006 -4.7343 1.5925
0.6681 -4.6981 1.5925
0.8337 -4.6562 1.5925
0.9973 -4.6086 1.5925
1.1586 -4.5554 1.5925
1.3175 -4.4968 1.5925
1.5175 -4.5640 1.6397
1.7329 -4.6465 1.6958
1.8933 -4.5674 1.6958
2.0504 -4.4831 1.6958
2.2041 -4.3936 1.6958
2.3542 -4.2991 1.6958
2.5006 -4.1997 1.6958
2.6431 -4.0956 1.6958
2.7816 -3.9870 1.6958
2.9160 -3.8740 1.6958
3.0461 -3.7568 1.6958
3.1719 -3.6355 1.6958
3.2932 -3.5102 1.6958
3.4099 -3.3812 1.6958
3.5219 -3.2486 1.6958
3.6292 -3.1126 1.6958
3.7316 -2.9733 1.6958
3.8291 -2.8309 1.6958
3.9215 -2.6856 1.6958
4.0089 -2.5375 1.6958
4.0911 -2.3868 1.6958
4.1680 -2.2337 1.6958
4.2397 -2.0783 1.6958
4.3061 -1.9208 1.6958
4.3671 -1.7614 1.6958
4.4227 -1.6003 1.6958
4.4728 -1.4375 1.6958
4.5174 -1.2734 1.6958
4.5565 -1.1080 1.6958
4.5901 -0.9415 1.6958
4.6180 -0.7741 1.6958
4.6404 -0.6060 1.6958
4.6572 -0.4373 1.6958
4.6683 -0.2682 1.6958
4.6739 -0.0989 1.6958
4.6738 0.0705 1.6958
4.6681 0.2398 1.6958
4.6567 0.4088 1.6958
4.6398 0.5773 1.6958
4.6172 0.7453 1.6958
4.5891 0.9124 1.6958
4.5555 1.0786 1.6958
4.5163 1.2437 1.6958
4.4716 1.4075 1.6958
4.4215 1.5698 1.6958
4.3659 1.7305 1.6958
4.3050 1.8895 1.6958
4.2387 2.0465 1.6958
4.1671 2.2013 1.6958
4.0903 2.3539 1.6958
4.0084 2.5040 1.6958
3.9213 2.6515 1.6958
3.8292 2.7963 1.6958
3.7321 2.9381 1.6958
3.6302 3.0768 1.6958
3.5234 3.2122 1.6958
3.4120 3.3442 1.6958
3.2959 3.4726 1.6958
3.1753 3.5973 1.6958
3.0503 3.7180 1.6958
2.9209 3.8348 1.6958
2.7874 3.9473 1.6958
2.6498 4.0554 1.6958
0.7798 1.2930 0.5272
0.7326 1.3201 0.5257
0.6845 1.3455 0.5243
0.6355 1.3692 0.5228
0.5857 1.3912 0.5213
0.5353 1.4114 0.5198
0.4841 1.4298 0.5183
0.4324 1.4464 0.5168
0.3801 1.4612 0.5153
0.3273 1.4741 0.5138
0.2742 1.4851 0.5123
0.2207 1.4943 0.5107
0.1669 1.5016 0.5092
0.1128 1.5070 0.5077
0.0587 1.5105 0.5063
0.0044 1.5121 0.5048
-0.0499 1.5118 0.5033
-0.1041 1.5096 0.5019
-0.1582 1.5055 0.5004
-0.2122 1.4994 0.4990
-0.2659 1.4915 0.4976
-0.3193 1.4817 0.4962
-0.3724 1.4701 0.4949
-0.4250 1.4566 0.4935
-0.4771 1.4412 0.4922
-0.5287 1.4240 0.4909
-0.5796 1.4050 0.4897
-0.6298 1.3842 0.4884
-0.6794 1.3617 0.4873
-0.7281 1.3374 0.4861
-0.7759 1.3114 0.4850
-0.8228 1.2837 0.4839
-3.0513 4.4057 1.6958
-3.0202 4.0443 1.5927
-3.1714 3.9448 1.5927
-3.3191 3.8395 1.5927
-3.4631 3.7284 1.5927
-3.6031 3.6117 1.5927
-3.7389 3.4895 1.5927
-3.8702 3.3620 1.5927
-3.9968 3.2293 1.5927
-4.1185 3.0917 1.5927
-4.2351 2.9492 1.5927
-4.3464 2.8021 1.5927
-4.4521 2.6506 1.5927
-4.5520 2.4949 1.5927
-4.6461 2.3353 1.5927
-4.7340 2.1719 1.5927
-4.8156 2.0050 1.5927
-4.8909 1.8348 1.5927
-4.9595 1.6617 1.5927
-5.0215 1.4859 1.5927
-5.0766 1.3076 1.5927
-5.1248 1.1272 1.5927
-5.1659 0.9448 1.5927
-5.1999 0.7609 1.5927
-5.2267 0.5758 1.5927
-5.2463 0.3896 1.5927
-5.2586 0.2027 1.5927
-5.2637 0.0155 1.5927
-5.2613 -0.1718 1.5927
-5.5213 -0.3773 1.6744
-5.4957 -0.5726 1.6721
-5.4592 -0.7660 1.6687
-5.4154 -0.9575 1.6653
-5.3609 -1.1459 1.6610
-5.2973 -1.3311 1.6560
-5.2275 -1.5132 1.6513
-5.1598 -1.6949 1.6494
-5.0856 -1.8736 1.6476
-5.0097 -2.0509 1.6475
-4.9272 -2.2251 1.6475
-4.8382 -2.3959 1.6475
-4.7430 -2.5629 1.6475
-4.6417 -2.7261 1.6477
-4.5320 -2.8835 1.6469
-2.9459 3.6500 1.5927
-3.0821 3.5516 1.5927
-3.2147 3.4479 1.5927
-3.3436 3.3391 1.5927
-3.4686 3.2253 1.5927
-3.5893 3.1066 1.5927
-3.7058 2.9831 1.5927
-3.8177 2.8552 1.5927
-3.9248 2.7228 1.5927
-4.0269 2.5862 1.5927
-4.1239 2.4456 1.5927
-4.2156 2.3012 1.5927
-4.3019 2.1532 1.5927
-4.3824 2.0018 1.5927
-4.4572 1.8472 1.5927
-4.5261 1.6896 1.5927
-4.5889 1.5294 1.5927
-4.6456 1.3667 1.5927
-4.6959 1.2018 1.5927
-4.7399 1.0349 1.5927
-4.7773 0.8664 1.5927
-4.8083 0.6964 1.5927
-4.8326 0.5252 1.5927
-4.8503 0.3532 1.5927
-4.8613 0.1806 1.5927
-4.8656 0.0076 1.5927
-4.8632 -0.1654 1.5927
-4.8540 -0.3382 1.5927
-4.8382 -0.5105 1.5927
-4.8157 -0.6820 1.5927
-4.7865 -0.8525 1.5927
-4.7508 -1.0217 1.5927
-4.7085 -1.1892 1.5927
-4.6598 -1.3549 1.5927
-4.7847 -1.5779 1.6549
-4.7163 -1.7437 1.6533
-4.6421 -1.9065 1.6518
-4.5626 -2.0666 1.6506
-4.4805 -2.2247 1.6506
-4.3925 -2.3795 1.6506
-4.2989 -2.5307 1.6508
-4.1999 -2.6782 1.6509
-4.0954 -2.8216 1.6511
-3.8438 -2.8552 1.5925
-3.7327 -2.9847 1.5925
-3.6169 -3.1096 1.5925
-3.4966 -3.2299 1.5925
-3.3721 -3.3452 1.5925
-3.2435 -3.4556 1.5925
-3.1111 -3.5608 1.5925
-2.9751 -3.6608 1.5925
-2.8357 -3.7554 1.5925
-2.6932 -3.8444 1.5925
-2.5477 -3.9280 1.5925
-2.3996 -4.0058 1.5925
-2.2490 -4.0779 1.5925
-2.0962 -4.1442 1.5925
-1.9414 -4.2047 1.5925
-1.7848 -4.2592 1.5925
-1.6268 -4.3079 1.5925
-1.4675 -4.3506 1.5925
-1.3071 -4.3873 1.5925
-1.1459 -4.4180 1.5925
-0.9841 -4.4428 1.5925
-0.8219 -4.4617 1.5925
-0.6596 -4.4746 1.5925
-0.4974 -4.4816 1.5925
-0.3355 -4.4828 1.5925
-0.1741 -4.4782 1.5925
-0.0134 -4.4678 1.5925
0.1464 -4.4517 1.5925
0.3051 -4.4299 1.5925
0.4625 -4.4027 1.5925
0.6184 -4.3699 1.5925
0.7726 -4.3318 1.5925
0.9250 -4.2883 1.5925
1.0753 -4.2397 1.5925
1.2234 -4.1859 1.5925
1.4580 -4.3947 1.6958
1.6105 -4.3270 1.6958
1.7602 -4.2541 1.6958
1.9069 -4.1763 1.6958
2.0504 -4.0936 1.6958
2.1907 -4.0063 1.6958
2.3275 -3.9144 1.6958
2.4607 -3.8180 1.6958
2.5903 -3.7174 1.6958
2.7160 -3.6126 1.6958
2.8378 -3.5038 1.6958
2.9555 -3.3911 1.6958
3.0691 -3.2748 1.6958
3.1784 -3.1549 1.6958
3.2834 -3.0316 1.6958
3.3839 -2.9050 1.6958
3.4799 -2.7753 1.6958
3.5713 -2.6427 1.6958
3.6580 -2.5074 1.6958
3.7400 -2.3693 1.6958
3.8171 -2.2289 1.6958
3.8893 -2.0861 1.6958
3.9566 -1.9411 1.6958
4.0190 -1.7942 1.6958
4.0763 -1.6454 1.6958
4.1285 -1.4950 1.6958
4.1755 -1.3431 1.6958
4.2175 -1.1898 1.6958
4.2542 -1.0353 1.6958
4.2858 -0.8798 1.6958
4.3121 -0.7234 1.6958
4.3331 -0.5664 1.6958
4.3489 -0.4087 1.6958
4.3594 -0.2507 1.6958
4.3646 -0.0925 1.6958
4.3646 0.0658 1.6958
4.3592 0.2240 1.6958
4.3486 0.3819 1.6958
4.3328 0.5394 1.6958
4.3116 0.6963 1.6958
4.2853 0.8525 1.6958
4.2537 1.0077 1.6958
4.2169 1.1619 1.6958
4.1750 1.3149 1.6958
4.1279 1.4665 1.6958
4.0758 1.6166 1.6958
4.0186 1.7650 1.6958
3.9564 1.9115 1.6958
3.8893 2.0560 1.6958
3.8172 2.1984 1.6958
3.7403 2.3384 1.6958
3.6587 2.4759 1.6958
3.5723 2.6108 1.6958
3.4813 2.7429 1.6958
3.3858 2.8721 1.6958
3.2857 2.9982 1.6958
3.1813 3.1210 1.6958
3.0726 3.2404 1.6958
2.9597 3.3563 1.6958
2.8426 3.4686 1.6958
2.7216 3.5769 1.6958
0.8099 1.1483 0.5289
0.7679 1.1766 0.5276
0.7248 1.2034 0.5263
0.6809 1.2287 0.5249
0.6362 1.2524 0.5236
0.5906 1.2745 0.5222
0.5443 1.2950 0.5208
0.4973 1.3138 0.5194
0.4497 1.3310 0.5180
0.4016 1.3465 0.5166
0.3529 1.3602 0.5152
0.3038 1.3723 0.5138
0.2543 1.3826 0.5124
0.2045 1.3911 0.5110
0.1544 1.3979 0.5096
0.1041 1.4030 0.5082
0.0537 1.4062 0.5068
0.0032 1.4077 0.5054
-0.0474 1.4074 0.5041
-0.0979 1.4054 0.5027
-0.1483 1.4015 0.5014
-0.1985 1.3959 0.5000
-0.2485 1.3885 0.4987
-0.2982 1.3794 0.4975
-0.3476 1.3685 0.4962
-0.3966 1.3559 0.4949
-0.4451 1.3416 0.4937
-0.4931 1.3256 0.4925
-0.5405 1.3079 0.4914
-0.5873 1.2885 0.4902
-0.6333 1.2675 0.4891
-0.6787 1.2448 0.4880
-0.7232 1.2206 0.4870
-0.7668 1.1948 0.4860
-0.8096 1.1675 0.4850
-0.8513 1.1387 0.4841
-2.9500 3.6653 1.5978
-3.0769 3.5554 1.5927
-3.2097 3.4520 1.5927
-3.3387 3.3433 1.5927
-3.4639 3.2297 1.5927
-3.5848 3.1112 1.5927
-3.7014 2.9879 1.5927
-3.8135 2.8601 1.5927
-3.9208 2.7279 1.5927
-4.0231 2.5915 1.5927
-4.1203 2.4511 1.5927
-4.2122 2.3068 1.5927
-4.2987 2.1589 1.5927
-4.3795 2.0076 1.5927
-4.4545 1.8531 1.5927
-4.5236 1.6957 1.5927
-4.5866 1.5356 1.5927
-4.6435 1.3729 1.5927
-4.6941 1.2081 1.5927
-4.7383 1.0413 1.5927
-4.7760 0.8728 1.5927
-4.8072 0.7029 1.5927
-4.8318 0.5318 1.5927
-4.8498 0.3598 1.5927
-4.8610 0.1872 1.5927
-4.8656 0.0142 1.5927
-4.8634 -0.1588 1.5927
-4.8545 -0.3317 1.5927
-4.8389 -0.5040 1.5927
-4.8166 -0.6755 1.5927
-4.7877 -0.8461 1.5927
-4.7522 -1.0153 1.5927
-4.7102 -1.1829 1.5927
-4.6618 -1.3487 1.5927
-4.7872 -1.5715 1.6550
-4.7191 -1.7374 1.6534
-4.6450 -1.9004 1.6518
-4.5657 -2.0605 1.6506
-4.4837 -2.2188 1.6506
-4.3960 -2.3737 1.6506
-4.3026 -2.5251 1.6507
-4.2037 -2.6726 1.6509
-0.8357 1.0343 0.4852
-2.8697 3.3032 1.5927
-2.9926 3.2063 1.5927
-3.1120 3.1046 1.5927
-3.2277 2.9984 1.5927
-3.3395 2.8876 1.5927
-3.4473 2.7725 1.5927
-3.5508 2.6532 1.5927
-3.6499 2.5299 1.5927
-3.7444 2.4027 1.5927
-3.8340 2.2718 1.5927
-3.9188 2.1374 1.5927
-3.9985 1.9997 1.5927
-4.0729 1.8589 1.5927
-4.1420 1.7152 1.5927
-4.2056 1.5687 1.5927
-4.2636 1.4198 1.5927
-4.3159 1.2687 1.5927
-4.3623 1.1155 1.5927
-4.4029 0.9606 1.5927
-4.4375 0.8040 1.5927
-4.4660 0.6462 1.5927
-4.4885 0.4874 1.5927
-4.5048 0.3277 1.5927
-4.5149 0.1675 1.5927
-4.5188 0.0069 1.5927
-4.5165 -0.1536 1.5927
-4.5080 -0.3140 1.5927
-4.4934 -0.4739 1.5927
-4.4726 -0.6331 1.5927
-4.4456 -0.7914 1.5927
-4.4126 -0.9484 1.5927
-4.3735 -1.1040 1.5927
-4.3285 -1.2578 1.5927
-4.2777 -1.4098 1.5927
-4.2210 -1.5595 1.5927
-4.1587 -1.7069 1.5927
-4.0909 -1.8516 1.5927
-4.0176 -1.9935 1.5927
-3.9386 -2.1321 1.5925
-3.8548 -2.2676 1.5925
-3.7660 -2.3997 1.5925
-3.6724 -2.5281 1.5925
-3.5741 -2.6527 1.5925
-3.4713 -2.7733 1.5925
-3.3641 -2.8898 1.5925
-3.2528 -3.0019 1.5925
-3.1374 -3.1095 1.5925
-3.0184 -3.2126 1.5925
-2.8957 -3.3109 1.5925
-2.7696 -3.4043 1.5925
-2.6404 -3.4928 1.5925
-2.5082 -3.5762 1.5925
-2.3733 -3.6545 1.5925
-2.2358 -3.7276 1.5925
-2.0961 -3.7953 1.5925
-1.9542 -3.8577 1.5925
-1.8104 -3.9146 1.5925
-1.6649 -3.9661 1.5925
-1.5180 -4.0121 1.5925
-1.3699 -4.0526 1.5925
-1.2207 -4.0875 1.5925
-1.0707 -4.1169 1.5925
-0.9201 -4.1408 1.5925
-0.7691 -4.1591 1.5925
-0.6179 -4.1719 1.5925
-0.4668 -4.1792 1.5925
-0.3158 -4.1811 1.5925
-0.1653 -4.1775 1.5925
-0.0154 -4.1686 1.5925
0.1338 -4.1543 1.5925
0.2819 -4.1348 1.5925
0.4289 -4.1101 1.5925
0.5745 -4.0802 1.5925
0.7187 -4.0453 1.5925
0.8611 -4.0055 1.5925
1.0017 -3.9607 1.5925
1.1403 -3.9112 1.5925
1.3595 -4.1070 1.6958
1.5023 -4.0443 1.6958
1.6425 -3.9769 1.6958
1.7799 -3.9047 1.6958
1.9144 -3.8281 1.6958
2.0458 -3.7470 1.6958
2.1741 -3.6615 1.6958
2.2991 -3.5719 1.6958
2.4206 -3.4783 1.6958
2.5386 -3.3807 1.6958
2.6530 -3.2793 1.6958
2.7635 -3.1743 1.6958
2.8702 -3.0658 1.6958
2.9729 -2.9539 1.6958
3.0716 -2.8388 1.6958
3.1660 -2.7206 1.6958
3.2563 -2.5994 1.6958
3.3422 -2.4755 1.6958
3.4238 -2.3489 1.6958
3.5009 -2.2199 1.6958
3.5735 -2.0884 1.6958
3.6415 -1.9548 1.6958
3.7049 -1.8191 1.6958
3.7635 -1.6816 1.6958
3.8175 -1.5423 1.6958
3.8667 -1.4014 1.6958
3.9110 -1.2590 1.6958
3.9505 -1.1154 1.6958
3.9852 -0.9706 1.6958
4.0149 -0.8249 1.6958
4.0397 -0.6783 1.6958
4.0596 -0.5311 1.6958
4.0744 -0.3833 1.6958
4.0844 -0.2352 1.6958
4.0893 -0.0868 1.6958
4.0893 0.0616 1.6958
4.0843 0.2099 1.6958
4.0743 0.3579 1.6958
4.0594 0.5056 1.6958
4.0395 0.6527 1.6958
4.0147 0.7991 1.6958
3.9850 0.9447 1.6958
3.9504 1.0892 1.6958
3.9109 1.2326 1.6958
3.8667 1.3746 1.6958
3.8176 1.5152 1.6958
3.7638 1.6542 1.6958
3.7052 1.7914 1.6958
3.6421 1.9268 1.6958
3.5743 2.0600 1.6958
3.5020 2.1911 1.6958
3.4252 2.3197 1.6958
3.3440 2.4459 1.6958
3.2584 2.5695 1.6958
3.1686 2.6902 1.6958
3.0746 2.8080 1.6958
2.9764 2.9228 1.6958
2.8743 3.0343 1.6958
2.7682 3.1424 1.6958
2.6583 3.2471 1.6958
0.7941 1.0448 0.5292
0.7558 1.0727 0.5280
0.7165 1.0992 0.5267
0.6763 1.1243 0.5255
0.6353 1.1480 0.5242
0.5935 1.1701 0.5229
0.5509 1.1908 0.5217
0.5077 1.2100 0.5204
0.4638 1.2276 0.5191
0.4193 1.2437 0.5178
0.3743 1.2581 0.5164
0.3288 1.2710 0.5151
0.2829 1.2823 0.5138
0.2367 1.2919 0.5125
0.1902 1.2999 0.5112
0.1434 1.3063 0.5099
0.0964 1.3110 0.5086
0.0492 1.3140 0.5073
0.0020 1.3154 0.5060
-0.0452 1.3152 0.5047
-0.0924 1.3132 0.5035
-0.1395 1.3096 0.5022
-0.1864 1.3044 0.5010
-0.2331 1.2975 0.4998
-0.2796 1.2889 0.4985
-0.3257 1.2788 0.4974
-0.3715 1.2670 0.4962
-0.4168 1.2536 0.4951
-0.4617 1.2386 0.4940
-0.5059 1.2220 0.4929
-0.5496 1.2039 0.4918
-0.5927 1.1842 0.4908
-0.6350 1.1630 0.4898
-0.6766 1.1404 0.4888
-0.7173 1.1162 0.4878
-0.7573 1.0907 0.4869
-0.7962 1.0637 0.4860
-0.8343 1.0354 0.4852
-2.8649 3.3068 1.5927
-2.9879 3.2101 1.5927
-3.1075 3.1086 1.5927
-3.2233 3.0025 1.5927
-3.3353 2.8919 1.5927
-3.4433 2.7769 1.5927
-3.5470 2.6578 1.5927
-3.6462 2.5346 1.5927
-3.7408 2.4076 1.5927
-3.8307 2.2768 1.5927
-3.9157 2.1426 1.5927
-3.9955 2.0050 1.5927
-4.0702 1.8643 1.5927
-4.1395 1.7207 1.5927
-4.2033 1.5744 1.5927
-4.2615 1.4256 1.5927
-4.3140 1.2745 1.5927
-4.3607 1.1214 1.5927
-4.4015 0.9665 1.5927
-4.4363 0.8100 1.5927
-4.4651 0.6523 1.5927
-4.4877 0.4934 1.5927
-4.5043 0.3338 1.5927
-4.5146 0.1736 1.5927
-4.5188 0.0130 1.5927
-4.5167 -0.1475 1.5927
-4.5085 -0.3079 1.5927
-4.4941 -0.4679 1.5927
-4.4734 -0.6271 1.5927
-4.4467 -0.7854 1.5927
-4.4139 -0.9425 1.5927
-4.3751 -1.0981 1.5927
-4.3303 -1.2520 1.5927
-4.2797 -1.4040 1.5927
-4.2233 -1.5539 1.5927
-4.1612 -1.7013 1.5927
-4.0936 -1.8461 1.5927
-4.0204 -1.9881 1.5927
-3.9417 -2.1268 1.5925
-3.8581 -2.2625 1.5925
-3.7695 -2.3947 1.5925
-0.7841 0.9693 0.4870
-0.8188 0.9414 0.4862
-0.8524 0.9123 0.4855
-2.9075 2.8976 1.5927
-3.0151 2.7981 1.5927
-3.1191 2.6944 1.5927
-3.2193 2.5866 1.5927
-3.3154 2.4750 1.5927
-3.4075 2.3597 1.5927
-3.4952 2.2408 1.5927
-3.5785 2.1185 1.5927
-3.6572 1.9930 1.5927
-3.7312 1.8645 1.5927
-3.8003 1.7330 1.5927
-3.8644 1.5989 1.5927
-3.9234 1.4623 1.5927
-3.9772 1.3234 1.5927
-4.0257 1.1824 1.5927
-4.0687 1.0396 1.5927
-4.1063 0.8951 1.5927
-4.1384 0.7492 1.5927
-4.1648 0.6021 1.5927
-4.1856 0.4540 1.5927
-4.2007 0.3052 1.5927
-4.2100 0.1559 1.5927
-4.2137 0.0063 1.5927
-4.2115 -0.1433 1.5927
-4.2036 -0.2927 1.5927
-4.1900 -0.4417 1.5927
-4.1706 -0.5901 1.5927
-4.1456 -0.7376 1.5927
-4.1150 -0.8839 1.5927
-4.0787 -1.0289 1.5927
-4.0369 -1.1724 1.5927
-3.9897 -1.3140 1.5927
-3.9372 -1.4537 1.5927
-3.8793 -1.5911 1.5927
-3.8163 -1.7261 1.5927
-3.7483 -1.8585 1.5927
-3.6749 -1.9879 1.5925
-3.5971 -2.1144 1.5925
-3.5147 -2.2378 1.5925
-3.4277 -2.3578 1.5925
-3.3363 -2.4742 1.5925
-3.2408 -2.5870 1.5925
-3.1411 -2.6959 1.5925
-3.0376 -2.8008 1.5925
-2.9304 -2.9016 1.5925
-2.8196 -2.9981 1.5925
-2.7055 -3.0902 1.5925
-2.5882 -3.1779 1.5925
-2.4679 -3.2609 1.5925
-2.3448 -3.3392 1.5925
-2.2191 -3.4128 1.5925
-2.0910 -3.4815 1.5925
-1.9608 -3.5453 1.5925
-1.8285 -3.6041 1.5925
-1.6944 -3.6579 1.5925
-1.5588 -3.7066 1.5925
-1.4217 -3.7501 1.5925
-1.2834 -3.7886 1.5925
-1.1441 -3.8219 1.5925
-1.0040 -3.8500 1.5925
-0.8633 -3.8729 1.5925
-0.7222 -3.8907 1.5925
-0.5809 -3.9033 1.5925
-0.4395 -3.9108 1.5925
-0.2983 -3.9131 1.5925
-0.1575 -3.9104 1.5925
-0.0171 -3.9027 1.5925
0.1225 -3.8900 1.5925
0.2613 -3.8723 1.5925
0.3990 -3.8498 1.5925
