ply
format ascii 1.0
element vertex 2110
property float32 x
property float32 y
property float32 z
end_header
33.5880 5.3143 -1.3540
33.4014 6.5208 -1.3565
33.2144 7.7308 -1.3607
32.4242 12.6585 -1.3942
32.2129 13.9275 -1.4070
37.0655 33.2386 -2.0104
34.0000 32.7648 -1.9079
31.2318 32.3370 -1.8177
28.4053 31.6048 -1.7191
26.5216 31.7281 -1.6739
24.2897 31.2730 -1.6037
22.3128 30.9595 -1.5463
20.5086 30.7226 -1.4974
18.5560 30.0814 -1.4334
17.1586 30.1888 -1.4088
15.6149 29.9233 -1.3699
14.1644 29.6947 -1.3357
12.7876 29.4863 -1.3052
11.4414 29.2108 -1.2743
10.2053 29.0872 -1.2523
9.1823 29.5216 -1.2562
1.7095 6.2824 -0.2646
6.3446 27.1231 -1.1321
5.3544 27.2665 -1.1294
4.3195 27.1065 -1.1156
3.3083 26.9502 -1.1036
2.3173 26.7971 -1.0931
1.3436 26.6465 -1.0842
0.3842 26.4983 -1.0767
-0.5636 26.3518 -1.0707
-1.5024 26.2067 -1.0661
-2.4347 26.0626 -1.0628
-3.3575 25.8765 -1.0592
-4.3307 26.0225 -1.0705
-5.2671 25.8778 -1.0712
-6.2066 25.7326 -1.0733
-7.1518 25.5865 -1.0767
-8.1051 25.4392 -1.0816
-9.0692 25.2902 -1.0878
-10.0468 25.1391 -1.0955
-11.0407 24.9855 -1.1047
-12.0540 24.8288 -1.1156
-11.7006 22.0506 -1.0083
-12.1385 21.0182 -0.9797
-12.9438 20.6636 -0.9835
-13.0871 19.3157 -0.9404
-13.7172 18.7594 -0.9360
-13.1428 16.6830 -0.8547
-11.9989 14.1553 -0.7462
-12.4094 13.6174 -0.7402
-13.1252 13.4037 -0.7531
-13.0950 12.4466 -0.7246
-13.1609 11.6397 -0.7040
-14.4406 11.8761 -0.7485
-33.0197 25.2258 -1.6620
-32.5666 23.0776 -1.5949
-32.2138 21.1337 -1.5379
-31.7991 19.2665 -1.4827
-31.1392 17.3711 -1.4205
-30.2155 15.4615 -1.3507
-29.4812 13.7745 -1.2936
-28.2989 12.0049 -1.2207
-24.4731 9.3609 -1.0394
-20.5932 7.0410 -0.8624
-11.6607 3.5250 -0.4822
-10.4908 2.7648 -0.4290
-10.4601 2.3589 -0.4235
-10.6012 1.9941 -0.4256
-10.8674 1.6430 -0.4331
-11.3011 1.2958 -0.4478
-11.6390 0.9130 -0.4591
-11.9976 0.5091 -0.4717
-14.1229 0.0922 -0.5541
-13.8571 -0.4069 -0.5433
-13.6395 -0.8910 -0.5351
-7.8550 -5.4615 -0.1535
-8.4469 -6.3344 -0.1691
-8.4728 -6.8421 -0.1741
-8.9603 -7.7830 -0.1894
-8.7698 -8.1876 -0.1911
-8.8880 -8.9158 -0.2002
-8.5742 -9.2415 -0.2002
-8.5284 -9.8806 -0.2069
-11.4230 -14.2362 -0.2890
-10.7671 -14.4517 -0.2850
-10.0906 -14.6099 -0.2804
-9.4472 -14.7858 -0.2768
-8.8805 -15.0640 -0.2756
-8.3627 -15.4250 -0.2763
-7.9202 -15.9489 -0.2801
-7.4179 -16.3883 -0.2828
-6.9214 -16.8784 -0.2866
-4.8370 -13.1172 -0.2195
-7.2966 -22.2113 -0.3669
-6.5679 -22.7102 -0.3709
-7.0121 -27.9693 -0.4523
-6.1426 -28.8528 -0.4626
-5.8983 -33.5779 -0.5346
-4.9473 -35.6208 -0.5639
-2.6620 -25.9750 -0.4095
-2.9432 -44.3618 -0.6974
-1.0881 -35.8210 -0.5624
3.8644 -11.3403 -0.1896
4.2988 -11.2731 -0.1912
4.0307 -9.5285 -0.1642
37.8609 -21.9184 -0.7205
37.5571 -19.9792 -0.7023
37.2692 -18.1419 -0.6860
36.9954 -16.3942 -0.6714
35.5314 -14.2435 -0.6368
35.2926 -12.6982 -0.6255
35.0629 -11.2121 -0.6155
34.6434 -9.7228 -0.6032
35.1068 -8.5070 -0.6071
35.5164 -7.2682 -0.6109
34.6864 -5.8106 -0.5942
34.4864 -4.5120 -0.5891
34.9773 -3.3052 -0.5966
34.7804 -2.0313 -0.5931
34.5865 -0.7768 -0.5905
34.3951 0.4618 -0.5886
34.2055 1.6879 -0.5874
34.0175 2.9048 -0.5871
33.8303 4.1158 -0.5874
33.6436 5.3240 -0.5885
33.4568 6.5325 -0.5904
33.2695 7.7445 -0.5930
32.4239 12.6593 -0.6097
32.2251 13.9336 -0.6162
23.5250 15.6667 -0.5009
37.0639 33.2383 -0.8882
33.6323 32.4115 -0.8345
30.8942 31.9883 -0.7957
28.4044 31.6046 -0.7613
26.1228 31.2520 -0.7307
24.0203 30.9270 -0.7033
22.0717 30.6258 -0.6787
20.2562 30.3452 -0.6566
18.5555 30.0813 -0.6367
16.9567 29.8342 -0.6187
15.4463 29.6007 -0.6025
14.0137 29.3793 -0.5878
12.6495 29.1685 -0.5744
11.3457 28.9670 -0.5624
10.0951 28.7737 -0.5515
9.1823 29.5218 -0.5594
1.7093 6.2818 -0.1178
6.3446 27.1231 -0.5042
5.2944 26.9607 -0.4974
4.2711 26.8026 -0.4913
3.2712 26.6480 -0.4860
2.2914 26.4966 -0.4814
1.3286 26.3478 -0.4774
0.3800 26.2012 -0.4740
-0.5571 26.0563 -0.4713
-1.4854 25.9128 -0.4691
-2.4072 25.7703 -0.4675
-3.3573 25.8765 -0.4710
-4.2824 25.7335 -0.4705
-5.2083 25.5904 -0.4706
-6.1374 25.4468 -0.4713
-7.0720 25.3024 -0.4726
-8.0148 25.1567 -0.4744
-8.9681 25.0093 -0.4768
-9.9348 24.8599 -0.4799
-10.9177 24.7080 -0.4836
-11.9197 24.5531 -0.4880
-11.7469 22.1387 -0.4474
-11.9789 20.7427 -0.4270
-12.7140 20.2975 -0.4262
-12.9702 19.1439 -0.4108
-12.6810 17.3430 -0.3811
-12.0234 15.2627 -0.3440
-12.1343 14.3156 -0.3316
-12.7778 14.0223 -0.3346
-12.9620 13.2376 -0.3261
-13.3410 12.6810 -0.3234
-13.2108 11.6844 -0.3092
-14.6825 12.0756 -0.3326
-30.4222 23.2425 -0.6683
-30.3090 21.4790 -0.6470
-30.0552 19.7187 -0.6247
-29.5792 17.9225 -0.5996
-28.8941 16.1196 -0.5723
-28.3139 14.4894 -0.5488
-27.4366 12.8201 -0.5213
-24.5449 10.4132 -0.4579
-20.2718 7.7546 -0.3718
-11.8170 4.0407 -0.2134
-10.7016 3.2354 -0.1905
-10.3207 2.7203 -0.1814
-10.3994 2.3455 -0.1808
-10.5450 1.9838 -0.1815
-10.8645 1.6428 -0.1854
-11.2598 1.2914 -0.1907
-11.5990 0.9102 -0.1953
-11.9577 0.5077 -0.2004
-11.2882 0.0740 -0.1885
-10.8971 -0.3197 -0.1816
-10.6517 -0.6955 -0.1773
-7.7962 -5.4205 0.0615
-8.3356 -6.2507 0.0678
-8.3911 -6.7759 0.0705
-9.3742 -8.1423 0.0815
-9.1410 -8.5340 0.0824
-8.7106 -8.7376 0.0817
-8.4852 -9.1453 0.0829
-8.4099 -9.7430 0.0858
-11.2373 -14.0043 0.1201
-9.2131 -12.3656 0.1034
-9.1786 -13.2890 0.1087
-9.3400 -14.6176 0.1170
-8.7880 -14.9067 0.1170
-8.3492 -15.3998 0.1187
-7.9113 -15.9308 0.1208
-7.3112 -16.1524 0.1206
-6.7266 -16.4030 0.1208
-6.3685 -17.2702 0.1255
-7.1599 -21.7947 0.1566
-6.4678 -22.3638 0.1591
-6.3040 -25.1446 0.1773
-5.9453 -27.9258 0.1953
-5.8988 -33.5808 0.2333
-4.7670 -34.3223 0.2370
-2.6616 -25.9715 0.1785
-2.7718 -41.7816 0.2862
4.0303 -9.5273 0.0688
37.8606 -21.9170 0.2648
37.5568 -19.9779 0.2558
37.2690 -18.1406 0.2475
37.4239 -16.5829 0.2427
35.5312 -14.2423 0.2253
35.2924 -12.6970 0.2192
35.0627 -11.2110 0.2135
34.6457 -9.7225 0.2072
35.1066 -8.5060 0.2064
35.5163 -7.2671 0.2056
34.6863 -5.8096 0.1979
34.4863 -4.5111 0.1942
34.9771 -3.3042 0.1947
34.7802 -2.0303 0.1915
34.9866 -0.7848 0.1909
34.7930 0.4681 0.1883
34.6013 1.7083 0.1860
34.0173 2.9057 0.1819
33.8433 4.1183 0.1802
34.0328 5.3865 0.1807
33.4566 6.5334 0.1773
33.2693 7.7453 0.1763
37.0624 33.2381 0.2331
33.9973 32.7644 0.2198
31.2296 32.3366 0.2082
28.7117 31.9475 0.1979
26.4066 31.5923 0.1887
24.2812 31.2638 0.1806
22.3115 30.9593 0.1734
20.4569 30.6466 0.1667
18.7572 30.4089 0.1610
17.1410 30.1591 0.1558
15.6142 29.9232 0.1511
14.1661 29.6993 0.1469
12.7871 29.4862 0.1432
11.4582 29.2547 0.1396
10.2050 29.0871 0.1367
9.1822 29.5221 0.1370
1.7091 6.2811 0.0288
6.4165 27.4306 0.1245
5.3544 27.2665 0.1228
4.3196 27.1065 0.1213
3.3083 26.9502 0.1200
2.3174 26.7971 0.1190
1.3437 26.6466 0.1181
0.3844 26.4983 0.1175
-0.5633 26.3518 0.1170
-1.5006 26.1809 0.1167
-2.4343 26.0626 0.1167
-3.3948 26.1672 0.1180
-4.3303 26.0226 0.1183
-5.2666 25.8779 0.1188
-6.2060 25.7327 0.1196
-7.1512 25.5866 0.1205
-8.1044 25.4393 0.1216
-9.0685 25.2903 0.1229
-10.0460 25.1392 0.1244
-11.0291 24.9612 0.1261
-12.0531 24.8290 0.1282
-11.9794 22.5778 0.1194
-12.3246 21.3422 0.1158
-12.5971 20.1117 0.1121
-13.1892 19.4680 0.1118
-12.5837 17.2106 0.1020
-12.3076 15.6241 0.0958
-12.7757 15.0730 0.0958
-13.0478 14.3192 0.0946
-12.9475 13.2235 0.0910
-13.6343 12.9604 0.0932
-13.5421 11.9779 0.0902
-14.5600 11.9754 0.0948
-13.9600 10.6659 0.0890
-14.1529 10.0302 0.0886
-27.7741 18.2231 0.1709
-12.7714 7.7388 0.0774
-12.4073 6.9222 0.0742
-12.6123 6.4547 0.0746
-12.7296 5.9485 0.0746
-11.6753 4.9536 0.0679
-11.5834 4.4314 0.0669
-11.4430 3.9131 0.0657
-10.4287 3.1532 0.0597
-10.2790 2.7096 0.0587
-10.3371 2.3318 0.0590
-10.5037 1.9763 0.0599
-10.8762 1.6449 0.0622
-11.2188 1.2870 0.0643
-11.5607 0.9075 0.0665
-11.9182 0.5064 0.0690
-11.0964 0.0730 0.0646
-10.7455 -0.3149 0.0631
-10.5144 -0.6863 0.0623
-7.7384 -5.3800 0.2734
-7.5048 -5.6275 0.2724
-8.8552 -7.1504 0.3308
-9.2565 -8.0398 0.3567
-8.8938 -8.3028 0.3543
-8.6102 -8.6365 0.3555
-8.4399 -9.0963 0.3620
-8.3817 -9.7100 0.3745
-8.3934 -10.4599 0.3918
-8.5593 -11.4877 0.4188
-8.5721 -12.4107 0.4413
-8.6218 -13.4933 0.4688
-8.7741 -14.8828 0.5060
-8.3347 -15.3727 0.5125
-7.9208 -15.9496 0.5221
-7.3270 -16.1870 0.5211
-6.7367 -16.4274 0.5209
-6.4008 -17.3574 0.5430
-7.0023 -21.3147 0.6586
-6.3935 -22.1068 0.6757
-6.1968 -24.7168 0.7483
-5.8241 -27.3561 0.8214
-5.2903 -30.1168 0.8980
-4.7245 -34.0165 1.0086
-2.6612 -25.9680 0.7666
-2.7461 -41.3945 1.2182
-1.0509 -34.6030 1.0164
6.6168 -29.4775 0.8846
4.0300 -9.5261 0.3018
20.4264 -40.0158 1.3088
21.0445 -37.8124 1.2594
21.8559 -36.1538 1.2284
22.9533 -35.0632 1.2173
23.9987 -33.9377 1.2061
25.0112 -32.8063 1.1957
25.8365 -31.4792 1.1791
25.2299 -28.5843 1.1026
23.5038 -24.7774 0.9865
23.0668 -22.6322 0.9323
23.2344 -21.2155 0.9066
23.7169 -20.1444 0.8955
24.2787 -19.1657 0.8890
24.4878 -17.9433 0.8713
24.9176 -16.9188 0.8632
25.0815 -15.7460 0.8476
22.2080 -12.8551 0.7334
21.7263 -11.5563 0.7023
21.7988 -10.6098 0.6909
22.0801 -9.7832 0.6872
22.5505 -9.0384 0.6903
23.1429 -8.3253 0.6978
35.0626 -11.2099 1.0428
34.6481 -9.7221 1.0179
35.1065 -8.5049 1.0202
35.5161 -7.2661 1.0223
34.6861 -5.8086 0.9902
34.4861 -4.5101 0.9777
34.9770 -3.3033 0.9861
34.7801 -2.0293 0.9764
34.5862 -0.7749 0.9680
34.3948 0.4636 0.9610
34.2053 1.6897 0.9554
34.0172 2.9066 0.9510
33.8300 4.1176 0.9478
33.6433 5.3258 0.9459
33.4565 6.5342 0.9453
33.2692 7.7462 0.9459
38.2885 11.8657 1.1068
37.1563 14.5089 1.0983
37.8430 18.0026 1.1508
37.0609 33.2379 1.3545
33.9960 32.7642 1.2834
20.9964 21.7414 0.8208
19.9635 22.2140 0.8104
26.4057 31.5921 1.1163
24.2805 31.2637 1.0724
22.3108 30.9592 1.0330
20.4563 30.6465 0.9967
18.7567 30.4088 0.9659
17.1406 30.1591 0.9373
15.6139 29.9231 0.9115
14.1658 29.6993 0.8882
12.7868 29.4862 0.8671
11.4580 29.2547 0.8474
10.2048 29.0871 0.8311
9.1822 29.5223 0.8334
1.7089 6.2804 0.1754
6.4164 27.4306 0.7592
5.3544 27.2665 0.7488
4.3196 27.1065 0.7396
3.3084 26.9502 0.7317
2.3175 26.7971 0.7249
1.3438 26.6466 0.7191
0.3845 26.4983 0.7145
-0.5632 26.3518 0.7108
-1.5004 26.1809 0.7074
-2.4342 26.0626 0.7064
-3.3946 26.1672 0.7124
-4.3300 26.0226 0.7126
-5.2663 25.8779 0.7137
-6.2058 25.7327 0.7159
-7.1509 25.5867 0.7189
-8.1041 25.4393 0.7230
-9.0681 25.2903 0.7281
-10.0456 25.1393 0.7343
-11.0286 24.9612 0.7408
-12.0526 24.8291 0.7499
-13.6272 25.6843 0.7908
-12.2835 21.2718 0.6687
-13.1524 20.9991 0.6753
-13.3320 19.6795 0.6485
-12.5075 17.1071 0.5788
-12.6511 16.0609 0.5591
-12.4926 14.7395 0.5290
-13.0110 14.2795 0.5295
-12.6645 12.9349 0.4969
-12.8289 12.1953 0.4865
-13.0723 11.5629 0.4803
-13.2534 10.9012 0.4729
-13.6413 10.4229 0.4737
-13.6580 9.6800 0.4626
-12.7290 8.3522 0.4213
-12.2312 7.4119 0.3963
-12.1929 6.8030 0.3875
-12.3381 6.3148 0.3852
-12.4424 5.8147 0.3823
-11.3390 4.8113 0.3434
-11.3978 4.3607 0.3407
-10.5294 3.6010 0.3112
-10.3509 3.1300 0.3029
-10.2707 2.7077 0.2979
-10.3113 2.3262 0.2970
-10.3468 1.9471 0.2962
-10.4588 1.5821 0.2981
-10.9030 1.2511 0.3097
-11.5226 0.9049 0.3267
-12.3065 0.5232 0.3487
-11.0252 0.0729 0.3126
-10.6820 -0.3128 0.3034
-10.4933 -0.6846 0.2990
-7.6813 -5.3401 0.4824
-8.1731 -6.1284 0.5271
-9.5132 -7.6814 0.6312
-9.1169 -7.9182 0.6237
-8.7767 -8.1933 0.6205
-8.5266 -8.5524 0.6244
-8.3853 -9.0371 0.6377
-8.3106 -9.6274 0.6582
-8.2640 -10.2984 0.6836
-8.3849 -11.2534 0.7269
-8.3942 -12.1527 0.7653
-8.5171 -13.3291 0.8199
-8.7633 -14.8641 0.8947
-8.3411 -15.3842 0.9076
-7.9296 -15.9670 0.9248
-7.3281 -16.1890 0.9221
-6.7411 -16.4379 0.9221
-6.4429 -17.4713 0.9666
-6.8595 -20.8798 1.1410
-6.3162 -21.8393 1.1804
-4.0277 -16.0649 0.8600
-3.6902 -17.3329 0.9202
-3.4040 -19.3782 1.0217
-3.0145 -21.7046 1.1379
-2.6518 -25.8764 1.3507
-2.0269 -30.5555 1.5900
-0.9899 -32.5994 1.6932
0.1802 -32.6182 1.6932
1.3505 -32.5960 1.6932
2.5195 -32.5327 1.6932
3.6858 -32.4284 1.6932
4.8479 -32.2833 1.6932
6.0046 -32.0974 1.6932
6.7189 -29.9307 1.5902
5.4429 -20.7355 1.1109
8.8538 -29.3922 1.5902
9.9064 -29.0670 1.5902
11.1063 -29.1216 1.6132
4.0296 -9.5248 0.5351
13.1778 -28.2759 1.6132
14.1906 -27.7986 1.6132
15.1865 -27.2857 1.6132
16.1643 -26.7377 1.6132
17.1227 -26.1554 1.6132
18.0419 -25.5128 1.6116
18.7411 -24.5811 1.5932
19.2359 -23.4361 1.5618
19.5754 -22.1771 1.5227
19.8559 -20.9308 1.4842
20.2156 -19.8339 1.4559
20.5799 -18.7908 1.4316
20.5616 -17.4636 1.3848
20.1637 -15.9165 1.3177
19.5434 -14.3196 1.2419
19.1187 -12.9807 1.1836
18.8286 -11.8198 1.1378
18.8513 -10.9115 1.1139
18.9323 -10.0695 1.0957
19.2036 -9.3461 1.0904
19.5020 -8.6403 1.0881
19.8220 -7.9442 1.0885
20.2975 -7.3011 1.0986
20.8161 -6.6545 1.1120
21.6060 -6.0619 1.1409
22.8011 -5.5231 1.1918
30.7780 -6.2959 1.5945
30.5967 -5.1229 1.5732
30.4197 -3.9774 1.5544
30.2463 -2.8556 1.5380
30.0760 -1.7541 1.5239
29.9156 -0.6694 1.5123
29.8777 0.4035 1.5088
29.8692 1.4763 1.5088
29.8221 2.5490 1.5088
29.7363 3.6201 1.5088
29.6116 4.6883 1.5088
29.4485 5.7522 1.5088
29.2154 6.8031 1.5072
28.8924 7.8304 1.5029
28.6216 8.8707 1.5032
28.5637 9.9891 1.5169
28.7252 11.2175 1.5447
28.9937 12.5388 1.5811
28.7063 13.6569 1.5900
28.2177 14.6881 1.5900
27.6916 15.7016 1.5900
27.1287 16.6960 1.5900
28.2522 18.8172 1.6932
27.5763 19.8310 1.6932
26.8634 20.8200 1.6932
26.1144 21.7828 1.6932
25.3303 22.7182 1.6932
24.5122 23.6248 1.6932
23.5936 24.4314 1.6884
21.6980 24.1448 1.6130
20.5329 24.5665 1.5902
19.6468 25.2980 1.5902
18.7343 25.9970 1.5902
17.7963 26.6620 1.5902
16.8140 27.2599 1.5882
15.8304 27.8543 1.5882
14.8253 28.4123 1.5882
13.8001 28.9332 1.5882
12.7562 29.4162 1.5882
11.4578 29.2547 1.5560
10.2046 29.0871 1.5264
9.1821 29.5226 1.5308
1.7087 6.2798 0.3222
6.4164 27.4306 1.3945
5.3543 27.2665 1.3755
4.3196 27.1065 1.3587
3.3084 26.9502 1.3441
2.3176 26.7971 1.3315
1.3439 26.6466 1.3209
0.3846 26.4983 1.3122
-0.5630 26.3519 1.3053
-1.5003 26.1809 1.2989
-2.4340 26.0627 1.2968
-2.6715 20.5947 1.0291
-4.3298 26.0227 1.3076
-5.2661 25.8780 1.3094
-6.2055 25.7328 1.3129
-7.1505 25.5867 1.3181
-8.1038 25.4394 1.3252
-9.0678 25.2904 1.3341
-10.0452 25.1393 1.3449
-11.0282 24.9613 1.3563
-12.0522 24.8291 1.3724
-13.2614 24.9958 1.4078
-13.8152 23.9252 1.3753
-13.0377 20.8168 1.2234
-12.5662 18.5498 1.1166
-12.3114 16.8395 1.0402
-12.5553 15.9399 1.0125
-13.2819 15.6714 1.0257
-14.0005 15.3660 1.0387
-13.6714 13.9641 0.9771
-12.6332 12.0098 0.8722
-12.8085 11.3301 0.8563
-12.8916 10.6041 0.8365
-13.1077 10.0158 0.8273
-13.0496 9.2493 0.8028
-12.2751 8.0548 0.7374
-12.1203 7.3451 0.7124
-12.1294 6.7681 0.6988
-12.2546 6.2724 0.6931
-12.3051 5.7509 0.6844
-11.2047 4.7547 0.6139
-10.8757 4.1613 0.5878
-10.4045 3.5586 0.5555
-10.2641 3.1041 0.5422
-10.2198 2.6946 0.5349
-10.2453 2.3117 0.5320
-10.2253 1.9245 0.5274
-10.2081 1.5444 0.5238
-10.5075 1.2060 0.5371
-11.4045 0.8959 0.5814
-12.2359 0.5205 0.6230
-11.0499 0.0733 0.5626
-10.8205 -0.3165 0.5516
-10.5918 -0.6908 0.5413
-8.3762 -5.8230 0.7567
-10.0916 -7.5666 0.9360
-9.3326 -7.5353 0.8904
-8.9430 -7.7669 0.8796
-8.6576 -8.0819 0.8799
-8.4719 -8.4973 0.8917
-8.3950 -9.0473 0.9175
-8.2678 -9.5776 0.9409
-8.1540 -10.1611 0.9691
-8.3504 -11.2068 1.0399
-8.4651 -12.2551 1.1085
-8.7999 -13.7714 1.2166
-8.8508 -15.0122 1.2976
-8.3296 -15.3625 1.3015
-5.4476 -10.9689 0.9123
-7.3380 -16.2106 1.3257
-6.7915 -16.5605 1.3337
-6.4975 -17.6191 1.3994
-6.6589 -20.2689 1.5900
-5.9270 -20.4931 1.5900
-4.0504 -16.1553 1.2414
-4.4419 -20.8635 1.5900
-3.6905 -21.0092 1.5900
-2.9744 -21.4164 1.6117
-2.3158 -22.5984 1.6932
-1.5036 -22.6681 1.6932
-0.6895 -22.7090 1.6932
0.1257 -22.7212 1.6932
0.9408 -22.7046 1.6932
1.7550 -22.6592 1.6932
2.5672 -22.5851 1.6932
3.3763 -22.4824 1.6932
4.1816 -22.3511 1.6932
4.9818 -22.1913 1.6932
5.4244 -20.6638 1.5902
6.1638 -20.4611 1.5902
6.8957 -20.2323 1.5902
7.6193 -19.9776 1.5902
4.0293 -9.5236 0.7688
9.1692 -19.6737 1.6132
9.8724 -19.3387 1.6132
10.5636 -18.9790 1.6132
11.2419 -18.5948 1.6132
11.9065 -18.1867 1.6132
12.5564 -17.7550 1.6132
13.1908 -17.3004 1.6132
13.8090 -16.8235 1.6132
14.4101 -16.3246 1.6132
14.9934 -15.8044 1.6132
15.5147 -15.2211 1.6087
15.9729 -14.5836 1.6001
16.1173 -13.6883 1.5636
16.1228 -12.7261 1.5181
16.1209 -11.8113 1.4762
16.1697 -10.9779 1.4429
16.2434 -10.1964 1.4152
16.3603 -9.4691 1.3941
16.5400 -8.7966 1.3808
16.7364 -8.1448 1.3711
16.9622 -7.5145 1.3659
17.2290 -6.9044 1.3657
17.5115 -6.2984 1.3685
17.8892 -5.7183 1.3803
18.3093 -5.1364 1.3967
18.7912 -4.5513 1.4193
19.3434 -3.9563 1.4485
19.9573 -3.3409 1.4836
20.6540 -2.7000 1.5263
21.1980 -2.0008 1.5593
21.7613 -1.2685 1.5954
22.0455 -0.4927 1.6129
22.0662 0.2986 1.6132
22.0542 1.0906 1.6132
22.0137 1.8822 1.6132
21.9447 2.6721 1.6132
21.8472 3.4596 1.6132
21.7213 4.2434 1.6132
21.5671 5.0227 1.6132
21.3847 5.7962 1.6132
21.1745 6.5632 1.6132
20.9366 7.3224 1.6132
20.6712 8.0729 1.6132
20.3787 8.8137 1.6132
20.0595 9.5438 1.6132
19.7138 10.2621 1.6132
19.3421 10.9679 1.6132
18.6720 11.4920 1.5900
18.2559 12.1598 1.5900
17.8156 12.8123 1.5900
17.3518 13.4487 1.5900
16.8649 14.0680 1.5900
16.3557 14.6696 1.5900
16.8525 16.2429 1.6932
16.2647 16.8428 1.6932
15.6553 17.4212 1.6932
15.0250 17.9772 1.6932
14.3748 18.5100 1.6932
13.7054 19.0190 1.6932
13.0177 19.5033 1.6932
12.3126 19.9625 1.6932
11.5912 20.3957 1.6932
10.8543 20.8024 1.6932
10.1029 21.1821 1.6932
9.3381 21.5342 1.6932
8.5608 21.8583 1.6932
7.6975 21.9411 1.6770
6.7831 21.8094 1.6471
1.7085 6.2791 0.4693
5.0476 21.5793 1.5980
4.2494 21.6400 1.5902
3.4705 21.7787 1.5902
2.6871 21.8888 1.5902
1.9001 21.9702 1.5902
1.1108 22.0229 1.5902
0.3201 22.0468 1.5902
-0.4708 22.0418 1.5902
-1.2610 22.0080 1.5902
-2.0493 21.9454 1.5902
-2.6656 20.5506 1.4953
-3.6161 21.7343 1.5902
-4.3925 21.5861 1.5902
-5.1627 21.4098 1.5902
-5.9259 21.2056 1.5902
-6.7359 21.1464 1.6032
-7.4880 20.8852 1.6032
-8.2298 20.5969 1.6032
-8.9604 20.2818 1.6032
-9.6788 19.9405 1.6032
-10.3842 19.5735 1.6032
-11.0754 19.1812 1.6032
-11.7517 18.7642 1.6032
-12.4121 18.3231 1.6032
-12.2757 16.7914 1.5074
-12.5579 15.9438 1.4715
-13.2297 15.6105 1.4843
-14.0406 15.4107 1.5130
-16.9888 17.3532 1.7632
-12.5690 11.9493 1.2598
-12.6965 11.2316 1.2320
-12.7148 10.4593 1.1972
-12.7819 9.7673 1.1704
-12.8168 9.0847 1.1436
-12.0714 7.9216 1.0516
-12.1160 7.3430 1.0324
-12.1473 6.7784 1.0143
-12.2189 6.2545 1.0014
-11.2642 5.2648 0.9076
-11.2023 4.7540 0.8888
-10.5215 4.0261 0.8233
-10.3567 3.5426 0.8004
-10.2635 3.1042 0.7846
-10.1751 2.6831 0.7704
-10.1348 2.2870 0.7611
-10.1177 1.9046 0.7547
-10.1525 1.5363 0.7531
-10.3580 1.1891 0.7651
-11.2721 0.8858 0.8303
-11.9514 0.5088 0.8789
-11.1335 0.0742 0.8185
-10.9829 -0.3210 0.8083
-10.7735 -0.7023 0.7946
-9.2295 -6.4159 1.0888
-10.1083 -7.5788 1.2241
-9.1144 -7.3589 1.1354
-8.7851 -7.6295 1.1281
-8.5520 -7.9830 1.1345
-8.3912 -8.4161 1.1528
-8.3962 -9.0483 1.1977
-8.2212 -9.5234 1.2210
-8.1146 -10.1116 1.2585
-8.4102 -11.2868 1.3667
-8.6574 -12.5332 1.4793
-8.5731 -13.4161 1.5465
-8.4931 -14.4051 1.6245
-7.8002 -14.3858 1.5900
-5.4187 -10.9105 1.1838
-6.7468 -14.9042 1.5900
-6.2071 -15.1350 1.5900
-5.6595 -15.3466 1.5900
-5.1049 -15.5386 1.5900
-4.5439 -15.7108 1.5900
-3.9771 -15.8630 1.5900
-3.6265 -17.0337 1.6932
-3.0130 -17.1527 1.6932
-2.3957 -17.2499 1.6932
-1.7754 -17.3251 1.6932
-1.1527 -17.3783 1.6932
-0.5285 -17.4094 1.6932
0.0964 -17.4183 1.6932
0.7213 -17.4052 1.6932
1.3454 -17.3699 1.6932
1.9680 -17.3124 1.6932
2.5882 -17.2330 1.6932
3.2052 -17.1316 1.6932
3.8184 -17.0083 1.6932
4.4269 -16.8634 1.6932
4.7238 -15.6804 1.5902
5.2844 -15.5041 1.5902
5.8385 -15.3079 1.5902
4.0035 -9.4623 0.9970
6.9246 -14.8571 1.5902
7.4551 -14.6029 1.5902
7.9764 -14.3300 1.5902
8.6111 -14.2426 1.6132
9.1193 -13.9287 1.6132
9.6161 -13.5968 1.6132
10.1010 -13.2474 1.6132
10.5733 -12.8809 1.6132
11.0324 -12.4976 1.6132
11.4778 -12.0981 1.6132
11.9088 -11.6828 1.6132
12.3249 -11.2523 1.6132
12.7255 -10.8071 1.6132
13.1102 -10.3477 1.6132
13.4576 -9.8595 1.6108
13.7419 -9.3291 1.6030
14.0060 -8.7914 1.5953
14.3047 -8.2788 1.5938
14.5604 -7.7432 1.5896
14.8029 -7.2033 1.5861
15.0218 -6.6544 1.5823
15.2701 -6.1190 1.5836
15.4888 -5.5705 1.5838
15.7219 -5.0251 1.5874
15.9582 -4.4764 1.5933
16.1823 -3.9189 1.5999
16.3820 -3.3501 1.6060
16.5400 -2.7684 1.6100
16.6702 -2.1787 1.6132
16.7452 -1.5800 1.6132
16.7987 -0.9788 1.6132
16.8307 -0.3757 1.6132
16.8409 0.2284 1.6132
16.8295 0.8327 1.6132
16.7963 1.4365 1.6132
16.7413 2.0390 1.6132
16.6647 2.6394 1.6132
16.5664 3.2368 1.6132
16.4467 3.8306 1.6132
16.3055 4.4200 1.6132
16.1431 5.0041 1.6132
15.9597 5.5822 1.6132
15.7555 6.1535 1.6132
15.5307 6.7173 1.6132
15.2855 7.2729 1.6132
15.0204 7.8194 1.6132
14.7356 8.3562 1.6132
14.4314 8.8825 1.6132
14.1084 9.3976 1.6132
13.7667 9.9009 1.6132
13.4070 10.3916 1.6132
12.8431 10.7136 1.5902
12.4543 11.1707 1.5902
12.0489 11.6135 1.5902
11.6277 12.0414 1.5902
11.1912 12.4539 1.5902
10.7398 12.8504 1.5902
10.2743 13.2303 1.5902
9.7952 13.5932 1.5902
9.3032 13.9385 1.5902
9.3692 15.1907 1.6932
7.2468 12.7517 1.3913
8.2587 15.8283 1.6932
7.6867 16.1165 1.6932
7.1045 16.3838 1.6932
6.5129 16.6298 1.6932
5.9128 16.8541 1.6932
5.3049 17.0569 1.6933
1.7083 6.2785 0.6168
4.0721 17.4087 1.6946
3.4461 17.5489 1.6951
2.8154 17.6673 1.6957
2.1797 17.7558 1.6956
1.5412 17.8200 1.6954
0.9009 17.8609 1.6952
0.2596 17.8783 1.6950
-0.3817 17.8724 1.6948
-1.0222 17.8429 1.6945
-1.6612 17.7901 1.6943
-2.2975 17.7140 1.6940
-2.9306 17.6150 1.6937
-3.5594 17.4931 1.6935
-4.1833 17.3487 1.6932
-4.7267 16.9149 1.6667
-5.2215 16.3929 1.6330
-5.6658 15.8034 1.5939
-6.2222 15.5731 1.5925
-6.7694 15.3231 1.5912
-7.3081 15.0569 1.5902
-7.8413 14.7810 1.5902
-8.3640 14.4861 1.5902
-8.8756 14.1725 1.5902
-9.3753 13.8407 1.5902
-9.8625 13.4911 1.5902
-10.3366 13.1242 1.5902
-10.7970 12.7406 1.5902
-11.2430 12.3407 1.5902
-11.7702 12.0232 1.6032
-12.9398 12.3024 1.7020
-12.7123 11.2460 1.6185
-12.6051 10.3695 1.5571
-12.6406 9.6598 1.5183
-12.0162 8.5177 1.4062
-11.7338 7.7004 1.3405
-11.9344 7.2333 1.3335
-12.2200 6.8194 1.3378
-12.2554 6.2736 1.3167
-11.2127 5.2411 1.1842
-10.6242 4.5090 1.1048
-10.3542 3.9623 1.0617
-10.2885 3.5196 1.0418
-10.2748 3.1079 1.0289
-10.1626 2.6801 1.0079
-10.0601 2.2704 0.9894
-10.0218 1.8868 0.9788
-10.0973 1.5282 0.9807
-10.2652 1.1788 0.9927
-11.0810 0.8711 1.0683
-11.6920 0.4980 1.1253
-11.1857 0.0748 1.0761
-10.9711 -0.3204 1.0564
-10.8550 -0.7074 1.0474
-10.0392 -6.9785 1.4628
-9.8215 -7.3635 1.4691
-8.9734 -7.2448 1.3806
-8.6313 -7.4957 1.3688
-8.3969 -7.8380 1.3757
-8.3254 -8.3499 1.4125
-8.3542 -9.0028 1.4715
-8.1415 -9.4307 1.4930
-8.0848 -10.0742 1.5482
-7.9249 -10.6353 1.5900
-7.5371 -10.9110 1.5900
-7.1397 -11.1727 1.5900
-6.7333 -11.4201 1.5900
-6.3185 -11.6529 1.5900
-5.4124 -10.8977 1.4597
-5.4654 -12.0734 1.5900
-5.0283 -12.2606 1.5900
-4.5849 -12.4322 1.5900
-4.2689 -12.9936 1.6412
-3.9202 -13.5541 1.6932
-3.4312 -13.6855 1.6932
-2.9380 -13.7995 1.6932
-2.4410 -13.8959 1.6932
-1.9409 -13.9746 1.6932
-1.4383 -14.0355 1.6932
-0.9338 -14.0785 1.6932
-0.4281 -14.1036 1.6932
0.0782 -14.1107 1.6932
0.5844 -14.0997 1.6932
1.0900 -14.0709 1.6932
1.5943 -14.0240 1.6932
2.0966 -13.9593 1.6932
2.5964 -13.8768 1.6932
3.0930 -13.7765 1.6932
3.5858 -13.6587 1.6932
3.8480 -12.7726 1.5992
4.2800 -12.5567 1.5902
4.7286 -12.3973 1.5902
3.9997 -9.4529 1.2299
5.6077 -12.0311 1.5902
6.0370 -11.8247 1.5902
6.4588 -11.6031 1.5902
6.8725 -11.3666 1.5902
7.2777 -11.1154 1.5902
7.7852 -11.0076 1.6132
8.1772 -10.7240 1.6132
8.5590 -10.4266 1.6132
8.9301 -10.1157 1.6132
9.2900 -9.7916 1.6132
9.6382 -9.4549 1.6132
9.9742 -9.1058 1.6132
10.2977 -8.7449 1.6132
10.6082 -8.3725 1.6132
10.9053 -7.9891 1.6132
11.1886 -7.5953 1.6132
11.4578 -7.1915 1.6132
11.7124 -6.7781 1.6132
11.9522 -6.3558 1.6132
12.1768 -5.9250 1.6132
12.3859 -5.4864 1.6132
12.5793 -5.0403 1.6132
12.7567 -4.5875 1.6132
12.9177 -4.1284 1.6132
13.0623 -3.6637 1.6132
13.1902 -3.1939 1.6132
13.3012 -2.7197 1.6132
13.3952 -2.2416 1.6132
13.4720 -1.7603 1.6132
13.5314 -1.2764 1.6132
13.5735 -0.7905 1.6132
13.5982 -0.3032 1.6132
13.6053 0.1849 1.6132
13.5948 0.6730 1.6132
13.5668 1.1607 1.6132
13.5213 1.6472 1.6132
13.4583 2.1319 1.6132
13.3778 2.6142 1.6132
13.2801 3.0935 1.6132
13.1651 3.5691 1.6132
13.0329 4.0403 1.6132
12.8838 4.5067 1.6132
12.7180 4.9675 1.6132
12.5356 5.4223 1.6132
12.3368 5.8702 1.6132
12.1220 6.3109 1.6132
11.8913 6.7436 1.6132
11.6451 7.1678 1.6132
11.3837 7.5830 1.6132
11.1073 7.9886 1.6132
10.8164 8.3840 1.6132
10.5113 8.7687 1.6132
10.1925 9.1423 1.6132
9.8603 9.5042 1.6132
9.5151 9.8539 1.6132
9.0263 10.0450 1.5902
8.6619 10.3644 1.5902
8.2861 10.6703 1.5902
7.8994 10.9625 1.5902
7.5023 11.2406 1.5902
7.0953 11.5042 1.5902
6.6790 11.7528 1.5902
6.2539 11.9863 1.5902
5.8206 12.2042 1.5902
5.3797 12.4063 1.5902
4.9316 12.5923 1.5902
4.4771 12.7620 1.5902
4.2777 13.7542 1.6935
1.7081 6.2778 0.7649
3.2823 14.0326 1.6942
2.7773 14.1432 1.6944
2.2686 14.2359 1.6947
1.7567 14.3096 1.6949
1.2424 14.3648 1.6951
0.7265 14.4016 1.6953
0.2095 14.4197 1.6955
-0.3079 14.4190 1.6958
-0.8249 14.3997 1.6960
-1.3409 14.3616 1.6963
-1.8548 14.3018 1.6961
-2.3660 14.2221 1.6959
-2.8737 14.1238 1.6956
-3.3774 14.0072 1.6953
-3.8764 13.8727 1.6950
-4.3701 13.7203 1.6947
-4.8577 13.5500 1.6944
-5.3386 13.3621 1.6941
-5.8123 13.1572 1.6939
-6.2781 12.9354 1.6936
-6.7354 12.6970 1.6933
-7.0849 12.2711 1.6697
-7.2722 11.6128 1.6150
-7.5639 11.1670 1.5902
-7.9574 10.8856 1.5902
-8.3405 10.5903 1.5902
-8.7126 10.2814 1.5902
-9.0731 9.9594 1.5902
-9.4217 9.6246 1.5902
-9.7579 9.2777 1.5902
-10.0812 8.9189 1.5902
-10.3913 8.5488 1.5902
-10.6878 8.1679 1.5902
-10.9703 7.7767 1.5902
-7.6436 5.0165 1.0815
-7.8154 4.7371 1.0814
-11.6302 6.4907 1.5766
-11.5327 5.9040 1.5342
-11.3387 5.3004 1.4827
-10.3038 4.3733 1.3265
-10.2525 3.9238 1.3014
-10.2497 3.5066 1.2847
-10.2844 3.1111 1.2747
-10.0946 2.6625 1.2390
-10.0129 2.2601 1.2186
-10.0034 1.8836 1.2089
-10.0916 1.5276 1.2126
-10.2465 1.1769 1.2258
-11.0133 0.8661 1.3135
-11.2526 0.4796 1.3396
-11.3932 0.0765 1.3556
-10.9851 -0.3205 1.3081
-10.8888 -0.7093 1.2993
-9.1585 -6.3660 1.5900
-8.9222 -6.6890 1.5900
-8.6747 -7.0033 1.5900
-8.4161 -7.3086 1.5900
-8.1469 -7.6043 1.5900
-7.8674 -7.8903 1.5900
-7.5780 -8.1660 1.5900
-7.2789 -8.4313 1.5900
-6.9706 -8.6856 1.5900
-6.6535 -8.9288 1.5900
-6.3280 -9.1605 1.5900
-5.9945 -9.3805 1.5900
-5.6535 -9.5884 1.5900
-5.3053 -9.7841 1.5900
-4.9521 -9.9707 1.5906
-4.6829 -10.3445 1.6225
-4.4964 -10.9634 1.6932
-4.0999 -11.1170 1.6932
-3.6982 -11.2563 1.6932
-3.2918 -11.3813 1.6932
-2.8812 -11.4917 1.6932
-2.4670 -11.5875 1.6932
-2.0497 -11.6684 1.6932
-1.6297 -11.7345 1.6932
-1.2077 -11.7856 1.6932
-0.7841 -11.8217 1.6932
-0.3594 -11.8426 1.6932
0.0657 -11.8485 1.6932
0.4908 -11.8392 1.6932
0.9153 -11.8148 1.6932
1.3387 -11.7753 1.6932
1.7605 -11.7207 1.6932
2.1801 -11.6512 1.6932
2.5970 -11.5668 1.6932
3.0107 -11.4676 1.6932
3.4207 -11.3537 1.6932
3.5934 -10.5418 1.5902
3.9699 -10.4077 1.5902
3.9958 -9.4434 1.4636
4.7076 -10.0996 1.5902
5.0678 -9.9260 1.5902
5.4217 -9.7396 1.5902
5.7688 -9.5407 1.5902
6.1086 -9.3296 1.5902
6.4408 -9.1064 1.5902
6.7649 -8.8714 1.5902
7.0804 -8.6250 1.5902
7.4944 -8.4889 1.6132
7.7960 -8.2166 1.6132
8.0878 -7.9337 1.6132
8.3694 -7.6404 1.6132
8.6404 -7.3371 1.6132
8.9005 -7.0243 1.6132
9.1493 -6.7024 1.6132
9.3865 -6.3716 1.6132
9.6118 -6.0325 1.6132
9.8248 -5.6854 1.6132
10.0254 -5.3309 1.6132
10.2133 -4.9693 1.6132
10.3881 -4.6011 1.6132
10.5497 -4.2267 1.6132
10.6978 -3.8467 1.6132
10.8322 -3.4616 1.6132
10.9528 -3.0717 1.6132
11.0594 -2.6776 1.6132
11.1518 -2.2799 1.6132
11.2299 -1.8790 1.6132
11.2936 -1.4754 1.6132
11.3428 -1.0696 1.6132
11.3775 -0.6623 1.6132
11.3974 -0.2538 1.6132
11.4027 0.1553 1.6132
11.3933 0.5644 1.6132
11.3692 0.9730 1.6132
11.3304 1.3806 1.6132
11.2770 1.7867 1.6132
11.2089 2.1907 1.6132
11.1264 2.5921 1.6132
11.0294 2.9904 1.6132
10.9181 3.3850 1.6132
10.7927 3.7755 1.6132
10.6532 4.1614 1.6132
10.4999 4.5420 1.6132
10.3329 4.9170 1.6132
10.1525 5.2858 1.6132
9.9588 5.6479 1.6132
9.7522 6.0030 1.6132
9.5328 6.3504 1.6132
9.3010 6.6897 1.6132
9.0570 7.0205 1.6132
8.8012 7.3424 1.6132
8.5339 7.6549 1.6132
8.2554 7.9576 1.6132
7.9661 8.2501 1.6132
7.6664 8.5320 1.6132
7.3567 8.8029 1.6132
7.0373 9.0625 1.6132
6.7087 9.3104 1.6132
6.3713 9.5463 1.6132
5.9393 9.6300 1.5902
5.5907 9.8380 1.5902
5.2348 10.0332 1.5902
4.8720 10.2154 1.5902
4.5029 10.3844 1.5902
4.1278 10.5400 1.5902
3.7473 10.6819 1.5902
3.3619 10.8099 1.5902
1.7051 6.2670 0.9123
0.7858 3.3596 0.4846
0.6646 3.3843 0.4844
0.5426 3.4049 0.4843
0.4200 3.4214 0.4842
0.2970 3.4336 0.4841
0.1736 3.4417 0.4840
0.0501 3.4455 0.4840
-0.0735 3.4451 0.4841
-0.1971 3.4406 0.4841
-0.3204 3.4318 0.4842
-0.4434 3.4188 0.4844
-0.5659 3.4016 0.4846
-0.6877 3.3803 0.4848
-0.8089 3.3548 0.4850
-3.2471 11.6212 1.6962
-3.6607 11.4938 1.6959
-4.0693 11.3514 1.6956
-4.4724 11.1945 1.6953
-4.8694 11.0232 1.6950
-5.2598 10.8377 1.6948
-5.6432 10.6384 1.6945
-6.0190 10.4254 1.6942
-6.3868 10.1992 1.6940
-6.7460 9.9599 1.6937
-7.0963 9.7080 1.6935
-7.4373 9.4438 1.6932
-7.5545 8.9152 1.6464
-7.5987 8.3413 1.5902
-7.8910 8.0613 1.5902
-8.1730 7.7711 1.5902
-8.4442 7.4710 1.5902
-8.7044 7.1613 1.5902
-8.9532 6.8426 1.5902
-9.1903 6.5153 1.5902
-7.6338 5.0103 1.2893
-7.8033 4.7300 1.2888
-9.8285 5.4855 1.5902
-10.0160 5.1279 1.5902
-10.1904 4.7639 1.5902
-10.1755 4.3192 1.5631
-10.1569 3.8875 1.5383
-10.2331 3.5013 1.5303
-10.2077 3.0882 1.5094
-9.9720 2.6304 1.4601
-9.9911 2.2555 1.4506
-10.0196 1.8870 1.4444
-10.1214 1.5324 1.4507
-10.2675 1.1796 1.4651
-10.8223 0.8514 1.5393
-11.0328 0.4706 1.5664
-11.2417 0.0758 1.5951
-11.3829 -0.3318 1.6163
-11.2012 -0.7293 1.5937
-7.8836 -5.4796 1.5900
-7.6804 -5.7578 1.5900
-7.4675 -6.0285 1.5900
-7.2452 -6.2915 1.5900
-7.0136 -6.5463 1.5900
-6.7732 -6.7926 1.5900
-6.5241 -7.0302 1.5900
-6.2668 -7.2587 1.5900
-6.0015 -7.4779 1.5900
-5.7286 -7.6874 1.5900
-5.4485 -7.8870 1.5900
-5.1614 -8.0766 1.5900
-4.9764 -8.4400 1.6255
-4.8647 -8.9714 1.6932
-4.5393 -9.1394 1.6932
-4.2082 -9.2957 1.6932
-3.8717 -9.4401 1.6932
-3.5303 -9.5724 1.6932
-3.1844 -9.6924 1.6932
-2.8345 -9.8001 1.6932
-2.4810 -9.8952 1.6932
-2.1243 -9.9777 1.6932
-1.7649 -10.0475 1.6932
-1.4033 -10.1044 1.6932
-1.0399 -10.1483 1.6932
-0.6751 -10.1793 1.6932
-0.3095 -10.1973 1.6932
0.0566 -10.2023 1.6932
0.4227 -10.1942 1.6932
0.7882 -10.1731 1.6932
1.1528 -10.1390 1.6932
1.5159 -10.0919 1.6932
1.8772 -10.0319 1.6932
2.2362 -9.9591 1.6932
2.5923 -9.8735 1.6932
2.9452 -9.7752 1.6932
3.2945 -9.6644 1.6932
3.4180 -8.9604 1.5902
3.7378 -8.8332 1.5902
4.0529 -8.6947 1.5902
4.3630 -8.5451 1.5902
4.6675 -8.3844 1.5902
4.9662 -8.2130 1.5902
5.2586 -8.0309 1.5902
5.5443 -7.8386 1.5902
5.8231 -7.6361 1.5902
6.0946 -7.4237 1.5902
6.3583 -7.2018 1.5902
6.6140 -6.9705 1.5902
6.8613 -6.7302 1.5902
7.2031 -6.5753 1.6132
7.4360 -6.3141 1.6132
7.6596 -6.0447 1.6132
7.8734 -5.7674 1.6132
8.0772 -5.4826 1.6132
8.2707 -5.1905 1.6132
8.4538 -4.8917 1.6132
8.6260 -4.5864 1.6132
8.7872 -4.2752 1.6132
8.9373 -3.9582 1.6132
9.0759 -3.6360 1.6132
9.2029 -3.3089 1.6132
9.3182 -2.9774 1.6132
9.4216 -2.6420 1.6132
9.5128 -2.3029 1.6132
9.5919 -1.9607 1.6132
9.6587 -1.6158 1.6132
9.7131 -1.2686 1.6132
9.7550 -0.9196 1.6132
9.7843 -0.5693 1.6132
9.8011 -0.2180 1.6132
9.8052 0.1338 1.6132
9.7967 0.4855 1.6132
9.7756 0.8369 1.6132
9.7418 1.1873 1.6132
9.6954 1.5364 1.6132
9.6366 1.8836 1.6132
9.5652 2.2286 1.6132
9.4815 2.5709 1.6132
9.3855 2.9101 1.6132
9.2773 3.2457 1.6132
9.1570 3.5772 1.6132
9.0249 3.9042 1.6132
8.8811 4.2264 1.6132
8.7257 4.5432 1.6132
8.5589 4.8543 1.6132
8.3811 5.1592 1.6132
8.1923 5.4576 1.6132
7.9928 5.7490 1.6132
7.7829 6.0332 1.6132
7.5629 6.3096 1.6132
7.3330 6.5779 1.6132
7.0935 6.8378 1.6132
6.8448 7.0890 1.6132
6.5871 7.3310 1.6132
6.3208 7.5636 1.6132
6.0463 7.7865 1.6132
5.7638 7.9993 1.6132
5.4739 8.2018 1.6132
5.1767 8.3938 1.6132
4.8031 8.4522 1.5902
4.4972 8.6198 1.5902
4.1855 8.7762 1.5902
3.8683 8.9213 1.5902
3.5461 9.0548 1.5902
3.2192 9.1767 1.5902
2.8882 9.2866 1.5902
0.7848 2.8846 0.4888
0.6806 2.9098 0.4886
0.5756 2.9314 0.4884
0.4700 2.9494 0.4883
0.3638 2.9637 0.4882
0.2573 2.9744 0.4881
0.1504 2.9814 0.4881
0.0434 2.9848 0.4881
-0.0637 2.9844 0.4881
-0.1707 2.9804 0.4882
-0.2775 2.9728 0.4883
-0.3840 2.9614 0.4884
-0.4901 2.9465 0.4886
-0.5957 2.9278 0.4887
-0.7005 2.9056 0.4890
-0.8046 2.8798 0.4892
-3.1457 9.8771 1.6962
-3.4974 9.7565 1.6962
-3.8440 9.6220 1.6959
-4.1854 9.4751 1.6957
-4.5212 9.3161 1.6954
-4.8509 9.1452 1.6952
-5.1742 8.9625 1.6949
-5.4905 8.7683 1.6947
-5.7995 8.5629 1.6944
-6.1009 8.3466 1.6942
-6.3942 8.1196 1.6940
-6.6790 7.8823 1.6937
-6.9550 7.6350 1.6935
-7.2218 7.3781 1.6933
-7.3457 6.9849 1.6628
-7.3004 6.4593 1.5994
-7.5246 6.1910 1.5992
-7.6961 5.8822 1.5902
-7.9003 5.6010 1.5902
-7.6238 5.0040 1.4978
-7.7912 4.7230 1.4968
-8.4499 4.7164 1.5902
-8.6114 4.4091 1.5902
-8.7617 4.0963 1.5902
-8.9007 3.7784 1.5902
-9.0281 3.4557 1.5902
-9.1438 3.1288 1.5902
-9.2477 2.7981 1.5902
-9.3396 2.4639 1.5902
-9.4194 2.1267 1.5902
-9.4871 1.7869 1.5902
-9.5425 1.4451 1.5902
-9.5856 1.1015 1.5902
-9.6163 0.7568 1.5902
-9.6347 0.4112 1.5902
-9.6407 0.0653 1.5902
-9.6342 -0.2805 1.5902
-9.6154 -0.6258 1.5902
-6.9143 -4.8057 1.5901
-6.7362 -5.0497 1.5901
-6.5494 -5.2871 1.5900
-6.3545 -5.5178 1.5900
-6.1515 -5.7414 1.5900
-5.9407 -5.9576 1.5900
-5.7224 -6.1661 1.5900
-5.5067 -6.3781 1.5929
-5.2738 -6.5709 1.5929
-5.1989 -6.9764 1.6451
-5.0895 -7.3673 1.6932
-4.8215 -7.5444 1.6932
-4.5473 -7.7119 1.6932
-4.2673 -7.8694 1.6932
-3.9819 -8.0169 1.6932
-3.6914 -8.1541 1.6932
-3.3963 -8.2808 1.6932
-3.0968 -8.3969 1.6932
-2.7934 -8.5023 1.6932
-2.4865 -8.5968 1.6932
-2.1764 -8.6803 1.6932
-1.8635 -8.7527 1.6932
-1.5483 -8.8138 1.6932
-1.2310 -8.8637 1.6932
-0.9122 -8.9023 1.6932
-0.5922 -8.9295 1.6932
-0.2714 -8.9452 1.6932
0.0497 -8.9495 1.6932
0.3708 -8.9424 1.6932
0.6915 -8.9238 1.6932
1.0113 -8.8938 1.6932
1.3298 -8.8524 1.6932
1.6467 -8.7997 1.6932
1.9616 -8.7357 1.6932
2.2740 -8.6605 1.6932
2.5835 -8.5742 1.6932
2.8898 -8.4769 1.6932
3.1341 -8.2159 1.6623
3.2786 -7.7476 1.5902
3.5549 -7.6260 1.5902
3.8267 -7.4946 1.5902
4.0938 -7.3535 1.5902
4.3556 -7.2030 1.5902
4.6120 -7.0432 1.5902
4.8625 -6.8743 1.5902
5.1069 -6.6966 1.5902
5.3448 -6.5102 1.5902
5.5760 -6.3154 1.5902
5.8000 -6.1124 1.5902
6.0168 -5.9016 1.5902
6.2259 -5.6830 1.5902
6.4271 -5.4571 1.5902
6.6201 -5.2241 1.5902
6.9035 -5.0567 1.6132
7.0820 -4.8068 1.6132
7.2515 -4.5506 1.6132
7.4117 -4.2885 1.6132
7.5625 -4.0207 1.6132
7.7036 -3.7477 1.6132
7.8349 -3.4697 1.6132
7.9562 -3.1871 1.6132
8.0673 -2.9003 1.6132
8.1681 -2.6097 1.6132
8.2584 -2.3155 1.6132
8.3381 -2.0183 1.6132
8.4072 -1.7183 1.6132
8.4654 -1.4159 1.6132
8.5128 -1.1116 1.6132
8.5493 -0.8057 1.6132
8.5747 -0.4987 1.6132
8.5891 -0.1908 1.6132
8.5925 0.1175 1.6132
8.5847 0.4257 1.6132
8.5659 0.7335 1.6132
8.5361 1.0406 1.6132
8.4952 1.3464 1.6132
8.4433 1.6506 1.6132
8.3806 1.9529 1.6132
8.3070 2.2527 1.6132
8.2226 2.5498 1.6132
8.1276 2.8437 1.6132
8.0220 3.1340 1.6132
7.9060 3.4204 1.6132
7.7798 3.7025 1.6132
7.6435 3.9799 1.6132
7.4972 4.2523 1.6132
7.3412 4.5193 1.6132
7.1757 4.7806 1.6132
7.0008 5.0357 1.6132
6.8168 5.2845 1.6132
6.6240 5.5265 1.6132
6.4225 5.7614 1.6132
6.2126 5.9889 1.6132
5.9947 6.2087 1.6132
5.7689 6.4206 1.6132
5.5356 6.6242 1.6132
5.2951 6.8192 1.6132
5.0476 7.0055 1.6132
4.7250 7.0800 1.5902
4.4685 7.2456 1.5902
4.2061 7.4018 1.5902
3.9382 7.5485 1.5902
3.6652 7.6854 1.5902
3.3875 7.8124 1.5902
3.1053 7.9293 1.5902
2.8190 8.0359 1.5902
0.7826 2.5163 0.4920
0.6915 2.5417 0.4918
0.5997 2.5640 0.4917
0.5073 2.5832 0.4915
0.4142 2.5991 0.4914
0.3206 2.6118 0.4913
0.2267 2.6212 0.4912
0.1326 2.6274 0.4912
0.0382 2.6304 0.4912
-0.0561 2.6301 0.4912
-0.1504 2.6266 0.4913
-0.2445 2.6198 0.4914
-0.3384 2.6097 0.4915
-0.4319 2.5965 0.4916
-0.5248 2.5800 0.4918
-0.6172 2.5603 0.4920
-0.7089 2.5374 0.4922
-0.7998 2.5113 0.4925
-3.0625 8.5437 1.6960
-3.3666 8.4274 1.6960
-3.6657 8.2989 1.6958
-3.9598 8.1597 1.6955
-4.2486 8.0100 1.6952
-4.5317 7.8500 1.6950
-4.8088 7.6799 1.6947
-5.0794 7.4999 1.6944
-5.3432 7.3103 1.6940
-5.6003 7.1118 1.6938
-5.8504 6.9047 1.6937
-6.0928 6.6888 1.6936
-6.3272 6.4643 1.6935
-6.5533 6.2317 1.6934
-6.7709 5.9911 1.6934
-6.9796 5.7429 1.6933
-7.1329 5.4520 1.6823
-7.0763 5.0171 1.6257
-7.0915 4.6549 1.5902
-7.2578 4.3999 1.5914
-7.4037 4.1327 1.5902
-7.5454 3.8635 1.5902
-7.6774 3.5896 1.5902
-7.7994 3.3111 1.5902
-7.9113 3.0285 1.5902
-8.0129 2.7421 1.5902
-8.1042 2.4523 1.5902
-8.1850 2.1595 1.5902
-8.2553 1.8641 1.5902
-8.3148 1.5664 1.5902
-8.3637 1.2668 1.5902
-8.4017 0.9657 1.5902
-8.4289 0.6636 1.5902
-8.4453 0.3607 1.5902
-8.4508 0.0575 1.5902
-8.4454 -0.2457 1.5902
-8.4292 -0.5484 1.5902
-6.1513 -4.2752 1.5901
-5.9929 -4.4924 1.5901
-5.8270 -4.7037 1.5900
-5.6536 -4.9090 1.5900
-5.4957 -5.1291 1.5966
-5.4359 -5.4511 1.6352
-5.3810 -5.7981 1.6804
-5.2083 -6.0323 1.6932
-4.9879 -6.2146 1.6932
-4.7613 -6.3890 1.6932
-4.5285 -6.5551 1.6932
-4.2901 -6.7127 1.6932
-4.0461 -6.8618 1.6932
-3.7970 -7.0021 1.6932
-3.5431 -7.1333 1.6932
-3.2847 -7.2554 1.6932
-3.0221 -7.3683 1.6932
-2.7556 -7.4716 1.6932
-2.4857 -7.5654 1.6932
-2.2125 -7.6495 1.6932
-1.9366 -7.7238 1.6932
-1.6582 -7.7882 1.6932
-1.3777 -7.8427 1.6932
-1.0954 -7.8871 1.6932
-0.8117 -7.9214 1.6932
-0.5269 -7.9456 1.6932
-0.2415 -7.9596 1.6932
0.0443 -7.9634 1.6932
0.3300 -7.9570 1.6932
0.6153 -7.9404 1.6932
0.8999 -7.9136 1.6932
1.1833 -7.8767 1.6932
1.4653 -7.8298 1.6932
1.7454 -7.7727 1.6932
2.0234 -7.7058 1.6932
2.2988 -7.6289 1.6932
2.5713 -7.5422 1.6932
2.8405 -7.4459 1.6932
2.9490 -6.9685 1.6075
3.1629 -6.7848 1.5902
3.4047 -6.6678 1.5902
3.6423 -6.5422 1.5902
3.8752 -6.4082 1.5902
4.1032 -6.2659 1.5902
4.3260 -6.1156 1.5902
4.5433 -5.9573 1.5902
4.7549 -5.7914 1.5902
4.9604 -5.6180 1.5902
5.1597 -5.4373 1.5902
5.3524 -5.2496 1.5902
5.5383 -5.0551 1.5902
5.7171 -4.8541 1.5902
5.8887 -4.6467 1.5902
6.0527 -4.4333 1.5902
6.2091 -4.2141 1.5902
6.3575 -3.9894 1.5902
6.4979 -3.7595 1.5902
6.7262 -3.5758 1.6132
6.8515 -3.3329 1.6132
6.9681 -3.0856 1.6132
7.0758 -2.8342 1.6132
7.1744 -2.5791 1.6132
7.2639 -2.3206 1.6132
7.3440 -2.0589 1.6132
7.4148 -1.7945 1.6132
7.4760 -1.5277 1.6132
7.5276 -1.2588 1.6132
7.5695 -0.9882 1.6132
7.6017 -0.7162 1.6132
7.6241 -0.4432 1.6132
7.6368 -0.1694 1.6132
7.6395 0.1047 1.6132
7.6325 0.3787 1.6132
7.6156 0.6524 1.6132
7.5888 0.9253 1.6132
7.5523 1.1972 1.6132
7.5060 1.4676 1.6132
7.4501 1.7362 1.6132
7.3844 2.0027 1.6132
7.3093 2.2667 1.6132
7.2246 2.5279 1.6132
7.1306 2.7860 1.6132
7.0274 3.0405 1.6132
6.9151 3.2912 1.6132
6.7938 3.5377 1.6132
6.6636 3.7797 1.6132
6.5248 4.0170 1.6132
6.3776 4.2491 1.6132
6.2221 4.4758 1.6132
6.0584 4.6967 1.6132
5.8869 4.9117 1.6132
5.7078 5.1204 1.6132
5.5212 5.3225 1.6132
5.3274 5.5178 1.6132
5.0533 5.6243 1.5902
4.8489 5.8026 1.5902
4.6381 5.9734 1.5902
4.4214 6.1365 1.5902
4.1988 6.2917 1.5902
3.9708 6.4388 1.5902
3.7376 6.5775 1.5902
3.4996 6.7078 1.5902
3.2569 6.8294 1.5902
3.0101 6.9422 1.5902
2.7593 7.0460 1.5902
0.7792 2.2212 0.4946
0.6987 2.2468 0.4944
0.6175 2.2697 0.4942
0.5355 2.2897 0.4941
0.4530 2.3068 0.4940
0.3699 2.3211 0.4938
0.2864 2.3325 0.4938
0.2025 2.3409 0.4937
0.1184 2.3465 0.4937
0.0342 2.3492 0.4937
-0.0501 2.3489 0.4937
-0.1343 2.3457 0.4938
-0.2184 2.3396 0.4938
-0.3022 2.3306 0.4939
-0.3856 2.3187 0.4940
-0.4687 2.3039 0.4942
-0.5511 2.2862 0.4944
-0.6330 2.2657 0.4946
-0.7141 2.2424 0.4948
-0.7944 2.2162 0.4951
-2.9895 7.4838 1.6948
-3.2557 7.3710 1.6948
-3.5171 7.2477 1.6946
-3.7740 7.1156 1.6945
-4.0260 6.9743 1.6944
-4.2727 6.8241 1.6943
-4.5138 6.6651 1.6942
-4.7489 6.4975 1.6941
-4.9776 6.3214 1.6939
-5.1998 6.1371 1.6937
-5.4151 5.9451 1.6936
-5.6232 5.7454 1.6934
-5.8242 5.5386 1.6932
-6.0180 5.3252 1.6932
-6.2040 5.1050 1.6932
-6.3819 4.8783 1.6932
-6.5516 4.6453 1.6932
-6.7126 4.4065 1.6932
-6.8650 4.1620 1.6932
-6.8668 3.8332 1.6590
-6.8275 3.4962 1.6185
-6.8254 3.1915 1.5902
-6.9341 2.9440 1.5902
-7.0338 2.6928 1.5902
-7.1243 2.4382 1.5902
-7.2057 2.1807 1.5902
-7.2777 1.9204 1.5902
-7.3403 1.6577 1.5902
-7.3935 1.3930 1.5902
-7.4371 1.1267 1.5902
-7.4711 0.8590 1.5902
-7.4955 0.5903 1.5902
-7.5103 0.3210 1.5902
-7.5153 0.0513 1.5902
-7.5108 -0.2183 1.5902
-7.4965 -0.4875 1.5902
-5.6727 -3.9423 1.6297
-5.6203 -4.2128 1.6573
-5.5776 -4.5023 1.6915
-5.4173 -4.7037 1.6932
-5.2444 -4.8945 1.6932
-5.0649 -5.0789 1.6932
-4.8788 -5.2568 1.6932
-4.6866 -5.4279 1.6932
-4.4884 -5.5920 1.6932
-4.2844 -5.7490 1.6932
-4.0751 -5.8985 1.6932
-3.8605 -6.0404 1.6932
-3.6410 -6.1746 1.6932
-3.4169 -6.3009 1.6932
-3.1884 -6.4190 1.6932
-2.9558 -6.5290 1.6932
-2.7195 -6.6305 1.6932
-2.4798 -6.7236 1.6932
-2.2368 -6.8080 1.6932
-1.9911 -6.8837 1.6932
-1.7427 -6.9506 1.6932
-1.4922 -7.0086 1.6932
-1.2397 -7.0576 1.6932
-0.9857 -7.0975 1.6932
-0.7304 -7.1284 1.6932
-0.4741 -7.1501 1.6932
-0.2173 -7.1627 1.6932
0.0399 -7.1661 1.6932
0.2970 -7.1603 1.6932
0.5538 -7.1454 1.6932
0.8098 -7.1212 1.6932
1.0649 -7.0880 1.6932
1.3186 -7.0457 1.6932
1.5707 -6.9943 1.6932
1.8208 -6.9340 1.6932
2.0686 -6.8648 1.6932
2.3138 -6.7867 1.6932
2.5561 -6.7000 1.6932
2.7951 -6.6046 1.6932
2.8461 -6.1050 1.5902
3.0637 -5.9996 1.5902
3.2774 -5.8865 1.5902
3.4869 -5.7659 1.5902
3.6920 -5.6378 1.5902
3.8924 -5.5024 1.5902
4.0879 -5.3600 1.5902
4.2782 -5.2106 1.5902
4.4631 -5.0545 1.5902
4.6423 -4.8918 1.5902
4.8155 -4.7229 1.5902
4.9827 -4.5478 1.5902
5.1435 -4.3668 1.5902
5.2978 -4.1802 1.5902
5.4453 -3.9881 1.5902
5.5858 -3.7909 1.5902
5.7193 -3.5887 1.5902
5.8454 -3.3818 1.5902
5.9640 -3.1705 1.5902
6.0751 -2.9550 1.5902
6.1783 -2.7357 1.5902
6.2737 -2.5128 1.5902
6.4534 -2.3197 1.6132
6.5337 -2.0871 1.6132
6.6057 -1.8517 1.6132
6.6691 -1.6139 1.6132
6.7240 -1.3739 1.6132
6.7703 -1.1320 1.6132
6.8079 -0.8886 1.6132
6.8367 -0.6439 1.6132
6.8568 -0.3984 1.6132
6.8680 -0.1522 1.6132
6.8703 0.0943 1.6132
6.8638 0.3408 1.6132
6.8485 0.5869 1.6132
6.8243 0.8323 1.6132
6.7913 1.0767 1.6132
6.7496 1.3199 1.6132
6.6991 1.5614 1.6132
6.6400 1.8010 1.6132
6.5723 2.0384 1.6132
6.4961 2.2732 1.6132
6.4114 2.5051 1.6132
6.3185 2.7339 1.6132
6.2174 2.9593 1.6132
6.1082 3.1809 1.6132
5.9911 3.3984 1.6132
5.8662 3.6117 1.6132
5.7338 3.8203 1.6132
5.5939 4.0240 1.6132
5.4467 4.2226 1.6132
5.2167 4.3526 1.5902
5.0578 4.5375 1.5902
4.8924 4.7165 1.5902
4.7206 4.8895 1.5902
4.5427 5.0562 1.5902
4.3589 5.2164 1.5902
4.1694 5.3699 1.5902
3.9745 5.5165 1.5902
3.7745 5.6559 1.5902
3.5695 5.7881 1.5902
3.3598 5.9128 1.5902
3.1458 6.0299 1.5902
2.9277 6.1392 1.5902
2.7058 6.2405 1.5902
0.7749 1.9787 0.4968
0.7031 2.0044 0.4965
0.6306 2.0276 0.4964
0.5573 2.0483 0.4962
0.4833 2.0664 0.4961
0.4088 2.0819 0.4959
0.3338 2.0949 0.4958
0.2585 2.1052 0.4958
0.1828 2.1128 0.4957
0.1069 2.1179 0.4957
0.0308 2.1203 0.4957
-0.0452 2.1201 0.4957
-0.1212 2.1172 0.4958
-0.1971 2.1116 0.4958
-0.2727 2.1035 0.4959
-0.3480 2.0927 0.4960
-0.4230 2.0793 0.4962
-0.4974 2.0633 0.4963
-0.5712 2.0447 0.4965
-0.6444 2.0236 0.4967
-0.7168 1.9999 0.4969
-0.7884 1.9737 0.4972
-2.9251 6.6230 1.6939
-3.1603 6.5128 1.6938
-3.3912 6.3941 1.6937
-3.6177 6.2672 1.6936
-3.8394 6.1323 1.6935
-4.0560 5.9894 1.6934
-4.2673 5.8388 1.6932
-4.4734 5.6812 1.6932
-4.6736 5.5163 1.6932
-4.8677 5.3443 1.6932
-5.0554 5.1655 1.6932
-5.2366 4.9800 1.6932
-5.4109 4.7882 1.6932
-5.5783 4.5903 1.6932
-5.7383 4.3865 1.6932
-5.8910 4.1771 1.6932
-6.0359 3.9625 1.6932
-6.1730 3.7427 1.6932
-6.3022 3.5183 1.6932
-6.4231 3.2893 1.6932
-6.5357 3.0563 1.6932
-6.6399 2.8193 1.6932
-6.6599 2.5499 1.6742
-6.6269 2.2682 1.6447
-6.5954 1.9962 1.6184
-6.5641 1.7323 1.5947
-6.6017 1.4911 1.5902
-6.6496 1.2531 1.5902
-6.7182 1.0180 1.5971
-6.7197 0.7728 1.5902
-6.7418 0.5311 1.5902
-6.7552 0.2889 1.5902
-6.7599 0.0463 1.5902
-6.7559 -0.1962 1.5902
-6.7432 -0.4383 1.5902
-5.3516 -3.7190 1.6932
-5.2140 -3.9082 1.6932
-5.0698 -4.0922 1.6932
-4.9192 -4.2710 1.6932
-4.7622 -4.4443 1.6932
-4.5992 -4.6118 1.6932
-4.4303 -4.7734 1.6932
-4.2558 -4.9288 1.6932
-4.0758 -5.0779 1.6932
-3.8907 -5.2204 1.6932
-3.7005 -5.3562 1.6932
-3.5057 -5.4852 1.6932
-3.3064 -5.6071 1.6932
-3.1029 -5.7218 1.6932
-2.8954 -5.8291 1.6932
-2.6842 -5.9290 1.6932
-2.4697 -6.0212 1.6932
-2.2519 -6.1057 1.6932
-2.0313 -6.1824 1.6932
-1.8081 -6.2512 1.6932
-1.5826 -6.3119 1.6932
-1.3551 -6.3646 1.6932
-1.1258 -6.4091 1.6932
-0.8951 -6.4454 1.6932
-0.6633 -6.4734 1.6932
-0.4306 -6.4931 1.6932
-0.1973 -6.5045 1.6932
0.0362 -6.5076 1.6932
0.2697 -6.5023 1.6932
0.5029 -6.4887 1.6932
0.7355 -6.4668 1.6932
0.9671 -6.4366 1.6932
1.1975 -6.3981 1.6932
1.4264 -6.3514 1.6932
1.6535 -6.2966 1.6932
1.8785 -6.2337 1.6932
2.1012 -6.1628 1.6932
2.3212 -6.0839 1.6932
2.5382 -5.9973 1.6932
2.7520 -5.9029 1.6932
2.7820 -5.4478 1.5902
2.9760 -5.3451 1.5902
3.1663 -5.2354 1.5902
3.3525 -5.1191 1.5902
3.5344 -4.9961 1.5902
3.7119 -4.8667 1.5902
3.8846 -4.7310 1.5902
4.0524 -4.5892 1.5902
4.2151 -4.4415 1.5902
4.3724 -4.2880 1.5902
4.5241 -4.1290 1.5902
4.6700 -3.9646 1.5902
4.8100 -3.7951 1.5902
4.9438 -3.6207 1.5902
5.0714 -3.4415 1.5902
5.1924 -3.2579 1.5902
5.3068 -3.0700 1.5902
5.4145 -2.8781 1.5902
5.5152 -2.6825 1.5902
5.6088 -2.4833 1.5902
5.6953 -2.2809 1.5902
5.7745 -2.0755 1.5902
5.8463 -1.8673 1.5902
5.9105 -1.6567 1.5902
5.9672 -1.4439 1.5902
6.0162 -1.2291 1.5902
6.0576 -1.0127 1.5902
6.1795 -0.8064 1.6132
6.2056 -0.5843 1.6132
6.2237 -0.3614 1.6132
6.2337 -0.1379 1.6132
6.2358 0.0858 1.6132
6.2298 0.3095 1.6132
6.2158 0.5328 1.6132
6.1937 0.7556 1.6132
6.1637 0.9774 1.6132
6.1257 1.1980 1.6132
6.0798 1.4172 1.6132
6.0260 1.6347 1.6132
5.9645 1.8500 1.6132
5.8952 2.0631 1.6132
5.8183 2.2736 1.6132
5.7339 2.4812 1.6132
5.6421 2.6856 1.6132
5.4636 2.8454 1.5902
5.3588 3.0399 1.5902
5.2470 3.2306 1.5902
5.1285 3.4171 1.5902
5.0033 3.5993 1.5902
4.8716 3.7769 1.5902
4.7335 3.9497 1.5902
4.5894 4.1174 1.5902
4.4392 4.2798 1.5902
4.2833 4.4367 1.5902
4.1219 4.5879 1.5902
3.9551 4.7332 1.5902
3.7831 4.8725 1.5902
3.6062 5.0054 1.5902
3.4247 5.1319 1.5902
3.2386 5.2518 1.5902
3.0484 5.3649 1.5902
2.8542 5.4711 1.5902
0.8332 1.7472 0.4988
0.7697 1.7752 0.4985
0.7053 1.8010 0.4983
0.6400 1.8245 0.4981
0.5740 1.8457 0.4980
0.5073 1.8645 0.4978
0.4400 1.8811 0.4977
0.3722 1.8952 0.4976
0.3039 1.9070 0.4975
0.2353 1.9164 0.4974
0.1664 1.9235 0.4974
0.0973 1.9281 0.4974
0.0281 1.9303 0.4974
-0.0412 1.9300 0.4974
-0.1103 1.9274 0.4974
-0.1794 1.9224 0.4975
-0.2483 1.9149 0.4976
-0.3168 1.9051 0.4977
-0.3850 1.8928 0.4978
-0.4527 1.8782 0.4979
-0.5199 1.8613 0.4981
-0.5865 1.8420 0.4983
-0.6524 1.8203 0.4985
-0.7175 1.7964 0.4987
-0.7818 1.7702 0.4990
-2.8665 5.9076 1.6932
-3.0762 5.8004 1.6932
-3.2819 5.6857 1.6932
-3.4833 5.5637 1.6932
-3.6801 5.4346 1.6932
-3.8722 5.2984 1.6932
-4.0592 5.1554 1.6932
-4.2409 5.0059 1.6932
-4.4171 4.8499 1.6932
-4.5876 4.6877 1.6932
-4.7520 4.5194 1.6932
-4.9103 4.3454 1.6932
-5.0622 4.1659 1.6932
-5.2076 3.9810 1.6932
-5.3462 3.7911 1.6932
-5.4778 3.5963 1.6932
-5.6023 3.3969 1.6932
-5.7196 3.1933 1.6932
-5.8295 2.9855 1.6932
-5.9318 2.7740 1.6932
-6.0264 2.5590 1.6932
-6.1133 2.3408 1.6932
-6.1922 2.1196 1.6932
-6.2632 1.8958 1.6932
-6.3260 1.6696 1.6932
-6.3807 1.4414 1.6932
-6.4272 1.2113 1.6932
-6.4161 0.9724 1.6803
-6.3822 0.7341 1.6638
-6.3515 0.5006 1.6503
-6.3204 0.2705 1.6390
-6.2891 0.0433 1.6297
-6.2572 -0.1815 1.6224
-6.2249 -0.4044 1.6170
-4.8959 -3.4022 1.6932
-4.7701 -3.5753 1.6932
-4.6382 -3.7437 1.6932
-4.5004 -3.9073 1.6932
-4.3569 -4.0659 1.6932
-4.2078 -4.2192 1.6932
-4.0533 -4.3670 1.6932
-3.8936 -4.5093 1.6932
-3.7290 -4.6457 1.6932
-3.5596 -4.7761 1.6932
-3.3857 -4.9004 1.6932
-3.2075 -5.0184 1.6932
-3.0251 -5.1300 1.6932
-2.8389 -5.2349 1.6932
-2.6491 -5.3332 1.6932
-2.4559 -5.4246 1.6932
-2.2596 -5.5090 1.6932
-2.0604 -5.5863 1.6932
-1.8586 -5.6565 1.6932
-1.6543 -5.7194 1.6932
-1.4480 -5.7750 1.6932
-1.2398 -5.8232 1.6932
-1.0301 -5.8639 1.6932
-0.8190 -5.8971 1.6932
-0.6068 -5.9228 1.6932
-0.3939 -5.9408 1.6932
-0.1805 -5.9512 1.6932
0.0332 -5.9540 1.6932
0.2468 -5.9492 1.6932
0.4602 -5.9367 1.6932
0.6729 -5.9166 1.6932
0.8849 -5.8890 1.6932
1.0957 -5.8537 1.6932
1.3051 -5.8110 1.6932
1.5129 -5.7608 1.6932
1.7188 -5.7032 1.6932
1.9224 -5.6383 1.6932
2.1237 -5.5661 1.6932
2.3223 -5.4868 1.6932
2.5179 -5.4004 1.6932
2.6734 -5.2349 1.6702
