ply
format ascii 1.0
element vertex 2142
property float32 x
property float32 y
property float32 z
end_header
-8.4023 -11.1062 0.6676
-11.9873 -17.0901 0.9991
-8.5024 -13.1006 0.7464
-18.3053 -30.5602 1.7000
-8.3384 -15.1308 0.8234
-9.9932 -19.7868 1.0552
-8.3304 -18.0840 0.9467
-8.2928 -19.8533 1.0219
-11.9847 -31.8714 1.6156
-10.7145 -31.9385 1.5970
-9.5658 -32.3296 1.5970
-8.4020 -32.6764 1.5970
-7.2250 -32.9783 1.5970
-6.0366 -33.2348 1.5970
-4.8386 -33.4453 1.5970
-3.6330 -33.6093 1.5970
-2.4216 -33.7268 1.5970
-1.2063 -33.7973 1.5970
0.0110 -33.9922 1.6050
1.0745 -29.5705 1.3972
2.4559 -33.8976 1.6050
3.6735 -33.7796 1.6050
4.8853 -33.6145 1.6050
6.0895 -33.4030 1.6050
7.2840 -33.1452 1.6050
8.4671 -32.8417 1.6050
7.3436 -24.7605 1.2231
7.6643 -22.7976 1.1399
7.9492 -21.0984 1.0695
8.1244 -19.4149 0.9993
8.4356 -18.2815 0.9570
8.6272 -17.0548 0.9095
8.8103 -15.9629 0.8687
7.3166 -12.1970 0.6786
7.4418 -11.4502 0.6524
7.5575 -10.7599 0.6291
7.6651 -10.1182 0.6083
7.7656 -9.5186 0.5896
7.8600 -8.9558 0.5729
7.9528 -8.4292 0.5581
7.9685 -7.8588 0.5400
8.0671 -7.4025 0.5292
8.1431 -6.9493 0.5185
8.2158 -6.5153 0.5089
8.2584 -6.0780 0.4986
8.4035 -5.7302 0.4957
8.4667 -5.3373 0.4888
8.5304 -4.9576 0.4829
8.5924 -4.5881 0.4778
8.6528 -4.2274 0.4735
8.7120 -3.8743 0.4699
8.7701 -3.5278 0.4669
8.8273 -3.1867 0.4647
8.8838 -2.8500 0.4630
8.9397 -2.5169 0.4621
8.9951 -2.1863 0.4617
9.0502 -1.8574 0.4619
9.1119 -1.5306 0.4631
7.8806 -1.0336 0.3993
6.9738 -0.6604 0.3528
7.0157 -0.4102 0.3549
7.0580 -0.1581 0.3574
7.1007 0.0966 0.3604
7.1299 0.3540 0.3632
7.1433 0.6131 0.3656
7.1908 0.8789 0.3704
7.2408 1.1509 0.3757
7.2925 1.4300 0.3818
3.7365 0.8735 0.1976
7.4231 2.0197 0.3971
7.4744 2.3257 0.4050
7.5215 2.6409 0.4134
7.7388 3.0343 0.4320
7.7978 3.3862 0.4429
7.8609 3.7555 0.4548
7.8236 4.0900 0.4619
7.9343 4.5187 0.4787
8.0066 4.9499 0.4946
-8.5722 1.6745 0.6464
-8.5850 1.3582 0.6422
-8.5867 1.0432 0.6380
-8.4607 0.7200 0.6253
-8.4865 0.4152 0.6246
-17.8790 0.2303 1.3121
-19.0116 -0.4397 1.3931
-21.6267 -1.2803 1.5844
-21.8427 -2.0843 1.6019
-8.4729 -1.1175 0.6229
-8.4427 -1.4244 0.6229
-12.1448 -2.5017 0.9006
-8.5562 -2.0862 0.6386
-8.5517 -2.4143 0.6432
-8.5464 -2.7486 0.6488
-8.5405 -3.0901 0.6552
-8.4261 -3.3964 0.6544
-8.5321 -3.8017 0.6717
-8.5398 -4.1798 0.6826
-10.6710 -5.7078 0.8675
-19.6255 -11.4244 1.6253
-8.4100 -5.3099 0.7108
-13.0803 -8.9328 1.1303
-18.1682 -13.3912 1.6082
-17.6722 -14.0346 1.6058
-8.3943 -7.1740 0.7846
-12.7366 -11.7040 1.2274
-10.9954 -10.8593 1.0952
-8.5747 -9.1010 0.8851
-8.3743 -9.5553 0.8982
-8.3952 -10.3050 0.9386
-8.3617 -11.0536 0.9776
-8.3545 -11.9121 1.0252
-8.3465 -12.8617 1.0793
-8.3377 -13.9208 1.1411
-8.3276 -15.1127 1.2123
-8.3163 -16.4679 1.2951
-8.3055 -18.0315 1.3925
-8.2928 -19.8551 1.5082
-8.0238 -21.3399 1.5970
-7.2550 -21.6281 1.5970
-5.3746 -18.1660 1.3254
-6.0567 -23.5571 1.7009
-5.2086 -23.7764 1.7014
-4.3523 -23.9639 1.7019
-3.4892 -24.1195 1.7024
-2.6202 -24.2422 1.7029
-1.7463 -24.3239 1.7028
-0.8696 -24.3647 1.7022
0.0079 -24.3726 1.7016
0.8847 -24.3475 1.7010
1.7595 -24.2888 1.7004
2.5950 -23.8648 1.6764
3.3032 -22.7304 1.6044
4.0988 -22.4854 1.5970
4.9037 -22.3156 1.5970
5.7013 -22.1155 1.5970
6.4904 -21.8857 1.5970
7.4889 -22.2775 1.6450
7.5159 -19.9501 1.4931
7.7539 -18.5310 1.4078
8.3700 -18.1407 1.4011
8.7024 -17.2050 1.3532
8.8101 -15.9640 1.2808
7.3164 -12.1978 1.0000
7.4416 -11.4511 0.9611
7.5574 -10.7607 0.9263
7.6650 -10.1190 0.8952
7.7655 -9.5194 0.8673
7.8599 -8.9566 0.8422
7.9526 -8.4299 0.8201
8.0158 -7.9064 0.7977
8.0669 -7.4033 0.7767
8.1429 -6.9501 0.7605
7.5699 -6.0038 0.6872
8.3032 -6.1118 0.7344
8.4038 -5.7312 0.7256
8.4666 -5.3380 0.7150
8.5303 -4.9583 0.7059
8.5922 -4.5888 0.6980
8.6527 -4.2281 0.6912
8.7119 -3.8751 0.6854
8.7700 -3.5285 0.6806
8.8272 -3.1874 0.6768
8.8837 -2.8507 0.6740
8.9395 -2.5176 0.6720
8.9950 -2.1870 0.6709
9.0501 -1.8582 0.6708
9.1118 -1.5313 0.6720
7.8977 -1.0365 0.5803
7.1266 -0.6754 0.5224
7.1597 -0.4192 0.5243
7.2028 -0.1620 0.5276
7.2464 0.0980 0.5316
7.2906 0.3614 0.5364
7.3355 0.6290 0.5419
7.3812 0.9016 0.5483
7.4279 1.1800 0.5555
7.4757 1.4653 0.5636
3.7362 0.8731 0.2843
7.5755 2.0605 0.5827
7.6278 2.3728 0.5939
7.6821 2.6966 0.6063
7.7386 3.0336 0.6200
7.7976 3.3854 0.6351
7.8683 3.7584 0.6524
7.8713 4.1142 0.6655
7.9342 4.5179 0.6852
8.0064 4.9491 0.7074
-8.5724 1.6739 0.8446
-15.7780 2.4949 1.5426
-15.8262 1.9215 1.5376
-8.4607 0.7193 0.8179
-8.4873 0.4146 0.8174
-16.1015 0.2061 1.5469
-16.3496 -0.3794 1.5690
-16.6196 -0.9852 1.5952
-16.9599 -1.6197 1.6302
-8.4721 -1.1181 0.8166
-8.4427 -1.4251 0.8171
-12.1439 -2.5025 1.1818
-11.7141 -2.8570 1.1477
-11.3068 -3.1930 1.1169
-10.9193 -3.5126 1.0890
-8.5681 -3.1008 0.8640
-8.4261 -3.3972 0.8604
-11.5840 -5.1625 1.1996
-14.9793 -7.3328 1.5756
-8.5685 -4.5840 0.9169
-8.4568 -4.9236 0.9223
-8.4100 -5.3107 0.9364
-8.4140 -5.7469 0.9581
-8.4026 -6.1941 0.9805
-8.3986 -6.6707 1.0064
-8.3943 -7.1749 1.0351
-8.3898 -7.7105 1.0670
-8.3850 -8.2822 1.1025
-8.3799 -8.8953 1.1421
-8.3743 -9.5563 1.1864
-8.3683 -10.2729 1.2360
-8.3617 -11.0547 1.2919
-8.3545 -11.9132 1.3552
-8.3465 -12.8629 1.4270
-8.3376 -13.9221 1.5091
-8.2928 -15.0509 1.5970
-7.7508 -15.3495 1.5970
-7.1977 -15.6278 1.5970
-6.6343 -15.8855 1.5970
-6.0614 -16.1222 1.5970
-5.4799 -16.3374 1.5970
-4.8904 -16.5309 1.5970
-4.5711 -17.7806 1.7000
-3.9301 -17.9419 1.7003
-3.2832 -18.0789 1.7005
-2.6313 -18.1909 1.7006
-1.9754 -18.2782 1.7007
-1.3166 -18.3406 1.7008
-0.6559 -18.3782 1.7009
0.0059 -18.3907 1.7009
0.6677 -18.3781 1.7009
1.3285 -18.3395 1.7007
1.9871 -18.2751 1.7005
2.6426 -18.1862 1.7003
3.2942 -18.0731 1.7000
3.7024 -16.8504 1.5970
4.3051 -16.7010 1.5970
4.9015 -16.5293 1.5970
5.4910 -16.3356 1.5970
6.0725 -16.1201 1.5970
6.6454 -15.8832 1.5970
7.2088 -15.6253 1.5970
7.9956 -15.8088 1.6450
8.5539 -15.5010 1.6450
7.3163 -12.1987 1.3226
7.5213 -11.5747 1.2844
7.6383 -10.8769 1.2376
7.6648 -10.1198 1.1830
7.7654 -9.5202 1.1459
7.8597 -8.9574 1.1124
7.9525 -8.4307 1.0829
7.9410 -7.8335 1.0432
8.0202 -7.3613 1.0191
8.0958 -6.9107 0.9974
7.5687 -6.0036 0.9062
8.3488 -6.1461 0.9735
8.4037 -5.7319 0.9563
8.4665 -5.3387 0.9420
8.5302 -4.9590 0.9297
8.5921 -4.5895 0.9189
8.6526 -4.2288 0.9096
8.7118 -3.8758 0.9016
8.7699 -3.5292 0.8950
8.8271 -3.1881 0.8897
8.8836 -2.8514 0.8855
8.9394 -2.5183 0.8826
8.9948 -2.1877 0.8809
9.0500 -1.8589 0.8803
9.1116 -1.5320 0.8815
7.9151 -1.0394 0.7626
7.1266 -0.6760 0.6848
7.1596 -0.4198 0.6869
7.2027 -0.1625 0.6910
7.2463 0.0974 0.6960
7.2905 0.3608 0.7019
7.3354 0.6284 0.7089
7.3811 0.9010 0.7169
7.4278 1.1794 0.7261
7.4756 1.4647 0.7364
3.7360 0.8727 0.3713
7.5754 2.0599 0.7608
7.6277 2.3721 0.7751
7.6820 2.6960 0.7910
7.7385 3.0329 0.8085
7.7975 3.3847 0.8279
7.8716 3.7593 0.8506
7.9199 4.1388 0.8724
7.9340 4.5171 0.8923
8.0063 4.9482 0.9209
-8.4685 1.6529 1.0309
-8.4659 1.3380 1.0230
-8.4633 1.0269 1.0165
-8.4607 0.7186 1.0113
-8.4581 0.4125 1.0075
-8.4556 0.1076 1.0050
-8.4530 -0.1968 1.0038
-8.4504 -0.5016 1.0039
-8.4479 -0.8075 1.0053
-8.4453 -1.1153 1.0081
-8.4427 -1.4258 1.0122
-8.4400 -1.7399 1.0176
-8.4374 -2.0586 1.0245
-8.4346 -2.3826 1.0328
-8.4318 -2.7131 1.0427
-8.4290 -3.0512 1.0542
-8.4261 -3.3979 1.0673
-8.4231 -3.7545 1.0823
-8.4200 -4.1226 1.0992
-8.4168 -4.5036 1.1181
-8.4135 -4.8992 1.1393
-8.4100 -5.3114 1.1629
-8.4064 -5.7425 1.1891
-8.4026 -6.1949 1.2183
-8.3986 -6.6715 1.2506
-8.3943 -7.1757 1.2866
-8.3898 -7.7114 1.3265
-8.3850 -8.2831 1.3709
-8.3799 -8.8963 1.4204
-8.3743 -9.5573 1.4758
-8.3683 -10.2740 1.5378
-8.3062 -10.9824 1.5970
-7.9107 -11.2815 1.5970
-7.5043 -11.5660 1.5970
-7.0874 -11.8355 1.5970
-6.6605 -12.0895 1.5970
-6.2244 -12.3277 1.5970
-5.7795 -12.5498 1.5970
-5.3266 -12.7554 1.5970
-4.8661 -12.9441 1.5970
-4.6828 -13.9624 1.7000
-4.1788 -14.1266 1.7000
-3.6688 -14.2721 1.7000
-3.1537 -14.3986 1.7000
-2.6341 -14.5060 1.7000
-2.1108 -14.5940 1.7000
-1.5846 -14.6626 1.7000
-1.0560 -14.7117 1.7000
-0.5260 -14.7411 1.7000
0.0048 -14.7509 1.7000
0.5355 -14.7409 1.7000
1.0656 -14.7113 1.7000
1.5941 -14.6620 1.7000
2.1204 -14.5932 1.7000
2.6437 -14.5049 1.7000
3.1632 -14.3974 1.7000
3.4553 -13.4053 1.5970
3.9342 -13.2684 1.5970
4.4077 -13.1140 1.5970
4.8750 -12.9421 1.5970
5.3354 -12.7532 1.5970
5.7883 -12.5475 1.5970
6.2331 -12.3252 1.5970
6.6692 -12.0867 1.5970
7.0960 -11.8325 1.5970
7.5211 -11.5756 1.5987
7.6381 -10.8778 1.5403
7.6647 -10.1206 1.4721
7.8485 -9.6231 1.4409
7.9439 -9.0542 1.3986
7.5638 -8.0196 1.2810
7.6440 -7.5414 1.2487
7.7202 -7.0868 1.2197
7.7930 -6.6530 1.1935
7.5684 -6.0042 1.1262
8.2392 -6.0662 1.1938
8.4036 -5.7327 1.1880
8.5572 -5.3967 1.1825
8.5300 -4.9597 1.1544
8.5920 -4.5902 1.1408
8.6525 -4.2295 1.1289
8.7117 -3.8765 1.1188
8.7698 -3.5299 1.1103
8.8270 -3.1888 1.1034
8.8834 -2.8521 1.0981
8.9393 -2.5190 1.0942
8.9947 -2.1884 1.0917
9.0499 -1.8596 1.0907
9.1115 -1.5327 1.0920
7.9326 -1.0424 0.9466
7.1265 -0.6765 0.8478
7.1595 -0.4203 0.8503
7.2026 -0.1631 0.8551
7.2462 0.0969 0.8611
7.2904 0.3602 0.8682
7.3353 0.6278 0.8766
7.3810 0.9004 0.8863
7.4276 1.1788 0.8974
7.4755 1.4641 0.9099
3.7357 0.8723 0.4587
7.5753 2.0592 0.9397
7.6276 2.3714 0.9571
7.6819 2.6953 0.9765
7.7384 3.0322 0.9979
7.7974 3.3840 1.0215
7.8715 3.7585 1.0493
7.8068 4.0791 1.0606
7.8744 4.4825 1.0920
7.9333 4.9023 1.1250
-8.4685 1.6522 1.2285
-8.4659 1.3373 1.2193
-8.4633 1.0262 1.2117
-8.4607 0.7180 1.2058
-8.4581 0.4118 1.2015
-8.4556 0.1069 1.1987
-8.4530 -0.1975 1.1975
-8.4504 -0.5023 1.1978
-8.4479 -0.8081 1.1997
-8.4453 -1.1159 1.2032
-8.4427 -1.4265 1.2083
-8.4400 -1.7406 1.2150
-8.4373 -2.0593 1.2234
-8.4346 -2.3833 1.2336
-8.4318 -2.7138 1.2455
-8.4290 -3.0519 1.2595
-8.4261 -3.3986 1.2754
-8.4231 -3.7553 1.2935
-8.4200 -4.1233 1.3139
-8.4168 -4.5043 1.3367
-8.4135 -4.9000 1.3622
-8.4100 -5.3122 1.3907
-8.4064 -5.7433 1.4223
-8.4026 -6.1957 1.4573
-8.3986 -6.6724 1.4962
-8.3943 -7.1766 1.5394
-8.3898 -7.7123 1.5874
-8.1611 -8.0628 1.5970
-7.8707 -8.3566 1.5970
-7.5696 -8.6398 1.5970
-7.2582 -8.9120 1.5970
-6.9367 -9.1726 1.5970
-6.6058 -9.4214 1.5970
-6.2657 -9.6580 1.5970
-5.9171 -9.8821 1.5970
-5.5602 -10.0933 1.5970
-5.1957 -10.2913 1.5970
-4.8240 -10.4758 1.5970
-4.7109 -11.2820 1.6923
-4.3232 -11.5008 1.7000
-3.9078 -11.6526 1.7000
-3.4870 -11.7890 1.7000
-3.0613 -11.9098 1.7000
-2.6314 -12.0148 1.7000
-2.1978 -12.1040 1.7000
-1.7611 -12.1771 1.7000
-1.3220 -12.2341 1.7000
-0.8810 -12.2748 1.7000
-0.4388 -12.2992 1.7000
0.0040 -12.3073 1.7000
0.4468 -12.2990 1.7000
0.8890 -12.2744 1.7000
1.3299 -12.2335 1.7000
1.7691 -12.1764 1.7000
2.2057 -12.1030 1.7000
2.6393 -12.0137 1.7000
3.0692 -11.9085 1.7000
3.3410 -11.2685 1.6252
3.6782 -10.9444 1.5970
4.0683 -10.8016 1.5970
4.4529 -10.6446 1.5970
4.8312 -10.4737 1.5970
5.2029 -10.2890 1.5970
5.5673 -10.0908 1.5970
5.9241 -9.8794 1.5970
6.2727 -9.6551 1.5970
6.6127 -9.4183 1.5970
6.9436 -9.1693 1.5970
7.2649 -8.9085 1.5970
7.8044 -8.8962 1.6450
7.4171 -7.8648 1.5037
7.4957 -7.3959 1.4656
7.5705 -6.9501 1.4313
7.6418 -6.5247 1.4004
7.5683 -6.0048 1.3474
8.2377 -6.0660 1.4278
8.4035 -5.7334 1.4209
8.5570 -5.3974 1.4141
8.6214 -5.0136 1.3951
8.6840 -4.6401 1.3784
8.6524 -4.2302 1.3494
8.7116 -3.8772 1.3371
8.8637 -3.5685 1.3410
8.9215 -3.2237 1.3325
8.9786 -2.8834 1.3258
9.0350 -2.5467 1.3209
8.9946 -2.1891 1.3037
9.0497 -1.8603 1.3023
8.4642 -1.4245 1.2110
7.9503 -1.0453 1.1323
7.1264 -0.6771 1.0118
7.1594 -0.4209 1.0146
7.2026 -0.1637 1.0201
7.2461 0.0963 1.0270
7.2903 0.3597 1.0354
7.3352 0.6272 1.0452
7.3809 0.8998 1.0566
7.4275 1.1782 1.0696
7.4754 1.4634 1.0844
3.7354 0.8720 0.5465
7.5752 2.0586 1.1195
7.6275 2.3708 1.1401
7.6818 2.6946 1.1629
7.8457 3.0736 1.2047
7.9055 3.4302 1.2331
7.8713 3.7577 1.2491
7.6070 3.9740 1.2301
7.4918 4.2640 1.2365
7.5600 4.6710 1.2756
-8.4685 1.6515 1.4274
-8.4659 1.3366 1.4169
-8.4633 1.0255 1.4083
-8.4607 0.7173 1.4015
-8.4581 0.4111 1.3966
-8.4555 0.1062 1.3936
-8.4530 -0.1982 1.3924
-8.4504 -0.5030 1.3929
-8.4479 -0.8088 1.3953
-8.4453 -1.1166 1.3995
-8.4427 -1.4272 1.4056
-8.4400 -1.7413 1.4136
-8.4373 -2.0600 1.4236
-8.4346 -2.3840 1.4356
-8.4318 -2.7145 1.4497
-8.4290 -3.0526 1.4661
-8.4261 -3.3993 1.4848
-8.4231 -3.7560 1.5060
-8.4200 -4.1241 1.5299
-8.4168 -4.5051 1.5567
-8.4135 -4.9008 1.5866
-8.2901 -5.2373 1.5968
-8.1016 -5.5359 1.5968
-7.9023 -5.8276 1.5968
-7.6923 -6.1121 1.5968
-7.4720 -6.3889 1.5968
-7.2415 -6.6575 1.5968
-7.0013 -6.9178 1.5968
-6.7516 -7.1693 1.5968
-6.4934 -7.4123 1.5970
-6.2257 -7.6451 1.5970
-5.9496 -7.8680 1.5970
-5.6653 -8.0808 1.5970
-5.3733 -8.2831 1.5970
-5.0739 -8.4747 1.5970
-4.7676 -8.6552 1.5970
-4.7269 -9.3636 1.6945
-4.4028 -9.5620 1.7000
-4.0572 -9.7174 1.7000
-3.7061 -9.8600 1.7000
-3.3499 -9.9897 1.7000
-2.9890 -10.1062 1.7000
-2.6240 -10.2094 1.7000
-2.2554 -10.2991 1.7000
-1.8837 -10.3753 1.7000
-1.5094 -10.4377 1.7000
-1.1330 -10.4864 1.7000
-0.7551 -10.5211 1.7000
-0.3761 -10.5420 1.7000
0.0034 -10.5489 1.7000
0.3829 -10.5418 1.7000
0.7619 -10.5208 1.7000
1.1399 -10.4858 1.7000
1.5162 -10.4370 1.7000
1.8905 -10.3744 1.7000
2.2622 -10.2981 1.7000
2.6308 -10.2082 1.7000
2.9957 -10.1048 1.7000
3.3090 -9.8466 1.6760
3.4876 -9.2605 1.5970
3.8174 -9.1263 1.5970
4.1420 -8.9802 1.5970
4.4609 -8.8223 1.5970
4.7736 -8.6529 1.5970
5.0799 -8.4722 1.5970
5.3792 -8.2805 1.5970
5.6711 -8.0780 1.5970
5.9553 -7.8651 1.5970
6.2314 -7.6420 1.5970
6.4990 -7.4090 1.5970
6.7578 -7.1665 1.5969
7.0074 -6.9149 1.5970
7.2476 -6.6545 1.5970
7.4944 -6.3997 1.6005
7.5209 -5.9679 1.5602
8.1462 -5.9993 1.6450
8.3514 -5.6986 1.6450
8.5454 -5.3909 1.6450
8.6213 -5.0144 1.6249
8.6839 -4.6409 1.6053
8.6522 -4.2309 1.5714
8.7114 -3.8779 1.5569
8.8636 -3.5692 1.5612
8.9214 -3.2244 1.5511
8.9784 -2.8841 1.5431
9.0349 -2.5474 1.5372
8.9945 -2.1898 1.5170
9.0496 -1.8610 1.5152
7.4706 -1.2579 1.2434
7.9681 -1.0483 1.3201
7.1264 -0.6777 1.1767
7.1593 -0.4215 1.1798
7.2025 -0.1642 1.1861
7.2460 0.0957 1.1940
7.3914 0.3640 1.2203
7.4369 0.6353 1.2318
7.4832 0.9116 1.2450
7.5306 1.1939 1.2602
7.5791 1.4831 1.2774
3.7351 0.8716 0.6349
7.5750 2.0579 1.3004
7.6274 2.3701 1.3242
7.7883 2.7313 1.3693
7.8456 3.0729 1.3990
7.9054 3.4295 1.4318
7.8711 3.7569 1.4502
7.6080 3.9738 1.4281
7.3008 4.1546 1.3986
7.3673 4.5512 1.4428
-8.3071 1.6194 1.5968
-8.3657 1.3201 1.5968
-8.4135 1.0188 1.5968
-8.4505 0.7157 1.5968
-8.4581 0.4104 1.5933
-8.4555 0.1055 1.5900
-8.4530 -0.1989 1.5887
-8.4504 -0.5036 1.5895
-8.4478 -0.8095 1.5924
-8.4424 -1.1169 1.5968
-8.4025 -1.4211 1.5968
-8.3516 -1.7238 1.5968
-8.2898 -2.0246 1.5968
-8.2171 -2.3232 1.5968
-8.1336 -2.6192 1.5968
-8.0393 -2.9122 1.5968
-7.9345 -3.2017 1.5968
-7.8191 -3.4874 1.5968
-7.6934 -3.7689 1.5968
-7.5575 -4.0459 1.5968
-7.4115 -4.3178 1.5968
-7.2557 -4.5845 1.5968
-7.0902 -4.8455 1.5968
-6.9152 -5.1004 1.5968
-6.7309 -5.3489 1.5968
-6.5376 -5.5907 1.5968
-6.3356 -5.8253 1.5968
-6.1250 -6.0526 1.5968
-5.9061 -6.2722 1.5968
-5.6793 -6.4837 1.5968
-5.4448 -6.6869 1.5968
-5.2030 -6.8814 1.5968
-4.9629 -7.0797 1.5996
-4.7549 -7.3306 1.6160
-4.7233 -7.8899 1.7000
-4.4380 -8.0576 1.7000
-4.1466 -8.2148 1.7000
-3.8495 -8.3612 1.7000
-3.5473 -8.4967 1.7000
-3.2401 -8.6211 1.7000
-2.9286 -8.7342 1.7000
-2.6130 -8.8358 1.7000
-2.2939 -8.9258 1.7000
-1.9716 -9.0040 1.7000
-1.6467 -9.0704 1.7000
-1.3195 -9.1248 1.7000
-0.9904 -9.1672 1.7000
-0.6600 -9.1975 1.7000
-0.3288 -9.2157 1.7000
0.0030 -9.2217 1.7000
0.3347 -9.2155 1.7000
0.6660 -9.1972 1.7000
0.9964 -9.1668 1.7000
1.3254 -9.1242 1.7000
1.6526 -9.0696 1.7000
1.9776 -9.0031 1.7000
2.2998 -8.9247 1.7000
2.6189 -8.8345 1.7000
2.9344 -8.7328 1.7000
3.2459 -8.6195 1.7000
3.3374 -7.9795 1.5969
3.6213 -7.8520 1.5969
3.9002 -7.7143 1.5969
4.1739 -7.5665 1.5969
4.4419 -7.4088 1.5969
4.7038 -7.2415 1.5969
4.9596 -7.0653 1.5970
5.2085 -6.8795 1.5970
5.4503 -6.6847 1.5970
5.6847 -6.4814 1.5970
5.9115 -6.2697 1.5970
6.1302 -6.0500 1.5970
6.3407 -5.8225 1.5970
6.5427 -5.5877 1.5970
6.7359 -5.3458 1.5970
6.9201 -5.0971 1.5970
7.0950 -4.8420 1.5970
7.2604 -4.5809 1.5970
7.6395 -4.4440 1.6450
7.7897 -4.1637 1.6450
7.9296 -3.8782 1.6450
8.0589 -3.5881 1.6450
8.1776 -3.2936 1.6450
8.2855 -2.9953 1.6450
8.3824 -2.6934 1.6450
8.4683 -2.3883 1.6450
8.5430 -2.0806 1.6450
8.6065 -1.7706 1.6450
7.4705 -1.2585 1.4193
7.9862 -1.0513 1.5101
7.1263 -0.6782 1.3430
7.1592 -0.4221 1.3464
7.2024 -0.1648 1.3534
7.2459 0.0951 1.3623
7.3913 0.3634 1.3922
7.4368 0.6347 1.4051
7.4831 0.9110 1.4201
7.5305 1.1933 1.4373
7.5789 1.4825 1.4568
3.7348 0.8712 0.7239
7.5749 2.0572 1.4827
7.6273 2.3694 1.5097
7.7882 2.7306 1.5610
7.8455 3.0721 1.5946
7.9053 3.4287 1.6319
7.8345 3.7387 1.6450
7.6090 3.9736 1.6277
7.1262 4.0546 1.5556
7.1567 4.4204 1.5970
-7.3897 1.4399 1.5968
-7.4413 1.1736 1.5968
-7.4833 0.9055 1.5968
-7.5157 0.6359 1.5968
-7.5383 0.3652 1.5968
-7.5513 0.0936 1.5968
-7.5544 -0.1784 1.5968
-7.5478 -0.4505 1.5968
-7.5314 -0.7223 1.5968
-7.5051 -0.9936 1.5968
-7.4691 -1.2638 1.5968
-7.4233 -1.5328 1.5968
-7.3678 -1.8001 1.5968
-7.3027 -2.0653 1.5968
-7.2279 -2.3282 1.5968
-7.1437 -2.5883 1.5968
-7.0500 -2.8454 1.5968
-6.9470 -3.0991 1.5968
-6.8349 -3.3490 1.5968
-6.7137 -3.5948 1.5968
-6.5836 -3.8361 1.5968
-6.4447 -4.0727 1.5968
-6.2973 -4.3043 1.5968
-6.1415 -4.5304 1.5968
-5.9775 -4.7508 1.5968
-5.8055 -4.9652 1.5968
-5.6257 -5.1733 1.5968
-5.4385 -5.3748 1.5968
-5.2439 -5.5695 1.5968
-5.0422 -5.7570 1.5968
-4.8338 -5.9371 1.5968
-4.7572 -6.2925 1.6446
-4.6821 -6.6798 1.7000
-4.4403 -6.8463 1.7000
-4.1926 -7.0040 1.7000
-3.9391 -7.1525 1.7000
-3.6803 -7.2918 1.7000
-3.4166 -7.4215 1.7000
-3.1482 -7.5415 1.7000
-2.8755 -7.6517 1.7000
-2.5990 -7.7518 1.7000
-2.3189 -7.8418 1.7000
-2.0356 -7.9215 1.7000
-1.7496 -7.9908 1.7000
-1.4612 -8.0496 1.7000
-1.1708 -8.0978 1.7000
-0.8789 -8.1353 1.7000
-0.5857 -8.1621 1.7000
-0.2917 -8.1782 1.7000
0.0027 -8.1835 1.7000
0.2970 -8.1781 1.7000
0.5910 -8.1618 1.7000
0.8842 -8.1349 1.7000
1.1761 -8.0972 1.7000
1.4665 -8.0488 1.7000
1.7549 -7.9899 1.7000
2.0409 -7.9205 1.7000
2.3241 -7.8406 1.7000
2.6041 -7.7505 1.7000
2.8807 -7.6502 1.7000
3.1533 -7.5399 1.7000
3.2986 -7.1530 1.6389
3.4618 -6.8478 1.5970
3.7049 -6.7169 1.5970
3.9429 -6.5772 1.5970
4.1756 -6.4290 1.5970
4.4026 -6.2724 1.5970
4.6237 -6.1077 1.5970
4.8386 -5.9351 1.5970
5.0470 -5.7549 1.5970
5.2485 -5.5672 1.5970
5.4431 -5.3724 1.5970
5.6303 -5.1708 1.5970
5.8100 -4.9625 1.5970
5.9819 -4.7480 1.5970
6.1458 -4.5274 1.5970
6.3015 -4.3011 1.5970
6.4488 -4.0695 1.5970
6.5876 -3.8328 1.5970
6.7176 -3.5912 1.5970
6.8387 -3.3453 1.5970
6.9507 -3.0953 1.5970
7.0535 -2.8415 1.5970
7.1470 -2.5844 1.5970
7.2312 -2.3241 1.5970
7.5258 -2.1232 1.6450
7.5927 -1.8498 1.6450
7.6497 -1.5744 1.6450
7.4704 -1.2591 1.5967
7.7337 -1.0187 1.6450
7.1262 -0.6788 1.5106
7.1591 -0.4227 1.5143
7.2023 -0.1654 1.5221
7.2458 0.0945 1.5320
7.3912 0.3628 1.5654
7.4367 0.6341 1.5799
7.4830 0.9104 1.5966
7.5304 1.1926 1.6158
7.5788 1.4818 1.6376
3.7345 0.8709 0.8137
7.4773 2.0301 1.6450
7.1787 2.2295 1.5970
7.0897 2.4850 1.5970
6.9915 2.7371 1.5970
6.8845 2.9854 1.5970
6.7687 3.2295 1.5970
6.6444 3.4693 1.5970
6.5116 3.7043 1.5970
6.3706 3.9343 1.5970
-6.6485 1.2949 1.5968
-6.6945 1.0553 1.5968
-6.7319 0.8140 1.5968
-6.7606 0.5715 1.5968
-6.7806 0.3279 1.5968
-6.7918 0.0837 1.5968
-6.7943 -0.1610 1.5968
-6.7879 -0.4057 1.5968
-6.7727 -0.6501 1.5968
-6.7487 -0.8940 1.5968
-6.7159 -1.1369 1.5968
-6.6743 -1.3787 1.5968
-6.6241 -1.6189 1.5968
-6.5651 -1.8573 1.5968
-6.4975 -2.0935 1.5968
-6.4214 -2.3272 1.5968
-6.3369 -2.5582 1.5968
-6.2440 -2.7860 1.5968
-6.1428 -3.0104 1.5968
-6.0336 -3.2312 1.5968
-5.9163 -3.4479 1.5968
-5.7913 -3.6603 1.5968
-5.6585 -3.8682 1.5968
-5.5182 -4.0712 1.5968
-5.3706 -4.2690 1.5968
-5.2158 -4.4614 1.5968
-5.0541 -4.6482 1.5968
-4.8856 -4.8290 1.5968
-4.7742 -5.0712 1.6184
-4.7638 -5.4397 1.6795
-4.6226 -5.6783 1.7000
-4.4169 -5.8430 1.7000
-4.2053 -6.0002 1.7000
-3.9880 -6.1495 1.7000
-3.7654 -6.2909 1.7000
-3.5376 -6.4241 1.7000
-3.3051 -6.5490 1.7000
-3.0682 -6.6653 1.7000
-2.8271 -6.7729 1.7000
-2.5822 -6.8717 1.7000
-2.3338 -6.9615 1.7000
-2.0822 -7.0422 1.7000
-1.8279 -7.1136 1.7000
-1.5710 -7.1757 1.7000
-1.3121 -7.2284 1.7000
-1.0513 -7.2716 1.7000
-0.7891 -7.3053 1.7000
-0.5259 -7.3293 1.7000
-0.2619 -7.3437 1.7000
0.0024 -7.3485 1.7000
0.2667 -7.3436 1.7000
0.5307 -7.3290 1.7000
0.7939 -7.3049 1.7000
1.0561 -7.2711 1.7000
1.3168 -7.2277 1.7000
1.5757 -7.1749 1.7000
1.8326 -7.1127 1.7000
2.0869 -7.0411 1.7000
2.3384 -6.9603 1.7000
2.5868 -6.8704 1.7000
2.8316 -6.7715 1.7000
3.0727 -6.6637 1.7000
3.2914 -6.5112 1.6907
3.3272 -6.0328 1.5970
3.5411 -5.9076 1.5970
3.7502 -5.7746 1.5970
3.9543 -5.6342 1.5970
4.1530 -5.4865 1.5970
4.3461 -5.3316 1.5970
4.5335 -5.1699 1.5970
4.7147 -5.0016 1.5970
4.8364 -4.7742 1.5795
5.0036 -4.5958 1.5797
5.1635 -4.4109 1.5797
5.3165 -4.2204 1.5797
5.5220 -4.0684 1.5970
5.6622 -3.8653 1.5970
5.7949 -3.6574 1.5970
5.9199 -3.4448 1.5970
6.0370 -3.2280 1.5970
6.1461 -3.0071 1.5970
6.2472 -2.7826 1.5970
6.3399 -2.5546 1.5970
6.4244 -2.3236 1.5970
6.5004 -2.0898 1.5970
6.5678 -1.8535 1.5970
6.6266 -1.6150 1.5970
6.6768 -1.3747 1.5970
6.7182 -1.1329 1.5970
6.7509 -0.8898 1.5970
6.7747 -0.6459 1.5970
6.7897 -0.4014 1.5970
6.7960 -0.1567 1.5970
6.7934 0.0880 1.5970
6.7820 0.3324 1.5970
6.7618 0.5760 1.5970
6.7329 0.8186 1.5970
6.6953 1.0598 1.5970
3.8621 0.7548 0.9276
3.7342 0.8705 0.9043
6.5312 1.7727 1.5970
6.4597 2.0056 1.5970
6.3799 2.2357 1.5970
6.2919 2.4627 1.5970
6.1960 2.6862 1.5970
6.0921 2.9061 1.5970
5.9805 3.1221 1.5970
5.8613 3.3337 1.5970
5.7346 3.5410 1.5970
-6.0365 1.1752 1.5968
-6.0780 0.9576 1.5968
-6.1116 0.7385 1.5968
-6.1374 0.5183 1.5968
-6.1553 0.2972 1.5968
-6.1652 0.0754 1.5968
-6.1671 -0.1466 1.5968
-6.1610 -0.3687 1.5968
-6.1469 -0.5906 1.5968
-6.1248 -0.8118 1.5968
-6.0948 -1.0323 1.5968
-6.0567 -1.2516 1.5968
-6.0108 -1.4696 1.5968
-5.9570 -1.6858 1.5968
-5.8954 -1.9000 1.5968
-5.8261 -2.1120 1.5968
-5.7491 -2.3214 1.5968
-5.6646 -2.5280 1.5968
-5.5726 -2.7315 1.5968
-5.4732 -2.9316 1.5968
-5.3666 -3.1281 1.5968
-5.2530 -3.3206 1.5968
-5.1323 -3.5090 1.5968
-5.0049 -3.6930 1.5968
-4.8708 -3.8722 1.5968
-4.7834 -4.0921 1.6147
-4.7727 -4.3899 1.6627
-4.7169 -4.6628 1.7000
-4.5478 -4.8313 1.7000
-4.3726 -4.9935 1.7000
-4.1915 -5.1493 1.7000
-4.0049 -5.2985 1.7000
-3.8129 -5.4408 1.7000
-3.6158 -5.5761 1.7000
-3.4138 -5.7041 1.7000
-3.2073 -5.8248 1.7000
-2.9964 -5.9378 1.7000
-2.7815 -6.0431 1.7000
-2.5629 -6.1406 1.7000
-2.3408 -6.2300 1.7000
-2.1156 -6.3113 1.7000
-1.8876 -6.3843 1.7000
-1.6570 -6.4490 1.7000
-1.4241 -6.5052 1.7000
-1.1893 -6.5529 1.7000
-0.9530 -6.5920 1.7000
-0.7153 -6.6225 1.7000
-0.4767 -6.6443 1.7000
-0.2374 -6.6573 1.7000
0.0022 -6.6616 1.7000
0.2418 -6.6572 1.7000
0.4810 -6.6440 1.7000
0.7196 -6.6221 1.7000
0.9573 -6.5915 1.7000
1.1936 -6.5523 1.7000
1.4284 -6.5045 1.7000
1.6612 -6.4481 1.7000
1.8918 -6.3833 1.7000
2.1198 -6.3102 1.7000
2.3450 -6.2288 1.7000
2.5670 -6.1392 1.7000
2.7856 -6.0416 1.7000
3.0004 -5.9362 1.7000
3.2112 -5.8230 1.7000
3.2856 -5.4819 1.6343
3.4001 -5.2361 1.5970
3.5852 -5.1089 1.5970
3.7655 -4.9751 1.5970
3.9408 -4.8349 1.5970
4.1108 -4.6884 1.5970
4.2753 -4.5359 1.5970
4.4341 -4.3776 1.5970
4.5870 -4.2137 1.5970
4.7338 -4.0443 1.5970
4.8743 -3.8698 1.5970
5.0083 -3.6905 1.5970
5.1356 -3.5064 1.5970
5.2562 -3.3179 1.5970
5.3698 -3.1252 1.5970
5.4763 -2.9287 1.5970
5.5755 -2.7285 1.5970
5.6674 -2.5249 1.5970
5.7519 -2.3182 1.5970
5.8287 -2.1087 1.5970
5.8979 -1.8966 1.5970
5.9594 -1.6823 1.5970
6.0131 -1.4660 1.5970
6.0589 -1.2480 1.5970
6.0968 -1.0286 1.5970
6.1267 -0.8081 1.5970
6.1487 -0.5867 1.5970
6.1626 -0.3648 1.5970
6.1686 -0.1427 1.5970
6.1665 0.0794 1.5970
6.1565 0.3012 1.5970
6.1385 0.5224 1.5970
6.1125 0.7426 1.5970
6.0787 0.9617 1.5970
3.8436 0.7508 1.0167
3.6689 0.8549 0.9785
3.6674 0.9950 0.9875
5.8659 1.8207 1.5970
5.7937 2.0298 1.5970
5.7141 2.2360 1.5970
5.6272 2.4391 1.5970
5.5331 2.6389 1.5970
5.4320 2.8352 1.5970
5.3239 3.0276 1.5970
5.2091 3.2160 1.5970
-5.5223 1.0746 1.5968
-5.5600 0.8755 1.5968
-5.5905 0.6751 1.5968
-5.6139 0.4736 1.5968
-5.6300 0.2713 1.5968
-5.6388 0.0685 1.5968
-5.6403 -0.1346 1.5968
-5.6345 -0.3377 1.5968
-5.6214 -0.5406 1.5968
-5.6010 -0.7429 1.5968
-5.5733 -0.9444 1.5968
-5.5383 -1.1450 1.5968
-5.4960 -1.3442 1.5968
-5.4466 -1.5418 1.5968
-5.3901 -1.7376 1.5968
-5.3265 -1.9314 1.5968
-5.2559 -2.1227 1.5968
-5.1784 -2.3115 1.5968
-5.0941 -2.4974 1.5968
-5.0031 -2.6803 1.5968
-4.9055 -2.8598 1.5968
-4.8014 -3.0357 1.5968
-4.7865 -3.2731 1.6293
-4.7799 -3.5275 1.6685
-4.7395 -3.7684 1.7000
-4.6026 -3.9379 1.7000
-4.4596 -4.1024 1.7000
-4.3106 -4.2617 1.7000
-4.1559 -4.4155 1.7000
-3.9957 -4.5636 1.7000
-3.8302 -4.7059 1.7000
-3.6595 -4.8421 1.7000
-3.4840 -4.9720 1.7000
-3.3038 -5.0955 1.7000
-3.1192 -5.2123 1.7000
-2.9304 -5.3225 1.7000
-2.7377 -5.4256 1.7000
-2.5413 -5.5218 1.7000
-2.3415 -5.6107 1.7000
-2.1386 -5.6923 1.7000
-1.9328 -5.7665 1.7000
-1.7244 -5.8331 1.7000
-1.5137 -5.8922 1.7000
-1.3010 -5.9434 1.7000
-1.0865 -5.9870 1.7000
-0.8706 -6.0227 1.7000
-0.6535 -6.0505 1.7000
-0.4355 -6.0703 1.7000
-0.2169 -6.0822 1.7000
0.0020 -6.0862 1.7000
0.2209 -6.0821 1.7000
0.4394 -6.0701 1.7000
0.6574 -6.0501 1.7000
0.8745 -6.0222 1.7000
1.0904 -5.9864 1.7000
1.3049 -5.9428 1.7000
1.5176 -5.8913 1.7000
1.7283 -5.8322 1.7000
1.9367 -5.7654 1.7000
2.1424 -5.6911 1.7000
2.3453 -5.6094 1.7000
2.5450 -5.5204 1.7000
2.7414 -5.4241 1.7000
2.9340 -5.3208 1.7000
3.1227 -5.2106 1.7000
3.2791 -5.0502 1.6855
3.2864 -4.6835 1.6020
3.4408 -4.5465 1.5970
3.6010 -4.4185 1.5970
3.7565 -4.2848 1.5970
3.9069 -4.1455 1.5970
4.0521 -4.0010 1.5970
4.1920 -3.8513 1.5970
4.3263 -3.6966 1.5970
4.4548 -3.5373 1.5970
4.5774 -3.3734 1.5970
4.6940 -3.2053 1.5970
4.8043 -3.0332 1.5970
4.9083 -2.8572 1.5970
5.0059 -2.6776 1.5970
5.0968 -2.4946 1.5970
5.1810 -2.3086 1.5970
5.2584 -2.1198 1.5970
5.3289 -1.9283 1.5970
5.3924 -1.7345 1.5970
5.4488 -1.5386 1.5970
5.4981 -1.3409 1.5970
5.5402 -1.1416 1.5970
5.5750 -0.9411 1.5970
5.6026 -0.7394 1.5970
5.6230 -0.5370 1.5970
5.6359 -0.3341 1.5970
5.6416 -0.1310 1.5970
5.6400 0.0722 1.5970
5.6310 0.2750 1.5970
5.6148 0.4773 1.5970
5.5913 0.6788 1.5970
5.5606 0.8793 1.5970
3.8250 0.7469 1.1060
3.6651 0.8537 1.0685
3.6635 0.9937 1.0783
5.3668 1.6653 1.5970
5.3009 1.8567 1.5970
5.2283 2.0454 1.5970
5.1490 2.2314 1.5970
5.0631 2.4143 1.5970
4.9707 2.5940 1.5970
4.8720 2.7701 1.5970
4.7671 2.9426 1.5970
-5.0836 0.9888 1.5968
-5.1182 0.8055 1.5968
-5.1461 0.6210 1.5968
-5.1674 0.4355 1.5968
-5.1821 0.2493 1.5968
-5.1900 0.0626 1.5968
-5.1912 -0.1243 1.5968
-5.1857 -0.3112 1.5968
-5.1734 -0.4979 1.5968
-5.1545 -0.6841 1.5968
-5.1288 -0.8696 1.5968
-5.0964 -1.0540 1.5968
-5.0574 -1.2373 1.5968
-5.0117 -1.4191 1.5968
-4.9595 -1.5993 1.5968
-4.9009 -1.7775 1.5968
-4.8358 -1.9535 1.5968
-4.8012 -2.1436 1.6092
-4.7933 -2.3504 1.6331
-4.7880 -2.5655 1.6611
-4.7861 -2.7906 1.6935
-4.7025 -2.9736 1.7000
-4.5942 -3.1420 1.7000
-4.4798 -3.3065 1.7000
-4.3595 -3.4667 1.7000
-4.2335 -3.6226 1.7000
-4.1018 -3.7738 1.7000
-3.9647 -3.9202 1.7000
-3.8223 -4.0616 1.7000
-3.6749 -4.1977 1.7000
-3.5225 -4.3284 1.7000
-3.3655 -4.4536 1.7000
-3.2040 -4.5730 1.7000
-3.0383 -4.6864 1.7000
-2.8684 -4.7938 1.7000
-2.6948 -4.8950 1.7000
-2.5175 -4.9898 1.7000
-2.3369 -5.0781 1.7000
-2.1532 -5.1598 1.7000
-1.9665 -5.2348 1.7000
-1.7773 -5.3029 1.7000
-1.5857 -5.3641 1.7000
-1.3919 -5.4184 1.7000
-1.1963 -5.4655 1.7000
-0.9991 -5.5055 1.7000
-0.8005 -5.5383 1.7000
-0.6009 -5.5638 1.7000
-0.4004 -5.5820 1.7000
-0.1994 -5.5930 1.7000
0.0018 -5.5966 1.7000
0.2031 -5.5928 1.7000
0.4041 -5.5818 1.7000
0.6045 -5.5635 1.7000
0.8041 -5.5378 1.7000
1.0027 -5.5049 1.7000
1.1999 -5.4648 1.7000
1.3955 -5.4176 1.7000
1.5892 -5.3633 1.7000
1.7808 -5.3020 1.7000
1.9700 -5.2337 1.7000
2.1566 -5.1586 1.7000
2.3403 -5.0768 1.7000
2.5209 -4.9884 1.7000
2.6981 -4.8935 1.7000
2.8717 -4.7922 1.7000
3.0415 -4.6847 1.7000
3.2072 -4.5712 1.7000
3.2730 -4.3253 1.6518
3.3118 -4.0641 1.5970
3.4620 -3.9494 1.6003
3.5933 -3.8132 1.5970
3.7270 -3.6803 1.5970
3.8557 -3.5428 1.5970
3.9793 -3.4006 1.5970
4.0976 -3.2541 1.5970
4.2105 -3.1035 1.5970
4.3179 -2.9490 1.5970
4.4195 -2.7907 1.5970
4.5153 -2.6288 1.5970
4.6052 -2.4637 1.5970
4.6890 -2.2955 1.5970
4.7666 -2.1244 1.5970
4.8380 -1.9508 1.5970
4.9030 -1.7747 1.5970
4.9616 -1.5964 1.5970
5.0137 -1.4162 1.5970
5.0592 -1.2343 1.5970
5.0981 -1.0510 1.5970
5.1304 -0.8664 1.5970
5.1560 -0.6809 1.5970
5.1748 -0.4947 1.5970
5.1870 -0.3080 1.5970
5.1924 -0.1210 1.5970
5.1910 0.0660 1.5970
5.1830 0.2527 1.5970
5.1682 0.4389 1.5970
5.1468 0.6244 1.5970
5.1187 0.8090 1.5970
3.8064 0.7429 1.1956
3.6613 0.8525 1.1594
3.6596 0.9923 1.1700
4.9410 1.5327 1.5970
4.8805 1.7090 1.5970
4.8138 1.8828 1.5970
4.7409 2.0541 1.5970
4.6619 2.2226 1.5970
4.5770 2.3881 1.5970
4.4863 2.5504 1.5970
4.3899 2.7093 1.5970
-4.8202 0.9372 1.6360
-4.8214 0.7584 1.6254
-4.8221 0.5815 1.6169
-4.8223 0.4060 1.6103
-4.8220 0.2316 1.6057
-4.8212 0.0578 1.6030
-4.8200 -0.1159 1.6023
-4.8182 -0.2896 1.6035
-4.8160 -0.4639 1.6066
-4.8132 -0.6392 1.6116
-4.8099 -0.8159 1.6186
-4.8061 -0.9944 1.6277
-4.8017 -1.1752 1.6388
-4.7981 -1.3591 1.6525
-4.7966 -1.5472 1.6694
-4.7949 -1.7395 1.6889
-4.7624 -1.9243 1.7000
-4.6919 -2.0952 1.7000
-4.6153 -2.2636 1.7000
-4.5325 -2.4291 1.7000
-4.4438 -2.5915 1.7000
-4.3493 -2.7507 1.7000
-4.2490 -2.9064 1.7000
-4.1431 -3.0584 1.7000
-4.0318 -3.2066 1.7000
-3.9151 -3.3506 1.7000
-3.7933 -3.4904 1.7000
-3.6664 -3.6257 1.7000
-3.5347 -3.7563 1.7000
-3.3982 -3.8821 1.7000
-3.2573 -4.0030 1.7000
-3.1120 -4.1186 1.7000
-2.9627 -4.2289 1.7000
-2.8093 -4.3337 1.7000
-2.6522 -4.4330 1.7000
-2.4916 -4.5264 1.7000
-2.3277 -4.6140 1.7000
-2.1607 -4.6956 1.7000
-1.9908 -4.7711 1.7000
-1.8182 -4.8404 1.7000
-1.6432 -4.9033 1.7000
-1.4660 -4.9599 1.7000
-1.2869 -5.0100 1.7000
-1.1060 -5.0535 1.7000
-0.9237 -5.0904 1.7000
-0.7401 -5.1207 1.7000
-0.5555 -5.1443 1.7000
-0.3702 -5.1611 1.7000
-0.1844 -5.1712 1.7000
0.0017 -5.1746 1.7000
0.1877 -5.1711 1.7000
0.3736 -5.1609 1.7000
0.5589 -5.1440 1.7000
0.7434 -5.1203 1.7000
0.9270 -5.0899 1.7000
1.1093 -5.0529 1.7000
1.2902 -5.0093 1.7000
1.4693 -4.9591 1.7000
1.6465 -4.9024 1.7000
1.8214 -4.8394 1.7000
1.9940 -4.7700 1.7000
2.1638 -4.6944 1.7000
2.3308 -4.6127 1.7000
2.4947 -4.5250 1.7000
2.6553 -4.4315 1.7000
2.8123 -4.3321 1.7000
2.9656 -4.2272 1.7000
3.1149 -4.1168 1.7000
3.2601 -4.0011 1.7000
3.2708 -3.7316 1.6350
3.3228 -3.5266 1.5970
3.4571 -3.4143 1.6019
3.5656 -3.2767 1.5970
3.6800 -3.1453 1.5970
3.7896 -3.0099 1.5970
3.8941 -2.8707 1.5970
3.9935 -2.7278 1.5970
4.0876 -2.5815 1.5970
4.1763 -2.4319 1.5970
4.2595 -2.2792 1.5970
4.3371 -2.1237 1.5970
4.4091 -1.9655 1.5970
4.4752 -1.8049 1.5970
4.5355 -1.6421 1.5970
4.5898 -1.4772 1.5970
4.6381 -1.3105 1.5970
4.6804 -1.1423 1.5970
4.7165 -0.9727 1.5970
4.7465 -0.8020 1.5970
4.7703 -0.6304 1.5970
4.7879 -0.4581 1.5970
4.7993 -0.2854 1.5970
4.8044 -0.1124 1.5970
4.8034 0.0606 1.5970
4.7961 0.2334 1.5970
4.7825 0.4057 1.5970
4.7628 0.5774 1.5970
4.7370 0.7482 1.5970
3.7877 0.7390 1.2856
3.6574 0.8513 1.2515
3.6557 0.9909 1.2628
4.5731 1.4182 1.5970
4.5172 1.5813 1.5970
4.4556 1.7423 1.5970
4.3883 1.9009 1.5970
4.3153 2.0569 1.5970
4.2368 2.2102 1.5970
4.1530 2.3605 1.5970
4.0638 2.5076 1.5970
-4.6566 0.9049 1.7000
-4.6880 0.7370 1.7000
-4.7133 0.5679 1.7000
-4.7326 0.3980 1.7000
-4.7457 0.2275 1.7000
-4.7527 0.0565 1.7000
-4.7535 -0.1147 1.7000
-4.7482 -0.2858 1.7000
-4.7367 -0.4567 1.7000
-4.7191 -0.6271 1.7000
-4.6953 -0.7969 1.7000
-4.6654 -0.9658 1.7000
-4.6294 -1.1335 1.7000
-4.5874 -1.2998 1.7000
-4.5394 -1.4646 1.7000
-4.4854 -1.6276 1.7000
-4.4256 -1.7886 1.7000
-4.3600 -1.9474 1.7000
-4.2886 -2.1038 1.7000
-4.2116 -2.2575 1.7000
-4.1291 -2.4084 1.7000
-4.0412 -2.5563 1.7000
-3.9479 -2.7009 1.7000
-3.8495 -2.8421 1.7000
-3.7459 -2.9796 1.7000
-3.6375 -3.1134 1.7000
-3.5242 -3.2432 1.7000
-3.4062 -3.3688 1.7000
-3.2838 -3.4901 1.7000
-3.1570 -3.6070 1.7000
-3.0260 -3.7191 1.7000
-2.8910 -3.8265 1.7000
-2.7522 -3.9289 1.7000
-2.6097 -4.0262 1.7000
-2.4638 -4.1184 1.7000
-2.3145 -4.2051 1.7000
-2.1622 -4.2865 1.7000
-2.0071 -4.3622 1.7000
-1.8492 -4.4322 1.7000
-1.6889 -4.4965 1.7000
-1.5263 -4.5550 1.7000
-1.3617 -4.6075 1.7000
-1.1953 -4.6540 1.7000
-1.0273 -4.6944 1.7000
-0.8579 -4.7286 1.7000
-0.6874 -4.7567 1.7000
-0.5160 -4.7786 1.7000
-0.3438 -4.7943 1.7000
-0.1712 -4.8037 1.7000
0.0016 -4.8068 1.7000
0.1744 -4.8035 1.7000
0.3470 -4.7941 1.7000
0.5191 -4.7783 1.7000
0.6905 -4.7564 1.7000
0.8610 -4.7282 1.7000
1.0304 -4.6938 1.7000
1.1984 -4.6533 1.7000
1.3648 -4.6067 1.7000
1.5293 -4.5541 1.7000
1.6919 -4.4956 1.7000
1.8522 -4.4312 1.7000
2.0100 -4.3611 1.7000
2.1651 -4.2852 1.7000
2.3174 -4.2038 1.7000
2.4666 -4.1170 1.7000
2.6125 -4.0247 1.7000
2.7549 -3.9273 1.7000
2.8937 -3.8248 1.7000
3.0286 -3.7174 1.7000
3.1595 -3.6051 1.7000
3.2658 -3.4665 1.6894
3.2678 -3.2277 1.6298
3.3127 -3.0446 1.5970
3.4190 -2.9226 1.5970
3.5209 -2.7969 1.5970
3.6181 -2.6676 1.5970
3.7105 -2.5349 1.5970
3.7980 -2.3990 1.5970
3.8805 -2.2600 1.5970
3.9579 -2.1182 1.5970
4.0302 -1.9738 1.5970
4.0971 -1.8268 1.5970
4.1587 -1.6776 1.5970
4.2148 -1.5263 1.5970
4.2654 -1.3732 1.5970
4.3104 -1.2183 1.5970
4.3498 -1.0620 1.5970
4.3835 -0.9044 1.5970
4.4115 -0.7458 1.5970
4.4337 -0.5863 1.5970
4.4502 -0.4262 1.5970
4.4609 -0.2656 1.5970
4.4658 -0.1048 1.5970
4.4649 0.0560 1.5970
4.4582 0.2166 1.5970
4.4458 0.3768 1.5970
4.4276 0.5364 1.5970
4.4037 0.6952 1.5970
3.7690 0.7349 1.3760
3.6534 0.8500 1.3447
3.6517 0.9895 1.3568
4.2517 1.3181 1.5970
4.1999 1.4698 1.5970
4.1427 1.6195 1.5970
4.0802 1.7671 1.5970
4.0125 1.9122 1.5970
3.9396 2.0547 1.5970
3.8617 2.1945 1.5970
3.7788 2.3314 1.5970
-4.3459 0.8442 1.7000
-4.3751 0.6874 1.7000
-4.3987 0.5296 1.7000
-4.4165 0.3711 1.7000
-4.4287 0.2119 1.7000
-4.4351 0.0523 1.7000
-4.4358 -0.1074 1.7000
-4.4307 -0.2671 1.7000
-4.4199 -0.4266 1.7000
-4.4033 -0.5856 1.7000
-4.3810 -0.7440 1.7000
-4.3530 -0.9015 1.7000
-4.3194 -1.0579 1.7000
-4.2800 -1.2131 1.7000
-4.2351 -1.3669 1.7000
-4.1847 -1.5189 1.7000
-4.1288 -1.6691 1.7000
-4.0675 -1.8172 1.7000
-4.0009 -1.9630 1.7000
-3.9290 -2.1064 1.7000
-3.8519 -2.2471 1.7000
-3.7698 -2.3850 1.7000
-3.6827 -2.5199 1.7000
-3.5908 -2.6515 1.7000
-3.4942 -2.7798 1.7000
-3.3929 -2.9045 1.7000
-3.2872 -3.0255 1.7000
-3.1771 -3.1427 1.7000
-3.0629 -3.2557 1.7000
-2.9446 -3.3646 1.7000
-2.8223 -3.4692 1.7000
-2.6964 -3.5693 1.7000
-2.5669 -3.6648 1.7000
-2.4340 -3.7555 1.7000
-2.2978 -3.8414 1.7000
-2.1586 -3.9222 1.7000
-2.0165 -3.9980 1.7000
-1.8718 -4.0686 1.7000
-1.7246 -4.1339 1.7000
-1.5751 -4.1939 1.7000
-1.4234 -4.2483 1.7000
-1.2699 -4.2973 1.7000
-1.1147 -4.3406 1.7000
-0.9580 -4.3782 1.7000
-0.8001 -4.4102 1.7000
-0.6410 -4.4364 1.7000
-0.4812 -4.4568 1.7000
-0.3206 -4.4713 1.7000
-0.1597 -4.4801 1.7000
0.0015 -4.4830 1.7000
0.1626 -4.4800 1.7000
0.3236 -4.4711 1.7000
0.4841 -4.4565 1.7000
0.6440 -4.4360 1.7000
0.8030 -4.4097 1.7000
0.9609 -4.3777 1.7000
1.1176 -4.3399 1.7000
1.2728 -4.2965 1.7000
1.4263 -4.2475 1.7000
1.5778 -4.1930 1.7000
1.7273 -4.1330 1.7000
1.8745 -4.0676 1.7000
2.0192 -3.9969 1.7000
2.1613 -3.9210 1.7000
2.3004 -3.8400 1.7000
2.4365 -3.7541 1.7000
2.5694 -3.6633 1.7000
2.6989 -3.5677 1.7000
2.8248 -3.4676 1.7000
2.9469 -3.3629 1.7000
3.0652 -3.2539 1.7000
3.1794 -3.1408 1.7000
3.2618 -2.9983 1.6858
3.2631 -2.7897 1.6340
3.2842 -2.6093 1.5970
3.3749 -2.4887 1.5970
3.4612 -2.3650 1.5970
3.5429 -2.2382 1.5970
3.6200 -2.1087 1.5970
3.6923 -1.9764 1.5970
3.7597 -1.8417 1.5970
3.8223 -1.7047 1.5970
3.8798 -1.5655 1.5970
3.9322 -1.4244 1.5970
3.9795 -1.2815 1.5970
4.0216 -1.1371 1.5970
4.0584 -0.9913 1.5970
4.0900 -0.8443 1.5970
4.1162 -0.6963 1.5970
4.1370 -0.5475 1.5970
4.1525 -0.3981 1.5970
4.1626 -0.2482 1.5970
4.1673 -0.0982 1.5970
4.1665 0.0518 1.5970
4.1604 0.2017 1.5970
4.1489 0.3513 1.5970
4.1320 0.5002 1.5970
4.1098 0.6484 1.5970
3.7501 0.7309 1.4670
3.6494 0.8488 1.4392
3.6477 0.9881 1.4521
3.9683 1.2299 1.5970
3.9200 1.3715 1.5970
3.8667 1.5113 1.5970
3.8085 1.6490 1.5970
3.7453 1.7845 1.5970
3.6774 1.9176 1.5970
3.6047 2.0481 1.5970
3.5275 2.1760 1.5970
-4.0697 0.7901 1.7000
-4.0970 0.6433 1.7000
-4.1189 0.4956 1.7000
-4.1356 0.3471 1.7000
-4.1469 0.1980 1.7000
-4.1528 0.0486 1.7000
-4.1533 -0.1009 1.7000
-4.1485 -0.2505 1.7000
-4.1383 -0.3998 1.7000
-4.1227 -0.5486 1.7000
-4.1017 -0.6969 1.7000
-4.0754 -0.8444 1.7000
-4.0438 -0.9908 1.7000
-4.0069 -1.1361 1.7000
-3.9648 -1.2800 1.7000
-3.9175 -1.4223 1.7000
-3.8651 -1.5629 1.7000
-3.8076 -1.7015 1.7000
-3.7452 -1.8380 1.7000
-3.6778 -1.9721 1.7000
-3.6056 -2.1038 1.7000
-3.5287 -2.2328 1.7000
-3.4471 -2.3590 1.7000
-3.3611 -2.4822 1.7000
-3.2705 -2.6023 1.7000
-3.1757 -2.7190 1.7000
-3.0767 -2.8322 1.7000
-2.9736 -2.9418 1.7000
-2.8667 -3.0476 1.7000
-2.7559 -3.1494 1.7000
-2.6415 -3.2473 1.7000
-2.5236 -3.3409 1.7000
-2.4023 -3.4302 1.7000
-2.2779 -3.5151 1.7000
-2.1504 -3.5954 1.7000
-2.0201 -3.6710 1.7000
-1.8872 -3.7419 1.7000
-1.7517 -3.8080 1.7000
-1.6139 -3.8690 1.7000
-1.4740 -3.9251 1.7000
-1.3321 -3.9760 1.7000
-1.1884 -4.0218 1.7000
-1.0432 -4.0623 1.7000
-0.8965 -4.0975 1.7000
-0.7487 -4.1274 1.7000
-0.5999 -4.1519 1.7000
-0.4503 -4.1710 1.7000
-0.3001 -4.1846 1.7000
-0.1494 -4.1928 1.7000
0.0014 -4.1955 1.7000
0.1522 -4.1927 1.7000
0.3028 -4.1844 1.7000
0.4530 -4.1707 1.7000
0.6026 -4.1516 1.7000
0.7514 -4.1270 1.7000
0.8992 -4.0970 1.7000
1.0458 -4.0617 1.7000
1.1911 -4.0211 1.7000
1.3347 -3.9753 1.7000
1.4766 -3.9242 1.7000
1.6165 -3.8681 1.7000
1.7543 -3.8070 1.7000
1.8897 -3.7408 1.7000
2.0226 -3.6699 1.7000
2.1529 -3.5941 1.7000
2.2803 -3.5137 1.7000
2.4047 -3.4288 1.7000
2.5259 -3.3394 1.7000
2.6437 -3.2457 1.7000
2.7581 -3.1478 1.7000
2.8688 -3.0459 1.7000
2.9757 -2.9400 1.7000
3.0787 -2.8303 1.7000
3.1777 -2.7171 1.7000
3.2584 -2.5891 1.6927
3.2569 -2.4021 1.6465
3.2642 -2.2307 1.6090
3.3163 -2.0954 1.5970
3.3885 -1.9742 1.5970
3.4563 -1.8504 1.5970
3.5195 -1.7243 1.5970
3.5781 -1.5961 1.5970
3.6320 -1.4659 1.5970
3.6811 -1.3338 1.5970
3.7255 -1.2001 1.5970
3.7649 -1.0649 1.5970
3.7995 -0.9284 1.5970
3.8291 -0.7908 1.5970
3.8537 -0.6522 1.5970
3.8733 -0.5129 1.5970
3.8879 -0.3731 1.5970
3.8974 -0.2328 1.5970
3.9019 -0.0923 1.5970
3.9013 0.0482 1.5970
3.8956 0.1885 1.5970
3.8849 0.3285 1.5970
3.8692 0.4680 1.5970
3.8485 0.6068 1.5970
3.7311 0.7269 1.5586
3.6453 0.8475 1.5351
3.6436 0.9866 1.5489
3.7163 1.1515 1.5970
3.6712 1.2841 1.5970
3.6213 1.4150 1.5970
3.5668 1.5440 1.5970
3.5078 1.6710 1.5970
3.4442 1.7956 1.5970
3.3762 1.9179 1.5970
3.3039 2.0377 1.5970
-3.8223 0.7417 1.7000
-3.8478 0.6038 1.7000
-3.8683 0.4650 1.7000
-3.8839 0.3256 1.7000
-3.8944 0.1856 1.7000
-3.8999 0.0453 1.7000
-3.9004 -0.0952 1.7000
-3.8957 -0.2356 1.7000
-3.8861 -0.3758 1.7000
-3.8713 -0.5156 1.7000
-3.8516 -0.6548 1.7000
-3.8268 -0.7932 1.7000
-3.7971 -0.9307 1.7000
-3.7624 -1.0671 1.7000
-3.7228 -1.2022 1.7000
-3.6783 -1.3358 1.7000
-3.6290 -1.4678 1.7000
-3.5750 -1.5979 1.7000
-3.5163 -1.7260 1.7000
-3.4530 -1.8519 1.7000
-3.3852 -1.9755 1.7000
-3.3129 -2.0966 1.7000
-3.2363 -2.2151 1.7000
-3.1554 -2.3307 1.7000
-3.0704 -2.4433 1.7000
-2.9813 -2.5529 1.7000
-2.8883 -2.6591 1.7000
-2.7915 -2.7619 1.7000
-2.6911 -2.8612 1.7000
-2.5870 -2.9568 1.7000
-2.4796 -3.0486 1.7000
-2.3689 -3.1365 1.7000
-2.2550 -3.2203 1.7000
-2.1382 -3.2999 1.7000
-2.0186 -3.3753 1.7000
-1.8962 -3.4463 1.7000
-1.7714 -3.5128 1.7000
-1.6442 -3.5747 1.7000
-1.5149 -3.6320 1.7000
-1.3835 -3.6846 1.7000
-1.2503 -3.7324 1.7000
-1.1155 -3.7753 1.7000
-0.9791 -3.8133 1.7000
-0.8415 -3.8464 1.7000
-0.7027 -3.8744 1.7000
-0.5631 -3.8974 1.7000
-0.4226 -3.9153 1.7000
-0.2816 -3.9281 1.7000
-0.1403 -3.9357 1.7000
0.0013 -3.9383 1.7000
0.1428 -3.9357 1.7000
0.2842 -3.9279 1.7000
0.4252 -3.9150 1.7000
0.5656 -3.8971 1.7000
0.7053 -3.8740 1.7000
0.8440 -3.8459 1.7000
0.9817 -3.8128 1.7000
1.1180 -3.7747 1.7000
1.2528 -3.7317 1.7000
1.3860 -3.6838 1.7000
1.5173 -3.6311 1.7000
1.6466 -3.5738 1.7000
1.7738 -3.5117 1.7000
1.8986 -3.4452 1.7000
2.0209 -3.3741 1.7000
2.1405 -3.2987 1.7000
2.2573 -3.2190 1.7000
2.3710 -3.1351 1.7000
2.4817 -3.0472 1.7000
2.5891 -2.9553 1.7000
2.6931 -2.8596 1.7000
2.7935 -2.7603 1.7000
2.8902 -2.6574 1.7000
2.9832 -2.5511 1.7000
3.0722 -2.4415 1.7000
3.1571 -2.3288 1.7000
3.2379 -2.2131 1.7000
3.2539 -2.0564 1.6690
3.2555 -1.8971 1.6342
3.2611 -1.7463 1.6049
3.3044 -1.6193 1.5970
3.3594 -1.4989 1.5970
3.4101 -1.3766 1.5970
3.4563 -1.2527 1.5970
3.4980 -1.1271 1.5970
3.5352 -1.0002 1.5970
3.5677 -0.8721 1.5970
3.5955 -0.7429 1.5970
3.6187 -0.6128 1.5970
3.6372 -0.4820 1.5970
3.6509 -0.3507 1.5970
3.6599 -0.2189 1.5970
3.6642 -0.0870 1.5970
3.6637 0.0449 1.5970
3.6585 0.1767 1.5970
3.6485 0.3082 1.5970
3.6338 0.4392 1.5970
3.6144 0.5696 1.5970
3.5903 0.6991 1.5970
3.5616 0.8277 1.5970
3.5283 0.9551 1.5970
3.4905 1.0812 1.5970
3.4482 1.2058 1.5970
3.4167 1.3347 1.6041
3.3503 1.4500 1.5970
3.2949 1.5692 1.5970
3.2352 1.6863 1.5970
3.2264 1.8325 1.6246
3.2200 1.9856 1.6569
-3.5991 0.6981 1.7000
-3.6230 0.5682 1.7000
-3.6423 0.4375 1.7000
-3.6569 0.3062 1.7000
-3.6668 0.1744 1.7000
-3.6719 0.0423 1.7000
-3.6722 -0.0899 1.7000
-3.6678 -0.2221 1.7000
-3.6587 -0.3541 1.7000
-3.6447 -0.4857 1.7000
-3.6261 -0.6168 1.7000
-3.6027 -0.7471 1.7000
-3.5746 -0.8766 1.7000
-3.5419 -1.0049 1.7000
-3.5046 -1.1321 1.7000
-3.4627 -1.2578 1.7000
-3.4162 -1.3820 1.7000
-3.3653 -1.5045 1.7000
-3.3100 -1.6251 1.7000
-3.2504 -1.7436 1.7000
-3.1865 -1.8599 1.7000
-3.1184 -1.9739 1.7000
-3.0462 -2.0853 1.7000
-2.9700 -2.1941 1.7000
-2.8900 -2.3001 1.7000
-2.8061 -2.4032 1.7000
-2.7186 -2.5032 1.7000
-2.6274 -2.5999 1.7000
-2.5328 -2.6934 1.7000
-2.4349 -2.7833 1.7000
-2.3337 -2.8697 1.7000
-2.2295 -2.9523 1.7000
-2.1224 -3.0311 1.7000
-2.0124 -3.1061 1.7000
-1.8998 -3.1770 1.7000
-1.7846 -3.2437 1.7000
-1.6671 -3.3063 1.7000
-1.5474 -3.3646 1.7000
-1.4257 -3.4185 1.7000
-1.3020 -3.4680 1.7000
-1.1767 -3.5129 1.7000
-1.0498 -3.5533 1.7000
-0.9215 -3.5891 1.7000
-0.7919 -3.6201 1.7000
-0.6613 -3.6465 1.7000
-0.5299 -3.6681 1.7000
-0.3977 -3.6850 1.7000
-0.2650 -3.6970 1.7000
-0.1320 -3.7042 1.7000
0.0012 -3.7066 1.7000
0.1344 -3.7041 1.7000
0.2675 -3.6968 1.7000
0.4001 -3.6847 1.7000
0.5323 -3.6678 1.7000
0.6637 -3.6461 1.7000
0.7943 -3.6197 1.7000
0.9238 -3.5885 1.7000
1.0521 -3.5527 1.7000
1.1790 -3.5122 1.7000
1.3044 -3.4672 1.7000
1.4280 -3.4177 1.7000
1.5497 -3.3637 1.7000
1.6694 -3.3053 1.7000
1.7868 -3.2427 1.7000
1.9019 -3.1758 1.7000
2.0145 -3.1049 1.7000
2.1244 -3.0299 1.7000
2.2316 -2.9510 1.7000
2.3357 -2.8683 1.7000
2.4368 -2.7818 1.7000
2.5347 -2.6918 1.7000
2.6293 -2.5984 1.7000
2.7203 -2.5015 1.7000
2.8078 -2.4015 1.7000
2.8917 -2.2984 1.7000
2.9717 -2.1923 1.7000
3.0478 -2.0835 1.7000
3.1199 -1.9720 1.7000
3.1879 -1.8580 1.7000
3.2513 -1.7414 1.6998
3.2500 -1.5930 1.6686
3.2501 -1.4505 1.6413
3.2542 -1.3140 1.6189
3.2577 -1.1810 1.5989
3.2930 -1.0614 1.5970
3.3280 -0.9419 1.5970
3.3587 -0.8213 1.5970
3.3850 -0.6997 1.5970
3.4068 -0.5772 1.5970
3.4325 -0.4552 1.6008
3.4373 -0.3305 1.5970
3.4458 -0.2065 1.5970
3.4499 -0.0823 1.5970
3.4495 0.0420 1.5970
3.4446 0.1661 1.5970
3.4353 0.2899 1.5970
3.4257 0.4137 1.5989
3.4229 0.5391 1.6062
3.3807 0.6580 1.5970
3.3537 0.7790 1.5970
3.3224 0.8990 1.5970
3.2868 1.0177 1.5970
3.2470 1.1351 1.5970
3.2340 1.2630 1.6124
3.2279 1.3967 1.6339
3.2237 1.5350 1.6592
3.2225 1.6794 1.6891
3.1794 1.8055 1.7000
3.1114 1.9183 1.7000
-3.3966 0.6585 1.7000
-3.4191 0.5359 1.7000
-3.4373 0.4126 1.7000
-3.4510 0.2886 1.7000
-3.4603 0.1643 1.7000
-3.4650 0.0396 1.7000
-3.4653 -0.0852 1.7000
-3.4611 -0.2099 1.7000
-3.4524 -0.3345 1.7000
-3.4392 -0.4587 1.7000
-3.4215 -0.5823 1.7000
-3.3994 -0.7053 1.7000
-3.3729 -0.8274 1.7000
-3.3420 -0.9486 1.7000
-3.3067 -1.0685 1.7000
-3.2671 -1.1871 1.7000
-3.2232 -1.3043 1.7000
-3.1751 -1.4198 1.7000
-3.1229 -1.5336 1.7000
-3.0666 -1.6454 1.7000
-3.0063 -1.7551 1.7000
-2.9420 -1.8626 1.7000
-2.8739 -1.9677 1.7000
-2.8020 -2.0703 1.7000
-2.7264 -2.1703 1.7000
-2.6473 -2.2675 1.7000
-2.5646 -2.3618 1.7000
-2.4786 -2.4531 1.7000
-2.3894 -2.5412 1.7000
-2.2970 -2.6260 1.7000
-2.2015 -2.7074 1.7000
-2.1032 -2.7854 1.7000
-2.0021 -2.8597 1.7000
-1.8983 -2.9304 1.7000
-1.7921 -2.9972 1.7000
-1.6834 -3.0602 1.7000
-1.5726 -3.1192 1.7000
-1.4597 -3.1741 1.7000
-1.3448 -3.2250 1.7000
-1.2282 -3.2716 1.7000
-1.1099 -3.3140 1.7000
-0.9902 -3.3521 1.7000
-0.8692 -3.3858 1.7000
-0.7470 -3.4151 1.7000
-0.6238 -3.4399 1.7000
-0.4998 -3.4603 1.7000
-0.3752 -3.4762 1.7000
-0.2500 -3.4875 1.7000
-0.1245 -3.4943 1.7000
0.0011 -3.4966 1.7000
0.1268 -3.4943 1.7000
0.2523 -3.4874 1.7000
0.3774 -3.4760 1.7000
0.5021 -3.4600 1.7000
0.6261 -3.4396 1.7000
0.7492 -3.4146 1.7000
0.8714 -3.3853 1.7000
0.9924 -3.3515 1.7000
1.1121 -3.3133 1.7000
1.2304 -3.2709 1.7000
1.3470 -3.2242 1.7000
1.4618 -3.1733 1.7000
1.5747 -3.1182 1.7000
1.6855 -3.0592 1.7000
1.7941 -2.9961 1.7000
1.9003 -2.9292 1.7000
2.0040 -2.8585 1.7000
2.1051 -2.7841 1.7000
2.2034 -2.7061 1.7000
2.2988 -2.6246 1.7000
2.3912 -2.5397 1.7000
2.4804 -2.4516 1.7000
2.5663 -2.3602 1.7000
2.6489 -2.2659 1.7000
2.7280 -2.1686 1.7000
2.8035 -2.0686 1.7000
2.8753 -1.9660 1.7000
2.9434 -1.8608 1.7000
3.0076 -1.7533 1.7000
3.0679 -1.6435 1.7000
3.1241 -1.5316 1.7000
3.1763 -1.4179 1.7000
3.2243 -1.3023 1.7000
3.2465 -1.1773 1.6888
3.2454 -1.0464 1.6681
3.2444 -0.9186 1.6500
3.2459 -0.7941 1.6357
3.2476 -0.6716 1.6238
3.2489 -0.5508 1.6140
3.2497 -0.4313 1.6061
3.2501 -0.3128 1.6002
3.2516 -0.1951 1.5970
3.2555 -0.0779 1.5970
3.2551 0.0393 1.5970
3.2506 0.1564 1.5970
3.2455 0.2735 1.5988
3.2433 0.3914 1.6041
3.2406 0.5101 1.6113
3.2375 0.6298 1.6205
3.2339 0.7509 1.6317
3.2298 0.8736 1.6449
3.2282 0.9993 1.6619
3.2272 1.1278 1.6817
3.2182 1.2565 1.7000
3.1699 1.3712 1.7000
3.1176 1.4841 1.7000
3.0612 1.5950 1.7000
3.0009 1.7038 1.7000
2.9368 1.8103 1.7000
-3.2118 0.6223 1.7000
-3.2331 0.5064 1.7000
-3.2502 0.3898 1.7000
-3.2632 0.2726 1.7000
-3.2719 0.1550 1.7000
-3.2763 0.0371 1.7000
-3.2765 -0.0809 1.7000
-3.2725 -0.1988 1.7000
-3.2642 -0.3166 1.7000
-3.2517 -0.4340 1.7000
-3.2350 -0.5509 1.7000
-3.2140 -0.6672 1.7000
-3.1889 -0.7826 1.7000
-3.1596 -0.8971 1.7000
-3.1262 -1.0105 1.7000
-3.0887 -1.1227 1.7000
-3.0472 -1.2334 1.7000
-3.0017 -1.3426 1.7000
-2.9523 -1.4501 1.7000
-2.8991 -1.5558 1.7000
-2.8420 -1.6595 1.7000
-2.7812 -1.7611 1.7000
-2.7168 -1.8605 1.7000
-2.6488 -1.9575 1.7000
-2.5773 -2.0519 1.7000
-2.5025 -2.1438 1.7000
-2.4243 -2.2329 1.7000
-2.3430 -2.3191 1.7000
-2.2586 -2.4024 1.7000
-2.1712 -2.4825 1.7000
-2.0810 -2.5595 1.7000
-1.9880 -2.6332 1.7000
-1.8924 -2.7034 1.7000
-1.7943 -2.7702 1.7000
-1.6939 -2.8333 1.7000
-1.5912 -2.8928 1.7000
-1.4864 -2.9486 1.7000
-1.3797 -3.0005 1.7000
-1.2711 -3.0485 1.7000
-1.1609 -3.0926 1.7000
-1.0491 -3.1326 1.7000
-0.9359 -3.1686 1.7000
-0.8215 -3.2005 1.7000
-0.7060 -3.2282 1.7000
-0.5896 -3.2517 1.7000
-0.4724 -3.2709 1.7000
-0.3546 -3.2859 1.7000
-0.2363 -3.2966 1.7000
-0.1177 -3.3030 1.7000
0.0011 -3.3051 1.7000
0.1198 -3.3030 1.7000
0.2385 -3.2965 1.7000
0.3567 -3.2857 1.7000
0.4746 -3.2706 1.7000
0.5918 -3.2513 1.7000
0.7082 -3.2278 1.7000
0.8236 -3.2000 1.7000
0.9380 -3.1681 1.7000
1.0512 -3.1320 1.7000
1.1629 -3.0919 1.7000
1.2732 -3.0478 1.7000
1.3817 -2.9997 1.7000
1.4884 -2.9477 1.7000
1.5932 -2.8919 1.7000
1.6958 -2.8323 1.7000
1.7962 -2.7691 1.7000
1.8943 -2.7023 1.7000
1.9898 -2.6320 1.7000
2.0828 -2.5583 1.7000
2.1729 -2.4812 1.7000
2.2603 -2.4010 1.7000
2.3446 -2.3177 1.7000
2.4259 -2.2314 1.7000
2.5040 -2.1423 1.7000
2.5788 -2.0504 1.7000
2.6502 -1.9558 1.7000
2.7181 -1.8588 1.7000
2.7825 -1.7594 1.7000
2.8432 -1.6578 1.7000
2.9002 -1.5540 1.7000
2.9535 -1.4483 1.7000
3.0028 -1.3407 1.7000
3.0482 -1.2315 1.7000
3.0897 -1.1207 1.7000
3.1271 -1.0086 1.7000
3.1604 -0.8951 1.7000
3.1896 -0.7806 1.7000
3.2147 -0.6651 1.7000
3.2356 -0.5488 1.7000
3.2403 -0.4303 1.6938
3.2393 -0.3120 1.6868
3.2383 -0.1946 1.6821
3.2373 -0.0778 1.6795
3.2363 0.0387 1.6792
3.2353 0.1553 1.6810
3.2344 0.2723 1.6850
3.2334 0.3899 1.6912
3.2324 0.5084 1.6997
3.2116 0.6244 1.7000
3.1861 0.7394 1.7000
3.1565 0.8535 1.7000
3.1228 0.9663 1.7000
