ply
format ascii 1.0
element vertex 2126
property float32 x
property float32 y
property float32 z
end_header
-11.3184 8.8220 0.4046
-10.3231 7.4667 0.3592
-10.6360 7.1262 0.3609
-11.4480 7.0888 0.3796
-10.1016 5.7643 0.3278
-10.6950 5.6042 0.3403
-11.6047 5.5597 0.3626
-11.9006 5.1851 0.3658
-10.5898 4.1686 0.3207
-10.3851 3.6634 0.3103
-10.3593 3.2414 0.3058
-10.4394 2.8596 0.3049
-10.6196 2.5031 0.3074
-10.9487 2.1693 0.3144
-11.7015 1.8850 0.3338
-14.1410 1.7602 0.4014
-10.7285 0.9460 0.3033
-10.3855 0.5413 0.2929
-10.2302 0.1656 0.2881
-10.1769 -0.2005 0.2866
-10.2174 -0.5685 0.2881
-10.3819 -0.9522 0.2935
-10.7443 -1.3757 0.3049
-11.5651 -1.9047 0.3299
-11.5444 -2.3295 0.3315
-9.9346 -2.3785 0.2875
-11.5603 -3.2103 0.3377
-11.5392 -3.6551 0.3406
-10.8396 -3.8666 0.3238
-9.8502 -3.9174 0.2983
-11.4733 -5.0469 0.3527
-11.3540 -5.4887 0.3548
-10.5594 -5.5805 0.3360
-9.7505 -5.6094 0.3164
-10.6928 -6.6732 0.3545
-10.2844 -6.9430 0.3490
-10.0083 -7.2926 0.3483
-9.8447 -7.7290 0.3520
-9.8383 -8.3114 0.3622
-11.3433 -10.3025 0.4309
-10.6381 -10.3825 0.4180
-10.1627 -10.6566 0.4140
-9.8230 -11.0698 0.4161
-9.6299 -11.6700 0.4254
-10.6948 -13.9512 0.4942
-9.8948 -13.9146 0.4800
-9.1884 -13.9554 0.4697
-9.3707 -15.4089 0.5069
-9.6030 -17.1477 0.5524
-8.8380 -17.2016 0.5436
-9.3310 -19.8856 0.6174
-9.4888 -22.2659 0.6803
-9.0665 -23.5874 0.7102
-8.7216 -25.3728 0.7540
-8.2173 -27.0228 0.7938
-8.9191 -33.6197 0.9775
-8.3548 -36.7680 1.0596
-7.2809 -38.3637 1.0974
-7.3570 -48.1339 1.3684
-2.1513 -48.8365 1.3737
-0.4025 -49.4384 1.3893
1.2547 -45.2128 1.2710
2.6753 -41.9914 1.1824
4.2531 -42.5997 1.2031
8.8055 -41.8963 1.2031
10.3694 -41.8222 1.2109
11.9473 -41.7169 1.2195
13.5596 -41.6406 1.2308
15.2040 -41.5627 1.2438
6.4906 -15.9454 0.4839
6.3014 -14.0182 0.4320
6.4544 -13.0821 0.4100
6.9975 -12.9867 0.4147
7.5940 -12.9579 0.4222
8.2135 -12.9282 0.4306
8.8591 -12.8975 0.4399
6.0280 -8.1344 0.2846
5.9931 -7.5085 0.2701
3.1078 -3.6193 0.1341
5.9833 -6.4822 0.2480
6.0249 -6.0747 0.2406
6.0641 -5.6905 0.2338
6.1746 -5.3910 0.2305
6.6071 -5.3633 0.2393
7.0843 -5.3407 0.2495
7.6045 -5.3161 0.2610
8.1755 -5.2891 0.2739
8.8068 -5.2592 0.2885
9.5103 -5.2258 0.3053
10.3014 -5.1884 0.3245
11.1999 -5.1458 0.3468
12.2322 -5.0969 0.3728
13.4339 -5.0400 0.4037
14.8544 -4.9728 0.4408
16.5644 -4.8918 0.4860
28.3213 -7.2701 0.8229
28.2700 -6.1850 0.8145
28.2196 -5.1207 0.8073
28.1700 -4.0739 0.8012
28.1211 -3.0416 0.7963
28.0727 -2.0208 0.7924
28.0248 -1.0087 0.7896
27.9772 -0.0026 0.7878
27.9297 1.0000 0.7870
17.8741 1.2833 0.5047
15.1326 1.6339 0.4287
13.2229 1.9098 0.3763
11.6264 2.1075 0.3328
10.2854 2.2483 0.2966
9.5044 2.4379 0.2764
12.7005 3.7481 0.3731
11.6173 3.8867 0.3452
10.4562 3.9207 0.3146
9.6521 4.0198 0.2946
10.5041 4.8237 0.3257
-11.7553 14.1442 0.9335
-12.5443 14.0369 0.9555
-10.8112 11.2573 0.7922
-10.8744 10.5387 0.7686
-10.0427 9.0571 0.6864
-10.5591 8.8571 0.6994
-11.0452 8.6090 0.7107
-10.0211 7.2483 0.6276
-10.6361 7.1263 0.6497
-11.1182 6.8846 0.6636
-9.9952 5.7036 0.5839
-10.6950 5.6042 0.6127
-11.6050 5.5598 0.6529
-11.9006 5.1851 0.6586
-10.5897 4.1686 0.5774
-10.3280 3.6433 0.5556
-10.3089 3.2256 0.5480
-10.4394 2.8596 0.5491
-10.5620 2.4895 0.5505
-10.8711 2.1539 0.5622
-11.7015 1.8850 0.6012
-14.4088 1.7935 0.7365
-10.6433 0.9385 0.5419
-10.3855 0.5412 0.5274
-10.1771 0.1647 0.5162
-10.1247 -0.1995 0.5136
-10.1650 -0.5656 0.5163
-10.3819 -0.9522 0.5287
-10.6556 -1.3643 0.5447
-11.5651 -1.9047 0.5943
-11.5446 -2.3295 0.5971
-9.7000 -2.3224 0.5057
-10.8180 -3.0042 0.5692
-10.7999 -3.4210 0.5743
-10.7450 -3.8329 0.5783
-9.6095 -3.8218 0.5243
-9.5838 -4.2157 0.5307
-10.5483 -5.0992 0.5939
-10.5245 -5.5620 0.6034
-9.5472 -5.4925 0.5583
-10.7779 -6.7263 0.6439
-10.3649 -6.9974 0.6338
-10.0083 -7.2926 0.6276
-9.9351 -7.8000 0.6401
-9.8296 -8.3041 0.6521
-11.3433 -10.3025 0.7765
-10.5983 -10.3436 0.7505
-10.2340 -10.7314 0.7514
-9.8230 -11.0698 0.7499
-9.7452 -11.8097 0.7758
-10.6949 -13.9515 0.8907
-9.8949 -13.9146 0.8651
-9.1386 -13.8799 0.8420
-8.5252 -14.0186 0.8313
-8.5860 -15.3319 0.8903
-8.7898 -17.1080 0.9745
-9.3310 -19.8856 1.1129
-9.4887 -22.2659 1.2262
-8.5893 -22.3460 1.2128
-8.7215 -25.3726 1.3592
-8.1689 -26.8637 1.4225
-8.0579 -30.3737 1.5920
-6.9631 -30.6434 1.5920
-5.8594 -30.8738 1.5920
-4.7480 -31.0644 1.5920
-3.8657 -33.2363 1.6950
-2.6708 -33.3537 1.6950
-1.4725 -33.4282 1.6950
-0.2724 -33.4595 1.6950
0.9282 -33.4477 1.6950
2.1275 -33.3929 1.6950
3.3241 -33.2950 1.6950
4.5164 -33.1541 1.6950
5.7029 -32.9706 1.6950
5.0130 -23.8520 1.2347
8.0522 -32.4762 1.6950
9.2120 -32.1662 1.6950
10.3599 -31.8146 1.6950
10.7954 -29.5110 1.5920
6.4910 -15.9464 0.8722
6.3014 -14.0182 0.7786
6.4546 -13.0824 0.7391
6.9978 -12.9873 0.7474
7.5944 -12.9585 0.7610
8.2137 -12.9284 0.7761
8.8588 -12.8971 0.7928
6.0280 -8.1344 0.5130
5.9931 -7.5085 0.4868
3.1079 -3.6194 0.2417
5.9833 -6.4822 0.4470
6.0249 -6.0747 0.4336
6.0641 -5.6906 0.4214
6.1745 -5.3910 0.4154
6.6071 -5.3633 0.4313
7.0843 -5.3407 0.4496
7.6045 -5.3161 0.4702
8.1755 -5.2891 0.4935
8.8068 -5.2592 0.5199
9.5103 -5.2258 0.5500
10.3014 -5.1884 0.5847
11.1999 -5.1458 0.6248
12.2322 -5.0969 0.6718
13.4339 -5.0400 0.7274
14.8544 -4.9728 0.7941
16.5644 -4.8918 0.8756
28.3213 -7.2701 1.4824
28.2700 -6.1851 1.4672
28.2196 -5.1208 1.4542
28.1700 -4.0740 1.4432
28.1211 -3.0416 1.4343
28.0727 -2.0208 1.4272
28.0248 -1.0087 1.4221
27.9772 -0.0026 1.4188
27.9297 1.0000 1.4174
17.7179 1.2720 0.9009
15.0004 1.6196 0.7652
9.0484 1.3068 0.4637
9.2256 1.6723 0.4756
10.2187 2.2337 0.5306
9.2945 2.3840 0.4868
10.2910 3.0370 0.5443
10.3461 3.4614 0.5535
10.4032 3.9008 0.5637
9.7015 4.0403 0.5332
10.5041 4.8237 0.5865
-11.7553 14.1442 1.3493
-12.5443 14.0369 1.3811
-10.8112 11.2573 1.1450
-10.8744 10.5387 1.1109
-9.8563 8.8890 0.9737
-10.5592 8.8571 1.0110
-9.3977 7.3249 0.8741
-9.8489 7.1237 0.8916
-10.6362 7.1263 0.9391
-10.7433 6.6524 0.9269
-9.8277 5.6080 0.8300
-10.6951 5.6042 0.8856
-11.6053 5.5599 0.9439
-11.9008 5.1851 0.9521
-10.5897 4.1685 0.8347
-10.4796 3.6967 0.8150
-10.4595 3.2727 0.8038
-10.4395 2.8596 0.7938
-10.5620 2.4895 0.7958
-11.0675 2.1928 0.8274
-11.7016 1.8850 0.8692
-14.4088 1.7934 1.0647
-10.8690 0.9584 0.8001
-10.3855 0.5412 0.7626
-10.3124 0.1669 0.7562
-10.2949 -0.2028 0.7550
-10.1650 -0.5656 0.7464
-10.3819 -0.9522 0.7644
-10.9842 -1.4064 0.8119
-11.5651 -1.9047 0.8593
-11.5448 -2.3296 0.8634
-9.4757 -2.2687 0.7143
-10.4728 -2.9083 0.7968
-10.4553 -3.3118 0.8040
-10.4375 -3.7232 0.8123
-9.4556 -3.7605 0.7459
-9.3513 -4.1135 0.7488
-10.3738 -5.0149 0.8446
-10.3045 -5.4458 0.8543
-9.6208 -5.5348 0.8135
-8.9983 -5.6157 0.7774
-10.3649 -6.9974 0.9166
-10.0082 -7.2927 0.9076
-9.9351 -7.8000 0.9257
-9.8296 -8.3041 0.9430
-11.3433 -10.3025 1.1230
-10.5983 -10.3436 1.0853
-10.2340 -10.7314 1.0867
-9.8230 -11.0698 1.0845
-9.7452 -11.8097 1.1220
-10.6949 -13.9514 1.2881
-9.8949 -13.9147 1.2511
-9.1385 -13.8797 1.2177
-8.4441 -13.8852 1.1908
-8.6080 -15.3711 1.2909
-8.7900 -17.1082 1.4093
-8.6164 -18.3628 1.4862
-8.5179 -19.9878 1.5920
-7.7954 -20.2807 1.5920
-7.0629 -20.5475 1.5920
-6.3213 -20.7879 1.5920
-5.5715 -21.0014 1.5920
-4.8263 -21.2398 1.5959
-4.3137 -22.7295 1.6950
-3.4955 -22.8698 1.6950
-2.6728 -22.9805 1.6950
-1.8467 -23.0617 1.6950
-1.0181 -23.1131 1.6950
-0.1883 -23.1348 1.6950
0.6418 -23.1266 1.6950
1.4710 -23.0887 1.6950
2.2984 -23.0211 1.6950
3.1228 -22.9237 1.6950
3.7033 -21.4104 1.5919
4.4689 -21.2632 1.5919
5.2287 -21.0886 1.5919
5.9818 -20.8869 1.5919
6.7270 -20.6582 1.5918
7.6663 -20.9573 1.6350
6.4926 -15.9502 1.2618
6.3011 -14.0174 1.1261
6.4530 -13.0793 1.0686
6.9953 -12.9826 1.0806
7.5917 -12.9540 1.1002
8.2108 -12.9240 1.1219
8.6680 -12.6194 1.1218
6.0280 -8.1344 0.7419
5.9931 -7.5085 0.7040
3.1080 -3.6194 0.3496
5.9833 -6.4822 0.6464
6.0249 -6.0747 0.6270
6.0641 -5.6906 0.6094
6.1745 -5.3910 0.6007
6.6071 -5.3633 0.6237
7.0842 -5.3407 0.6502
7.6045 -5.3161 0.6800
8.1755 -5.2891 0.7136
8.8068 -5.2592 0.7518
9.5103 -5.2258 0.7954
10.3013 -5.1884 0.8454
11.1999 -5.1458 0.9034
12.2322 -5.0969 0.9713
13.4339 -5.0400 1.0517
14.8544 -4.9728 1.1483
16.5643 -4.8918 1.2661
21.6035 -5.5457 1.6350
21.7880 -4.7669 1.6350
21.9444 -3.9821 1.6350
22.0725 -3.1922 1.6350
22.1722 -2.3982 1.6350
22.2433 -1.6012 1.6350
22.2858 -0.8022 1.6350
21.7541 -0.0021 1.5950
21.7395 0.7783 1.5950
17.7180 1.2720 1.3025
15.0005 1.6196 1.1063
9.1028 1.3147 0.6744
9.1002 1.6495 0.6782
10.2115 2.2321 0.7665
9.3884 2.4081 0.7108
10.0061 2.9529 0.7651
10.0458 3.3609 0.7769
10.1012 3.7875 0.7912
9.7015 4.0403 0.7708
10.5041 4.8237 0.8478
-10.6407 12.8031 1.5990
-11.0932 12.4132 1.5990
-10.6722 11.1125 1.4798
-9.6436 9.3459 1.2898
-9.8563 8.8890 1.2747
-10.2753 8.6189 1.2881
-9.4486 7.3646 1.1505
-9.8993 7.1601 1.1733
-10.3811 6.9554 1.2001
-9.3709 5.8026 1.0585
-9.8898 5.6434 1.0935
-10.6952 5.6042 1.1595
-11.6051 5.5599 1.2357
-11.9011 5.1852 1.2466
-10.5897 4.1685 1.0928
-10.4796 3.6967 1.0671
-10.4595 3.2727 1.0524
-10.4395 2.8596 1.0393
-10.5620 2.4895 1.0419
-11.1021 2.1997 1.0867
-11.7016 1.8850 1.1380
-14.4088 1.7934 1.3941
-10.8690 0.9584 1.0476
-10.3855 0.5412 0.9984
-10.3124 0.1669 0.9902
-10.2949 -0.2028 0.9885
-10.1650 -0.5656 0.9774
-10.3819 -0.9522 1.0008
-10.9842 -1.4064 1.0631
-11.5652 -1.9047 1.1252
-11.5451 -2.3297 1.1306
-9.5505 -2.2866 0.9427
-8.9340 -2.4810 0.8900
-10.0849 -3.1945 1.0154
-10.0677 -3.5913 1.0260
-9.5667 -3.8047 0.9882
-8.9047 -3.9170 0.9337
-10.0073 -4.8377 1.0668
-9.9847 -5.2768 1.0839
-9.6210 -5.5350 1.0653
-8.8327 -5.5124 0.9993
-10.3310 -6.9746 1.1963
-10.0082 -7.2927 1.1885
-9.9092 -7.7797 1.2091
-9.8296 -8.3041 1.2349
-11.3433 -10.3025 1.4706
-10.5983 -10.3436 1.4212
-10.2340 -10.7314 1.4230
-9.3240 -10.5075 1.3481
-8.7016 -10.5450 1.3120
-10.1375 -13.2243 1.5990
-9.6567 -13.5797 1.5990
-9.1383 -13.8794 1.5946
-8.4599 -13.9112 1.5623
-8.1063 -14.4752 1.5920
-7.5819 -14.7569 1.5920
-7.0477 -15.0195 1.5920
-6.5043 -15.2628 1.5920
-5.9526 -15.4865 1.5920
-5.3933 -15.6902 1.5920
-4.8642 -15.9963 1.6042
-4.5299 -17.0752 1.6950
-3.9145 -17.2268 1.6950
-3.2939 -17.3562 1.6950
-2.6692 -17.4633 1.6950
-2.0410 -17.5479 1.6950
-1.4101 -17.6098 1.6950
-0.7775 -17.6491 1.6950
-0.1438 -17.6657 1.6950
0.4901 -17.6594 1.6950
1.1233 -17.6305 1.6950
1.7550 -17.5788 1.6950
2.3845 -17.5045 1.6950
3.0110 -17.4076 1.6950
3.4125 -16.2369 1.5920
3.9927 -16.1037 1.5919
4.5678 -15.9497 1.5919
5.1370 -15.7752 1.5919
5.6994 -15.5805 1.5919
6.2546 -15.3656 1.5918
6.3011 -14.0174 1.4747
6.4530 -13.0792 1.3994
6.9943 -12.9809 1.4149
7.5900 -12.9511 1.4404
8.2085 -12.9203 1.4688
8.3352 -12.1349 1.4127
6.0276 -8.1339 0.9715
5.9931 -7.5085 0.9219
3.1080 -3.6195 0.4578
5.9833 -6.4822 0.8465
6.0249 -6.0747 0.8210
6.0641 -5.6906 0.7980
6.1745 -5.3910 0.7866
6.6071 -5.3633 0.8167
7.0842 -5.3407 0.8514
7.6045 -5.3161 0.8905
8.1755 -5.2891 0.9345
8.8068 -5.2592 0.9845
9.5103 -5.2258 1.0415
10.3013 -5.1884 1.1070
11.1998 -5.1458 1.1830
12.2321 -5.0969 1.2719
13.4338 -5.0400 1.3772
14.8543 -4.9728 1.5036
16.3362 -4.8244 1.6350
16.4984 -4.2352 1.6350
16.6394 -3.6405 1.6350
16.7590 -3.0412 1.6350
16.8569 -2.4379 1.6350
16.9332 -1.8316 1.6350
16.9876 -1.2229 1.6350
16.6039 -0.5977 1.5950
16.6143 -0.0016 1.5950
16.6033 0.5944 1.5950
16.5709 1.1897 1.5950
15.0005 1.6196 1.4486
9.1029 1.3147 0.8831
9.0416 1.6389 0.8823
10.2115 2.2321 1.0036
9.3884 2.4081 0.9306
9.9712 2.9426 0.9983
9.8116 3.2825 0.9935
9.7823 3.6679 1.0032
9.7015 4.0403 1.0092
8.9492 4.1097 0.9457
-8.5629 10.3030 1.5920
-8.9272 9.9893 1.5920
-9.2799 9.6627 1.5920
-9.6207 9.3237 1.5920
-9.8565 8.8891 1.5771
-9.9594 8.3540 1.5446
-9.4616 7.3747 1.4254
-9.8995 7.1603 1.4517
-10.0005 6.7003 1.4303
-9.3828 5.8099 1.3113
-9.4565 5.3962 1.2936
-9.8380 5.1550 1.3196
-11.6052 5.5599 1.5289
-11.9013 5.1853 1.5424
-10.5897 4.1685 1.3521
-10.4796 3.6967 1.3202
-10.4595 3.2727 1.3020
-10.4395 2.8596 1.2859
-10.5620 2.4895 1.2891
-11.1021 2.1997 1.3445
-11.7016 1.8850 1.4080
-13.3570 1.6626 1.5990
-10.8690 0.9584 1.2962
-10.3855 0.5412 1.2354
-10.3124 0.1669 1.2251
-10.2949 -0.2029 1.2231
-10.1650 -0.5656 1.2093
-10.3819 -0.9523 1.2384
-10.9843 -1.4065 1.3154
-11.5654 -1.9048 1.3922
-11.5453 -2.3297 1.3989
-9.5497 -2.2864 1.1663
-9.9176 -2.7542 1.2225
-9.9011 -3.1363 1.2335
-9.8843 -3.5259 1.2464
-9.5671 -3.8049 1.2228
-8.9146 -3.9214 1.1566
-9.6487 -4.6644 1.2728
-9.6269 -5.0877 1.2931
-9.6044 -5.5254 1.3159
-8.8433 -5.5190 1.2379
-9.6876 -6.5402 1.3881
-8.9261 -6.5042 1.3116
-9.7992 -7.6934 1.4794
-9.7808 -8.2629 1.5205
-9.9676 -9.0531 1.5990
-9.6365 -9.4050 1.5990
-9.2931 -9.7448 1.5990
-8.8984 -10.0278 1.5920
-8.5330 -10.3407 1.5920
-8.1566 -10.6403 1.5920
-7.7697 -10.9262 1.5920
-7.3728 -11.1980 1.5920
-6.9664 -11.4554 1.5920
-5.7095 -10.1953 1.3874
-6.1272 -11.9256 1.5920
-5.6954 -12.1378 1.5920
-5.2564 -12.3344 1.5920
-5.0172 -13.0528 1.6603
-4.6407 -13.5008 1.6950
-4.1534 -13.6587 1.6950
-3.6608 -13.7990 1.6950
-3.1634 -13.9215 1.6950
-2.6619 -14.0261 1.6950
-2.1570 -14.1126 1.6950
-1.6493 -14.1809 1.6950
-1.1396 -14.2310 1.6950
-0.6283 -14.2627 1.6950
-0.1162 -14.2761 1.6950
0.3960 -14.2711 1.6950
0.9077 -14.2477 1.6950
1.4183 -14.2059 1.6950
1.9270 -14.1459 1.6950
2.4332 -14.0676 1.6950
2.9364 -13.9712 1.6950
3.2512 -13.1127 1.6040
3.6911 -12.8886 1.5918
4.1511 -12.7478 1.5918
4.6057 -12.5906 1.5918
5.0544 -12.4172 1.5918
5.4966 -12.2278 1.5918
5.9317 -12.0226 1.5918
6.3591 -11.8020 1.5918
6.7784 -11.5662 1.5918
7.3842 -11.6229 1.6350
7.7963 -11.3504 1.6350
6.0261 -8.1319 1.2018
5.9928 -7.5081 1.1407
3.1081 -3.6196 0.5665
5.9838 -6.4828 1.0476
6.0251 -6.0749 1.0160
6.0642 -5.6907 0.9875
6.1745 -5.3910 0.9734
6.6070 -5.3633 1.0105
7.0842 -5.3407 1.0535
7.6045 -5.3161 1.1018
8.1755 -5.2891 1.1563
8.8068 -5.2592 1.2182
9.5102 -5.2259 1.2887
10.3013 -5.1884 1.3698
11.1998 -5.1458 1.4638
12.2321 -5.0969 1.5738
12.8895 -4.8358 1.6350
13.0545 -4.3702 1.6350
13.2026 -3.8990 1.6350
13.3338 -3.4228 1.6350
13.4478 -2.9422 1.6350
13.5444 -2.4578 1.6350
13.6239 -1.9703 1.6350
13.6855 -1.4803 1.6350
13.7296 -0.9884 1.6350
13.4195 -0.4830 1.5950
13.4279 -0.0013 1.5950
13.4191 0.4804 1.5950
13.3930 0.9615 1.5950
13.3496 1.4413 1.5950
9.1029 1.3147 1.0926
9.0416 1.6389 1.0916
10.2116 2.2321 1.2418
9.3884 2.4081 1.1514
8.4461 2.4925 1.0462
9.6736 3.2363 1.2119
9.5254 3.5716 1.2086
9.5343 3.9706 1.2271
9.0373 4.1501 1.1815
-7.1792 8.6381 1.5920
-7.4846 8.3751 1.5920
-7.7803 8.1012 1.5920
-8.0660 7.8170 1.5920
-8.3413 7.5226 1.5920
-8.6059 7.2186 1.5920
-8.8594 6.9053 1.5920
-9.1016 6.5831 1.5920
-9.3320 6.2524 1.5920
-9.3948 5.8173 1.5660
-9.4565 5.3962 1.5430
-9.8380 5.1550 1.5740
-10.1756 4.8750 1.5990
-10.3440 4.5069 1.5990
-10.4992 4.1329 1.5990
-10.3280 3.6432 1.5520
-10.3089 3.2256 1.5307
-10.4395 2.8596 1.5338
-10.5620 2.4895 1.5377
-10.8712 2.1539 1.5704
-11.1407 1.7946 1.5990
-11.1981 1.3938 1.5990
-10.6432 0.9384 1.5139
-10.3855 0.5412 1.4735
-10.3124 0.1669 1.4614
-10.2949 -0.2029 1.4590
-10.1650 -0.5656 1.4425
-10.3819 -0.9523 1.4771
-10.6557 -1.3644 1.5221
-11.1357 -1.8340 1.5990
-11.0629 -2.2324 1.5990
-9.5487 -2.2862 1.3911
-9.5606 -2.6551 1.4057
-9.5388 -3.0215 1.4176
-9.5225 -3.3969 1.4323
-9.5059 -3.7806 1.4493
-8.9246 -3.9258 1.3812
-9.4669 -4.5765 1.4896
-9.4455 -4.9919 1.5135
-9.4234 -5.4213 1.5401
-8.8539 -5.5256 1.4784
-9.3141 -6.2881 1.5920
-8.9261 -6.5042 1.5645
-8.8395 -6.9399 1.5920
-8.5849 -7.2527 1.5920
-8.3193 -7.5560 1.5920
-8.0430 -7.8497 1.5920
-7.7563 -8.1333 1.5920
-7.4596 -8.4064 1.5920
-7.1532 -8.6687 1.5920
-6.8377 -8.9198 1.5920
-6.5134 -9.1595 1.5920
-6.1806 -9.3873 1.5920
-5.8400 -9.6031 1.5920
-5.4917 -9.8065 1.5920
-5.1683 -10.0592 1.6018
-5.0837 -10.8340 1.6950
-4.6917 -11.0095 1.6950
-4.2938 -11.1708 1.6950
-3.8903 -11.3177 1.6950
-3.4818 -11.4500 1.6950
-3.0688 -11.5676 1.6950
-2.6518 -11.6703 1.6950
-2.2315 -11.7580 1.6950
-1.8082 -11.8305 1.6950
-1.3826 -11.8878 1.6950
-0.9553 -11.9297 1.6950
-0.5267 -11.9563 1.6950
-0.0974 -11.9675 1.6950
0.3320 -11.9633 1.6950
0.7610 -11.9437 1.6950
1.1889 -11.9087 1.6950
1.6154 -11.8584 1.6950
2.0398 -11.7928 1.6950
2.4615 -11.7120 1.6950
2.8801 -11.6161 1.6950
3.0942 -10.8044 1.5918
3.4799 -10.6864 1.5918
3.8610 -10.5546 1.5918
4.2371 -10.4093 1.5918
4.6078 -10.2505 1.5918
4.9725 -10.0786 1.5918
5.3308 -9.8936 1.5918
5.6823 -9.6959 1.5918
6.0265 -9.4858 1.5918
6.3628 -9.2634 1.5918
6.0261 -8.1319 1.4336
5.9928 -7.5081 1.3607
3.1081 -3.6197 0.6758
5.9847 -6.4837 1.2498
6.0257 -6.0756 1.2121
6.0645 -5.6910 1.1780
6.1745 -5.3910 1.1611
6.6070 -5.3633 1.2054
7.0842 -5.3407 1.2567
7.6045 -5.3161 1.3143
8.1755 -5.2891 1.3793
8.8067 -5.2592 1.4531
9.5102 -5.2259 1.5372
10.3013 -5.1884 1.6340
10.4875 -4.8185 1.6350
10.6534 -4.4391 1.6350
10.8057 -4.0540 1.6350
10.9440 -3.6637 1.6350
11.0683 -3.2687 1.6350
11.1782 -2.8695 1.6350
11.2738 -2.4666 1.6350
11.3549 -2.0605 1.6350
11.4214 -1.6518 1.6350
11.4731 -1.2410 1.6350
11.2286 -0.8083 1.5950
11.2502 -0.4050 1.5950
11.2573 -0.0011 1.5950
11.2500 0.4027 1.5950
11.2281 0.8061 1.5950
11.1918 1.2083 1.5950
9.1030 1.3147 1.3032
9.0416 1.6389 1.3021
10.2116 2.2321 1.4812
9.3294 2.3929 1.3648
8.5183 2.5138 1.2586
9.4283 3.1542 1.4088
9.4131 3.5295 1.4246
9.2713 3.8611 1.4232
9.0373 4.1501 1.4093
-6.1804 7.4363 1.5933
-6.4376 7.2035 1.5920
-6.6919 6.9680 1.5920
-6.9377 6.7235 1.5920
-7.1745 6.4703 1.5920
-7.4021 6.2088 1.5920
-7.6201 5.9393 1.5920
-7.8284 5.6622 1.5920
-8.0265 5.3778 1.5920
-8.2144 5.0864 1.5920
-8.3917 4.7885 1.5920
-8.5581 4.4844 1.5920
-8.7136 4.1745 1.5920
-8.8579 3.8593 1.5920
-8.9907 3.5391 1.5920
-9.1120 3.2143 1.5920
-9.2216 2.8853 1.5920
-9.3193 2.5527 1.5920
-9.4049 2.2168 1.5920
-9.4785 1.8780 1.5920
-9.5399 1.5367 1.5920
-9.5890 1.1935 1.5920
-9.6258 0.8487 1.5920
-9.6502 0.5029 1.5920
-9.6621 0.1563 1.5920
-9.7042 -0.1912 1.5990
-9.6912 -0.5392 1.5990
-9.6658 -0.8866 1.5990
-9.5856 -1.2274 1.5920
-9.5355 -1.5705 1.5920
-9.4731 -1.9116 1.5920
-9.3986 -2.2503 1.5920
-9.3119 -2.5860 1.5920
-9.2133 -2.9185 1.5920
-9.1028 -3.2471 1.5920
-8.9805 -3.5716 1.5920
-8.8467 -3.8916 1.5920
-8.7015 -4.2065 1.5920
-8.5451 -4.5160 1.5920
-8.3777 -4.8197 1.5920
-8.1995 -5.1172 1.5920
-8.0107 -5.4081 1.5920
-7.8116 -5.6921 1.5920
-7.6024 -5.9687 1.5920
-7.3835 -6.2377 1.5920
-7.1550 -6.4986 1.5920
-6.9174 -6.7512 1.5920
-6.6708 -6.9950 1.5920
-6.4156 -7.2299 1.5920
-6.1521 -7.4555 1.5920
-5.8807 -7.6714 1.5920
-5.6018 -7.8775 1.5920
-5.3156 -8.0735 1.5920
-5.2282 -8.5972 1.6571
-5.0290 -8.9801 1.6950
-4.7036 -9.1548 1.6950
-4.3721 -9.3177 1.6950
-4.0351 -9.4686 1.6950
-3.6928 -9.6073 1.6950
-3.3458 -9.7337 1.6950
-2.9945 -9.8475 1.6950
-2.6393 -9.9486 1.6950
-2.2807 -10.0369 1.6950
-1.9191 -10.1123 1.6950
-1.5551 -10.1746 1.6950
-1.1891 -10.2239 1.6950
-0.8216 -10.2600 1.6950
-0.4530 -10.2829 1.6950
-0.0838 -10.2925 1.6950
0.2855 -10.2889 1.6950
0.6544 -10.2720 1.6950
1.0225 -10.2419 1.6950
1.3893 -10.1986 1.6950
1.7543 -10.1422 1.6950
2.1170 -10.0727 1.6950
2.4770 -9.9903 1.6950
2.8338 -9.8949 1.6950
2.9928 -9.1907 1.5918
3.3206 -9.0774 1.5918
3.6441 -8.9524 1.5918
3.9629 -8.8159 1.5918
4.2766 -8.6680 1.5918
4.5847 -8.5089 1.5918
4.8870 -8.3389 1.5918
5.1830 -8.1582 1.5918
5.4723 -7.9669 1.5918
5.7546 -7.7654 1.5918
5.9928 -7.5081 1.5821
3.1082 -3.6197 0.7858
5.9847 -6.4837 1.4532
6.0257 -6.0756 1.4093
6.0644 -5.6910 1.3697
6.1745 -5.3910 1.3500
6.6070 -5.3633 1.4016
7.0842 -5.3407 1.4612
7.6044 -5.3161 1.5282
8.1754 -5.2891 1.6038
8.5227 -5.0895 1.6350
8.6997 -4.7805 1.6350
8.8655 -4.4652 1.6350
9.0199 -4.1442 1.6350
9.1626 -3.8179 1.6350
9.2936 -3.4867 1.6350
9.4126 -3.1511 1.6350
9.5194 -2.8113 1.6350
9.6141 -2.4680 1.6350
9.6963 -2.1215 1.6350
9.7660 -1.7722 1.6350
9.8232 -1.4207 1.6350
9.6265 -1.0413 1.5950
9.6575 -0.6953 1.5950
9.6761 -0.3483 1.5950
9.6822 -0.0010 1.5950
9.6759 0.3464 1.5950
9.6572 0.6933 1.5950
9.6259 1.0393 1.5950
9.5823 1.3839 1.5950
9.5264 1.7268 1.5950
9.4582 2.0674 1.5950
9.2141 2.3634 1.5672
8.5183 2.5138 1.4633
9.1682 3.0672 1.5928
9.0648 3.3989 1.5950
8.9369 3.7218 1.5950
8.7975 4.0400 1.5950
-5.7627 6.9338 1.6950
-5.9507 6.6587 1.6789
-5.9352 6.1800 1.6109
-6.0807 5.8930 1.5920
-6.2883 5.6711 1.5920
-6.4877 5.4419 1.5920
-6.6789 5.2057 1.5920
-6.8614 4.9628 1.5920
-7.0351 4.7135 1.5920
-7.1997 4.4581 1.5920
-7.3551 4.1970 1.5920
-7.5010 3.9304 1.5920
-7.6372 3.6588 1.5920
-7.7637 3.3825 1.5920
-7.8801 3.1019 1.5920
-7.9864 2.8172 1.5920
-8.0824 2.5289 1.5920
-8.1680 2.2373 1.5920
-8.2431 1.9429 1.5920
-8.3076 1.6459 1.5920
-8.3614 1.3469 1.5920
-8.4044 1.0460 1.5920
-8.4366 0.7439 1.5920
-8.4580 0.4407 1.5920
-8.4684 0.1370 1.5920
-8.4680 -0.1669 1.5920
-8.4566 -0.4706 1.5920
-8.4344 -0.7737 1.5920
-8.4013 -1.0758 1.5920
-8.3574 -1.3765 1.5920
-8.3027 -1.6754 1.5920
-8.2374 -1.9722 1.5920
-8.1614 -2.2665 1.5920
-8.0749 -2.5579 1.5920
-7.9781 -2.8459 1.5920
-7.8709 -3.1304 1.5920
-7.7536 -3.4107 1.5920
-7.6263 -3.6867 1.5920
-7.4329 -3.9282 1.5800
-7.2622 -4.1779 1.5745
-7.1863 -4.4849 1.5920
-7.0208 -4.7399 1.5920
-6.8463 -4.9887 1.5920
-6.6630 -5.2312 1.5920
-6.4711 -5.4669 1.5920
-6.2709 -5.6956 1.5920
-6.0626 -5.9169 1.5920
-5.8465 -6.1307 1.5920
-5.6228 -6.3365 1.5920
-5.3919 -6.5342 1.5920
-5.3080 -6.9243 1.6395
-5.2275 -7.3512 1.6950
-4.9604 -7.5340 1.6950
-4.6870 -7.7072 1.6950
-4.4075 -7.8704 1.6950
-4.1223 -8.0235 1.6950
-3.8318 -8.1663 1.6950
-3.5364 -8.2985 1.6950
-3.2365 -8.4201 1.6950
-2.9323 -8.5308 1.6950
-2.6244 -8.6305 1.6950
-2.3131 -8.7191 1.6950
-1.9988 -8.7965 1.6950
-1.6820 -8.8626 1.6950
-1.3630 -8.9173 1.6950
-1.0422 -8.9604 1.6950
-0.7200 -8.9921 1.6950
-0.3970 -9.0121 1.6950
-0.0734 -9.0206 1.6950
0.2502 -9.0174 1.6950
0.5736 -9.0026 1.6950
0.8962 -8.9762 1.6950
1.2176 -8.9383 1.6950
1.5375 -8.8888 1.6950
1.8554 -8.8279 1.6950
2.1709 -8.7557 1.6950
2.4836 -8.6721 1.6950
2.7931 -8.5774 1.6950
2.9102 -7.9556 1.5918
3.1937 -7.8461 1.5918
3.4731 -7.7264 1.5918
3.7481 -7.5968 1.5918
4.0182 -7.4574 1.5918
4.2831 -7.3084 1.5918
4.5425 -7.1500 1.5918
4.7960 -6.9824 1.5918
5.0434 -6.8058 1.5918
5.2843 -6.6205 1.5918
3.1082 -3.6198 0.8966
5.7453 -6.2244 1.5918
5.9649 -6.0143 1.5918
6.0644 -5.6910 1.5628
6.1745 -5.3910 1.5404
6.5764 -5.3385 1.5918
6.9473 -5.2375 1.6350
7.1306 -4.9849 1.6350
7.3048 -4.7258 1.6350
7.4696 -4.4607 1.6350
7.6247 -4.1898 1.6350
7.7700 -3.9135 1.6350
7.9054 -3.6322 1.6350
8.0305 -3.3462 1.6350
8.1453 -3.0559 1.6350
8.2496 -2.7617 1.6350
8.3433 -2.4640 1.6350
8.4262 -2.1631 1.6350
8.4983 -1.8593 1.6350
8.5594 -1.5533 1.6350
8.6096 -1.2452 1.6350
8.4371 -0.9126 1.5950
8.4643 -0.6094 1.5950
8.4807 -0.3053 1.5950
8.4860 -0.0009 1.5950
8.4805 0.3036 1.5950
8.4641 0.6076 1.5950
8.4367 0.9109 1.5950
8.3985 1.2129 1.5950
8.3495 1.5134 1.5950
8.2898 1.8120 1.5950
8.2193 2.1082 1.5950
8.1383 2.4017 1.5950
8.0468 2.6921 1.5950
7.9450 2.9790 1.5950
7.8329 3.2621 1.5950
7.7108 3.5409 1.5950
-5.1244 6.1657 1.6950
-5.3423 5.9779 1.6950
-5.5534 5.7825 1.6950
-5.7573 5.5795 1.6950
-5.8868 5.3090 1.6760
-5.8736 4.9267 1.6208
-5.9390 4.6290 1.5920
-6.1013 4.4130 1.5920
-6.2558 4.1913 1.5920
-6.4022 3.9642 1.5920
-6.5403 3.7320 1.5920
-6.6700 3.4950 1.5920
-6.7912 3.2535 1.5920
-6.9036 3.0078 1.5920
-7.0071 2.7582 1.5920
-7.1016 2.5051 1.5920
-7.1870 2.2487 1.5920
-7.2631 1.9895 1.5920
-7.3299 1.7276 1.5920
-7.3872 1.4636 1.5920
-7.4350 1.1976 1.5920
-7.4733 0.9301 1.5920
-7.5019 0.6614 1.5920
-7.5209 0.3919 1.5920
-7.5302 0.1218 1.5920
-7.5298 -0.1484 1.5920
-7.5197 -0.4184 1.5920
-7.4999 -0.6880 1.5920
-7.4705 -0.9566 1.5920
-7.4314 -1.2240 1.5920
-7.3828 -1.4898 1.5920
-7.3247 -1.7537 1.5920
-7.2571 -2.0154 1.5920
-7.1802 -2.2745 1.5920
-7.0941 -2.5306 1.5920
-6.9988 -2.7835 1.5920
-6.8945 -3.0328 1.5920
-6.7813 -3.2782 1.5920
-6.6594 -3.5194 1.5920
-6.5289 -3.7561 1.5920
-6.3900 -3.9880 1.5920
-6.2429 -4.2147 1.5920
-6.0877 -4.4360 1.5920
-5.9247 -4.6515 1.5920
-5.7541 -4.8611 1.5920
-5.5874 -5.0748 1.5952
-5.3971 -5.2674 1.5938
-5.3688 -5.6298 1.6441
-5.3235 -5.9992 1.6950
-5.1049 -6.1864 1.6950
-4.8797 -6.3656 1.6950
-4.6482 -6.5366 1.6950
-4.4107 -6.6991 1.6950
-4.1676 -6.8531 1.6950
-3.9191 -6.9982 1.6950
-3.6655 -7.1344 1.6950
-3.4072 -7.2613 1.6950
-3.1445 -7.3789 1.6950
-2.8778 -7.4870 1.6950
-2.6074 -7.5854 1.6950
-2.3336 -7.6741 1.6950
-2.0568 -7.7529 1.6950
-1.7773 -7.8217 1.6950
-1.4956 -7.8805 1.6950
-1.2119 -7.9291 1.6950
-0.9267 -7.9674 1.6950
-0.6403 -7.9956 1.6950
-0.3530 -8.0134 1.6950
-0.0653 -8.0209 1.6950
0.2225 -8.0181 1.6950
0.5100 -8.0049 1.6950
0.7969 -7.9815 1.6950
1.0827 -7.9477 1.6950
1.3671 -7.9038 1.6950
1.6498 -7.8496 1.6950
1.9303 -7.7854 1.6950
2.2083 -7.7111 1.6950
2.4836 -7.6269 1.6950
2.7556 -7.5329 1.6950
2.8398 -6.9766 1.5918
3.0882 -6.8702 1.5918
3.3327 -6.7550 1.5918
3.5729 -6.6310 1.5918
3.8085 -6.4985 1.5918
4.0391 -6.3577 1.5918
4.2646 -6.2087 1.5918
4.4845 -6.0517 1.5918
4.6987 -5.8868 1.5918
3.1083 -3.6199 1.0083
5.1087 -5.5347 1.5918
5.3039 -5.3478 1.5918
5.4923 -5.1541 1.5918
5.6736 -4.9537 1.5918
5.8476 -4.7469 1.5918
6.0141 -4.5340 1.5918
6.1729 -4.3153 1.5918
6.3237 -4.0911 1.5918
6.4663 -3.8615 1.5918
6.6006 -3.6271 1.5918
6.9091 -3.4799 1.6350
7.0294 -3.2297 1.6350
7.1407 -2.9755 1.6350
7.2428 -2.7173 1.6350
7.3355 -2.4557 1.6350
7.4188 -2.1910 1.6350
7.4926 -1.9234 1.6350
7.5567 -1.6533 1.6350
7.6111 -1.3812 1.6350
7.4685 -1.0802 1.5950
7.5023 -0.8115 1.5950
7.5265 -0.5419 1.5950
7.5411 -0.2715 1.5950
7.5459 -0.0008 1.5950
7.5410 0.2699 1.5950
7.5263 0.5403 1.5950
7.5020 0.8099 1.5950
7.4681 1.0785 1.5950
7.4245 1.3458 1.5950
7.3714 1.6112 1.5950
7.3088 1.8746 1.5950
7.2367 2.1356 1.5950
7.1554 2.3938 1.5950
7.0648 2.6490 1.5950
6.9652 2.9007 1.5950
6.8566 3.1487 1.5950
-4.6090 5.5455 1.6950
-4.8050 5.3767 1.6950
-4.9948 5.2008 1.6950
-5.1783 5.0183 1.6950
-5.3550 4.8294 1.6950
-5.5248 4.6342 1.6950
-5.6876 4.4330 1.6950
-5.8353 4.2206 1.6928
-5.8200 3.8994 1.6467
-5.8139 3.6000 1.6073
-5.8824 3.3566 1.5920
-5.9991 3.1435 1.5920
-6.1081 2.9262 1.5920
-6.2092 2.7052 1.5920
-6.3023 2.4808 1.5920
-6.3873 2.2531 1.5920
-6.4640 2.0225 1.5920
-6.5325 1.7893 1.5920
-6.5925 1.5538 1.5920
-6.6441 1.3164 1.5920
-6.6871 1.0771 1.5920
-6.7215 0.8366 1.5920
-6.7473 0.5949 1.5920
-6.7643 0.3525 1.5920
-6.7727 0.1096 1.5920
-6.7723 -0.1335 1.5920
-6.7632 -0.3764 1.5920
-6.7454 -0.6188 1.5920
-6.7190 -0.8604 1.5920
-6.6838 -1.1009 1.5920
-6.6401 -1.3399 1.5920
-6.5878 -1.5773 1.5920
-6.5270 -1.8126 1.5920
-6.4578 -2.0457 1.5920
-6.3804 -2.2760 1.5920
-6.2947 -2.5035 1.5920
-6.2008 -2.7277 1.5920
-6.0990 -2.9484 1.5920
-5.9894 -3.1654 1.5920
-5.8720 -3.3782 1.5920
-5.7471 -3.5867 1.5920
-5.6148 -3.7906 1.5920
-5.4752 -3.9897 1.5920
-5.4373 -4.2689 1.6244
-5.4186 -4.5777 1.6668
-5.3397 -4.8499 1.6950
-5.1623 -5.0383 1.6950
-4.9783 -5.2203 1.6950
-4.7878 -5.3956 1.6950
-4.5912 -5.5639 1.6950
-4.3887 -5.7251 1.6950
-4.1805 -5.8789 1.6950
-3.9669 -6.0251 1.6950
-3.7482 -6.1636 1.6950
-3.5247 -6.2941 1.6950
-3.2967 -6.4165 1.6950
-3.0644 -6.5307 1.6950
-2.8281 -6.6364 1.6950
-2.5882 -6.7336 1.6950
-2.3450 -6.8222 1.6950
-2.0988 -6.9019 1.6950
-1.8498 -6.9728 1.6950
-1.5985 -7.0347 1.6950
-1.3451 -7.0875 1.6950
-1.0899 -7.1312 1.6950
-0.8334 -7.1657 1.6950
-0.5758 -7.1910 1.6950
-0.3175 -7.2071 1.6950
-0.0587 -7.2138 1.6950
0.2001 -7.2113 1.6950
0.4587 -7.1995 1.6950
0.7167 -7.1784 1.6950
0.9737 -7.1480 1.6950
1.2295 -7.1085 1.6950
1.4838 -7.0598 1.6950
1.7361 -7.0020 1.6950
1.9861 -6.9352 1.6950
2.2337 -6.8595 1.6950
2.4783 -6.7749 1.6950
2.7197 -6.6816 1.6950
2.7775 -6.1789 1.5918
2.9974 -6.0753 1.5918
3.2134 -5.9638 1.5918
3.4252 -5.8447 1.5918
3.6327 -5.7180 1.5918
3.8355 -5.5840 1.5918
4.0333 -5.4428 1.5918
4.2260 -5.2945 1.5918
3.1084 -3.6200 1.1212
4.5946 -4.9778 1.5918
4.7703 -4.8098 1.5918
4.9397 -4.6355 1.5918
5.1028 -4.4553 1.5918
5.2593 -4.2693 1.5918
5.4090 -4.0779 1.5918
5.5518 -3.8812 1.5918
5.6874 -3.6795 1.5918
5.8157 -3.4730 1.5918
5.9365 -3.2621 1.5918
6.0497 -3.0470 1.5918
6.1550 -2.8280 1.5918
6.2525 -2.6054 1.5918
6.3419 -2.3794 1.5918
6.4231 -2.1503 1.5918
6.4960 -1.9185 1.5918
6.7388 -1.7299 1.6350
6.7965 -1.4870 1.6350
6.6780 -1.2119 1.5950
6.7171 -0.9715 1.5950
6.7476 -0.7299 1.5950
6.7693 -0.4874 1.5950
6.7824 -0.2442 1.5950
6.7868 -0.0007 1.5950
6.7823 0.2428 1.5950
6.7692 0.4859 1.5950
6.7474 0.7285 1.5950
6.7168 0.9700 1.5950
6.6776 1.2104 1.5950
6.6299 1.4491 1.5950
6.5736 1.6860 1.5950
6.5088 1.9208 1.5950
6.4356 2.1530 1.5950
6.3542 2.3825 1.5950
6.2518 2.6036 1.5918
6.1543 2.8262 1.5918
-4.1837 5.0338 1.6950
-4.3616 4.8805 1.6950
-4.5339 4.7209 1.6950
-4.7004 4.5553 1.6950
-4.8608 4.3837 1.6950
-5.0150 4.2066 1.6950
-5.1627 4.0240 1.6950
-5.3038 3.8362 1.6950
-5.4381 3.6435 1.6950
-5.5653 3.4460 1.6950
-5.6854 3.2442 1.6950
-5.7788 3.0280 1.6894
-5.7662 2.7624 1.6556
-5.7578 2.5086 1.6263
-5.7521 2.2642 1.6007
-5.7978 2.0452 1.5920
-5.8675 1.8359 1.5920
-5.9297 1.6242 1.5920
-5.9842 1.4104 1.5920
-6.0310 1.1949 1.5920
-6.0700 0.9777 1.5920
-6.1012 0.7593 1.5920
-6.1246 0.5400 1.5920
-6.1401 0.3199 1.5920
-6.1476 0.0994 1.5920
-6.1473 -0.1212 1.5920
-6.1391 -0.3416 1.5920
-6.1229 -0.5617 1.5920
-6.0988 -0.7810 1.5920
-6.0670 -0.9993 1.5920
-6.0273 -1.2163 1.5920
-5.9798 -1.4317 1.5920
-5.9246 -1.6454 1.5920
-5.8618 -1.8569 1.5920
-5.7915 -2.0660 1.5920
-5.7203 -2.2751 1.5938
-5.6285 -2.4760 1.5920
-5.5361 -2.6763 1.5920
-5.5046 -2.9091 1.6119
-5.4866 -3.1565 1.6387
-5.4736 -3.4160 1.6704
-5.4266 -3.6636 1.6950
-5.2917 -3.8559 1.6950
-5.1500 -4.0433 1.6950
-5.0016 -4.2255 1.6950
-4.8469 -4.4022 1.6950
-4.6858 -4.5733 1.6950
-4.5188 -4.7385 1.6950
-4.3459 -4.8976 1.6950
-4.1674 -5.0504 1.6950
-3.9836 -5.1966 1.6950
-3.7946 -5.3362 1.6950
-3.6008 -5.4690 1.6950
-3.4023 -5.5946 1.6950
-3.1994 -5.7131 1.6950
-2.9924 -5.8242 1.6950
-2.7815 -5.9279 1.6950
-2.5671 -6.0239 1.6950
-2.3493 -6.1121 1.6950
-2.1285 -6.1925 1.6950
-1.9050 -6.2648 1.6950
-1.6791 -6.3292 1.6950
-1.4509 -6.3853 1.6950
-1.2209 -6.4333 1.6950
-0.9894 -6.4730 1.6950
-0.7565 -6.5043 1.6950
-0.5227 -6.5273 1.6950
-0.2882 -6.5418 1.6950
-0.0533 -6.5479 1.6950
0.1816 -6.5456 1.6950
0.4163 -6.5349 1.6950
0.6505 -6.5158 1.6950
0.8839 -6.4882 1.6950
1.1160 -6.4523 1.6950
1.3468 -6.4081 1.6950
1.5758 -6.3557 1.6950
1.8028 -6.2950 1.6950
2.0275 -6.2263 1.6950
2.2495 -6.1495 1.6950
2.4687 -6.0649 1.6950
2.6847 -5.9724 1.6950
2.7207 -5.5145 1.5918
2.9168 -5.4133 1.5918
3.1091 -5.3052 1.5918
3.2974 -5.1902 1.5918
3.4814 -5.0686 1.5918
3.6610 -4.9404 1.5918
3.8359 -4.8058 1.5918
3.1084 -3.6200 1.2352
4.1706 -4.5184 1.5918
4.3299 -4.3658 1.5918
4.4838 -4.2076 1.5918
4.6318 -4.0441 1.5918
4.7738 -3.8753 1.5918
4.9098 -3.7015 1.5918
5.0394 -3.5229 1.5918
5.1625 -3.3399 1.5918
5.2789 -3.1525 1.5918
5.3886 -2.9611 1.5918
5.4913 -2.7658 1.5918
5.5869 -2.5670 1.5918
5.6754 -2.3649 1.5918
5.7565 -2.1598 1.5918
5.8303 -1.9519 1.5918
5.8965 -1.7414 1.5918
5.9551 -1.5288 1.5918
6.0061 -1.3141 1.5918
6.0493 -1.0978 1.5918
6.0848 -0.8801 1.5918
6.1124 -0.6612 1.5918
6.1321 -0.4415 1.5918
6.1439 -0.2212 1.5918
6.1479 -0.0007 1.5918
6.1439 0.2199 1.5918
6.1320 0.4402 1.5918
6.1122 0.6599 1.5918
6.0845 0.8787 1.5918
6.0491 1.0964 1.5918
6.0058 1.3127 1.5918
5.9548 1.5273 1.5918
5.8961 1.7400 1.5918
5.8298 1.9503 1.5918
5.7561 2.1582 1.5918
5.6749 2.3633 1.5918
5.5864 2.5653 1.5918
-3.8265 4.6040 1.6950
-3.9892 4.4638 1.6950
-4.1468 4.3178 1.6950
-4.2991 4.1663 1.6950
-4.4458 4.0094 1.6950
-4.5868 3.8474 1.6950
-4.7219 3.6804 1.6950
-4.8509 3.5086 1.6950
-4.9737 3.3323 1.6950
-5.0901 3.1518 1.6950
-5.1999 2.9672 1.6950
-5.3031 2.7787 1.6950
-5.3994 2.5867 1.6950
-5.4887 2.3913 1.6950
-5.5710 2.1929 1.6950
-5.6462 1.9917 1.6950
-5.7140 1.7878 1.6950
-5.7094 1.5639 1.6759
-5.6990 1.3432 1.6576
-5.6888 1.1271 1.6418
-5.6816 0.9152 1.6292
-5.6742 0.7062 1.6188
-5.6663 0.4996 1.6104
-5.6581 0.2948 1.6040
-5.6495 0.0914 1.5996
-5.6405 -0.1112 1.5971
-5.6310 -0.3134 1.5966
-5.6211 -0.5156 1.5980
-5.6108 -0.7185 1.6013
-5.5999 -0.9223 1.6066
-5.5885 -1.1277 1.6139
-5.5765 -1.3352 1.6232
-5.5639 -1.5452 1.6346
-5.5521 -1.7587 1.6486
-5.5417 -1.9769 1.6655
-5.5312 -2.1999 1.6850
-5.4812 -2.4112 1.6950
-5.3912 -2.6063 1.6950
-5.2943 -2.7980 1.6950
-5.1905 -2.9862 1.6950
-5.0801 -3.1705 1.6950
-4.9631 -3.3507 1.6950
-4.8397 -3.5266 1.6950
-4.7101 -3.6980 1.6950
-4.5745 -3.8646 1.6950
-4.4329 -4.0263 1.6950
-4.2856 -4.1827 1.6950
-4.1328 -4.3338 1.6950
-3.9747 -4.4793 1.6950
-3.8115 -4.6190 1.6950
-3.6433 -4.7528 1.6950
-3.4705 -4.8805 1.6950
-3.2932 -5.0019 1.6950
-3.1117 -5.1168 1.6950
-2.9261 -5.2252 1.6950
-2.7368 -5.3268 1.6950
-2.5439 -5.4216 1.6950
-2.3478 -5.5094 1.6950
-2.1487 -5.5901 1.6950
-1.9467 -5.6636 1.6950
-1.7423 -5.7298 1.6950
-1.5357 -5.7886 1.6950
-1.3270 -5.8400 1.6950
-1.1166 -5.8838 1.6950
-0.9048 -5.9201 1.6950
-0.6919 -5.9488 1.6950
-0.4780 -5.9698 1.6950
-0.2636 -5.9831 1.6950
-0.0487 -5.9887 1.6950
0.1661 -5.9866 1.6950
0.3808 -5.9767 1.6950
0.5950 -5.9592 1.6950
0.8084 -5.9340 1.6950
1.0207 -5.9012 1.6950
1.2318 -5.8608 1.6950
1.4412 -5.8128 1.6950
1.6488 -5.7574 1.6950
1.8543 -5.6945 1.6950
2.0574 -5.6243 1.6950
2.2578 -5.5469 1.6950
2.4554 -5.4623 1.6950
2.6497 -5.3707 1.6950
2.6676 -4.9510 1.5918
2.8620 -4.8835 1.6021
3.0158 -4.7469 1.5918
3.1841 -4.6357 1.5918
3.3483 -4.5184 1.5918
3.5083 -4.3954 1.5918
3.1085 -3.6201 1.3506
3.8143 -4.1325 1.5918
3.9601 -3.9929 1.5918
4.1008 -3.8483 1.5918
4.2362 -3.6987 1.5918
4.3661 -3.5443 1.5918
4.4904 -3.3854 1.5918
4.6090 -3.2221 1.5918
4.7216 -3.0546 1.5918
4.8281 -2.8833 1.5918
4.9284 -2.7082 1.5918
5.0223 -2.5296 1.5918
5.1098 -2.3478 1.5918
5.1907 -2.1630 1.5918
5.2649 -1.9753 1.5918
5.3324 -1.7852 1.5918
5.3929 -1.5927 1.5918
5.4466 -1.3982 1.5918
5.4932 -1.2019 1.5918
5.5327 -1.0040 1.5918
5.5651 -0.8049 1.5918
5.5904 -0.6047 1.5918
5.6084 -0.4038 1.5918
5.6193 -0.2023 1.5918
5.6229 -0.0006 1.5918
5.6192 0.2011 1.5918
5.6083 0.4026 1.5918
5.5902 0.6035 1.5918
5.5650 0.8037 1.5918
5.5325 1.0028 1.5918
5.4929 1.2006 1.5918
5.4463 1.3969 1.5918
5.3926 1.5914 1.5918
5.3320 1.7838 1.5918
5.2645 1.9739 1.5918
5.1903 2.1615 1.5918
5.1094 2.3463 1.5918
-3.5219 4.2376 1.6950
-3.6717 4.1085 1.6950
-3.8167 3.9741 1.6950
-3.9569 3.8347 1.6950
-4.0919 3.6903 1.6950
-4.2217 3.5411 1.6950
-4.3461 3.3874 1.6950
-4.4648 3.2293 1.6950
-4.5778 3.0671 1.6950
-4.6849 2.9009 1.6950
-4.7860 2.7310 1.6950
-4.8809 2.5575 1.6950
-4.9696 2.3808 1.6950
-5.0518 2.2010 1.6950
-5.1276 2.0183 1.6950
-5.1967 1.8331 1.6950
-5.2592 1.6455 1.6950
-5.3149 1.4558 1.6950
-5.3637 1.2642 1.6950
-5.4056 1.0710 1.6950
-5.4406 0.8763 1.6950
-5.4686 0.6806 1.6950
-5.4895 0.4840 1.6950
-5.5034 0.2867 1.6950
-5.5102 0.0891 1.6950
-5.5099 -0.1086 1.6950
-5.5025 -0.3062 1.6950
-5.4880 -0.5034 1.6950
-5.4664 -0.7000 1.6950
-5.4378 -0.8957 1.6950
-5.4022 -1.0902 1.6950
-5.3597 -1.2833 1.6950
-5.3102 -1.4747 1.6950
-5.2539 -1.6643 1.6950
-5.1909 -1.8517 1.6950
-5.1212 -2.0368 1.6950
-5.0448 -2.2192 1.6950
-4.9620 -2.3988 1.6950
-4.8728 -2.5753 1.6950
-4.7773 -2.7484 1.6950
-4.6756 -2.9181 1.6950
-4.5680 -3.0839 1.6950
-4.4544 -3.2459 1.6950
-4.3351 -3.4036 1.6950
-4.2103 -3.5569 1.6950
-4.0800 -3.7057 1.6950
-3.9444 -3.8497 1.6950
-3.8038 -3.9888 1.6950
-3.6583 -4.1227 1.6950
-3.5080 -4.2513 1.6950
-3.3533 -4.3744 1.6950
-3.1942 -4.4919 1.6950
-3.0310 -4.6036 1.6950
-2.8639 -4.7094 1.6950
-2.6931 -4.8091 1.6950
-2.5189 -4.9027 1.6950
-2.3414 -4.9899 1.6950
-2.1609 -5.0707 1.6950
-1.9776 -5.1450 1.6950
-1.7917 -5.2126 1.6950
-1.6036 -5.2736 1.6950
-1.4134 -5.3277 1.6950
-1.2213 -5.3750 1.6950
-1.0277 -5.4153 1.6950
-0.8328 -5.4487 1.6950
-0.6368 -5.4751 1.6950
-0.4400 -5.4944 1.6950
-0.2426 -5.5067 1.6950
-0.0449 -5.5118 1.6950
0.1529 -5.5099 1.6950
0.3505 -5.5009 1.6950
0.5476 -5.4848 1.6950
0.7440 -5.4616 1.6950
0.9394 -5.4314 1.6950
1.1337 -5.3942 1.6950
1.3265 -5.3500 1.6950
1.5175 -5.2990 1.6950
1.7067 -5.2411 1.6950
1.8936 -5.1765 1.6950
2.0781 -5.1052 1.6950
2.2599 -5.0274 1.6950
2.4388 -4.9431 1.6950
2.6145 -4.8524 1.6950
2.6420 -4.5082 1.6069
2.7756 -4.3690 1.5918
2.9306 -4.2666 1.5918
3.0817 -4.1587 1.5918
3.2289 -4.0454 1.5918
3.1085 -3.6202 1.4674
3.5107 -3.8035 1.5918
3.6448 -3.6750 1.5918
3.7743 -3.5419 1.5918
3.8989 -3.4042 1.5918
4.0185 -3.2621 1.5918
4.1329 -3.1158 1.5918
4.2420 -2.9655 1.5918
4.3457 -2.8114 1.5918
4.4437 -2.6537 1.5918
4.5360 -2.4926 1.5918
4.6225 -2.3282 1.5918
4.7030 -2.1609 1.5918
4.7775 -1.9908 1.5918
4.8458 -1.8181 1.5918
4.9078 -1.6431 1.5918
4.9636 -1.4659 1.5918
5.0130 -1.2869 1.5918
5.0559 -1.1062 1.5918
5.0922 -0.9241 1.5918
5.1221 -0.7408 1.5918
5.1453 -0.5566 1.5918
5.1620 -0.3717 1.5918
5.1719 -0.1862 1.5918
5.1753 -0.0006 1.5918
5.1719 0.1851 1.5918
5.1619 0.3705 1.5918
5.1452 0.5555 1.5918
5.1220 0.7397 1.5918
5.0921 0.9230 1.5918
5.0557 1.1050 1.5918
5.0127 1.2857 1.5918
4.9633 1.4647 1.5918
4.9076 1.6418 1.5918
4.8455 1.8168 1.5918
4.7772 1.9894 1.5918
4.7027 2.1595 1.5918
-3.2589 3.9211 1.6950
-3.3975 3.8017 1.6950
-3.5317 3.6773 1.6950
-3.6614 3.5483 1.6950
-3.7863 3.4147 1.6950
-3.9064 3.2767 1.6950
-4.0215 3.1344 1.6950
-4.1314 2.9881 1.6950
-4.2359 2.8380 1.6950
-4.3351 2.6842 1.6950
-4.4286 2.5270 1.6950
-4.5164 2.3665 1.6950
-4.5984 2.2030 1.6950
-4.6745 2.0366 1.6950
-4.7446 1.8676 1.6950
-4.8086 1.6962 1.6950
-4.8664 1.5226 1.6950
-4.9179 1.3471 1.6950
-4.9631 1.1698 1.6950
-5.0019 0.9910 1.6950
-5.0343 0.8109 1.6950
-5.0601 0.6298 1.6950
-5.0795 0.4478 1.6950
-5.0924 0.2653 1.6950
-5.0986 0.0824 1.6950
-5.0983 -0.1005 1.6950
-5.0915 -0.2834 1.6950
-5.0781 -0.4658 1.6950
-5.0581 -0.6477 1.6950
-5.0317 -0.8288 1.6950
-4.9987 -1.0088 1.6950
-4.9594 -1.1874 1.6950
-4.9136 -1.3646 1.6950
-4.8615 -1.5400 1.6950
-4.8032 -1.7134 1.6950
-4.7386 -1.8847 1.6950
-4.6680 -2.0535 1.6950
-4.5914 -2.2196 1.6950
-4.5088 -2.3829 1.6950
-4.4204 -2.5431 1.6950
-4.3264 -2.7001 1.6950
-4.2268 -2.8536 1.6950
-4.1217 -3.0034 1.6950
-4.0113 -3.1494 1.6950
-3.8958 -3.2912 1.6950
-3.7752 -3.4289 1.6950
-3.6498 -3.5622 1.6950
-3.5197 -3.6908 1.6950
-3.3850 -3.8147 1.6950
-3.2460 -3.9337 1.6950
-3.1028 -4.0476 1.6950
-2.9556 -4.1564 1.6950
-2.8046 -4.2597 1.6950
-2.6500 -4.3576 1.6950
-2.4920 -4.4499 1.6950
-2.3307 -4.5365 1.6950
-2.1665 -4.6172 1.6950
-1.9995 -4.6919 1.6950
-1.8299 -4.7607 1.6950
-1.6579 -4.8232 1.6950
-1.4838 -4.8796 1.6950
-1.3078 -4.9297 1.6950
-1.1301 -4.9735 1.6950
-0.9510 -5.0108 1.6950
-0.7706 -5.0417 1.6950
-0.5892 -5.0661 1.6950
-0.4071 -5.0840 1.6950
-0.2244 -5.0953 1.6950
-0.0415 -5.1001 1.6950
0.1415 -5.0983 1.6950
0.3243 -5.0900 1.6950
0.5067 -5.0750 1.6950
0.6884 -5.0536 1.6950
0.8693 -5.0256 1.6950
1.0490 -4.9912 1.6950
1.2274 -4.9504 1.6950
1.4042 -4.9031 1.6950
1.5792 -4.8496 1.6950
1.7521 -4.7898 1.6950
1.9228 -4.7239 1.6950
2.0911 -4.6518 1.6950
2.2566 -4.5738 1.6950
2.4192 -4.4899 1.6950
2.5787 -4.4002 1.6950
2.6195 -4.1233 1.6235
2.7117 -3.9479 1.5918
2.8515 -3.8480 1.5918
2.9877 -3.7432 1.5918
3.1086 -3.6203 1.5859
3.2484 -3.5193 1.5918
3.3726 -3.4005 1.5918
3.4924 -3.2773 1.5918
3.6077 -3.1499 1.5918
3.7183 -3.0185 1.5918
3.8242 -2.8831 1.5918
3.9252 -2.7440 1.5918
4.0211 -2.6014 1.5918
4.1118 -2.4555 1.5918
4.1972 -2.3064 1.5918
4.2772 -2.1543 1.5918
4.3517 -1.9995 1.5918
4.4206 -1.8421 1.5918
4.4838 -1.6823 1.5918
4.5413 -1.5203 1.5918
4.5928 -1.3564 1.5918
4.6385 -1.1908 1.5918
4.6782 -1.0236 1.5918
4.7119 -0.8551 1.5918
4.7395 -0.6855 1.5918
4.7610 -0.5150 1.5918
4.7764 -0.3439 1.5918
4.7856 -0.1723 1.5918
4.7887 -0.0005 1.5918
4.7856 0.1713 1.5918
4.7764 0.3428 1.5918
4.7610 0.5140 1.5918
4.7394 0.6844 1.5918
4.7118 0.8540 1.5918
4.6781 1.0225 1.5918
4.6383 1.1897 1.5918
4.5926 1.3553 1.5918
4.5411 1.5192 1.5918
4.4836 1.6811 1.5918
4.4204 1.8408 1.5918
4.3515 1.9982 1.5918
-3.0293 3.6448 1.6950
-3.1581 3.5338 1.6950
-3.2829 3.4182 1.6950
-3.4034 3.2983 1.6950
-3.5195 3.1741 1.6950
-3.6312 3.0458 1.6950
-3.7381 2.9135 1.6950
-3.8402 2.7776 1.6950
-3.9374 2.6380 1.6950
-4.0296 2.4951 1.6950
-4.1165 2.3489 1.6950
-4.1982 2.1997 1.6950
-4.2744 2.0477 1.6950
-4.3451 1.8931 1.6950
-4.4103 1.7360 1.6950
-4.4697 1.5767 1.6950
-4.5235 1.4153 1.6950
-4.5713 1.2521 1.6950
-4.6133 1.0873 1.6950
-4.6494 0.9211 1.6950
-4.6795 0.7537 1.6950
-4.7036 0.5854 1.6950
-4.7216 0.4163 1.6950
-4.7335 0.2466 1.6950
-4.7393 0.0766 1.6950
-4.7390 -0.0934 1.6950
-4.7327 -0.2634 1.6950
-4.7202 -0.4330 1.6950
-4.7017 -0.6021 1.6950
-4.6771 -0.7704 1.6950
-4.6465 -0.9377 1.6950
-4.6098 -1.1038 1.6950
-4.5673 -1.2684 1.6950
-4.5189 -1.4315 1.6950
-4.4647 -1.5927 1.6950
-4.4047 -1.7518 1.6950
-4.3390 -1.9087 1.6950
-4.2678 -2.0632 1.6950
-4.1910 -2.2150 1.6950
-4.1089 -2.3639 1.6950
-4.0215 -2.5098 1.6950
-3.9289 -2.6525 1.6950
-3.8312 -2.7917 1.6950
-3.7286 -2.9274 1.6950
-3.6212 -3.0593 1.6950
-3.5091 -3.1872 1.6950
-3.3925 -3.3111 1.6950
-3.2716 -3.4307 1.6950
-3.1464 -3.5459 1.6950
-3.0172 -3.6565 1.6950
-2.8841 -3.7624 1.6950
-2.7473 -3.8634 1.6950
-2.6069 -3.9595 1.6950
-2.4632 -4.0505 1.6950
-2.3163 -4.1363 1.6950
-2.1664 -4.2167 1.6950
-2.0138 -4.2917 1.6950
-1.8585 -4.3612 1.6950
-1.7009 -4.4251 1.6950
-1.5410 -4.4833 1.6950
-1.3792 -4.5357 1.6950
-1.2156 -4.5823 1.6950
-1.0505 -4.6229 1.6950
-0.8839 -4.6576 1.6950
-0.7163 -4.6864 1.6950
-0.5477 -4.7090 1.6950
-0.3784 -4.7257 1.6950
-0.2086 -4.7362 1.6950
-0.0386 -4.7406 1.6950
0.1315 -4.7390 1.6950
0.3014 -4.7312 1.6950
0.4710 -4.7173 1.6950
0.6399 -4.6974 1.6950
0.8080 -4.6714 1.6950
0.9751 -4.6394 1.6950
1.1409 -4.6015 1.6950
1.3052 -4.5575 1.6950
1.4679 -4.5078 1.6950
1.6286 -4.4522 1.6950
1.7873 -4.3909 1.6950
1.9437 -4.3240 1.6950
2.0975 -4.2514 1.6950
2.2487 -4.1734 1.6950
2.3969 -4.0901 1.6950
2.5421 -4.0014 1.6950
2.5989 -3.7837 1.6413
2.6506 -3.5768 1.5918
2.7964 -3.5035 1.6028
2.9002 -3.3775 1.5918
3.0195 -3.2713 1.5918
3.1349 -3.1609 1.5918
3.2462 -3.0464 1.5918
3.3534 -2.9279 1.5918
3.4563 -2.8057 1.5918
3.5547 -2.6799 1.5918
3.6485 -2.5506 1.5918
3.7377 -2.4181 1.5918
3.8220 -2.2824 1.5918
3.9014 -2.1439 1.5918
3.9758 -2.0025 1.5918
4.0450 -1.8586 1.5918
4.1091 -1.7123 1.5918
4.1678 -1.5637 1.5918
4.2212 -1.4132 1.5918
4.2692 -1.2608 1.5918
4.3116 -1.1069 1.5918
4.3485 -0.9515 1.5918
4.3798 -0.7949 1.5918
4.4055 -0.6372 1.5918
4.4255 -0.4787 1.5918
4.4398 -0.3197 1.5918
4.4484 -0.1602 1.5918
4.4512 -0.0005 1.5918
4.4483 0.1592 1.5918
4.4398 0.3187 1.5918
4.4254 0.4777 1.5918
4.4054 0.6362 1.5918
4.3797 0.7938 1.5918
4.3484 0.9504 1.5918
4.3115 1.1058 1.5918
4.2690 1.2598 1.5918
4.2211 1.4121 1.5918
4.1676 1.5626 1.5918
4.1089 1.7111 1.5918
4.0448 1.8574 1.5918
-2.8269 3.4012 1.6950
-2.9470 3.2976 1.6950
-3.0635 3.1898 1.6950
-3.1760 3.0778 1.6950
-3.2843 2.9619 1.6950
-3.3885 2.8422 1.6950
-3.4883 2.7188 1.6950
-3.5836 2.5920 1.6950
-3.6743 2.4617 1.6950
-3.7603 2.3283 1.6950
-3.8414 2.1920 1.6950
-3.9176 2.0527 1.6950
-3.9887 1.9109 1.6950
-4.0548 1.7666 1.6950
-4.1155 1.6200 1.6950
-4.1710 1.4713 1.6950
-4.2212 1.3207 1.6950
-4.2658 1.1684 1.6950
-4.3050 1.0146 1.6950
-4.3387 0.8596 1.6950
-4.3668 0.7034 1.6950
-4.3892 0.5462 1.6950
-4.4060 0.3884 1.6950
-4.4171 0.2301 1.6950
-4.4226 0.0715 1.6950
-4.4223 -0.0872 1.6950
-4.4164 -0.2458 1.6950
-4.4047 -0.4041 1.6950
-4.3874 -0.5618 1.6950
-4.3645 -0.7189 1.6950
-4.3359 -0.8750 1.6950
-4.3018 -1.0300 1.6950
-4.2621 -1.1837 1.6950
-4.2169 -1.3358 1.6950
-4.1663 -1.4862 1.6950
-4.1103 -1.6348 1.6950
-4.0490 -1.7812 1.6950
-3.9825 -1.9253 1.6950
-3.9109 -2.0669 1.6950
-3.8343 -2.2059 1.6950
-3.7527 -2.3421 1.6950
-3.6663 -2.4752 1.6950
-3.5751 -2.6051 1.6950
-3.4794 -2.7317 1.6950
-3.3792 -2.8548 1.6950
-3.2746 -2.9742 1.6950
-3.1658 -3.0898 1.6950
-3.0529 -3.2014 1.6950
-2.9361 -3.3089 1.6950
-2.8155 -3.4121 1.6950
-2.6913 -3.5109 1.6950
-2.5637 -3.6052 1.6950
-2.4327 -3.6949 1.6950
-2.2986 -3.7798 1.6950
-2.1615 -3.8598 1.6950
-2.0216 -3.9349 1.6950
-1.8792 -4.0049 1.6950
-1.7343 -4.0697 1.6950
-1.5872 -4.1293 1.6950
-1.4380 -4.1836 1.6950
-1.2870 -4.2325 1.6950
-1.1344 -4.2760 1.6950
-0.9802 -4.3139 1.6950
-0.8248 -4.3463 1.6950
-0.6684 -4.3731 1.6950
-0.5111 -4.3943 1.6950
-0.3531 -4.4098 1.6950
-0.1947 -4.4196 1.6950
-0.0360 -4.4238 1.6950
0.1227 -4.4222 1.6950
0.2813 -4.4150 1.6950
0.4395 -4.4020 1.6950
0.5971 -4.3834 1.6950
0.7540 -4.3592 1.6950
0.9099 -4.3293 1.6950
1.0646 -4.2939 1.6950
1.2180 -4.2529 1.6950
1.3698 -4.2065 1.6950
1.5198 -4.1546 1.6950
1.6678 -4.0974 1.6950
1.8137 -4.0350 1.6950
1.9573 -3.9673 1.6950
2.0984 -3.8945 1.6950
2.2367 -3.8167 1.6950
2.3722 -3.7340 1.6950
2.5046 -3.6465 1.6950
2.5848 -3.4880 1.6635
2.5915 -3.2469 1.5918
2.7063 -3.1518 1.5918
2.8176 -3.0527 1.5918
2.9253 -2.9496 1.5918
3.0293 -2.8427 1.5918
3.1293 -2.7322 1.5918
3.2253 -2.6182 1.5918
3.3171 -2.5008 1.5918
3.4047 -2.3802 1.5918
3.4878 -2.2565 1.5918
3.5665 -2.1299 1.5918
3.6406 -2.0006 1.5918
3.7100 -1.8687 1.5918
3.7747 -1.7344 1.5918
3.8344 -1.5978 1.5918
3.8893 -1.4592 1.5918
3.9391 -1.3188 1.5918
3.9838 -1.1766 1.5918
4.0235 -1.0329 1.5918
4.0579 -0.8879 1.5918
4.0871 -0.7417 1.5918
4.1111 -0.5946 1.5918
4.1297 -0.4468 1.5918
4.1431 -0.2983 1.5918
4.1511 -0.1495 1.5918
4.1538 -0.0005 1.5918
4.1511 0.1485 1.5918
4.1431 0.2974 1.5918
4.1297 0.4458 1.5918
4.1110 0.5937 1.5918
4.0870 0.7408 1.5918
4.0578 0.8869 1.5918
4.0233 1.0319 1.5918
3.9837 1.1756 1.5918
3.9390 1.3177 1.5918
3.8891 1.4582 1.5918
3.8343 1.5968 1.5918
3.7745 1.7333 1.5918
-0.7920 0.9529 0.5072
-0.8260 0.9243 0.5074
-2.8685 2.9867 1.6950
-2.9738 2.8819 1.6950
-3.0753 2.7734 1.6950
-3.1728 2.6613 1.6950
-3.2663 2.5457 1.6950
-3.3555 2.4269 1.6950
-3.4404 2.3050 1.6950
-3.5209 2.1801 1.6950
-3.5969 2.0524 1.6950
-3.6682 1.9221 1.6950
-3.7348 1.7892 1.6950
-3.7966 1.6541 1.6950
-3.8535 1.5168 1.6950
-3.9055 1.3776 1.6950
-3.9524 1.2366 1.6950
-3.9943 1.0940 1.6950
-4.0310 0.9500 1.6950
-4.0625 0.8048 1.6950
-4.0888 0.6586 1.6950
-4.1098 0.5115 1.6950
-4.1255 0.3637 1.6950
-4.1359 0.2155 1.6950
-4.1410 0.0669 1.6950
-4.1408 -0.0817 1.6950
-4.1352 -0.2302 1.6950
-4.1243 -0.3784 1.6950
-4.1081 -0.5261 1.6950
-4.0866 -0.6731 1.6950
-4.0599 -0.8193 1.6950
-4.0279 -0.9644 1.6950
-3.9907 -1.1083 1.6950
-3.9484 -1.2508 1.6950
-3.9010 -1.3916 1.6950
-3.8486 -1.5307 1.6950
-3.7912 -1.6678 1.6950
-3.7290 -1.8027 1.6950
-3.6619 -1.9353 1.6950
-3.5901 -2.0655 1.6950
-3.5137 -2.1930 1.6950
-3.4328 -2.3176 1.6950
-3.3475 -2.4393 1.6950
-3.2578 -2.5578 1.6950
-3.1640 -2.6731 1.6950
-3.0661 -2.7849 1.6950
-2.9642 -2.8931 1.6950
-2.8585 -2.9976 1.6950
-2.7492 -3.0982 1.6950
-2.6363 -3.1948 1.6950
-2.5200 -3.2874 1.6950
-2.4004 -3.3757 1.6950
-2.2778 -3.4596 1.6950
-2.1522 -3.5391 1.6950
-2.0239 -3.6140 1.6950
-1.8929 -3.6843 1.6950
-1.7595 -3.7499 1.6950
-1.6239 -3.8106 1.6950
-1.4861 -3.8664 1.6950
-1.3465 -3.9172 1.6950
-1.2051 -3.9630 1.6950
-1.0621 -4.0037 1.6950
-0.9178 -4.0393 1.6950
-0.7723 -4.0696 1.6950
-0.6258 -4.0947 1.6950
-0.4785 -4.1145 1.6950
-0.3306 -4.1290 1.6950
-0.1823 -4.1382 1.6950
-0.0337 -4.1421 1.6950
0.1149 -4.1406 1.6950
0.2634 -4.1339 1.6950
0.4115 -4.1217 1.6950
0.5591 -4.1043 1.6950
0.7060 -4.0816 1.6950
0.8520 -4.0537 1.6950
0.9968 -4.0205 1.6950
1.1404 -3.9821 1.6950
1.2825 -3.9387 1.6950
1.4230 -3.8901 1.6950
1.5616 -3.8365 1.6950
1.6983 -3.7780 1.6950
1.8327 -3.7147 1.6950
1.9648 -3.6465 1.6950
2.0943 -3.5737 1.6950
2.2212 -3.4962 1.6950
2.3452 -3.4143 1.6950
2.4661 -3.3280 1.6950
2.5722 -3.2226 1.6874
2.5685 -2.9913 1.6135
2.6382 -2.8583 1.5918
2.7618 -2.7847 1.6050
2.8364 -2.6618 1.5918
2.9300 -2.5583 1.5918
3.0199 -2.4515 1.5918
3.1059 -2.3416 1.5918
3.1879 -2.2286 1.5918
3.2658 -2.1128 1.5918
3.3394 -1.9943 1.5918
3.4088 -1.8732 1.5918
3.4738 -1.7497 1.5918
3.5343 -1.6239 1.5918
3.5903 -1.4961 1.5918
3.6416 -1.3663 1.5918
3.6883 -1.2348 1.5918
3.7302 -1.1017 1.5918
3.7673 -0.9671 1.5918
3.7995 -0.8314 1.5918
3.8269 -0.6945 1.5918
3.8493 -0.5568 1.5918
3.8668 -0.4183 1.5918
3.8793 -0.2793 1.5918
3.8868 -0.1400 1.5918
3.8893 -0.0004 1.5918
3.8868 0.1391 1.5918
3.8793 0.2784 1.5918
3.8668 0.4174 1.5918
3.8493 0.5559 1.5918
3.8268 0.6936 1.5918
3.7995 0.8304 1.5918
3.7672 0.9662 1.5918
3.7301 1.1007 1.5918
3.6882 1.2338 1.5918
3.6415 1.3653 1.5918
3.5902 1.4951 1.5918
3.5342 1.6229 1.5918
-0.7444 0.8956 0.5076
-0.7764 0.8687 0.5078
-0.8074 0.8407 0.5080
-0.8374 0.8115 0.5083
-2.8880 2.6045 1.6950
-2.9796 2.4992 1.6950
-3.0673 2.3907 1.6950
-3.1511 2.2791 1.6950
-3.2309 2.1646 1.6950
-3.3065 2.0473 1.6950
-3.3778 1.9274 1.6950
