ply
format ascii 1.0
element vertex 2090
property float32 x
property float32 y
property float32 z
end_header
-10.6151 -0.2840 -0.6645
-10.7573 -0.6750 -0.6742
-10.9040 -1.0785 -0.6850
-11.0558 -1.4962 -0.6972
-11.2135 -1.9299 -0.7107
-11.3779 -2.3818 -0.7257
-11.5497 -2.8543 -0.7424
-11.7299 -3.3502 -0.7608
-11.9199 -3.8725 -0.7813
-12.1208 -4.4251 -0.8039
-12.3342 -5.0120 -0.8291
-12.5394 -5.6282 -0.8554
-8.3043 -4.0918 -0.5759
-11.7770 -6.3383 -0.8315
-16.2021 -9.4855 -1.1666
-15.2275 -9.6656 -1.1201
-14.6452 -10.0516 -1.1025
-13.9263 -10.3129 -1.0750
-14.0048 -11.1717 -1.1107
-14.4529 -12.4041 -1.1802
-14.9620 -13.8045 -1.2608
-15.5473 -15.4143 -1.3552
-16.2290 -17.2894 -1.4670
-17.0355 -19.5076 -1.6013
-19.1758 -23.6196 -1.8801
-18.3127 -24.2898 -1.8788
-17.8321 -25.5090 -1.9213
-19.8202 -30.6403 -2.2515
-19.7470 -33.0741 -2.3754
-7.6829 -29.9774 -1.9010
-9.5968 -43.9529 -2.7624
-5.9033 -32.6175 -2.0345
-2.1045 -14.6029 -0.9052
-3.0220 -28.0797 -1.7320
-1.5714 -22.0057 -1.3525
-0.6932 -19.5901 -1.2013
0.0108 -19.5782 -1.1993
0.6146 -16.8450 -1.0323
1.4543 -20.0555 -1.2310
2.1743 -19.9964 -1.2310
1.8351 -12.6358 -0.7812
2.2453 -12.3287 -0.7665
3.6203 -16.4942 -1.0327
3.9869 -15.4858 -0.9776
4.3170 -14.5780 -0.9293
3.0861 -9.1949 -0.5927
3.3128 -8.8081 -0.5750
3.7446 -8.9650 -0.5935
6.8047 -14.7757 -0.9937
7.6062 -15.0671 -1.0308
8.4715 -15.3816 -1.0724
5.9829 -9.9959 -0.7114
6.4511 -9.9490 -0.7240
4.2328 -6.0410 -0.4504
4.3406 -5.7444 -0.4396
4.6126 -5.6690 -0.4462
9.9997 -11.4258 -0.9271
13.8132 -14.6840 -1.2310
7.5972 -7.5160 -0.6526
7.7393 -7.1251 -0.6424
8.1004 -6.9370 -0.6514
10.9772 -8.7373 -0.8570
8.1424 -6.0163 -0.6185
8.2707 -5.6635 -0.6125
8.9948 -5.6960 -0.6507
11.6748 -6.8184 -0.8264
15.7113 -8.4342 -1.0902
21.8555 -10.7401 -1.4892
21.9484 -9.8236 -1.4709
22.6295 -9.1678 -1.4939
23.0966 -8.4047 -1.5043
34.7359 -7.2338 -2.1744
32.8910 -5.6255 -2.0457
33.4212 -4.4876 -2.0681
36.2809 -3.5507 -2.2366
36.6377 -2.2611 -2.2531
37.1402 -0.9554 -2.2813
37.3004 0.3806 -2.2915
41.6038 3.4209 -2.5667
41.9063 4.9664 -2.5960
41.6577 6.4614 -2.5945
43.1656 8.2928 -2.7066
32.7208 7.5138 -2.0683
32.8851 8.8060 -2.0984
28.9786 8.8868 -1.8693
28.7670 9.9655 -1.8785
29.4382 11.3978 -1.9488
33.5893 14.4126 -2.2577
33.1419 15.6530 -2.2652
27.7993 14.3726 -1.9351
26.4077 14.8786 -1.8753
25.0993 15.3543 -1.8214
23.8638 15.8035 -1.7727
22.6923 16.2294 -1.7289
22.1377 17.0670 -1.7332
20.9751 17.4067 -1.6910
20.3930 18.1992 -1.6966
19.3646 18.5730 -1.6664
15.1246 15.5872 -1.3496
14.3278 15.8685 -1.3293
14.1329 16.8304 -1.3672
13.8780 17.7868 -1.4042
12.1703 16.8097 -1.2924
11.4488 17.0721 -1.2808
10.7400 17.3298 -1.2710
10.1233 17.7264 -1.2732
9.0709 17.2981 -1.2189
8.6980 18.1430 -1.2562
8.0117 18.3768 -1.2522
7.3294 18.6093 -1.2499
6.6494 18.8410 -1.2492
4.5728 14.6089 -0.9575
5.2893 19.3044 -1.2526
4.6057 19.5373 -1.2567
3.8327 19.3452 -1.2352
3.2177 19.9813 -1.2681
2.6539 21.3370 -1.3478
1.9246 21.8590 -1.3760
1.2719 24.4864 -1.5381
0.3731 23.3523 -1.4656
-0.5099 25.5567 -1.6046
-1.4421 25.7848 -1.6216
-2.4066 26.1436 -1.6491
-3.4194 26.6278 -1.6867
-4.4373 26.8738 -1.7118
-5.5417 27.3994 -1.7573
-6.6402 27.6746 -1.7895
-7.7011 27.6744 -1.8066
-8.2791 26.0849 -1.7215
-9.3359 26.1212 -1.7452
-10.9142 27.3908 -1.8554
-12.0103 27.2522 -1.8743
-13.4528 27.7766 -1.9426
-16.7325 31.6021 -2.2509
-18.5875 32.2486 -2.3432
-20.4127 32.6461 -2.4240
-21.4771 31.7516 -2.4135
-22.7466 31.1556 -2.4288
-24.4084 31.0272 -2.4856
-8.8165 4.5473 -0.3997
-8.5798 4.0419 -0.3820
-9.2132 3.9425 -0.4035
-9.3364 3.6042 -0.4028
-9.4594 3.2664 -0.4026
-9.5826 2.9283 -0.4029
-9.7062 2.5888 -0.4037
-9.8306 2.2471 -0.4051
-9.9953 1.9099 -0.4085
-10.1226 1.5597 -0.4109
-10.2517 1.2045 -0.4139
-9.5117 0.7725 -0.3824
-9.3197 0.4207 -0.3736
-9.4411 0.0868 -0.3779
-10.6147 -0.2838 -0.4247
-10.7568 -0.6748 -0.4308
-10.9035 -1.0783 -0.4376
-11.0554 -1.4959 -0.4452
-11.2131 -1.9296 -0.4538
-11.3774 -2.3815 -0.4632
-11.5492 -2.8540 -0.4737
-11.7294 -3.3498 -0.4853
-11.9193 -3.8721 -0.4982
-12.1202 -4.4246 -0.5125
-12.3336 -5.0114 -0.5284
-12.5398 -5.6281 -0.5451
-8.3046 -4.0917 -0.3668
-11.7769 -6.3379 -0.5295
-16.2026 -9.4854 -0.7427
-15.2280 -9.6654 -0.7129
-14.6457 -10.0514 -0.7015
-13.9267 -10.3128 -0.6837
-14.7845 -11.7931 -0.7455
-14.4526 -12.4033 -0.7501
-14.9617 -13.8036 -0.8011
-15.5469 -15.4133 -0.8608
-16.2286 -17.2882 -0.9315
-17.0350 -19.5062 -1.0165
-19.1765 -23.6194 -1.1932
-18.4150 -24.4244 -1.1986
-17.8405 -25.5198 -1.2191
-21.5359 -33.2911 -1.5511
-20.7175 -34.6980 -1.5796
-7.6803 -29.9652 -1.2018
-9.5987 -43.9581 -1.7468
-7.1037 -39.2460 -1.5474
-2.1044 -14.6005 -0.5720
-3.3998 -31.5862 -1.2310
-1.5718 -22.0068 -0.8544
-0.6935 -19.5909 -0.7587
0.0105 -19.5781 -0.7573
0.6144 -16.8449 -0.6517
1.6707 -23.0428 -0.8927
2.2157 -20.3799 -0.7918
1.8350 -12.6360 -0.4929
2.2452 -12.3287 -0.4836
3.6202 -16.4945 -0.6514
3.9869 -15.4861 -0.6166
4.3169 -14.5782 -0.5861
3.0861 -9.1950 -0.3738
3.3127 -8.8080 -0.3625
3.2192 -7.7073 -0.3217
3.3649 -7.3065 -0.3097
3.5003 -6.9339 -0.2990
3.6270 -6.5856 -0.2894
3.7459 -6.2585 -0.2807
3.8580 -5.9500 -0.2729
3.9643 -5.6579 -0.2659
4.0653 -5.3800 -0.2595
4.1617 -5.1148 -0.2537
4.5875 -5.2418 -0.2681
5.1095 -5.4316 -0.2870
5.7115 -5.6505 -0.3092
7.7393 -7.1251 -0.4049
8.1005 -6.9371 -0.4106
10.9772 -8.7372 -0.5402
8.1424 -6.0162 -0.3899
8.2707 -5.6634 -0.3862
8.9951 -5.6961 -0.4103
11.6749 -6.8183 -0.5212
15.7113 -8.4341 -0.6876
22.6736 -11.1419 -0.9746
22.4108 -10.0302 -0.9475
33.2354 -13.4640 -1.3844
34.1558 -8.4028 -1.3607
34.5820 -7.2012 -1.3672
32.8912 -5.6251 -1.2923
33.3103 -4.4722 -1.3024
36.1729 -3.5396 -1.4093
36.6379 -2.2605 -1.4243
37.1404 -0.9548 -1.4425
37.4760 0.3830 -1.4562
43.1331 3.5474 -1.6839
42.0548 4.9848 -1.6490
41.1844 6.3888 -1.6241
41.9810 8.0660 -1.6671
32.7536 7.5220 -1.3116
32.2818 8.6451 -1.3054
29.7260 9.1166 -1.2155
30.2139 10.4674 -1.2510
35.6552 13.8057 -1.4971
33.7814 14.4959 -1.4406
32.9236 15.5507 -1.4281
33.3214 17.2285 -1.4725
24.4755 16.2093 -1.1554
23.2740 16.6461 -1.1271
22.1374 17.0674 -1.1020
20.9745 17.4069 -1.0755
21.1531 18.8783 -1.1197
21.2802 20.4111 -1.1655
15.1241 15.5872 -0.8592
8.5088 9.4242 -0.5027
14.1334 16.8317 -0.8710
13.8773 17.7867 -0.8948
12.1699 16.8099 -0.8238
11.4484 17.0722 -0.8166
10.7396 17.3299 -0.8106
10.1241 17.7287 -0.8124
9.0705 17.2982 -0.7778
8.6976 18.1431 -0.8019
8.0113 18.3770 -0.7996
7.3291 18.6094 -0.7983
6.6491 18.8411 -0.7981
4.5709 14.6037 -0.6117
5.2890 19.3045 -0.8006
4.6054 19.5374 -0.8034
3.8324 19.3453 -0.7899
3.2174 19.9814 -0.8111
2.6536 21.3375 -0.8623
1.9243 21.8596 -0.8805
1.2716 24.4865 -0.9844
0.3614 22.6424 -0.9097
-0.4580 22.9403 -0.9222
-1.4424 25.7849 -1.0385
-2.4061 26.1353 -1.0559
-3.4030 26.4977 -1.0753
-4.4376 26.8739 -1.0967
-5.5149 27.2655 -1.1205
-6.6405 27.6748 -1.1468
-8.1884 29.4243 -1.2311
-8.2792 26.0845 -1.1035
-9.3361 26.1213 -1.1188
-11.0824 27.8125 -1.2078
-12.0096 27.2501 -1.2017
-13.4519 27.7745 -1.2455
-15.7052 29.6615 -1.3548
-17.4653 30.3014 -1.4120
-19.3826 30.9985 -1.4761
-20.9996 31.0456 -1.5134
-23.8464 32.6619 -1.6330
-25.2136 32.0507 -1.6467
-8.8165 4.5474 -0.1761
-8.5797 4.0420 -0.1682
-9.2132 3.9426 -0.1776
-9.3364 3.6043 -0.1772
-9.4594 3.2666 -0.1770
-9.5825 2.9284 -0.1770
-9.7061 2.5889 -0.1773
-9.8305 2.2473 -0.1778
-9.9952 1.9100 -0.1792
-6.3705 0.9817 -0.1133
-10.2517 1.2046 -0.1813
-9.5123 0.7727 -0.1673
-9.3197 0.4209 -0.1633
-9.4411 0.0869 -0.1651
-10.6143 -0.2836 -0.1853
-10.7564 -0.6746 -0.1878
-10.9031 -1.0780 -0.1906
-11.0549 -1.4957 -0.1938
-11.2126 -1.9293 -0.1973
-11.3769 -2.3812 -0.2012
-11.5487 -2.8536 -0.2056
-11.7289 -3.3494 -0.2104
-11.9188 -3.8717 -0.2158
-12.1196 -4.4241 -0.2217
-12.3330 -5.0109 -0.2283
-12.5402 -5.6279 -0.2353
-8.3048 -4.0916 -0.1582
-11.7767 -6.3375 -0.2280
-16.2030 -9.4852 -0.3195
-15.2284 -9.6652 -0.3063
-14.6461 -10.0512 -0.3011
-13.9271 -10.3126 -0.2932
-14.7849 -11.7930 -0.3193
-14.4523 -12.4025 -0.3209
-14.9614 -13.8027 -0.3423
-15.5465 -15.4122 -0.3673
-16.2282 -17.2870 -0.3971
-17.0345 -19.5047 -0.4328
-19.1771 -23.6192 -0.5075
-18.4153 -24.4236 -0.5092
-17.8416 -25.5203 -0.5173
-22.5213 -34.8128 -0.6875
-11.1454 -37.7836 -0.6437
-7.6798 -29.9612 -0.5045
-9.6697 -44.2800 -0.7381
-2.1042 -14.5980 -0.2394
-4.0454 -37.5788 -0.6127
-1.4725 -20.6117 -0.3345
-0.6498 -18.3488 -0.2968
0.0087 -16.5378 -0.2670
0.5488 -15.0522 -0.2428
1.0010 -13.8084 -0.2229
1.3860 -12.7494 -0.2063
1.7186 -11.8347 -0.1922
2.0094 -11.0347 -0.1800
2.2666 -10.3274 -0.1696
2.4961 -9.6960 -0.1604
2.7028 -9.1276 -0.1524
2.8903 -8.6118 -0.1453
3.0616 -8.1406 -0.1390
3.2192 -7.7073 -0.1334
3.3648 -7.3066 -0.1284
3.5003 -6.9339 -0.1240
3.6270 -6.5856 -0.1200
3.7459 -6.2585 -0.1163
3.8580 -5.9500 -0.1131
3.9643 -5.6579 -0.1101
4.0653 -5.3800 -0.1075
4.1617 -5.1148 -0.1051
4.5876 -5.2418 -0.1111
5.1095 -5.4316 -0.1189
5.7116 -5.6505 -0.1282
4.7838 -4.4041 -0.1037
7.2523 -6.2106 -0.1524
7.4648 -5.9415 -0.1524
7.5875 -5.6062 -0.1507
7.7077 -5.2778 -0.1493
7.8257 -4.9554 -0.1482
8.9345 -5.2178 -0.1657
11.3690 -6.1029 -0.2068
15.4086 -7.5716 -0.2753
34.4243 -8.4683 -0.5724
34.8638 -7.2594 -0.5757
32.8914 -5.6246 -0.5402
33.4215 -4.4867 -0.5467
36.3282 -3.5542 -0.5927
36.7953 -2.2696 -0.5995
37.1407 -0.9542 -0.6052
37.2709 0.3815 -0.6081
38.1437 1.7618 -0.6240
42.9825 5.0955 -0.7098
46.7325 14.3334 -0.8091
37.4903 12.9892 -0.6580
37.0889 14.3618 -0.6609
33.9230 14.5575 -0.6146
33.0338 15.6036 -0.6095
33.3879 17.2638 -0.6283
24.4747 16.2096 -0.4937
23.2733 16.6464 -0.4822
22.1371 17.0679 -0.4720
20.8184 17.2781 -0.4578
20.8720 18.6283 -0.4743
21.2795 20.4114 -0.5009
20.1888 20.8079 -0.4935
8.5090 9.4248 -0.2166
9.1576 10.9065 -0.2434
14.3257 18.3623 -0.3988
12.1695 16.8100 -0.3560
11.9011 17.7481 -0.3673
11.1643 18.0160 -0.3650
10.1249 17.7309 -0.3522
9.0702 17.2984 -0.3376
8.6973 18.1432 -0.3484
8.0110 18.3771 -0.3477
7.3287 18.6095 -0.3475
6.6487 18.8412 -0.3477
4.5690 14.5986 -0.2666
5.2887 19.3046 -0.3495
4.6050 19.5375 -0.3510
3.8321 19.3454 -0.3454
3.2171 19.9815 -0.3549
2.6533 21.3379 -0.3776
1.9241 21.8601 -0.3859
1.2712 24.4866 -0.4318
0.3621 22.7039 -0.4003
-0.4595 23.0026 -0.4061
-1.4250 25.4668 -0.4507
-2.3767 25.8129 -0.4586
-3.3613 26.1708 -0.4672
-4.3832 26.5423 -0.4768
-5.4471 26.9291 -0.4874
-6.5588 27.3333 -0.4991
-8.1173 29.1681 -0.5380
-8.3677 26.3629 -0.4918
-9.4160 26.3443 -0.4978
-11.0823 27.8119 -0.5330
-12.4509 28.2510 -0.5499
-13.4681 27.8076 -0.5506
-15.7053 29.6615 -0.5983
-17.4700 30.3093 -0.6238
-19.3827 30.9985 -0.6521
-20.9997 31.0455 -0.6686
-23.8435 32.6579 -0.7214
-25.2136 32.0507 -0.7275
-8.8165 4.5475 0.0473
-8.5797 4.0421 0.0454
-9.2131 3.9427 0.0481
-9.3363 3.6044 0.0482
-9.4593 3.2667 0.0484
-9.5825 2.9285 0.0486
-9.7061 2.5890 0.0490
-9.8305 2.2474 0.0494
-9.9952 1.9101 0.0500
-6.3694 0.9816 0.0318
-10.2516 1.2048 0.0512
-9.5128 0.7729 0.0476
-9.3196 0.4210 0.0468
-9.4410 0.0871 0.0476
-10.6139 -0.2834 0.0538
-10.7560 -0.6744 0.0549
-10.9027 -1.0778 0.0561
-11.0545 -1.4954 0.0575
-11.2122 -1.9290 0.0589
-11.3764 -2.3808 0.0606
-11.5482 -2.8532 0.0624
-11.7284 -3.3490 0.0643
-11.9183 -3.8712 0.0665
-12.1191 -4.4236 0.0689
-12.3324 -5.0104 0.0715
-12.5406 -5.6278 0.0743
-11.8978 -5.8614 0.0721
-11.7766 -6.3371 0.0732
-16.2035 -9.4850 0.1033
-15.2289 -9.6651 0.0999
-14.6466 -10.0511 0.0990
-13.9275 -10.3125 0.0971
-14.7854 -11.7928 0.1067
-14.4520 -12.4017 0.1081
-14.9610 -13.8018 0.1162
-15.5462 -15.4112 0.1257
-16.2277 -17.2858 0.1369
-17.0339 -19.5033 0.1504
-19.1778 -23.6190 0.1778
-18.4155 -24.4230 0.1797
-17.8426 -25.5207 0.1840
-22.5202 -34.8096 0.2463
-11.2420 -38.1086 0.2456
-7.6793 -29.9572 0.1920
-9.0581 -41.4758 0.2647
-5.9719 -32.9872 0.2099
-2.1041 -14.5956 0.0927
-3.0030 -27.8914 0.1770
-1.4728 -20.6127 0.1309
-0.6501 -18.3496 0.1167
0.0084 -16.5384 0.1055
0.5486 -15.0526 0.0964
1.0008 -13.8088 0.0889
1.3859 -12.7498 0.0825
1.7185 -11.8350 0.0772
2.0093 -11.0349 0.0726
2.2665 -10.3276 0.0686
2.4961 -9.6961 0.0651
2.7028 -9.1277 0.0620
2.8903 -8.6119 0.0593
3.0616 -8.1407 0.0568
3.2191 -7.7074 0.0547
3.3648 -7.3066 0.0527
3.5003 -6.9340 0.0510
3.6270 -6.5856 0.0494
3.7459 -6.2586 0.0479
3.8580 -5.9501 0.0466
3.9643 -5.6579 0.0454
4.0653 -5.3800 0.0444
4.1617 -5.1148 0.0434
4.5876 -5.2418 0.0458
5.1096 -5.4316 0.0490
4.4142 -4.3669 0.0408
4.5186 -4.1599 0.0403
4.8288 -4.1351 0.0417
5.9823 -4.7615 0.0501
6.4283 -4.7496 0.0523
7.4386 -5.0935 0.0589
7.8257 -4.9554 0.0604
8.9349 -5.2180 0.0674
11.3697 -6.1032 0.0839
15.4100 -7.5721 0.1113
34.4244 -8.4679 0.2260
34.8640 -7.2589 0.2263
32.8915 -5.6242 0.2113
33.4226 -4.4863 0.2127
36.3284 -3.5537 0.2294
36.7955 -2.2691 0.2307
37.1409 -0.9536 0.2316
37.2638 0.3821 0.2313
38.1439 1.7625 0.2359
42.8706 5.0831 0.2643
46.3596 12.4172 0.2880
46.7309 14.3340 0.2918
37.4900 12.9899 0.2356
35.4650 13.7338 0.2246
33.9222 14.5580 0.2168
33.0335 15.6044 0.2133
33.3869 17.2642 0.2182
24.4740 16.2098 0.1674
23.2726 16.6466 0.1622
22.1367 17.0684 0.1575
20.8178 17.2784 0.1516
20.8724 18.6295 0.1558
21.2789 20.4116 0.1632
20.1881 20.8081 0.1595
8.5093 9.4255 0.0694
9.1579 10.9073 0.0774
14.3254 18.3626 0.1258
12.1690 16.8102 0.1114
11.9007 17.7483 0.1140
11.1639 18.0162 0.1124
10.1258 17.7332 0.1076
9.0698 17.2985 0.1023
8.6969 18.1434 0.1048
8.0106 18.3772 0.1038
7.3284 18.6097 0.1030
6.6484 18.8413 0.1023
4.5672 14.5935 0.0778
5.2883 19.3047 0.1013
4.6047 19.5376 0.1011
3.8318 19.3455 0.0988
3.2168 19.9816 0.1009
2.6530 21.3383 0.1067
1.9238 21.8606 0.1083
1.2868 24.7927 0.1220
0.3618 22.7040 0.1111
-0.4598 23.0027 0.1121
-1.4431 25.7852 0.1253
-2.4067 26.1355 0.1268
-3.4036 26.4980 0.1286
-4.4382 26.8741 0.1307
-5.4980 27.1793 0.1325
-6.6200 27.5873 0.1353
-7.6994 27.6655 0.1365
-8.6216 27.1620 0.1351
-10.3576 28.9783 0.1455
-11.0826 27.8121 0.1413
-12.4511 28.2511 0.1454
-13.4682 27.8074 0.1453
-15.7055 29.6616 0.1576
-17.4701 30.3093 0.1641
-19.3955 31.0188 0.1714
-21.4772 31.7514 0.1795
-23.8442 32.6587 0.1893
-26.1340 33.2207 0.1979
-8.8165 4.5475 0.2708
-8.5797 4.0422 0.2590
-9.2131 3.9428 0.2738
-9.3363 3.6045 0.2736
-9.4593 3.2668 0.2738
-9.5824 2.9286 0.2743
-9.7060 2.5892 0.2752
-9.8304 2.2475 0.2765
-9.9951 1.9103 0.2793
-6.3683 0.9815 0.1770
-10.2516 1.2049 0.2838
-9.5134 0.7731 0.2626
-9.3196 0.4212 0.2569
-9.4410 0.0873 0.2603
-10.6135 -0.2832 0.2930
-10.7556 -0.6742 0.2977
-10.9023 -1.0776 0.3029
-11.0541 -1.4951 0.3088
-11.2117 -1.9287 0.3152
-11.3759 -2.3805 0.3224
-11.5477 -2.8529 0.3303
-11.7279 -3.3486 0.3391
-11.9177 -3.8708 0.3488
-12.1185 -4.4231 0.3595
-12.3318 -5.0098 0.3713
-12.5409 -5.6276 0.3839
-11.8982 -5.8613 0.3709
-11.7765 -6.3367 0.3744
-16.2040 -9.4848 0.5263
-15.2293 -9.6649 0.5062
-14.6470 -10.0509 0.4992
-13.9280 -10.3123 0.4876
-14.7858 -11.7926 0.5327
-14.4517 -12.4009 0.5370
-14.9607 -13.8010 0.5747
-15.5458 -15.4102 0.6188
-16.2273 -17.2846 0.6710
-17.0334 -19.5019 0.7337
-19.1784 -23.6187 0.8632
-18.4158 -24.4223 0.8688
-17.8437 -25.5211 0.8855
-22.5191 -34.8063 1.1802
-11.4235 -30.4672 0.9323
-10.3371 -30.9033 0.9346
-11.2423 -38.1075 1.1407
-7.6788 -29.9532 0.8886
-9.0599 -41.4807 1.2213
-5.9730 -32.9902 0.9652
-2.1040 -14.5931 0.4249
-3.0034 -27.8913 0.8090
-1.4732 -20.6137 0.5965
-0.6503 -18.3504 0.5304
0.0082 -16.5390 0.4781
0.5485 -15.0531 0.4357
1.0007 -13.8092 0.4008
1.3858 -12.7501 0.3715
1.7184 -11.8352 0.3466
2.0093 -11.0351 0.3253
2.2664 -10.3277 0.3068
2.4960 -9.6963 0.2906
2.7027 -9.1278 0.2765
2.8902 -8.6120 0.2639
3.0616 -8.1408 0.2528
3.2191 -7.7074 0.2428
3.3648 -7.3067 0.2339
3.5003 -6.9340 0.2259
3.6269 -6.5857 0.2187
3.7459 -6.2586 0.2123
3.8580 -5.9501 0.2064
3.9643 -5.6579 0.2011
4.0653 -5.3800 0.1963
4.1617 -5.1148 0.1919
4.2865 -4.8978 0.1894
4.1040 -4.3627 0.1743
4.1769 -4.1321 0.1710
4.2974 -3.9562 0.1699
4.5199 -3.8706 0.1731
4.7621 -3.7902 0.1770
6.0348 -4.4588 0.2181
6.1760 -4.2289 0.2175
6.6317 -4.1993 0.2280
8.9354 -5.2181 0.3005
11.3705 -6.1034 0.3746
15.4113 -7.5726 0.4982
34.4246 -8.4674 1.0247
34.8641 -7.2585 1.0286
32.8917 -5.6237 0.9630
33.4237 -4.4859 0.9725
36.3286 -3.5531 1.0517
36.7957 -2.2685 1.0613
37.1411 -0.9529 1.0686
37.2618 0.3827 1.0708
37.9750 1.7554 1.0913
42.8133 5.0771 1.2352
46.4579 12.4445 1.3721
46.7294 14.3345 1.3929
35.8214 12.4126 1.0791
35.3552 13.6921 1.0780
33.9213 14.5584 1.0483
33.0332 15.6051 1.0363
33.3859 17.2645 1.0649
24.4733 16.2101 0.8287
23.2719 16.6469 0.8068
22.1363 17.0689 0.7873
20.8172 17.2786 0.7610
20.8728 18.6306 0.7861
21.2782 20.4118 0.8274
20.1875 20.8084 0.8126
8.5095 9.4262 0.3555
9.1582 10.9081 0.3982
14.3251 18.3630 0.6504
12.1686 16.8103 0.5789
11.9003 17.7484 0.5954
11.1635 18.0163 0.5898
10.1266 17.7354 0.5677
9.0695 17.2987 0.5423
8.6965 18.1435 0.5580
8.0102 18.3773 0.5554
7.3280 18.6098 0.5535
6.6481 18.8414 0.5524
4.5653 14.5884 0.4222
5.2880 19.3048 0.5522
4.6044 19.5377 0.5533
3.8315 19.3457 0.5431
3.2165 19.9817 0.5568
2.6528 21.3387 0.5911
1.9235 21.8611 0.6027
1.2864 24.7928 0.6812
0.3605 22.6426 0.6209
-0.4589 22.9405 0.6286
-1.4434 25.7853 0.7071
-2.4070 26.1356 0.7181
-3.4040 26.4981 0.7304
-4.4385 26.8742 0.7443
-5.4983 27.1794 0.7572
-6.6203 27.5874 0.7743
-7.5759 27.2208 0.7708
-8.6217 27.1617 0.7771
-10.3600 28.9843 0.8390
-11.0839 27.8148 0.8158
-12.4513 28.2512 0.8409
-13.4682 27.8071 0.8413
-15.7057 29.6616 0.9137
-17.4657 30.3016 0.9519
-19.4029 31.0305 0.9959
-21.4772 31.7513 1.0431
-23.8468 32.6622 1.1004
-26.1340 33.2207 1.1500
-8.8164 4.5476 0.4945
-8.5796 4.0423 0.4729
-9.2131 3.9429 0.4999
-9.3362 3.6046 0.4994
-9.4592 3.2669 0.4995
-9.5824 2.9287 0.5003
-9.7060 2.5893 0.5018
-9.8304 2.2477 0.5040
-9.9951 1.9104 0.5088
-6.3672 0.9815 0.3223
-10.2515 1.2051 0.5166
-9.5139 0.7733 0.4779
-9.3195 0.4213 0.4673
-9.4409 0.0874 0.4732
-10.6131 -0.2830 0.5324
-10.7552 -0.6740 0.5407
-10.9018 -1.0773 0.5500
-11.0536 -1.4949 0.5603
-11.2112 -1.9284 0.5718
-11.3755 -2.3802 0.5845
-11.5472 -2.8525 0.5986
-11.7273 -3.3482 0.6142
-11.9171 -3.8703 0.6314
-12.1179 -4.4226 0.6504
-12.3312 -5.0093 0.6715
-12.5413 -5.6275 0.6940
-11.8986 -5.8612 0.6701
-11.7763 -6.3363 0.6760
-16.2045 -9.4847 0.9498
-15.2298 -9.6647 0.9131
-14.6474 -10.0508 0.8999
-13.9284 -10.3122 0.8785
-14.7863 -11.7925 0.9593
-14.4514 -12.4001 0.9665
-14.9604 -13.8001 1.0338
-15.5454 -15.4092 1.1125
-16.2269 -17.2834 1.2057
-17.0329 -19.5005 1.3177
-18.2472 -22.4710 1.4742
-18.3141 -24.2864 1.5501
-17.8335 -25.5054 1.5870
-16.9297 -26.1660 1.5902
-16.0673 -26.9049 1.6000
-15.9607 -29.0481 1.6933
-14.8982 -29.5847 1.6933
-13.8177 -30.0825 1.6933
-12.7209 -30.5414 1.6933
-11.6092 -30.9609 1.6933
-10.4838 -31.3400 1.6933
-9.3464 -31.6791 1.6933
-7.6537 -29.8531 1.5808
-6.6115 -30.2687 1.5901
-5.5174 -30.4712 1.5901
-2.1039 -14.5907 0.7573
-3.0038 -27.8911 1.4418
-1.4736 -20.6147 1.0627
-0.6506 -18.3511 0.9446
0.0080 -16.5396 0.8512
0.5483 -15.0536 0.7755
1.0006 -13.8096 0.7131
1.3857 -12.7504 0.6608
1.7183 -11.8355 0.6164
2.0092 -11.0353 0.5783
2.2664 -10.3279 0.5453
2.4960 -9.6964 0.5165
2.7027 -9.1279 0.4912
2.8902 -8.6121 0.4688
3.0615 -8.1408 0.4490
3.2191 -7.7075 0.4313
3.3648 -7.3067 0.4154
3.5003 -6.9341 0.4012
3.6269 -6.5857 0.3884
3.7459 -6.2586 0.3768
3.8580 -5.9501 0.3664
3.9643 -5.6579 0.3569
4.0653 -5.3800 0.3484
4.1617 -5.1148 0.3407
3.9524 -4.5160 0.3100
3.9907 -4.2421 0.3009
4.0840 -4.0402 0.2968
4.2002 -3.8668 0.2949
4.3995 -3.7675 0.2992
4.6217 -3.6784 0.3050
4.9355 -3.6465 0.3168
6.1298 -4.1972 0.3835
6.4511 -4.0848 0.3941
8.9358 -5.2183 0.5339
11.3712 -6.1037 0.6657
15.4127 -7.5731 0.8856
28.5634 -12.7825 1.6133
29.0134 -11.7522 1.6133
29.4268 -10.7062 1.6133
29.8031 -9.6459 1.6133
30.1418 -8.5726 1.6133
30.4424 -7.4875 1.6133
18.3015 -3.8100 0.9616
30.9279 -5.2875 1.6133
31.1121 -4.1752 1.6133
31.2568 -3.0566 1.6133
31.3617 -1.9330 1.6133
31.4269 -0.8058 1.6133
31.4519 0.3236 1.6133
31.4369 1.4537 1.6133
31.3816 2.5832 1.6133
31.2863 3.7107 1.6133
31.1508 4.8347 1.6133
30.9753 5.9539 1.6133
30.7599 7.0668 1.6133
30.5049 8.1719 1.6133
30.2105 9.2679 1.6133
29.8770 10.3534 1.6133
29.5047 11.4270 1.6133
29.0940 12.4873 1.6133
28.6454 13.5330 1.6133
28.1594 14.5626 1.6133
27.6365 15.5748 1.6133
27.5600 16.8636 1.6421
24.4726 16.2104 1.4909
15.6046 11.1628 0.9738
14.8671 11.4642 0.9522
20.8166 17.2788 1.3712
20.8733 18.6318 1.4172
21.2775 20.4121 1.4925
20.1869 20.8086 1.4665
8.5097 9.4268 0.6420
9.1585 10.9089 0.7195
14.3247 18.3633 1.1757
12.1682 16.8105 1.0470
11.8999 17.7486 1.0774
11.1631 18.0164 1.0679
10.1274 17.7376 1.0285
9.0691 17.2988 0.9829
8.6962 18.1436 1.0119
8.0099 18.3774 1.0076
7.3277 18.6099 1.0047
6.6477 18.8415 1.0030
4.5634 14.5833 0.7667
5.2877 19.3049 1.0037
4.6041 19.5378 1.0060
3.8312 19.3458 0.9879
3.2162 19.9819 1.0133
2.6525 21.3391 1.0761
1.9232 21.8616 1.0977
1.2861 24.7929 1.2412
0.3612 22.7042 1.1348
-0.4604 23.0029 1.1493
-1.4437 25.7854 1.2896
-2.4074 26.1358 1.3101
-3.4043 26.4982 1.3330
-4.4388 26.8743 1.3586
-5.4986 27.1795 1.3827
-6.6206 27.5875 1.4142
-7.5802 27.2353 1.4089
-8.6218 27.1614 1.4198
-10.3624 28.9904 1.5335
-11.0855 27.8183 1.4913
-12.4515 28.2513 1.5373
-13.4683 27.8069 1.5382
-14.9494 28.2329 1.5902
-15.9554 27.6810 1.5902
-16.9405 27.0924 1.5902
-17.9036 26.4681 1.5902
-19.2158 26.3193 1.6217
-21.0390 26.7441 1.6933
-5.4270 2.7994 0.4424
-5.5067 2.5945 0.4411
-5.6800 2.4309 0.4478
-9.3362 3.6048 0.7256
-9.4592 3.2670 0.7258
-9.5823 2.9288 0.7269
-9.7059 2.5894 0.7289
-9.8304 2.2478 0.7319
-9.9950 1.9105 0.7388
-6.3661 0.9814 0.4679
-10.2515 1.2052 0.7499
-9.5144 0.7735 0.6938
-9.3195 0.4215 0.6782
-9.4409 0.0876 0.6866
-10.6127 -0.2828 0.7724
-10.7548 -0.6737 0.7843
-10.9014 -1.0771 0.7976
-11.0532 -1.4946 0.8125
-11.2108 -1.9281 0.8289
-11.3750 -2.3799 0.8472
-11.5466 -2.8521 0.8674
-11.7268 -3.3478 0.8898
-11.9166 -3.8699 0.9146
-12.1173 -4.4221 0.9420
-12.3306 -5.0087 0.9724
-12.5417 -5.6274 1.0048
-11.8989 -5.8610 0.9700
-11.7762 -6.3359 0.9783
-16.2050 -9.4845 1.3743
-15.2302 -9.6646 1.3209
-14.6479 -10.0506 1.3015
-13.9288 -10.3120 1.2703
-14.7867 -11.7923 1.3869
-14.4511 -12.3994 1.3970
-14.7009 -13.5601 1.4680
-15.2758 -15.1412 1.5794
-14.8158 -15.7798 1.5902
-14.2330 -16.2942 1.5902
-13.6324 -16.7872 1.5902
-13.0148 -17.2582 1.5902
-13.0728 -18.6958 1.6791
-12.4925 -19.3072 1.6933
-11.7859 -19.7348 1.6933
-11.0647 -20.1366 1.6933
-10.3301 -20.5123 1.6933
-9.5827 -20.8614 1.6933
-8.8237 -21.1835 1.6933
-8.0539 -21.4781 1.6933
-7.2745 -21.7449 1.6933
-6.4864 -21.9838 1.6933
-5.4751 -21.3541 1.6292
-4.5900 -21.0118 1.5901
-3.8310 -21.1557 1.5901
-2.0882 -14.4806 1.0824
-2.3009 -21.3618 1.5901
-1.4740 -20.6157 1.5301
-0.6509 -18.3519 1.3599
0.0078 -16.5402 1.2252
0.5481 -15.0540 1.1162
1.0004 -13.8099 1.0262
1.3856 -12.7507 0.9508
1.7182 -11.8357 0.8868
2.0091 -11.0355 0.8319
2.2663 -10.3281 0.7844
2.4959 -9.6966 0.7429
2.7026 -9.1280 0.7065
2.8902 -8.6122 0.6742
3.0615 -8.1409 0.6456
3.2191 -7.7076 0.6201
3.3648 -7.3068 0.5973
3.5003 -6.9341 0.5768
3.6269 -6.5858 0.5583
3.7459 -6.2586 0.5417
3.8580 -5.9501 0.5267
3.9643 -5.6579 0.5131
4.0653 -5.3800 0.5009
4.1617 -5.1148 0.4898
3.8920 -4.4470 0.4389
3.9297 -4.1773 0.4260
4.0335 -3.9903 0.4214
4.1471 -3.8178 0.4186
4.3481 -3.7234 0.4251
4.5703 -3.6375 0.4337
4.8719 -3.5995 0.4497
6.0289 -4.1281 0.5424
6.4513 -4.0849 0.5667
8.9362 -5.2184 0.7679
11.3719 -6.1040 0.9576
15.4142 -7.5736 1.2740
19.8556 -8.8854 1.6133
20.1664 -8.1683 1.6133
20.4516 -7.4405 1.6133
20.7109 -6.7029 1.6133
20.9438 -5.9563 1.6133
13.4450 -3.3067 1.0256
18.3008 -3.8096 1.3842
21.4818 -3.6723 1.6133
21.6067 -2.8993 1.6133
10.4882 -1.0255 0.7796
21.7737 -1.3417 1.6133
21.8155 -0.5590 1.6133
21.8295 0.2249 1.6133
21.8155 1.0092 1.6133
21.7735 1.7927 1.6133
21.7035 2.5745 1.6133
21.6057 3.3537 1.6133
21.4802 4.1292 1.6133
21.3269 4.9000 1.6133
5.5963 1.4993 0.4270
5.6889 1.7454 0.4383
5.7829 2.0041 0.4506
5.8967 2.2839 0.4654
6.0359 2.5908 0.4832
6.0987 2.8814 0.4960
19.4972 10.0835 1.6133
19.1313 10.7821 1.6133
18.7405 11.4676 1.6133
18.3250 12.1388 1.6133
17.8856 12.7951 1.6133
17.4226 13.4355 1.6133
16.9368 14.0591 1.6133
16.4287 14.6651 1.6133
15.8988 15.2528 1.6133
15.3479 15.8212 1.6133
8.5100 9.4275 0.9291
9.1588 10.9097 1.0416
13.3401 17.1018 1.5853
12.1678 16.8106 1.5161
11.8995 17.7487 1.5604
11.1627 18.0166 1.5470
10.1282 17.7399 1.4904
9.0688 17.2990 1.4244
8.6958 18.1437 1.4667
8.0095 18.3776 1.4608
7.3273 18.6100 1.4568
6.6474 18.8417 1.4547
4.5315 14.4823 1.1044
5.2874 19.3050 1.4562
4.6038 19.5379 1.4598
3.8308 19.3459 1.4337
3.2159 19.9820 1.4709
2.6522 21.3395 1.5622
1.9125 21.7432 1.5852
1.1308 21.8047 1.5852
0.3471 21.8379 1.5852
-0.4375 21.8427 1.5852
-1.2258 21.8882 1.5902
-2.0116 21.8357 1.5902
-2.7951 21.7549 1.5902
-3.5754 21.6455 1.5902
-4.3514 21.5079 1.5902
-5.1220 21.3421 1.5902
-5.9917 21.5272 1.6187
-6.9335 21.8422 1.6598
-7.8705 22.0186 1.6933
-8.6574 21.7248 1.6933
-9.4331 21.4026 1.6933
-10.1968 21.0523 1.6933
-10.9472 20.6744 1.6933
-11.6835 20.2695 1.6933
-12.4045 19.8380 1.6933
-13.1095 19.3805 1.6933
-13.7973 18.8977 1.6933
-14.4672 18.3902 1.6933
-4.6873 2.4179 0.5018
-4.7581 2.2419 0.5005
-5.6805 2.4312 0.5880
-9.3362 3.6048 0.9526
-9.4592 3.2671 0.9527
-9.5823 2.9289 0.9541
-9.7059 2.5895 0.9567
-9.8303 2.2479 0.9606
-9.9950 1.9107 0.9696
-6.3650 0.9813 0.6138
-10.2514 1.2054 0.9840
-9.5149 0.7737 0.9103
-9.3194 0.4216 0.8898
-9.4408 0.0877 0.9008
-10.6123 -0.2826 1.0132
-10.7544 -0.6735 1.0287
-10.9010 -1.0768 1.0460
-11.0527 -1.4943 1.0654
-11.2103 -1.9278 1.0869
-11.3745 -2.3795 1.1107
-11.5461 -2.8518 1.1371
-11.7263 -3.3474 1.1664
-11.9161 -3.8694 1.1987
-12.1168 -4.4216 1.2345
-12.3300 -5.0082 1.2742
-12.5421 -5.6272 1.3166
-11.8993 -5.8609 1.2709
-11.7760 -6.3355 1.2816
-14.1682 -8.2920 1.5739
-13.8563 -8.7923 1.5739
-13.6667 -9.3769 1.5902
-13.3163 -9.8582 1.5902
-12.9491 -10.3263 1.5902
-12.5654 -10.7809 1.5902
-12.1657 -11.2212 1.5902
-11.7507 -11.6467 1.5902
-11.3208 -12.0569 1.5902
-10.8767 -12.4513 1.5902
-11.0943 -13.6611 1.6933
-10.5928 -14.0459 1.6933
-10.0780 -14.4123 1.6933
-9.5507 -14.7600 1.6933
-9.0114 -15.0884 1.6933
-8.4609 -15.3972 1.6933
-7.8999 -15.6860 1.6933
-7.3291 -15.9545 1.6933
-6.7492 -16.2024 1.6933
-6.1611 -16.4293 1.6933
-5.5654 -16.6350 1.6933
-4.9629 -16.8191 1.6933
-4.3544 -16.9817 1.6933
-3.5125 -16.0783 1.5901
-2.9320 -16.1897 1.5901
-2.0864 -14.4664 1.4129
-1.7613 -16.3500 1.5901
-1.1727 -16.3987 1.5901
-0.5828 -16.4265 1.5901
0.0075 -16.4331 1.5901
0.5479 -15.0545 1.4580
1.0003 -13.8103 1.3403
1.3854 -12.7510 1.2418
1.7181 -11.8360 1.1582
2.0090 -11.0357 1.0864
2.2663 -10.3282 1.0243
2.4959 -9.6967 0.9701
2.7026 -9.1281 0.9224
2.8901 -8.6123 0.8803
3.0615 -8.1410 0.8430
3.2190 -7.7076 0.8096
3.3648 -7.3068 0.7798
3.5003 -6.9341 0.7530
3.6269 -6.5858 0.7289
3.7458 -6.2587 0.7072
3.8580 -5.9501 0.6876
3.9643 -5.6579 0.6699
4.0653 -5.3800 0.6538
4.1617 -5.1148 0.6394
3.8719 -4.4240 0.5700
3.9054 -4.1514 0.5526
4.0115 -3.9685 0.5471
4.1234 -3.7960 0.5434
4.3249 -3.7035 0.5520
4.5498 -3.6211 0.5637
4.8520 -3.5848 0.5847
6.1299 -4.1971 0.7200
6.4516 -4.0850 0.7400
8.9367 -5.2186 1.0027
11.3726 -6.1042 1.2505
14.9482 -7.3445 1.6133
15.2047 -6.8039 1.6133
15.4420 -6.2545 1.6133
15.6595 -5.6969 1.6133
15.8571 -5.1318 1.6133
16.0345 -4.5599 1.6133
13.4340 -3.3038 1.3386
16.3276 -3.3986 1.6133
16.4430 -2.8106 1.6133
16.5374 -2.2188 1.6133
10.7547 -1.0514 1.0446
16.6626 -1.0265 1.6133
16.6932 -0.4275 1.6133
16.7025 0.1724 1.6133
16.6903 0.7724 1.6133
16.6567 1.3717 1.6133
16.6017 1.9697 1.6133
16.5253 2.5654 1.6133
16.4276 3.1583 1.6133
5.9410 1.3651 0.5877
5.5963 1.4994 0.5584
5.9340 1.8207 0.5980
6.0687 2.1033 0.6186
6.2151 2.4074 0.6417
6.3171 2.7117 0.6617
6.0988 2.8816 0.6490
14.8989 7.7057 1.6133
14.6177 8.2387 1.6133
14.3175 8.7615 1.6133
13.9985 9.2733 1.6133
13.6614 9.7736 1.6133
13.3063 10.2616 1.6133
12.9338 10.7367 1.6133
12.5444 11.1983 1.6133
12.1385 11.6457 1.6133
11.7165 12.0784 1.6133
8.4973 9.4138 1.2154
9.2152 10.9773 1.3731
10.2441 13.1333 1.5952
9.7692 13.4974 1.5952
9.2814 13.8443 1.5952
8.8363 14.2623 1.6052
8.3211 14.5753 1.6052
7.7366 14.7586 1.5932
7.2088 15.0418 1.5943
6.6705 15.3059 1.5953
6.1196 15.5436 1.5956
5.5559 15.7488 1.5947
4.5248 14.4616 1.4465
4.4081 16.0957 1.5926
3.8254 16.2358 1.5914
3.2383 16.3552 1.5902
2.6496 16.4654 1.5902
2.0710 16.6655 1.6009
1.5226 17.3134 1.6564
0.9201 17.7479 1.6933
0.2823 17.7764 1.6936
-0.3564 17.7826 1.6939
-0.9951 17.7653 1.6942
-1.6331 17.7249 1.6945
-2.2694 17.6614 1.6949
-2.9032 17.5747 1.6951
-3.5336 17.4648 1.6954
-4.1589 17.3285 1.6953
-4.7780 17.1663 1.6949
-5.3910 16.9824 1.6946
-5.9960 16.7741 1.6940
-6.5931 16.5444 1.6934
-7.1831 16.2972 1.6933
-7.7643 16.0301 1.6933
-8.3356 15.7420 1.6933
-8.8960 15.4334 1.6933
-9.4449 15.1047 1.6933
-9.3738 13.8579 1.5902
-9.8656 13.5126 1.5902
-10.3445 13.1497 1.5902
-4.1229 2.1268 0.5470
-4.3698 2.0590 0.5697
-5.6809 2.4314 0.7288
-9.3361 3.6050 1.1805
-9.4591 3.2672 1.1807
-9.5823 2.9291 1.1823
-9.7059 2.5896 1.1855
-9.8303 2.2480 1.1903
-9.9949 1.9108 1.2014
-6.3639 0.9812 0.7604
-10.2513 1.2055 1.2191
-9.5155 0.7738 1.1278
-9.3193 0.4218 1.1023
-9.4407 0.0879 1.1158
-10.6119 -0.2824 1.2549
-10.7540 -0.6733 1.2741
-10.9006 -1.0766 1.2955
-11.0523 -1.4940 1.3194
-11.2098 -1.9275 1.3459
-11.3740 -2.3792 1.3754
-11.5457 -2.8514 1.4080
-11.7258 -3.3470 1.4441
-11.9155 -3.8690 1.4840
-12.1162 -4.4211 1.5282
-12.3684 -5.0236 1.5822
-12.2381 -5.4905 1.5902
-11.8997 -5.8608 1.5731
-11.8057 -6.3511 1.5902
-11.5667 -6.7691 1.5902
-11.3128 -7.1780 1.5902
-11.0445 -7.5775 1.5902
-10.7622 -7.9669 1.5902
-10.4660 -8.3459 1.5902
-10.1566 -8.7138 1.5902
-9.8342 -9.0703 1.5902
-9.8107 -9.7235 1.6423
-9.7458 -10.3791 1.6933
-9.3641 -10.7193 1.6933
-8.9706 -11.0456 1.6933
-8.5657 -11.3574 1.6933
-8.1500 -11.6545 1.6933
-7.7240 -11.9364 1.6933
-7.2883 -12.2028 1.6933
-6.8435 -12.4533 1.6933
-6.3902 -12.6877 1.6933
-5.9288 -12.9057 1.6933
-5.4601 -13.1069 1.6933
-4.9846 -13.2913 1.6933
-4.5029 -13.4584 1.6933
-4.0157 -13.6082 1.6933
-3.5235 -13.7405 1.6933
-3.0271 -13.8550 1.6933
-2.3728 -13.1010 1.5901
-1.9004 -13.1750 1.5901
-1.4257 -13.2320 1.5901
-0.9493 -13.2721 1.5901
-0.4719 -13.2951 1.5901
0.0059 -13.3010 1.5901
0.4835 -13.2899 1.5901
0.9604 -13.2618 1.5901
1.3853 -12.7513 1.5341
1.7180 -11.8362 1.4307
2.0090 -11.0359 1.3420
2.2662 -10.3284 1.2652
2.4958 -9.6969 1.1982
2.7025 -9.1283 1.1394
2.8901 -8.6124 1.0873
3.0614 -8.1411 1.0412
3.2190 -7.7077 1.0000
3.3647 -7.3069 0.9631
3.5002 -6.9342 0.9300
3.6269 -6.5858 0.9002
3.7458 -6.2587 0.8734
3.8580 -5.9501 0.8492
3.5154 -5.0173 0.7336
3.7050 -4.9032 0.7359
4.1617 -5.1148 0.7896
3.8721 -4.4243 0.7040
3.9054 -4.1514 0.6825
4.0116 -3.9685 0.6757
4.1236 -3.7961 0.6711
4.3255 -3.7040 0.6818
4.5517 -3.6227 0.6965
4.8527 -3.5852 0.7223
6.1299 -4.1971 0.8893
6.4518 -4.0851 0.9140
8.9371 -5.2187 1.2386
11.3734 -6.1045 1.5447
12.1017 -5.9458 1.6133
12.3090 -5.5080 1.6133
12.5007 -5.0630 1.6133
12.6763 -4.6115 1.6133
12.8358 -4.1539 1.6133
12.9788 -3.6908 1.6133
13.1054 -3.2228 1.6133
13.2151 -2.7505 1.6133
13.3079 -2.2745 1.6133
13.3836 -1.7955 1.6133
13.4422 -1.3139 1.6133
9.9808 -0.6147 1.1942
13.5077 -0.3457 1.6133
13.5145 0.1397 1.6133
13.5039 0.6252 1.6133
13.4760 1.1100 1.6133
13.4307 1.5937 1.6133
13.3682 2.0755 1.6133
13.2884 2.5550 1.6133
5.9407 1.3652 0.7266
5.5964 1.4995 0.6904
6.2497 1.9177 0.7788
6.4034 2.2194 0.8071
6.5716 2.5456 0.8391
6.3169 2.7117 0.8183
6.0989 2.8818 0.8027
12.0456 6.2303 1.6133
11.8174 6.6608 1.6133
11.5739 7.0829 1.6133
11.3154 7.4962 1.6133
11.0420 7.9000 1.6133
10.7543 8.2939 1.6133
10.4526 8.6773 1.6133
10.1371 9.0498 1.6133
9.6982 9.3050 1.5952
9.3605 9.6501 1.5952
8.5354 9.4565 1.5111
8.6218 10.2709 1.5902
8.2497 10.5769 1.5902
7.8667 10.8694 1.5902
7.4734 11.1480 1.5902
7.0702 11.4123 1.5902
6.6576 11.6621 1.5902
6.2362 11.8968 1.5902
5.8064 12.1163 1.5902
5.3690 12.3202 1.5902
4.9244 12.5083 1.5902
4.4838 12.7105 1.5940
4.0823 13.0483 1.6166
3.7835 13.8158 1.6933
3.2861 13.9479 1.6935
2.7842 14.0626 1.6938
2.2783 14.1590 1.6941
1.7690 14.2373 1.6944
1.2571 14.2972 1.6948
0.7432 14.3387 1.6951
0.2279 14.3618 1.6954
-0.2881 14.3660 1.6958
-0.8041 14.3515 1.6961
-1.3194 14.3185 1.6964
-1.8327 14.2616 1.6961
-2.3436 14.1861 1.6958
-2.8514 14.0925 1.6955
-3.3555 13.9806 1.6953
-3.8552 13.8504 1.6950
-4.3497 13.7019 1.6947
-4.8385 13.5357 1.6944
-5.3210 13.3521 1.6941
-5.7963 13.1507 1.6937
-5.8824 12.1446 1.5902
-6.3151 11.9262 1.5902
-6.7396 11.6923 1.5902
-7.1553 11.4431 1.5902
-7.5618 11.1791 1.5902
-7.9585 10.9005 1.5902
-8.3448 10.6077 1.5902
-3.6777 1.8972 0.5827
-4.3700 2.0591 0.6803
-5.6814 2.4317 0.8704
-9.3361 3.6051 1.4097
-9.4591 3.2673 1.4098
-9.5822 2.9292 1.4118
-9.7058 2.5898 1.4156
-9.8302 2.2482 1.4212
-9.9949 1.9109 1.4344
-6.3628 0.9812 0.9077
-10.2513 1.2057 1.4555
-9.5160 0.7740 1.3465
-9.3193 0.4219 1.3159
-9.4407 0.0880 1.3320
-10.6115 -0.2822 1.4980
-10.7535 -0.6731 1.5207
-10.9001 -1.0763 1.5463
-11.4632 -1.5494 1.6333
-11.0969 -1.9079 1.5902
-11.0188 -2.3047 1.5902
-10.9265 -2.6983 1.5902
-10.8201 -3.0882 1.5902
-10.6998 -3.4740 1.5902
-10.5657 -3.8551 1.5902
-10.4179 -4.2311 1.5902
-10.2569 -4.6014 1.5902
-10.0826 -4.9656 1.5902
-9.8954 -5.3232 1.5902
-9.6955 -5.6737 1.5902
-9.4831 -6.0168 1.5902
-9.2587 -6.3519 1.5902
-9.0224 -6.6787 1.5902
-8.8502 -7.0571 1.6039
-9.0676 -7.7791 1.6933
-8.7802 -8.0978 1.6933
-8.4816 -8.4058 1.6933
-8.1723 -8.7029 1.6933
-7.8525 -8.9886 1.6933
-7.5228 -9.2626 1.6933
-7.1836 -9.5245 1.6933
-6.8353 -9.7741 1.6933
-6.4784 -10.0109 1.6933
-6.1132 -10.2348 1.6933
-5.7404 -10.4454 1.6933
-5.3603 -10.6424 1.6933
-4.9736 -10.8257 1.6933
-4.5806 -10.9950 1.6933
-4.1818 -11.1501 1.6933
-3.7779 -11.2907 1.6933
-3.3692 -11.4168 1.6933
-2.9564 -11.5282 1.6933
-2.5400 -11.6248 1.6933
-2.1204 -11.7063 1.6933
-1.5947 -11.0550 1.5901
-1.1965 -11.1032 1.5901
-0.7967 -11.1371 1.5901
-0.3962 -11.1568 1.5901
0.0048 -11.1621 1.5901
0.4057 -11.1531 1.5901
0.8059 -11.1298 1.5901
1.2049 -11.0922 1.5901
1.6024 -11.0404 1.5901
1.9976 -10.9744 1.5901
2.2661 -10.3286 1.5075
2.4958 -9.6970 1.4276
2.7025 -9.1284 1.3575
2.8901 -8.6125 1.2955
3.0614 -8.1412 1.2404
3.2190 -7.7078 1.1913
3.3647 -7.3069 1.1474
3.5002 -6.9342 1.1080
3.6269 -6.5858 1.0725
3.7458 -6.2587 1.0405
3.8580 -5.9501 1.0116
3.4179 -4.8781 0.8497
3.5819 -4.7403 0.8476
4.1617 -5.1148 0.9407
3.8722 -4.4243 0.8387
3.9054 -4.1514 0.8131
4.0117 -3.9686 0.8050
4.1237 -3.7962 0.7995
4.3215 -3.7005 0.8115
4.5463 -3.6183 0.8287
4.8426 -3.5778 0.8587
6.1299 -4.1970 1.0595
6.4521 -4.0852 1.0890
8.9375 -5.2189 1.4757
9.9703 -5.3513 1.6133
10.1571 -4.9902 1.6133
10.3309 -4.6227 1.6133
10.4915 -4.2492 1.6133
10.6387 -3.8701 1.6133
10.7723 -3.4859 1.6133
10.8920 -3.0972 1.6133
10.9979 -2.7044 1.6133
11.0896 -2.3080 1.6133
11.1672 -1.9085 1.6133
11.2304 -1.5064 1.6133
11.2792 -1.1023 1.6133
11.3136 -0.6966 1.6133
10.0872 -0.2580 1.4359
11.3387 0.1174 1.6133
11.3293 0.5247 1.6133
11.3055 0.9314 1.6133
11.2671 1.3372 1.6133
11.2141 1.7413 1.6133
11.1468 2.1434 1.6133
5.9405 1.3653 0.8662
5.5964 1.4997 0.8231
10.8588 3.3322 1.6133
10.7346 3.7209 1.6133
10.5965 4.1050 1.6133
6.3167 2.7118 0.9757
6.0989 2.8820 0.9572
10.1007 5.2246 1.6133
9.9090 5.5854 1.6133
9.7043 5.9391 1.6133
9.4871 6.2853 1.6133
9.2575 6.6236 1.6133
8.9146 6.8754 1.5952
8.6371 7.1705 1.5902
8.3760 7.4779 1.5902
8.1041 7.7758 1.5902
7.8215 8.0638 1.5902
7.5287 8.3415 1.5902
7.2260 8.6085 1.5902
6.9138 8.8646 1.5902
6.5926 9.1093 1.5902
6.2627 9.3424 1.5902
5.9245 9.5635 1.5902
5.5785 9.7723 1.5902
5.2252 9.9686 1.5902
4.8649 10.1521 1.5902
4.6478 10.6659 1.6431
4.3929 11.1590 1.6933
3.9908 11.3138 1.6936
3.5833 11.4541 1.6939
3.1709 11.5798 1.6942
0.7911 3.3581 0.4867
0.6698 3.3831 0.4865
0.5477 3.4039 0.4862
0.4250 3.4205 0.4860
0.3018 3.4330 0.4859
0.1783 3.4412 0.4857
0.0546 3.4452 0.4856
-0.0691 3.4450 0.4856
-0.1928 3.4406 0.4855
-0.3163 3.4320 0.4855
-0.4394 3.4191 0.4856
-0.5621 3.4021 0.4856
-0.6841 3.3809 0.4858
-0.8054 3.3555 0.4859
-3.2270 11.5931 1.6943
-3.6410 11.4689 1.6940
-4.0501 11.3298 1.6937
-4.4539 11.1760 1.6935
-4.5568 10.3385 1.5902
-4.9254 10.1687 1.5902
-5.2877 9.9858 1.5902
-5.6431 9.7898 1.5902
-5.9911 9.5812 1.5902
-6.3315 9.3601 1.5902
-2.6080 3.5721 0.6224
-2.7135 3.4494 0.6176
-3.5280 1.8200 0.6505
-4.3703 2.0593 0.7917
-5.6818 2.4320 1.0129
-9.0509 3.4950 1.5902
-9.1695 3.1674 1.5902
-9.2762 2.8358 1.5902
-9.3709 2.5005 1.5902
-9.4534 2.1621 1.5902
-9.5236 1.8210 1.5902
-6.2385 0.9621 1.0354
-9.6270 1.1325 1.5902
-9.5166 0.7742 1.5666
-9.3192 0.4221 1.5309
-9.4406 0.0882 1.5496
-9.6836 -0.2574 1.5902
-9.6665 -0.6048 1.5902
-9.6368 -0.9514 1.5902
-9.5947 -1.2966 1.5902
-9.5401 -1.6401 1.5902
-9.4733 -1.9812 1.5902
-9.3942 -2.3197 1.5902
-9.3031 -2.6550 1.5902
-9.1999 -2.9868 1.5902
-9.0849 -3.3146 1.5902
-8.9581 -3.6380 1.5902
-8.8199 -3.9565 1.5902
-8.6703 -4.2698 1.5902
-8.5096 -4.5775 1.5902
-8.3380 -4.8791 1.5902
-8.1721 -5.1847 1.5934
-8.3609 -5.7357 1.6697
-8.2630 -6.1163 1.6933
-8.0363 -6.4077 1.6933
-7.7993 -6.6908 1.6933
-7.5524 -6.9651 1.6933
-7.2958 -7.2303 1.6933
-7.0300 -7.4861 1.6933
-6.7552 -7.7321 1.6933
-6.4718 -7.9681 1.6933
-6.1801 -8.1937 1.6933
-5.8807 -8.4087 1.6933
-5.5738 -8.6127 1.6933
-5.2598 -8.8056 1.6933
-4.9392 -8.9870 1.6933
-4.6123 -9.1569 1.6933
-4.2796 -9.3148 1.6933
-3.9416 -9.4608 1.6933
-3.5986 -9.5945 1.6933
-3.2511 -9.7158 1.6933
-2.8995 -9.8246 1.6933
-2.5444 -9.9207 1.6933
-2.1860 -10.0040 1.6933
-1.8250 -10.0745 1.6933
-1.4618 -10.1320 1.6933
-1.0299 -9.5559 1.5901
-0.6859 -9.5853 1.5901
-0.3411 -9.6024 1.5901
0.0040 -9.6072 1.5901
0.3490 -9.5997 1.5901
0.6935 -9.5798 1.5901
1.0370 -9.5476 1.5901
1.3791 -9.5031 1.5901
1.7194 -9.4465 1.5901
2.0574 -9.3778 1.5901
2.3927 -9.2970 1.5901
2.7024 -9.1285 1.5770
2.8900 -8.6126 1.5049
3.0614 -8.1412 1.4410
3.2190 -7.7078 1.3839
3.3647 -7.3070 1.3329
3.5002 -6.9343 1.2871
3.6269 -6.5859 1.2458
3.7458 -6.2587 1.2087
3.8580 -5.9502 1.1751
3.4221 -4.8841 0.9883
3.5863 -4.7461 0.9858
4.1617 -5.1148 1.0927
3.8722 -4.4243 0.9743
3.9054 -4.1514 0.9445
4.0117 -3.9686 0.9351
4.1237 -3.7962 0.9287
4.3152 -3.6951 0.9413
4.5389 -3.6124 0.9611
4.8323 -3.5701 0.9954
6.1299 -4.1970 1.2308
6.4523 -4.0853 1.2651
8.4108 -4.9112 1.6133
8.5824 -4.6063 1.6133
8.7431 -4.2955 1.6133
8.8926 -3.9790 1.6133
9.0307 -3.6574 1.6133
9.1572 -3.3310 1.6133
9.2721 -3.0003 1.6133
9.3750 -2.6657 1.6133
9.4659 -2.3275 1.6133
9.5447 -1.9863 1.6133
9.6112 -1.6424 1.6133
9.6654 -1.2964 1.6133
9.7072 -0.9485 1.6133
9.7365 -0.5993 1.6133
9.7533 -0.2493 1.6133
9.7576 0.1012 1.6133
9.7493 0.4517 1.6133
9.7285 0.8017 1.6133
9.6952 1.1508 1.6133
9.6493 1.4985 1.6133
9.5911 1.8445 1.6133
5.9403 1.3653 1.0066
5.5964 1.4998 0.9567
9.3425 2.8671 1.6133
9.2353 3.2014 1.6133
9.1162 3.5318 1.6133
6.3165 2.7119 1.1341
6.0990 2.8822 1.1127
8.6888 4.4946 1.6133
8.5236 4.8047 1.6133
8.2535 5.0514 1.5952
8.0434 5.3291 1.5902
7.8484 5.6157 1.5902
7.6433 5.8952 1.5902
7.4283 6.1672 1.5902
7.2035 6.4314 1.5902
6.9694 6.6873 1.5902
6.7261 6.9348 1.5902
6.4741 7.1734 1.5902
6.2136 7.4028 1.5902
5.9450 7.6227 1.5902
5.6686 7.8329 1.5902
5.3847 8.0331 1.5902
5.0938 8.2229 1.5902
4.7962 8.4022 1.5902
4.7360 9.0358 1.6765
4.4537 9.2944 1.6934
4.1185 9.4516 1.6937
3.7777 9.5967 1.6939
3.4318 9.7295 1.6942
3.0812 9.8498 1.6945
0.7894 2.8831 0.4907
0.6851 2.9085 0.4904
0.5800 2.9303 0.4902
0.4743 2.9485 0.4900
0.3681 2.9630 0.4898
0.2614 2.9738 0.4897
0.1544 2.9810 0.4895
0.0473 2.9845 0.4895
-0.0599 2.9843 0.4894
-0.1671 2.9804 0.4894
-0.2740 2.9729 0.4894
-0.3807 2.9617 0.4894
-0.4869 2.9468 0.4895
-0.5926 2.9283 0.4896
-0.6976 2.9062 0.4897
-0.8018 2.8804 0.4899
-3.1287 9.8551 1.6939
-3.4803 9.7356 1.6937
-3.8273 9.6036 1.6934
-3.9647 8.9948 1.6101
-4.2325 8.7381 1.5902
-4.5437 8.5808 1.5902
-2.0251 3.5133 0.6641
-2.1327 3.4107 0.6588
-2.2365 3.3064 0.6537
-2.3367 3.2004 0.6489
-2.4332 3.0929 0.6445
-3.5282 1.8201 0.7427
-4.3706 2.0595 0.9039
-5.6823 2.4322 1.1565
-7.9279 3.0615 1.5902
-8.0320 2.7746 1.5902
-8.1255 2.4841 1.5902
-8.2086 2.1905 1.5902
-8.2810 1.8941 1.5902
-8.3427 1.5953 1.5902
-6.2322 0.9612 1.1808
-8.4335 0.9922 1.5902
-8.4625 0.6886 1.5902
-8.4806 0.3842 1.5902
-8.4877 0.0795 1.5902
-8.4838 -0.2254 1.5902
-8.4689 -0.5298 1.5902
-8.4431 -0.8334 1.5902
-8.4064 -1.1359 1.5902
-8.3588 -1.4368 1.5902
-8.3004 -1.7357 1.5902
-8.2313 -2.0324 1.5902
-8.1516 -2.3262 1.5902
-8.0614 -2.6170 1.5902
-7.9608 -2.9043 1.5902
-7.8500 -3.1878 1.5902
-7.7290 -3.4670 1.5902
-7.6829 -3.7833 1.6080
-7.8011 -4.1962 1.6635
-7.7810 -4.5529 1.6933
-7.6110 -4.8285 1.6933
-7.4313 -5.0978 1.6933
-7.2421 -5.3604 1.6933
-7.0436 -5.6160 1.6933
-6.8361 -5.8642 1.6933
-6.6198 -6.1048 1.6933
-6.3951 -6.3374 1.6933
-6.1622 -6.5618 1.6933
-5.9215 -6.7776 1.6933
-5.6732 -6.9846 1.6933
-5.4177 -7.1826 1.6933
-5.1553 -7.3712 1.6933
-4.8864 -7.5502 1.6933
-4.6113 -7.7195 1.6933
-4.3303 -7.8788 1.6933
-4.0438 -8.0278 1.6933
-3.7523 -8.1665 1.6933
-3.4560 -8.2947 1.6933
-3.1553 -8.4121 1.6933
-2.8507 -8.5186 1.6933
-2.5425 -8.6142 1.6933
-2.2311 -8.6987 1.6933
-1.9170 -8.7719 1.6933
-1.6004 -8.8338 1.6933
-1.2819 -8.8844 1.6933
-0.9619 -8.9235 1.6933
-0.6016 -8.4054 1.5901
-0.2992 -8.4205 1.5901
0.0034 -8.4248 1.5901
0.3060 -8.4183 1.5901
0.6081 -8.4010 1.5901
0.9093 -8.3729 1.5901
1.2094 -8.3341 1.5901
1.5078 -8.2845 1.5901
1.8043 -8.2243 1.5901
2.0984 -8.1535 1.5901
2.3897 -8.0723 1.5901
2.6779 -7.9808 1.5901
2.9630 -7.8797 1.5902
3.2189 -7.7079 1.5780
3.3647 -7.3071 1.5197
3.5002 -6.9343 1.4675
3.6269 -6.5859 1.4205
3.7458 -6.2588 1.3781
3.8580 -5.9502 1.3399
3.4263 -4.8901 1.1282
3.5907 -4.7519 1.1253
4.1617 -5.1148 1.2459
3.8721 -4.4242 1.1109
3.9054 -4.1514 1.0769
4.0117 -3.9685 1.0662
4.1236 -3.7960 1.0589
4.3138 -3.6939 1.0730
4.5315 -3.6064 1.0941
4.8211 -3.5618 1.1323
7.0472 -4.8250 1.6133
7.2164 -4.5690 1.6133
7.3764 -4.3071 1.6133
7.5269 -4.0397 1.6133
7.6677 -3.7670 1.6133
7.7987 -3.4895 1.6133
7.9198 -3.2074 1.6133
8.0306 -2.9211 1.6133
8.1312 -2.6310 1.6133
8.2213 -2.3375 1.6133
8.3009 -2.0410 1.6133
8.3699 -1.7417 1.6133
8.4281 -1.4401 1.6133
8.4755 -1.1366 1.6133
8.5119 -0.8316 1.6133
8.5375 -0.5254 1.6133
8.5521 -0.2184 1.6133
8.5556 0.0889 1.6133
8.5482 0.3962 1.6133
8.5298 0.7031 1.6133
8.5004 1.0091 1.6133
8.4600 1.3140 1.6133
8.4088 1.6173 1.6133
5.9401 1.3654 1.1482
5.5965 1.4999 1.0913
8.1902 2.5137 1.6133
8.0961 2.8067 1.6133
7.9915 3.0962 1.6133
6.3163 2.7120 1.2937
6.0991 2.8823 1.2694
7.5072 3.8836 1.5902
7.3643 4.1514 1.5902
7.2118 4.4141 1.5902
7.0499 4.6711 1.5902
6.8789 4.9222 1.5902
6.6989 5.1670 1.5902
6.5103 5.4053 1.5902
6.3131 5.6367 1.5902
6.1078 5.8609 1.5902
5.8945 6.0776 1.5902
5.6735 6.2865 1.5902
5.4450 6.4874 1.5902
5.2095 6.6800 1.5902
4.9672 6.8640 1.5902
4.7183 7.0392 1.5902
4.6574 7.5188 1.6594
4.4749 7.8398 1.6934
4.1918 7.9979 1.6936
3.9031 8.1458 1.6938
3.6091 8.2832 1.6941
3.3104 8.4100 1.6943
3.0071 8.5261 1.6945
0.7866 2.5147 0.4938
0.6955 2.5404 0.4935
0.6037 2.5629 0.4933
0.5111 2.5821 0.4931
0.4179 2.5982 0.4929
0.3243 2.6111 0.4927
0.2303 2.6207 0.4926
0.1361 2.6270 0.4925
0.0416 2.6301 0.4924
-0.0528 2.6300 0.4924
-0.1473 2.6265 0.4923
-0.2415 2.6199 0.4923
-0.3355 2.6099 0.4924
-0.4291 2.5967 0.4924
-0.5222 2.5803 0.4925
-0.6147 2.5607 0.4926
-0.7065 2.5379 0.4928
-0.7975 2.5119 0.4929
-3.0487 8.5280 1.6938
-3.3527 8.4125 1.6936
-3.6523 8.2860 1.6934
-1.6216 3.3477 0.6956
-1.7270 3.2613 0.6901
-1.8289 3.1729 0.6848
-1.9276 3.0826 0.6798
-2.0229 2.9906 0.6751
-2.1150 2.8968 0.6706
-2.2037 2.8013 0.6664
-3.5284 1.8203 0.8357
-4.3709 2.0597 1.0171
-5.2803 2.2602 1.2091
-7.0463 2.7211 1.5902
-7.1388 2.4661 1.5902
-7.2221 2.2080 1.5902
-7.2960 1.9471 1.5902
-7.3604 1.6837 1.5902
-7.4153 1.4181 1.5902
-6.2259 0.9603 1.3271
-6.3049 0.7419 1.3375
-7.5222 0.6122 1.5902
-7.5384 0.3417 1.5902
-7.5448 0.0708 1.5902
-7.5415 -0.2002 1.5902
-7.5284 -0.4708 1.5902
-7.5055 -0.7407 1.5902
-7.4730 -1.0096 1.5902
-7.4309 -1.2771 1.5902
-7.3791 -1.5429 1.5902
-7.3178 -1.8066 1.5902
-7.2533 -2.0697 1.5916
-7.1670 -2.3265 1.5902
-7.2667 -2.6509 1.6327
-7.3885 -3.0002 1.6835
-7.3174 -3.2821 1.6933
-7.1936 -3.5422 1.6933
-7.0606 -3.7976 1.6933
-6.9185 -4.0481 1.6933
-6.7675 -4.2932 1.6933
-6.6079 -4.5327 1.6933
-6.4398 -4.7663 1.6933
-6.2634 -4.9937 1.6933
-6.0790 -5.2145 1.6933
-5.8868 -5.4285 1.6933
-5.6871 -5.6355 1.6933
-5.4801 -5.8352 1.6933
-5.2661 -6.0272 1.6933
-5.0454 -6.2114 1.6933
-4.8183 -6.3876 1.6933
-4.5850 -6.5555 1.6933
-4.3459 -6.7148 1.6933
-4.1013 -6.8655 1.6933
-3.8515 -7.0073 1.6933
-3.5968 -7.1400 1.6933
-3.3375 -7.2635 1.6933
-3.0740 -7.3776 1.6933
-2.8066 -7.4821 1.6933
-2.5357 -7.5770 1.6933
-2.2616 -7.6622 1.6933
-1.9847 -7.7374 1.6933
-1.7053 -7.8027 1.6933
-1.4238 -7.8579 1.6933
-1.1404 -7.9030 1.6933
-0.8557 -7.9379 1.6933
-0.5604 -7.8279 1.6647
-0.2663 -7.4907 1.5901
0.0029 -7.4946 1.5901
0.2721 -7.4889 1.5901
0.5409 -7.4736 1.5901
0.8089 -7.4487 1.5901
1.0758 -7.4142 1.5901
1.3413 -7.3701 1.5901
1.6052 -7.3170 1.5902
1.8669 -7.2543 1.5902
2.1261 -7.1822 1.5902
2.3826 -7.1009 1.5902
2.6360 -7.0103 1.5902
2.8860 -6.9108 1.5902
3.1322 -6.8024 1.5902
3.3745 -6.6852 1.5902
3.6123 -6.5595 1.5902
3.7458 -6.2588 1.5490
3.8580 -5.9502 1.5060
3.4306 -4.8962 1.2696
3.5951 -4.7578 1.2664
4.0876 -5.0236 1.3754
3.8719 -4.4240 1.2485
3.9054 -4.1513 1.2104
4.0116 -3.9685 1.1983
4.1235 -3.7959 1.1902
4.3124 -3.6927 1.2056
4.5240 -3.6005 1.2278
4.8099 -3.5534 1.2698
6.2697 -4.2925 1.6133
6.4202 -4.0648 1.6133
6.5624 -3.8318 1.6133
6.6963 -3.5938 1.6133
6.8215 -3.3512 1.6133
6.9380 -3.1043 1.6133
7.0456 -2.8533 1.6133
7.1442 -2.5986 1.6133
7.2336 -2.3405 1.6133
7.3137 -2.0794 1.6133
7.3844 -1.8155 1.6133
7.4456 -1.5492 1.6133
7.4973 -1.2810 1.6133
7.5393 -1.0110 1.6133
7.5717 -0.7396 1.6133
7.5943 -0.4672 1.6133
7.6072 -0.1942 1.6133
7.6102 0.0792 1.6133
7.6035 0.3525 1.6133
7.5870 0.6255 1.6133
7.5607 0.8977 1.6133
7.5247 1.1689 1.6133
7.4789 1.4386 1.6133
5.9399 1.3655 1.2909
5.5965 1.5001 1.2270
7.1799 2.2038 1.5902
7.0973 2.4606 1.5902
7.0054 2.7143 1.5902
6.3161 2.7120 1.4547
6.0992 2.8825 1.4274
6.6761 3.4538 1.5902
6.5488 3.6919 1.5902
6.4131 3.9254 1.5902
6.2690 4.1539 1.5902
6.1168 4.3771 1.5902
5.9567 4.5947 1.5902
5.7888 4.8065 1.5902
5.6134 5.0121 1.5902
5.4307 5.2114 1.5902
5.2409 5.4039 1.5902
5.0443 5.5896 1.5902
4.8411 5.7681 1.5902
4.6491 5.9616 1.5962
4.4206 6.1091 1.5919
4.4667 6.6641 1.6933
4.2256 6.8219 1.6935
3.9789 6.9712 1.6937
3.7271 7.1116 1.6939
3.4702 7.2428 1.6941
3.2088 7.3647 1.6943
2.9430 7.4773 1.6945
0.7828 2.2196 0.4962
0.7023 2.2454 0.4960
0.6210 2.2684 0.4957
0.5390 2.2886 0.4955
0.4564 2.3059 0.4953
0.3732 2.3203 0.4952
0.2896 2.3318 0.4950
0.2056 2.3404 0.4949
0.1215 2.3461 0.4948
0.0372 2.3489 0.4948
-0.0472 2.3487 0.4947
-0.1315 2.3457 0.4947
-0.2157 2.3397 0.4947
-0.2996 2.3308 0.4947
-0.3832 2.3189 0.4948
-0.4663 2.3042 0.4949
-0.5489 2.2866 0.4950
-0.6309 2.2662 0.4951
-0.7121 2.2429 0.4952
-0.7925 2.2168 0.4954
-1.2722 3.1922 0.7231
-1.3752 3.1199 0.7174
-1.4752 3.0455 0.7120
-1.5722 2.9690 0.7069
-1.6662 2.8905 0.7020
-1.7572 2.8101 0.6973
-1.8452 2.7278 0.6929
-1.9303 2.6438 0.6887
-2.0124 2.5581 0.6848
-3.5286 1.8204 0.9295
-4.3712 2.0599 1.1314
-5.1980 2.2250 1.3239
-6.3351 2.4466 1.5902
-6.4183 2.2173 1.5902
-6.4932 1.9853 1.5902
-6.5597 1.7507 1.5902
-6.6177 1.5139 1.5902
-6.6672 1.2751 1.5902
-6.2196 0.9595 1.4744
-6.2984 0.7412 1.4860
-6.7635 0.5506 1.5902
-6.7781 0.3073 1.5902
-6.7840 0.0637 1.5902
-6.7811 -0.1799 1.5902
-6.7694 -0.4232 1.5902
-6.7490 -0.6659 1.5902
-6.7198 -0.9077 1.5902
-6.7273 -1.1561 1.6010
-6.8216 -1.4262 1.6348
-6.9199 -1.7082 1.6722
-6.9395 -1.9800 1.6933
-6.8629 -2.2276 1.6933
-6.7775 -2.4723 1.6933
-6.6834 -2.7137 1.6933
-6.5807 -2.9515 1.6933
-6.4695 -3.1855 1.6933
-6.3499 -3.4152 1.6933
-6.2222 -3.6405 1.6933
-6.0866 -3.8610 1.6933
-5.9431 -4.0765 1.6933
-5.7920 -4.2866 1.6933
-5.6334 -4.4912 1.6933
-5.4676 -4.6899 1.6933
-5.2949 -4.8825 1.6933
-5.1153 -5.0687 1.6933
-4.9292 -5.2484 1.6933
-4.7369 -5.4212 1.6933
-4.5384 -5.5870 1.6933
-4.3342 -5.7455 1.6933
-4.1244 -5.8966 1.6933
-3.9094 -6.0401 1.6933
-3.6894 -6.1757 1.6933
-3.4648 -6.3033 1.6933
-3.2357 -6.4228 1.6933
-3.0025 -6.5340 1.6933
-2.7655 -6.6367 1.6933
-2.5250 -6.7309 1.6933
-2.2813 -6.8164 1.6933
-2.0348 -6.8930 1.6933
