ply
format ascii 1.0
element vertex 2078
property float32 x
property float32 y
property float32 z
end_header
13.1816 11.8152 -2.7278
12.3186 11.8666 -2.6364
12.2278 12.6567 -2.7132
11.4922 12.7839 -2.6508
-21.0332 8.9272 -2.9889
-21.0659 8.0611 -2.9495
-21.0978 7.2160 -2.9147
-21.1290 6.3889 -2.8844
-21.1597 5.5772 -2.8583
-21.1898 4.7784 -2.8363
-21.2196 3.9903 -2.8183
-21.2490 3.2106 -2.8040
-22.3385 2.5586 -2.9326
-3.0818 0.0194 -0.4015
-10.4389 -2.2163 -1.3871
-9.1248 -2.2826 -1.2221
-8.0446 -2.3223 -1.0875
-7.1806 -2.3553 -0.9811
-6.2969 -2.3191 -0.8709
-5.8855 -2.4109 -0.8251
-5.3840 -2.4347 -0.7663
-4.9504 -2.4564 -0.7165
-4.5698 -2.4759 -0.6736
-4.2316 -2.4933 -0.6363
-3.9292 -2.5094 -0.6038
-3.6556 -2.5239 -0.5751
-3.2626 -2.4301 -0.5265
-3.2529 -2.6096 -0.5396
-3.2607 -2.8140 -0.5571
-29.6503 -39.5489 -6.3830
-26.5758 -41.3261 -6.3419
-24.8842 -41.9323 -6.2923
-19.6606 -43.1136 -6.1113
-0.1403 -0.7868 -0.1030
-0.1097 -0.7755 -0.1009
-0.0821 -0.7818 -0.1013
-0.0553 -0.8039 -0.1038
8.9166 -40.1485 -5.2992
10.4607 -40.2194 -5.3551
10.8753 -21.4138 -3.0972
11.7107 -21.1425 -3.1173
12.8284 -21.3168 -3.2095
13.2539 -20.3337 -3.1317
20.9546 -29.7552 -4.6967
21.0324 -27.6970 -4.4892
21.1036 -25.8114 -4.3046
20.6063 -23.4331 -4.0298
21.4837 -22.7304 -4.0401
21.7793 -21.4455 -3.9493
27.8409 -25.5114 -4.8805
30.1289 -25.6801 -5.1180
35.8723 -28.4164 -5.9180
31.0205 -22.8093 -4.9807
31.4649 -21.4392 -4.9267
39.8011 -23.1220 -5.9599
40.6019 -21.6760 -5.9613
41.3149 -16.6279 -5.7743
41.3636 -14.9452 -5.7044
45.9617 -11.1976 -6.1424
46.2012 -9.5126 -6.1271
41.5473 -7.0097 -5.4750
41.4285 -5.4680 -5.4320
45.9271 -4.3907 -5.9996
45.9896 -2.7348 -5.9934
23.0226 -0.5407 -2.9970
13.5664 0.1687 -1.7663
12.9221 0.6253 -1.6850
13.1509 1.1108 -1.7195
12.6545 1.5283 -1.6614
12.8865 2.0281 -1.7010
20.9314 4.0695 -2.7814
18.1427 4.2086 -2.4303
18.1691 4.9085 -2.4568
18.1962 5.6243 -2.4871
18.2239 6.3583 -2.5214
18.2524 7.1133 -2.5600
18.2818 7.8923 -2.6032
18.3122 8.6984 -2.6512
18.3439 9.5354 -2.7046
18.3768 10.4073 -2.7638
17.8104 10.9494 -2.7369
16.5279 10.9978 -2.5998
15.3671 11.0417 -2.4788
14.3037 11.0777 -2.3707
13.3330 11.1143 -2.2752
13.1810 11.8153 -2.3209
12.3186 11.8671 -2.2434
12.2273 12.6568 -2.3087
11.4922 12.7845 -2.2558
-21.0332 8.9278 -2.4670
-21.0659 8.0618 -2.4343
-21.0978 7.2166 -2.4054
-21.1290 6.3895 -2.3802
-21.1597 5.5779 -2.3585
-21.1898 4.7791 -2.3402
-21.2196 3.9910 -2.3251
-21.2490 3.2113 -2.3131
-22.3295 2.5583 -2.4181
-3.0818 0.0195 -0.3311
-12.3543 -2.1622 -1.3444
-10.4390 -2.2160 -1.1434
-9.1258 -2.2826 -1.0074
-8.0454 -2.3223 -0.8964
-7.1812 -2.3553 -0.8086
-6.2972 -2.3190 -0.7177
-5.8859 -2.4109 -0.6799
-5.3844 -2.4347 -0.6314
-4.9507 -2.4564 -0.5903
-4.5700 -2.4759 -0.5549
-4.2319 -2.4933 -0.5242
-3.9294 -2.5094 -0.4974
-3.6558 -2.5239 -0.4737
-3.2629 -2.4302 -0.4337
-3.2529 -2.6095 -0.4443
-3.2607 -2.8139 -0.4587
-26.5478 -41.2809 -5.2144
-24.7452 -41.6965 -5.1499
-0.1403 -0.7868 -0.0847
-0.1097 -0.7754 -0.0830
-0.0821 -0.7817 -0.0833
-0.0553 -0.8036 -0.0854
8.8788 -39.9775 -4.3416
10.3941 -39.9623 -4.3781
20.4149 -44.0457 -5.1510
11.3592 -22.3659 -2.6621
11.9840 -21.6351 -2.6252
12.7661 -21.2126 -2.6285
13.8084 -21.1838 -2.6853
20.9599 -29.7616 -3.8666
21.1494 -27.8501 -3.7155
22.5067 -27.5265 -3.7789
20.6202 -23.4480 -3.3195
21.2654 -22.4985 -3.2921
21.3914 -21.0626 -3.1934
27.9359 -25.5973 -4.0318
30.1300 -25.6798 -4.2141
35.8741 -28.4165 -4.8732
29.6822 -21.8242 -3.9245
31.5251 -21.4791 -4.0650
39.8745 -23.1632 -4.9178
40.8014 -21.7811 -4.9344
41.2789 -16.6120 -4.7531
41.2402 -14.8993 -4.6860
45.9618 -11.1962 -5.0621
41.4947 -8.5423 -4.5354
41.5008 -7.0006 -4.5077
41.6614 -5.4974 -4.5029
45.7657 -4.3738 -4.9285
45.8280 -2.7237 -4.9238
22.6023 -0.5301 -2.4259
13.4293 0.1674 -1.4418
13.2828 0.6432 -1.4283
9.1854 0.7762 -0.9905
13.0864 1.5808 -1.4170
24.8995 3.9196 -2.7109
20.9285 4.0696 -2.2941
18.1427 4.2092 -2.0049
18.1692 4.9092 -2.0269
18.1962 5.6249 -2.0521
18.2239 6.3590 -2.0806
18.2524 7.1140 -2.1126
18.2818 7.8929 -2.1484
18.3123 8.6991 -2.1882
18.3439 9.5361 -2.2324
18.3768 10.4080 -2.2814
17.8094 10.9494 -2.2593
16.5270 10.9978 -2.1462
15.3663 11.0417 -2.0465
14.3030 11.0777 -1.9574
13.3323 11.1144 -1.8786
12.5721 11.2699 -1.8281
11.6091 11.1842 -1.7460
11.3021 11.6996 -1.7625
11.4923 12.7850 -1.8632
-21.0332 8.9285 -1.9476
-21.0658 8.0625 -1.9216
-21.0978 7.2173 -1.8986
-21.1290 6.3902 -1.8785
-21.1596 5.5785 -1.8611
-21.1898 4.7797 -1.8465
-21.2196 3.9916 -1.8343
-21.2490 3.2119 -1.8247
-22.3203 2.5579 -1.9064
-3.0818 0.0196 -0.2611
-14.9405 -2.0646 -1.2746
-12.3562 -2.1622 -1.0595
-10.4392 -2.2157 -0.9008
-9.1269 -2.2825 -0.7937
-8.0462 -2.3223 -0.7061
-7.1819 -2.3553 -0.6369
-6.2975 -2.3189 -0.5652
-5.8864 -2.4109 -0.5354
-5.3847 -2.4347 -0.4972
-4.9510 -2.4564 -0.4647
-4.5703 -2.4759 -0.4368
-4.2321 -2.4933 -0.4126
-3.9296 -2.5094 -0.3914
-3.6560 -2.5239 -0.3728
-3.2632 -2.4303 -0.3412
-3.2529 -2.6093 -0.3496
-3.2607 -2.8138 -0.3609
-0.1403 -0.7867 -0.0666
-0.1097 -0.7753 -0.0652
-0.0821 -0.7816 -0.0655
-0.0553 -0.8034 -0.0671
8.8048 -39.6432 -3.3825
10.3129 -39.6490 -3.4128
20.4150 -44.0445 -4.0477
22.0362 -43.3874 -4.0585
11.9183 -21.5158 -2.0519
12.5947 -20.9271 -2.0381
13.7908 -21.1560 -2.1080
20.9607 -29.7617 -3.0394
21.1495 -27.8492 -2.9208
22.5068 -27.5255 -2.9708
22.5789 -25.6743 -2.8578
21.0508 -22.2705 -2.5624
22.1562 -21.8147 -2.6009
28.1206 -25.7654 -3.1917
30.1319 -25.6802 -3.3146
35.8759 -28.4165 -3.8333
29.6325 -21.7865 -3.0820
31.1176 -21.2003 -3.1567
5.5792 -3.5146 -0.5531
5.7254 -3.3257 -0.5556
40.6551 -21.7016 -3.8693
40.9872 -16.4933 -3.7153
40.9519 -14.7938 -3.6636
45.7483 -12.8994 -4.0037
45.9619 -11.1947 -3.9869
41.8327 -8.6105 -3.6016
41.1399 -6.9384 -3.5203
41.4328 -5.4659 -3.5283
45.9272 -4.3878 -3.8973
45.9897 -2.7319 -3.8941
24.0254 -0.5627 -2.0325
13.2955 0.1662 -1.1252
13.2990 0.6444 -1.1274
9.1831 0.7763 -0.7808
12.8984 1.5585 -1.1014
24.4837 3.8550 -2.1023
20.5795 4.0024 -1.7793
18.1428 4.2098 -1.5816
18.1692 4.9097 -1.5992
18.1962 5.6255 -1.6192
18.2239 6.3596 -1.6419
18.2525 7.1146 -1.6673
18.2818 7.8936 -1.6957
18.3123 8.6997 -1.7274
18.3439 9.5367 -1.7625
18.3768 10.4086 -1.8014
17.8084 10.9495 -1.7840
16.5382 11.0060 -1.6961
15.3768 11.0498 -1.6174
14.5278 11.2524 -1.5704
13.3371 11.1189 -1.4846
12.4407 11.1528 -1.4292
11.6085 11.1842 -1.3795
11.3021 11.7002 -1.3927
12.9124 14.3656 -1.6544
-40.5480 18.9603 -2.8037
-21.0331 8.9292 -1.4302
-21.0658 8.0632 -1.4108
-21.0977 7.2180 -1.3937
-21.1290 6.3909 -1.3786
-21.1596 5.5792 -1.3656
-21.1898 4.7804 -1.3546
-21.2195 3.9923 -1.3454
-21.2490 3.2126 -1.3381
-22.3114 2.5576 -1.3972
-3.0819 0.0197 -0.1913
-18.8468 -1.9170 -1.1730
-14.9432 -2.0645 -0.9333
-12.3580 -2.1621 -0.7756
-10.4394 -2.2154 -0.6592
-9.1279 -2.2825 -0.5807
-8.0470 -2.3222 -0.5165
-7.1825 -2.3552 -0.4658
-6.2978 -2.3187 -0.4133
-5.8868 -2.4108 -0.3914
-5.3851 -2.4347 -0.3634
-4.9513 -2.4564 -0.3396
-4.5706 -2.4759 -0.3191
-4.2324 -2.4932 -0.3014
-3.9298 -2.5093 -0.2859
-3.6562 -2.5239 -0.2722
-3.2636 -2.4304 -0.2491
-3.2529 -2.6092 -0.2551
-3.2607 -2.8136 -0.2633
-0.1403 -0.7866 -0.0485
-0.1097 -0.7752 -0.0475
-0.0821 -0.7815 -0.0477
-0.0553 -0.8032 -0.0488
8.8123 -39.6757 -2.4652
10.2138 -39.2670 -2.4615
22.0370 -43.3874 -2.9569
11.8580 -21.4063 -1.4874
12.8166 -21.2950 -1.5113
20.4789 -31.4149 -2.2812
20.9548 -29.7522 -2.2147
5.4670 -7.1986 -0.5504
5.4821 -6.7042 -0.5275
5.4959 -6.2491 -0.5072
5.5088 -5.8277 -0.4890
5.5207 -5.4354 -0.4727
5.5319 -5.0683 -0.4580
5.5424 -4.7233 -0.4448
5.5523 -4.3976 -0.4329
5.5617 -4.0889 -0.4222
5.5707 -3.7951 -0.4125
5.5792 -3.5144 -0.4038
5.7265 -3.3262 -0.4058
6.2619 -3.3424 -0.4353
6.8810 -3.3611 -0.4699
7.6072 -3.3831 -0.5113
40.7698 -16.4045 -2.7006
41.7603 -15.0845 -2.7306
45.7484 -12.8979 -2.9275
45.9619 -11.1933 -2.9158
45.2777 -9.3182 -2.8516
41.3165 -6.9669 -2.5867
41.2437 -5.4397 -2.5702
45.9272 -4.3864 -2.8527
45.9898 -2.7305 -2.8509
32.5102 -0.7605 -2.0140
23.0787 0.2892 -1.4305
13.1681 0.6385 -0.8178
9.1807 0.7764 -0.5720
30.1307 3.6417 -1.8856
24.4797 3.8551 -1.5408
20.5767 4.0025 -1.3044
18.1414 4.2101 -1.1598
18.1678 4.9100 -1.1729
18.1948 5.6257 -1.1878
18.2226 6.3597 -1.2047
18.2511 7.1147 -1.2236
18.2805 7.8936 -1.2447
18.3109 8.6997 -1.2682
18.3425 9.5367 -1.2942
18.3754 10.4085 -1.3230
17.8205 10.9576 -1.3115
16.5373 11.0060 -1.2462
15.3760 11.0499 -1.1886
14.7918 11.4575 -1.1753
13.3365 11.1189 -1.0914
12.4402 11.1528 -1.0508
11.6080 11.1842 -1.0144
11.3022 11.7007 -1.0243
12.9095 14.3630 -1.2167
-40.8250 19.0912 -1.8052
-21.0317 8.9293 -0.9142
-21.0644 8.0633 -0.9014
-21.0963 7.2182 -0.8901
-21.1276 6.3911 -0.8801
-21.1582 5.5795 -0.8715
-21.1884 4.7808 -0.8640
-21.2181 3.9927 -0.8578
-21.2476 3.2130 -0.8528
-22.3022 2.5573 -0.8897
-3.0819 0.0198 -0.1217
-38.2227 -1.1280 -1.5081
-25.4531 -1.6675 -1.0047
-18.8510 -1.9169 -0.7454
-14.9458 -2.0644 -0.5928
-12.3598 -2.1620 -0.4924
-10.4395 -2.2151 -0.4183
-9.1289 -2.2825 -0.3683
-8.0478 -2.3222 -0.3275
-7.1831 -2.3552 -0.2952
-6.2981 -2.3187 -0.2618
-5.8872 -2.4108 -0.2478
-5.3855 -2.4347 -0.2300
-4.9516 -2.4564 -0.2148
-4.5709 -2.4758 -0.2018
-4.2326 -2.4932 -0.1905
-3.9300 -2.5093 -0.1806
-3.6564 -2.5239 -0.1719
-3.2639 -2.4305 -0.1573
-3.2529 -2.6090 -0.1610
-3.2606 -2.8135 -0.1661
-0.1403 -0.7865 -0.0304
-0.1097 -0.7751 -0.0298
-0.0821 -0.7814 -0.0299
-0.0553 -0.8030 -0.0306
8.9506 -40.2974 -1.5719
11.6066 -30.6286 -1.2489
11.8909 -28.2712 -1.1700
20.4151 -44.0419 -1.8527
22.0377 -43.3874 -1.8582
12.3446 -22.2839 -0.9733
12.9222 -21.4697 -0.9580
5.4325 -8.3332 -0.3805
5.4506 -7.7386 -0.3623
5.4670 -7.1983 -0.3463
5.4821 -6.7040 -0.3320
5.4959 -6.2489 -0.3193
5.5088 -5.8275 -0.3079
5.5207 -5.4352 -0.2978
5.5319 -5.0681 -0.2886
5.5424 -4.7231 -0.2804
5.5523 -4.3974 -0.2730
5.5617 -4.0887 -0.2663
5.5707 -3.7949 -0.2603
5.5792 -3.5142 -0.2549
5.7276 -3.3266 -0.2563
6.2632 -3.3428 -0.2751
6.8825 -3.3616 -0.2971
7.6090 -3.3837 -0.3234
40.7411 -16.3916 -1.7072
41.4367 -14.9662 -1.7147
45.9620 -11.1918 -1.8477
46.0270 -9.4709 -1.8377
40.8218 -6.8822 -1.6210
41.7684 -5.5076 -1.6517
45.9273 -4.3850 -1.8110
45.9898 -2.7291 -1.8107
41.6562 -0.9731 -1.6397
22.9775 0.2886 -0.9054
23.2993 1.1304 -0.9202
9.1784 0.7765 -0.3638
30.1247 3.6420 -1.2001
24.4758 3.8553 -0.9811
20.5739 4.0026 -0.8310
18.1414 4.2106 -0.7393
18.1678 4.9106 -0.7480
18.1949 5.6263 -0.7578
18.2226 6.3603 -0.7689
18.2511 7.1153 -0.7813
18.2805 7.8942 -0.7951
18.3109 8.7004 -0.8105
18.3425 9.5373 -0.8274
18.3755 10.4092 -0.8462
17.8195 10.9576 -0.8391
16.5364 11.0060 -0.7976
15.3752 11.0499 -0.7610
14.7919 11.4581 -0.7528
14.8260 12.3613 -0.7774
12.4396 11.1528 -0.6735
11.6075 11.1842 -0.6504
11.3022 11.7013 -0.6570
12.9066 14.3604 -0.7804
-28.6703 31.5093 -0.7642
-40.8837 19.1200 -0.7905
-21.0317 8.9300 -0.3992
-21.0644 8.0640 -0.3931
-21.0963 7.2189 -0.3875
-21.1275 6.3918 -0.3826
-21.1582 5.5801 -0.3783
-21.1883 4.7814 -0.3745
-21.2181 3.9934 -0.3712
-21.2475 3.2137 -0.3684
-22.2934 2.5569 -0.3836
-44.5700 3.4960 -0.7621
-44.6462 1.8924 -0.7595
-3.0820 0.0199 -0.0522
-39.0916 -1.1525 -0.6609
-25.4609 -1.6673 -0.4299
-18.8552 -1.9167 -0.3184
-14.9485 -2.0643 -0.2528
-12.3617 -2.1619 -0.2096
-10.4397 -2.2148 -0.1777
-9.1299 -2.2824 -0.1563
-8.0486 -2.3222 -0.1387
-7.1838 -2.3552 -0.1248
-6.2984 -2.3186 -0.1105
-5.8877 -2.4108 -0.1044
-5.3858 -2.4347 -0.0968
-4.9519 -2.4564 -0.0902
-4.5711 -2.4758 -0.0846
-4.2328 -2.4932 -0.0798
-3.9303 -2.5093 -0.0755
-3.6566 -2.5239 -0.0718
-3.2642 -2.4306 -0.0656
-3.2529 -2.6089 -0.0670
-3.2606 -2.8133 -0.0690
-0.1403 -0.7864 -0.0124
-0.1097 -0.7750 -0.0122
-0.0821 -0.7814 -0.0122
-0.0553 -0.8028 -0.0125
11.7239 -30.9374 -0.5159
11.8913 -28.2712 -0.4787
13.1482 -28.3639 -0.4886
22.0160 -43.3433 -0.7607
12.8307 -21.3170 -0.3904
5.4325 -8.3329 -0.1563
5.4506 -7.7384 -0.1490
5.4670 -7.1981 -0.1426
5.4821 -6.7037 -0.1368
5.4960 -6.2487 -0.1317
5.5088 -5.8273 -0.1272
5.5207 -5.4349 -0.1231
5.5319 -5.0679 -0.1195
5.5424 -4.7229 -0.1163
5.5523 -4.3972 -0.1133
5.5617 -4.0885 -0.1107
5.5707 -3.7947 -0.1084
5.5792 -3.5140 -0.1063
5.7287 -3.3270 -0.1071
6.2644 -3.3433 -0.1151
6.8840 -3.3621 -0.1245
7.6108 -3.3842 -0.1357
40.9473 -16.4732 -0.7210
45.7485 -12.8951 -0.7830
47.4519 -11.5532 -0.8069
46.0253 -9.4692 -0.7786
41.2354 -6.9507 -0.6949
45.8646 -6.0463 -0.7710
45.9273 -4.3836 -0.7711
45.9899 -2.7277 -0.7723
46.0523 -1.0743 -0.7745
32.1408 0.4047 -0.5420
44.2991 2.1506 -0.7500
9.2653 0.7841 -0.1577
33.6115 4.0645 -0.5759
27.8961 4.3949 -0.4817
21.7721 4.2364 -0.3795
18.1414 4.2112 -0.3195
18.1679 4.9112 -0.3238
18.1949 5.6269 -0.3286
18.2226 6.3609 -0.3339
18.2511 7.1159 -0.3398
18.2805 7.8949 -0.3463
18.3110 8.7010 -0.3535
18.3426 9.5380 -0.3614
18.3755 10.4099 -0.3702
17.8185 10.9576 -0.3675
16.5356 11.0061 -0.3498
15.3744 11.0499 -0.3342
14.3002 11.0778 -0.3201
14.6023 12.1754 -0.3372
12.6905 11.3783 -0.3029
12.2480 11.8019 -0.3029
13.7306 14.2160 -0.3527
12.9053 14.3596 -0.3452
-24.3149 26.7237 0.1656
-27.3794 26.0607 0.1758
-27.7254 24.5539 0.1735
-40.8249 19.0938 0.2256
-21.0317 8.9307 0.1154
-21.0644 8.0647 0.1149
-21.0963 7.2195 0.1146
-21.1275 6.3925 0.1145
-21.1582 5.5808 0.1145
-21.1883 4.7821 0.1147
-21.2181 3.9940 0.1151
-21.2475 3.2143 0.1156
-22.2843 2.5566 0.1217
-44.5700 3.4974 0.2448
-44.6461 1.8938 0.2469
-3.0820 0.0200 0.0172
-39.1096 -1.1518 0.2200
-25.4685 -1.6670 0.1448
-18.8595 -1.9166 0.1085
-14.9512 -2.0642 0.0871
-12.3635 -2.1619 0.0730
-10.4399 -2.2145 0.0626
-9.1310 -2.2824 0.0557
-8.0494 -2.3221 0.0500
-7.1844 -2.3552 0.0455
-6.2987 -2.3184 0.0407
-5.8881 -2.4108 0.0388
-5.3862 -2.4346 0.0364
-4.9523 -2.4563 0.0343
-4.5714 -2.4758 0.0324
-4.2331 -2.4932 0.0309
-3.9305 -2.5093 0.0295
-3.6568 -2.5239 0.0283
-3.2645 -2.4307 0.0261
-3.2529 -2.6088 0.0269
-3.2606 -2.8132 0.0279
-28.9546 -38.6117 0.3233
-24.9113 -35.8318 0.2937
-23.3104 -36.2398 0.2912
-21.8258 -36.7701 0.2901
-20.3179 -37.2125 0.2888
-18.9272 -37.8354 0.2892
-17.6166 -38.6228 0.2911
-16.3923 -39.6515 0.2952
-15.2260 -40.9351 0.3013
-14.0298 -42.3110 0.3083
-12.8906 -44.1194 0.3187
-0.1402 -0.7863 0.0056
-0.1097 -0.7749 0.0055
-0.0821 -0.7813 0.0055
-0.0553 -0.8026 0.0056
11.7242 -30.9374 0.2292
11.8917 -28.2712 0.2120
13.1486 -28.3639 0.2155
21.8544 -43.0237 0.3317
23.8777 -43.1001 0.3376
20.4178 -33.9211 0.2704
5.4325 -8.3327 0.0677
5.4506 -7.7381 0.0642
5.4670 -7.1978 0.0610
5.4821 -6.7035 0.0582
5.4960 -6.2484 0.0557
5.5088 -5.8270 0.0534
5.5207 -5.4347 0.0513
5.5319 -5.0677 0.0494
5.5424 -4.7227 0.0477
5.5523 -4.3970 0.0462
5.5617 -4.0883 0.0447
5.5707 -3.7945 0.0434
5.5792 -3.5138 0.0422
5.7297 -3.3274 0.0421
6.2657 -3.3437 0.0449
6.8855 -3.3626 0.0481
7.6126 -3.3848 0.0519
26.6460 -10.7190 0.1777
48.1397 -11.7191 0.2973
46.8097 -9.6291 0.2845
46.0896 -7.7674 0.2760
45.8646 -6.0449 0.2709
45.9274 -4.3822 0.2679
45.9899 -2.7262 0.2653
46.0524 -1.0729 0.2630
32.0934 0.4051 0.1817
44.2991 2.1520 0.2488
13.2745 1.1238 0.0741
33.6115 4.0656 0.1866
27.8916 4.3950 0.1543
21.7721 4.2371 0.1201
18.1415 4.2118 0.0999
18.1679 4.9117 0.1001
18.1949 5.6275 0.1004
18.2226 6.3615 0.1008
18.2511 7.1166 0.1014
18.2806 7.8955 0.1021
18.3110 8.7016 0.1031
18.0097 9.3655 0.1023
18.0377 10.2192 0.1036
17.8174 10.9577 0.1036
16.5347 11.0061 0.0975
15.3736 11.0499 0.0922
14.2995 11.0778 0.0873
13.4052 11.1779 0.0836
13.1774 11.8154 0.0841
12.3187 11.8706 0.0806
13.7338 14.2201 0.0925
12.9063 14.3612 0.0896
-22.9825 27.1586 0.9634
-22.9037 25.1737 0.9227
-24.0589 24.6071 0.9341
-25.9628 24.7133 0.9742
-27.2960 24.1746 0.9922
-30.6326 25.2263 1.0813
-40.6441 19.0106 1.2354
-19.4110 8.2432 0.5816
-19.7019 7.5437 0.5828
-21.0963 7.2202 0.6169
-21.1275 6.3931 0.6118
-21.1581 5.5815 0.6075
-21.1883 4.7828 0.6041
-21.2181 3.9947 0.6015
-21.2475 3.2150 0.5997
-22.2754 2.5562 0.6268
-44.5699 3.4987 1.2519
-32.2510 1.3690 0.9055
-3.0820 0.0201 0.0866
-39.1275 -1.1511 1.1020
-25.4761 -1.6667 0.7200
-18.8637 -1.9164 0.5356
-14.9538 -2.0641 0.4272
-12.3654 -2.1618 0.3558
-10.4400 -2.2143 0.3030
-9.1320 -2.2824 0.2677
-8.0502 -2.3221 0.2387
-7.1851 -2.3551 0.2158
-6.2990 -2.3183 0.1919
-5.8886 -2.4107 0.1822
-5.3866 -2.4346 0.1695
-4.9526 -2.4563 0.1588
-4.5717 -2.4758 0.1496
-4.2333 -2.4932 0.1416
-3.9307 -2.5093 0.1346
-3.6570 -2.5238 0.1284
-3.2648 -2.4308 0.1178
-3.2529 -2.6086 0.1208
-3.2606 -2.8130 0.1250
-31.1429 -28.8823 1.2341
-29.2850 -29.1841 1.2028
-27.6714 -29.6315 1.1810
-26.0176 -29.9478 1.1569
-24.3359 -30.1329 1.1308
-22.8353 -30.4501 1.1124
-21.4163 -30.8036 1.0976
-20.0999 -31.2474 1.0881
-18.8479 -31.7520 1.0824
-17.6479 -32.3212 1.0804
-16.4939 -32.9702 1.0825
-15.3682 -33.6922 1.0882
-14.2633 -34.5003 1.0979
-13.1619 -35.3847 1.1110
-12.0941 -36.4719 1.1314
-11.0260 -37.7362 1.1583
-9.9645 -39.2938 1.1949
-8.8997 -41.2617 1.2448
-0.1402 -0.7862 0.0236
-0.1097 -0.7749 0.0231
-0.0821 -0.7812 0.0232
-0.0553 -0.8024 0.0237
1.0839 -27.7854 0.8212
2.0891 -27.8362 0.8243
8.3344 -45.1179 1.3542
11.6067 -30.6261 0.9648
11.8225 -28.1060 0.8977
13.1277 -28.3179 0.9184
21.8551 -43.0238 1.4189
21.9566 -39.6312 1.3312
20.4178 -33.9200 1.1623
5.4325 -8.3324 0.2918
5.4506 -7.7378 0.2774
5.4671 -7.1976 0.2646
5.4821 -6.7033 0.2533
5.4960 -6.2482 0.2431
5.5088 -5.8268 0.2340
5.5207 -5.4345 0.2258
5.5319 -5.0675 0.2185
5.5424 -4.7225 0.2118
5.5523 -4.3968 0.2057
5.5617 -4.0881 0.2002
5.5707 -3.7943 0.1953
5.5792 -3.5136 0.1907
5.7308 -3.3278 0.1914
6.2669 -3.3442 0.2049
6.8870 -3.3631 0.2207
7.6143 -3.3853 0.2396
26.3552 -10.6011 0.8157
32.6054 -10.4659 0.9801
46.9687 -13.2360 1.3944
48.1402 -11.7177 1.4135
46.8098 -9.6277 1.3611
46.0896 -7.7660 1.3289
45.8647 -6.0435 1.3131
45.9274 -4.3807 1.3073
45.9900 -2.7248 1.3032
46.0524 -1.0715 1.3007
31.9993 0.4049 0.9021
44.2991 2.1534 1.2480
13.2677 1.1236 0.3740
33.6115 4.0667 0.9493
27.8871 4.3952 0.7902
21.7721 4.2378 0.6198
18.1415 4.2124 0.5195
18.1679 4.9123 0.5241
18.1949 5.6281 0.5294
18.2226 6.3622 0.5356
18.2512 7.1172 0.5427
17.1076 7.3895 0.5154
16.8185 7.9930 0.5142
17.4744 9.0878 0.5430
17.1869 9.7378 0.5437
17.2191 10.5903 0.5555
16.5338 11.0061 0.5450
15.3728 11.0500 0.5187
14.2988 11.0779 0.4948
13.3285 11.1145 0.4740
13.1768 11.8154 0.4828
12.3187 11.8711 0.4660
13.7371 14.2241 0.5379
12.9073 14.3629 0.5246
-22.1803 26.2117 1.7043
-22.9891 25.2685 1.6966
-23.9735 24.5207 1.7043
-24.8216 23.6280 1.7043
-25.6359 22.7054 1.7043
-26.4152 21.7543 1.7043
-27.1588 20.7761 1.7043
-27.8657 19.7722 1.7043
-28.5349 18.7439 1.7043
-29.1657 17.6927 1.7043
-29.7573 16.6201 1.7043
-30.3090 15.5276 1.7043
-19.2481 9.0036 1.0644
-19.2821 8.1891 1.0502
-19.3091 7.3939 1.0375
-19.3427 6.6207 1.0268
-19.3885 5.8675 1.0183
-21.1581 5.5821 1.1011
-21.1883 4.7834 1.0940
-21.2180 3.9953 1.0885
-21.2475 3.2157 1.0844
-22.2664 2.5559 1.1321
-33.6052 2.6390 1.7043
-32.3762 1.3753 1.6400
-3.0821 0.0202 0.1561
-33.5960 -0.9873 1.7043
-25.2647 -1.6521 1.2851
-18.8679 -1.9162 0.9635
-14.9565 -2.0640 0.7678
-12.3672 -2.1617 0.6391
-10.4402 -2.2140 0.5438
-9.1330 -2.2823 0.4801
-8.0510 -2.3221 0.4278
-7.1857 -2.3551 0.3864
-6.2993 -2.3182 0.3433
-5.8890 -2.4107 0.3257
-5.3870 -2.4346 0.3029
-4.9529 -2.4563 0.2835
-4.5720 -2.4758 0.2669
-4.2336 -2.4932 0.2524
-3.9309 -2.5093 0.2398
-3.6571 -2.5238 0.2286
-3.2651 -2.4309 0.2096
-3.2529 -2.6085 0.2149
-3.2606 -2.8129 0.2221
-24.4954 -22.7163 1.7243
-23.6470 -23.5645 1.7243
-22.7698 -24.3817 1.7243
-21.8651 -25.1669 1.7243
-20.9338 -25.9193 1.7243
-19.8947 -26.5279 1.7172
-18.9213 -27.2138 1.7174
-17.8172 -27.6976 1.7074
-16.7947 -28.2921 1.7067
-15.7511 -28.8461 1.7057
-14.7092 -29.4015 1.7070
-13.6689 -29.9656 1.7109
-12.6227 -30.5309 1.7168
-11.5191 -30.9670 1.7176
-10.4278 -31.4457 1.7229
-9.2965 -31.8161 1.7243
-8.1457 -32.1205 1.7243
-6.9852 -32.3842 1.7243
-0.1402 -0.7861 0.0416
-0.1097 -0.7748 0.0407
-0.0821 -0.7811 0.0409
-0.0553 -0.8021 0.0419
-0.6719 -20.4487 1.0657
0.1064 -34.6385 1.8043
1.0541 -27.0193 1.4085
2.0171 -26.8759 1.4039
3.8314 -34.4283 1.8043
5.0657 -34.2716 1.8043
6.2940 -34.0717 1.8043
7.5147 -33.8291 1.8043
8.2278 -31.6272 1.7012
9.3604 -31.3184 1.7012
10.4817 -30.9700 1.7012
11.5905 -30.5825 1.7012
11.7681 -27.9757 1.5782
13.8763 -29.9318 1.7150
15.0293 -29.5856 1.7243
16.0888 -29.0389 1.7243
17.1289 -28.4551 1.7243
5.4325 -8.3321 0.5161
5.4506 -7.7376 0.4909
5.4671 -7.1973 0.4685
5.4821 -6.7030 0.4486
5.4960 -6.2480 0.4309
5.5088 -5.8266 0.4149
5.5207 -5.4343 0.4006
5.5319 -5.0673 0.3877
5.5424 -4.7223 0.3760
5.5523 -4.3966 0.3655
5.5617 -4.0879 0.3559
5.5707 -3.7941 0.3473
5.5792 -3.5134 0.3395
5.7319 -3.3283 0.3410
6.2682 -3.3446 0.3652
6.8884 -3.3636 0.3937
7.6161 -3.3858 0.4277
24.9389 -10.0306 1.3782
25.5859 -9.2380 1.3935
27.9980 -8.9861 1.5049
28.3977 -8.0017 1.5086
32.7959 -7.9817 1.7243
33.0924 -6.8053 1.7243
33.3469 -5.6178 1.7243
33.5590 -4.4210 1.7243
33.7285 -3.2161 1.7243
33.8549 -2.0048 1.7243
33.9379 -0.7886 1.7243
31.9067 0.4047 1.6192
33.9731 1.6525 1.7243
13.2609 1.1235 0.6740
33.6116 4.0677 1.7130
27.8826 4.3954 1.4268
21.7722 4.2385 1.1201
18.1415 4.2130 0.9396
18.1679 4.9129 0.9486
18.1949 5.6287 0.9590
18.2227 6.3628 0.9710
18.2512 7.1178 0.9846
17.0708 7.3742 0.9337
16.7833 7.9768 0.9322
17.4733 9.0878 0.9872
17.1869 9.7384 0.9892
17.2191 10.5910 1.0115
15.2875 10.1771 0.9181
15.3032 11.0006 0.9414
14.5235 11.2525 0.9170
13.3333 11.1190 0.8658
12.5172 11.2245 0.8378
12.3188 11.8717 0.8519
13.7404 14.2281 0.9842
12.9082 14.3647 0.9603
-15.2394 18.0099 1.7043
-15.8693 17.4435 1.7043
-16.4780 16.8549 1.7043
-17.0646 16.2447 1.7043
-17.6282 15.6139 1.7043
-18.1683 14.9632 1.7043
-18.6842 14.2938 1.7043
-19.1751 13.6064 1.7043
-19.6405 12.9020 1.7043
-20.0797 12.1816 1.7043
-20.4924 11.4461 1.7043
-20.8778 10.6966 1.7043
-20.0437 9.3764 1.6086
-19.2500 8.1761 1.5213
-20.1118 7.7020 1.5675
-19.8625 6.7992 1.5290
-20.7445 6.2786 1.5795
-21.1581 5.5828 1.5958
-21.1882 4.7841 1.5851
-21.2180 3.9960 1.5766
-21.2474 3.2163 1.5702
-22.2574 2.5556 1.6381
-23.2217 1.8243 1.7043
-23.2565 0.9886 1.7043
-3.0821 0.0202 0.2258
-23.2361 -0.6822 1.7043
-23.1809 -1.5151 1.7043
-18.7953 -1.9083 1.3869
-14.9591 -2.0639 1.1094
-12.3691 -2.1617 0.9231
-10.4404 -2.2137 0.7851
-9.1340 -2.2823 0.6930
-8.0518 -2.3221 0.6173
-7.1863 -2.3551 0.5574
-6.2996 -2.3181 0.4951
-5.8894 -2.4107 0.4696
-5.3873 -2.4346 0.4366
-4.9532 -2.4563 0.4085
-4.5723 -2.4758 0.3844
-4.2338 -2.4932 0.3635
-3.9311 -2.5093 0.3452
-3.6573 -2.5238 0.3291
-3.2654 -2.4310 0.3017
-3.2529 -2.6084 0.3092
-3.2606 -2.8128 0.3195
-16.8042 -15.5830 1.7010
-16.2257 -16.1683 1.7010
-15.6277 -16.7332 1.7011
-15.0095 -17.2754 1.7011
-14.3729 -17.7952 1.7011
-13.7186 -18.2918 1.7010
-10.4772 -15.0684 1.3659
-12.5294 -19.4767 1.7243
-11.8175 -19.9067 1.7243
-11.0911 -20.3111 1.7243
-10.3511 -20.6896 1.7243
-9.5985 -21.0415 1.7243
-8.8341 -21.3666 1.7243
-8.0590 -21.6643 1.7243
-7.2740 -21.9345 1.7243
-6.4802 -22.1767 1.7243
-5.6785 -22.3907 1.7243
-4.8699 -22.5763 1.7243
-0.1402 -0.7860 0.0596
-0.1096 -0.7747 0.0584
-0.0821 -0.7810 0.0587
-0.0552 -0.8019 0.0600
-0.6713 -20.4291 1.5268
0.0699 -22.7735 1.7012
0.9415 -24.1350 1.8043
1.8077 -24.0860 1.8043
2.6716 -24.0065 1.8043
3.5323 -23.8965 1.8043
4.3886 -23.7563 1.8043
5.2395 -23.5859 1.8043
6.0839 -23.3857 1.8043
6.9209 -23.1557 1.8043
7.7494 -22.8964 1.8043
8.1698 -21.5561 1.7204
8.8412 -21.0170 1.7012
9.5926 -20.6911 1.7012
10.3323 -20.3387 1.7012
11.0592 -19.9603 1.7012
11.7726 -19.5564 1.7012
5.4325 -8.3318 0.7410
5.4506 -7.7373 0.7049
5.4671 -7.1971 0.6729
5.4821 -6.7028 0.6444
5.4960 -6.2477 0.6190
5.5088 -5.8263 0.5962
5.5208 -5.4341 0.5757
5.5319 -5.0670 0.5573
5.5424 -4.7221 0.5406
5.5523 -4.3964 0.5256
5.5618 -4.0877 0.5120
5.5707 -3.7939 0.4997
5.5792 -3.5132 0.4885
5.7329 -3.3287 0.4909
6.2694 -3.3451 0.5259
6.8899 -3.3641 0.5672
7.6179 -3.3864 0.6163
21.6534 -8.7084 1.7243
21.9657 -7.9301 1.7243
22.2503 -7.1406 1.7243
22.5066 -6.3410 1.7243
22.7345 -5.5323 1.7243
22.9334 -4.7154 1.7243
23.1031 -3.8914 1.7243
23.2433 -3.0613 1.7243
23.3538 -2.2261 1.7243
23.4344 -1.3870 1.7243
23.4849 -0.5449 1.7243
23.5051 0.2989 1.7243
23.4951 1.1436 1.7243
13.2548 1.1234 0.9744
23.3840 2.8307 1.7243
23.2830 3.6710 1.7243
21.7722 4.2392 1.6216
18.1415 4.2136 1.3606
17.0535 4.6121 1.2898
18.1950 5.6293 1.3896
18.2227 6.3634 1.4073
18.2512 7.1184 1.4275
17.0702 7.3745 1.3541
16.7828 7.9772 1.3523
17.4945 9.0995 1.4342
17.2027 9.7480 1.4372
15.2484 9.3794 1.3004
15.2717 10.1672 1.3319
15.3712 11.0500 1.3736
14.7920 11.4611 1.3570
13.3327 11.1191 1.2582
12.5173 11.2251 1.2179
12.3188 11.8723 1.2387
13.7437 14.2322 1.4317
12.9092 14.3664 1.3970
-11.5980 13.7071 1.7043
-12.0787 13.2774 1.7043
-12.5433 12.8307 1.7043
-12.9912 12.3676 1.7043
-13.4219 11.8887 1.7043
-13.8348 11.3947 1.7043
-14.2293 10.8863 1.7043
-14.6051 10.3641 1.7043
-14.9615 9.8289 1.7043
-15.2982 9.2813 1.7043
-15.6147 8.7222 1.7043
-15.9106 8.1522 1.7043
-16.1856 7.5722 1.7043
-16.4394 6.9828 1.7043
-16.6716 6.3850 1.7043
-16.8819 5.7795 1.7043
-17.0702 5.1670 1.7043
-17.2362 4.5485 1.7043
-17.3797 3.9247 1.7043
-17.5006 3.2965 1.7043
-17.5987 2.6645 1.7043
-17.6740 2.0299 1.7043
-17.7263 1.3932 1.7043
-17.7558 0.7554 1.7043
-3.0822 0.0203 0.2957
-17.7458 -0.5204 1.7043
-17.7065 -1.1567 1.7043
-17.6444 -1.7909 1.7043
-17.5279 -2.4177 1.7012
-12.3709 -2.1616 1.2081
-10.4405 -2.2134 1.0272
-9.1351 -2.2822 0.9067
-8.0527 -2.3220 0.8074
-7.1870 -2.3551 0.7290
-6.2999 -2.3180 0.6474
-5.8899 -2.4107 0.6140
-5.3877 -2.4346 0.5707
-4.9535 -2.4563 0.5340
-4.5725 -2.4758 0.5024
-4.2341 -2.4932 0.4750
-3.9313 -2.5093 0.4510
-3.6575 -2.5238 0.4299
-3.2657 -2.4311 0.3941
-3.2529 -2.6082 0.4037
-3.2606 -2.8126 0.4171
-13.6520 -12.6592 1.8043
-13.1835 -13.1363 1.8043
-12.6986 -13.5963 1.8043
-12.1978 -14.0385 1.8043
-11.6050 -14.3676 1.7924
-10.8007 -14.4007 1.7476
-10.0403 -14.4395 1.7080
-9.4748 -14.7278 1.7012
-8.9372 -15.0543 1.7012
-8.3885 -15.3613 1.7012
-7.8293 -15.6486 1.7012
-7.2605 -15.9158 1.7012
-6.6828 -16.1626 1.7011
-6.0967 -16.3888 1.7011
-5.5032 -16.5940 1.7011
-4.9028 -16.7781 1.7011
-4.2965 -16.9408 1.7011
-3.6848 -17.0819 1.7011
-0.1402 -0.7859 0.0777
-0.1096 -0.7746 0.0762
-0.0820 -0.7809 0.0765
-0.0552 -0.8017 0.0783
-0.5901 -17.9572 1.7497
0.0569 -18.5266 1.8043
0.7222 -18.5125 1.8043
1.3866 -18.4748 1.8043
2.0493 -18.4136 1.8043
2.7094 -18.3291 1.8043
3.3661 -18.2211 1.8043
4.0187 -18.0900 1.8043
4.6662 -17.9358 1.8043
5.3080 -17.7588 1.8043
5.9432 -17.5592 1.8043
6.5710 -17.3371 1.8043
7.1906 -17.0929 1.8043
7.8014 -16.8269 1.8043
8.3612 -16.4581 1.7954
8.4791 -15.3031 1.7012
9.0254 -14.9923 1.7012
5.4325 -8.3316 0.9667
5.4507 -7.7370 0.9196
5.4671 -7.1968 0.8779
5.4821 -6.7025 0.8408
5.4960 -6.2475 0.8078
5.5088 -5.8261 0.7781
5.5208 -5.4338 0.7515
5.5319 -5.0668 0.7275
5.5424 -4.7219 0.7058
5.5523 -4.3962 0.6863
5.5618 -4.0875 0.6686
5.5707 -3.7937 0.6526
5.5792 -3.5130 0.6381
5.7340 -3.3291 0.6414
6.2707 -3.3456 0.6873
6.8914 -3.3646 0.7412
7.6197 -3.3869 0.8056
16.5668 -6.6621 1.7243
16.8034 -6.0658 1.7243
17.0186 -5.4611 1.7243
17.2121 -4.8488 1.7243
17.3837 -4.2297 1.7243
17.5331 -3.6045 1.7243
17.6602 -2.9740 1.7243
17.7646 -2.3391 1.7243
17.8462 -1.7006 1.7243
17.9050 -1.0592 1.7243
17.9407 -0.4157 1.7243
17.9534 0.2289 1.7243
17.9429 0.8739 1.7243
13.2491 1.1233 1.2756
17.8523 2.1617 1.7243
17.7724 2.8027 1.7243
17.6694 3.4409 1.7243
17.5434 4.0752 1.7243
17.0528 4.6125 1.6904
17.2231 5.3292 1.7243
17.0291 5.9472 1.7243
16.8129 6.5580 1.7243
16.5746 7.1610 1.7243
16.3147 7.7552 1.7243
16.0333 8.3400 1.7243
15.7308 8.9145 1.7243
15.4076 9.4779 1.7243
15.0641 10.0296 1.7243
14.7007 10.5686 1.7243
14.3179 11.0944 1.7243
13.9162 11.6063 1.7243
12.5172 11.2256 1.5992
12.3188 11.8728 1.6267
12.2310 12.6662 1.6735
11.5812 12.8890 1.6463
-9.3534 11.0547 1.7043
-9.7416 10.7089 1.7043
-10.1170 10.3493 1.7043
-10.4791 9.9765 1.7043
-10.8272 9.5909 1.7043
-11.1611 9.1930 1.7043
-11.4803 8.7835 1.7043
-11.7843 8.3629 1.7043
-12.0729 7.9317 1.7043
-12.3456 7.4905 1.7043
-12.6021 7.0398 1.7043
-12.8420 6.5804 1.7043
-13.0651 6.1128 1.7043
-13.2712 5.6376 1.7043
-13.4598 5.1554 1.7043
-13.6309 4.6669 1.7043
-13.7842 4.1729 1.7043
-13.9196 3.6737 1.7043
-14.0368 3.1702 1.7043
-14.1358 2.6631 1.7043
-14.2164 2.1529 1.7043
-14.2786 1.6404 1.7043
-14.3224 1.1261 1.7043
-14.3475 0.6108 1.7043
-3.0822 0.0204 0.3660
-14.3423 -0.4202 1.7043
-14.3119 -0.9345 1.7043
-14.2632 -1.4472 1.7043
-14.1961 -1.9577 1.7043
-14.0838 -2.4605 1.7010
-10.4407 -2.2131 1.2703
-9.1361 -2.2822 1.1213
-8.0535 -2.3220 0.9985
-7.1876 -2.3550 0.9014
-6.3002 -2.3179 0.8003
-5.8903 -2.4107 0.7591
-5.3881 -2.4346 0.7055
-4.9539 -2.4562 0.6600
-4.5728 -2.4757 0.6209
-4.2343 -2.4932 0.5870
-3.9315 -2.5092 0.5573
-3.6577 -2.5238 0.5312
-3.2660 -2.4312 0.4869
-3.2529 -2.6081 0.4987
-3.2606 -2.8125 0.5152
-11.0534 -10.2491 1.8043
-10.6749 -10.6362 1.8043
-10.2829 -11.0094 1.8043
-9.8780 -11.3683 1.8043
-9.4608 -11.7125 1.8043
-9.0316 -12.0414 1.8043
-8.5912 -12.3549 1.8043
-8.1399 -12.6524 1.8043
-7.6785 -12.9335 1.8043
-7.2075 -13.1981 1.8043
-6.7274 -13.4457 1.8043
-6.2390 -13.6760 1.8043
-5.7428 -13.8887 1.8043
-5.2394 -14.0837 1.8043
-4.7295 -14.2606 1.8043
-4.2137 -14.4192 1.8043
-3.6927 -14.5595 1.8043
-3.1670 -14.6811 1.8043
-0.1402 -0.7858 0.0959
-0.1096 -0.7745 0.0940
-0.0820 -0.7808 0.0943
-0.0552 -0.8015 0.0965
-0.4932 -15.0059 1.8043
0.0461 -15.0136 1.8043
0.5853 -15.0022 1.8043
1.1237 -14.9716 1.8043
1.6607 -14.9220 1.8043
2.1957 -14.8533 1.8043
2.7278 -14.7656 1.8043
3.2566 -14.6591 1.8043
3.7813 -14.5339 1.8043
4.3013 -14.3902 1.8043
4.8158 -14.2280 1.8043
5.3244 -14.0477 1.8043
5.8263 -13.8493 1.8043
6.3209 -13.6333 1.8043
6.8076 -13.3997 1.8043
7.2858 -13.1490 1.8043
7.7549 -12.8813 1.8043
5.4325 -8.3313 1.1933
5.4507 -7.7368 1.1352
5.4671 -7.1965 1.0838
5.4821 -6.7023 1.0381
5.4960 -6.2472 0.9973
5.5088 -5.8259 0.9608
5.5208 -5.4336 0.9280
5.5320 -5.0666 0.8984
5.5424 -4.7216 0.8717
5.5524 -4.3960 0.8476
5.5618 -4.0873 0.8258
5.5707 -3.7935 0.8061
5.5793 -3.5128 0.7883
5.7351 -3.3295 0.7926
6.2719 -3.3460 0.8494
6.8929 -3.3651 0.9162
7.6215 -3.3875 0.9958
13.4044 -5.3899 1.7243
13.5945 -4.9070 1.7243
13.7674 -4.4174 1.7243
13.9226 -3.9217 1.7243
14.0602 -3.4205 1.7243
14.1797 -2.9146 1.7243
14.2811 -2.4045 1.7243
14.3641 -1.8909 1.7243
14.4287 -1.3745 1.7243
14.4748 -0.8558 1.7243
14.5023 -0.3356 1.7243
14.5111 0.1855 1.7243
14.5012 0.7067 1.7243
13.2433 1.1232 1.5778
14.4252 1.7471 1.7243
14.3591 2.2649 1.7243
14.2745 2.7803 1.7243
14.1714 3.2924 1.7243
14.0498 3.8007 1.7243
13.9099 4.3045 1.7243
13.7520 4.8031 1.7243
13.5761 5.2959 1.7243
13.2033 5.7049 1.7012
12.9950 6.1777 1.7012
12.7697 6.6429 1.7012
12.5277 7.0998 1.7012
12.2692 7.5478 1.7012
11.9947 7.9864 1.7012
11.7043 8.4149 1.7012
11.3986 8.8328 1.7012
11.0779 9.2395 1.7012
10.7415 9.6336 1.7010
10.3920 10.0162 1.7010
10.0288 10.3861 1.7010
9.6523 10.7427 1.7010
-7.8299 9.2545 1.7043
-8.1552 8.9653 1.7043
-8.4699 8.6647 1.7043
-8.7734 8.3530 1.7043
-9.0653 8.0305 1.7043
-9.3454 7.6978 1.7043
-9.6131 7.3553 1.7043
-9.8682 7.0035 1.7043
-10.1104 6.6427 1.7043
-10.3394 6.2736 1.7043
-10.5548 5.8965 1.7043
-10.7564 5.5121 1.7043
-10.9439 5.1207 1.7043
-11.1171 4.7229 1.7043
-11.2759 4.3193 1.7043
-11.4199 3.9103 1.7043
-11.5491 3.4966 1.7043
-11.6633 3.0786 1.7043
-11.7623 2.6569 1.7043
-11.8460 2.2321 1.7043
-11.9143 1.8046 1.7043
-11.9673 1.3752 1.7043
-12.0047 0.9442 1.7043
-12.0266 0.5124 1.7043
-3.0822 0.0205 0.4366
-12.0239 -0.3519 1.7043
-11.9992 -0.7831 1.7043
-11.9591 -1.2131 1.7043
-11.9036 -1.6411 1.7043
-11.8329 -2.0668 1.7043
-10.4420 -2.2130 1.5150
-8.9427 -2.2336 1.3087
-8.0543 -2.3220 1.1905
-7.1883 -2.3550 1.0747
-6.3005 -2.3178 0.9541
-5.8908 -2.4106 0.9049
-5.3884 -2.4345 0.8409
-4.9542 -2.4562 0.7867
-4.5731 -2.4757 0.7401
-4.2346 -2.4931 0.6995
-3.9318 -2.5092 0.6642
-3.6579 -2.5238 0.6330
-3.2663 -2.4313 0.5802
-3.2529 -2.6079 0.5942
-3.2606 -2.8123 0.6139
-9.2779 -8.6025 1.8043
-8.9607 -8.9278 1.8043
-8.6321 -9.2415 1.8043
-8.2926 -9.5432 1.8043
-7.9426 -9.8326 1.8043
-7.5827 -10.1092 1.8043
-7.2131 -10.3727 1.8043
-6.8345 -10.6229 1.8043
-6.4474 -10.8594 1.8043
-6.0521 -11.0819 1.8043
-5.6492 -11.2902 1.8043
-5.2392 -11.4839 1.8043
-4.8226 -11.6629 1.8043
-4.4000 -11.8269 1.8043
-3.9719 -11.9758 1.8043
-3.5388 -12.1093 1.8043
-3.1013 -12.2273 1.8043
-2.6599 -12.3297 1.8043
-0.1402 -0.7857 0.1142
-0.1096 -0.7744 0.1119
-0.0820 -0.7807 0.1123
-0.0552 -0.8013 0.1149
-0.4142 -12.6031 1.8043
0.0387 -12.6096 1.8043
0.4915 -12.6000 1.8043
0.9438 -12.5743 1.8043
1.3948 -12.5326 1.8043
1.8441 -12.4748 1.8043
2.2911 -12.4011 1.8043
2.7351 -12.3115 1.8043
3.1758 -12.2062 1.8043
3.6124 -12.0853 1.8043
4.0445 -11.9489 1.8043
4.4716 -11.7972 1.8043
4.8930 -11.6303 1.8043
5.3082 -11.4486 1.8043
5.7168 -11.2522 1.8043
6.1181 -11.0413 1.8043
6.5118 -10.8162 1.8043
5.4326 -8.3310 1.4211
5.4507 -7.7365 1.3520
5.4159 -7.1289 1.2788
5.4269 -6.6345 1.2240
5.4960 -6.2470 1.1879
5.5088 -5.8256 1.1445
5.5208 -5.4334 1.1054
5.5320 -5.0664 1.0702
5.5424 -4.7214 1.0385
5.4901 -4.3465 0.9985
5.5263 -4.0610 0.9776
5.5707 -3.7933 0.9605
5.5793 -3.5126 0.9393
5.7362 -3.3299 0.9447
6.2732 -3.3465 1.0124
6.8944 -3.3656 1.0921
7.6234 -3.3880 1.1871
11.0955 -4.4612 1.7012
11.2522 -4.0612 1.7012
11.3946 -3.6557 1.7012
11.5223 -3.2452 1.7012
11.6354 -2.8303 1.7012
11.7335 -2.4115 1.7012
11.8166 -1.9892 1.7012
11.8846 -1.5641 1.7012
11.9373 -1.1368 1.7012
11.9746 -0.7076 1.7012
11.9966 -0.2772 1.7012
12.0030 0.1538 1.7012
11.9940 0.5849 1.7012
11.9695 1.0156 1.7012
11.9295 1.4452 1.7012
11.8742 1.8733 1.7012
11.8034 2.2993 1.7012
11.7173 2.7226 1.7012
11.6160 3.1427 1.7012
11.4997 3.5590 1.7012
11.3683 3.9710 1.7012
11.2222 4.3781 1.7012
11.0614 4.7798 1.7012
10.8863 5.1756 1.7012
10.6969 5.5650 1.7012
10.4935 5.9473 1.7012
10.2764 6.3223 1.7012
10.0459 6.6892 1.7012
9.8021 7.0477 1.7012
9.5456 7.3973 1.7012
9.2812 7.7414 1.7021
9.2937 8.3356 1.7577
9.2294 8.8961 1.8043
8.9064 9.2241 1.8043
8.5716 9.5404 1.8043
-6.7272 7.9514 1.7043
-7.0069 7.7032 1.7043
-7.2775 7.4452 1.7043
-7.5385 7.1776 1.7043
-7.7896 6.9008 1.7043
-8.0305 6.6151 1.7043
-8.2609 6.3211 1.7043
-8.4805 6.0189 1.7043
-8.6890 5.7091 1.7043
-8.8861 5.3921 1.7043
-9.0716 5.0683 1.7043
-9.2453 4.7380 1.7043
-9.4069 4.4018 1.7043
-9.5562 4.0601 1.7043
-9.6931 3.7133 1.7043
-9.8173 3.3619 1.7043
-9.9289 3.0064 1.7043
-10.0275 2.6471 1.7043
-10.1130 2.2847 1.7043
-10.1855 1.9195 1.7043
-10.2448 1.5521 1.7043
-10.2908 1.1829 1.7043
-10.3235 0.8123 1.7043
-10.3428 0.4410 1.7043
-3.0823 0.0206 0.5076
-10.3414 -0.3023 1.7043
-10.3207 -0.6733 1.7043
-10.2868 -1.0431 1.7043
-10.2395 -1.4114 1.7043
-10.1791 -1.7777 1.7043
-10.1057 -2.1414 1.7043
-10.0001 -2.4974 1.7010
-7.8839 -2.2726 1.3545
-7.1890 -2.3550 1.2492
-6.3007 -2.3177 1.1089
-5.8912 -2.4106 1.0517
-5.3888 -2.4345 0.9773
-4.9545 -2.4562 0.9142
-4.5734 -2.4757 0.8600
-4.2348 -2.4931 0.8129
-3.9320 -2.5092 0.7718
-3.6581 -2.5238 0.7355
-3.2666 -2.4314 0.6741
-3.2529 -2.6078 0.6903
-3.2606 -2.8122 0.7131
-7.9869 -7.4050 1.8043
-7.7140 -7.6853 1.8043
-7.4314 -7.9557 1.8043
-7.1393 -8.2157 1.8043
-6.8383 -8.4651 1.8043
-6.5286 -8.7035 1.8043
-6.2106 -8.9307 1.8043
-5.8848 -9.1463 1.8043
-5.5515 -9.3502 1.8043
-5.2113 -9.5420 1.8043
-4.8645 -9.7216 1.8043
-4.5115 -9.8886 1.8043
-4.1529 -10.0430 1.8043
-3.7891 -10.1844 1.8043
-3.4205 -10.3128 1.8043
-3.0476 -10.4280 1.8043
-2.6708 -10.5297 1.8043
-2.2907 -10.6180 1.8043
-0.1402 -0.7856 0.1326
-0.1096 -0.7743 0.1299
-0.0820 -0.7806 0.1304
-0.0552 -0.8011 0.1334
-0.3568 -10.8539 1.8043
0.0333 -10.8595 1.8043
0.4233 -10.8513 1.8043
0.8128 -10.8291 1.8043
1.2013 -10.7931 1.8043
1.5882 -10.7433 1.8043
1.9731 -10.6798 1.8043
2.3555 -10.6026 1.8043
2.7350 -10.5118 1.8043
3.1110 -10.4075 1.8043
3.4831 -10.2899 1.8043
3.8508 -10.1591 1.8043
4.2136 -10.0153 1.8043
4.5711 -9.8586 1.8043
4.9229 -9.6892 1.8043
5.2684 -9.5074 1.8043
5.6073 -9.3134 1.8043
5.9391 -9.1074 1.8043
6.2634 -8.8897 1.8043
6.5797 -8.6605 1.8043
5.4206 -6.6266 1.4200
5.4960 -6.2468 1.3798
5.5089 -5.8254 1.3293
5.5208 -5.4332 1.2840
5.5320 -5.0662 1.2432
5.5425 -4.7212 1.2063
5.3580 -4.2417 1.1320
5.4306 -3.9904 1.1161
5.5707 -3.7931 1.1159
5.5793 -3.5124 1.0913
5.7373 -3.3304 1.0978
6.2745 -3.3469 1.1765
6.8960 -3.3661 1.2692
7.6252 -3.3886 1.3798
9.5482 -3.8388 1.7012
9.6827 -3.4944 1.7012
9.8047 -3.1453 1.7012
9.9142 -2.7920 1.7012
10.0110 -2.4348 1.7012
10.0950 -2.0744 1.7012
10.1660 -1.7110 1.7012
10.2240 -1.3453 1.7012
10.2688 -0.9776 1.7012
10.3005 -0.6084 1.7012
10.3188 -0.2382 1.7012
10.3239 0.1326 1.7012
10.3156 0.5034 1.7012
10.2941 0.8737 1.7012
10.2592 1.2432 1.7012
10.2111 1.6113 1.7012
10.1497 1.9775 1.7012
10.0752 2.3414 1.7012
9.9876 2.7025 1.7012
9.8871 3.0603 1.7012
9.7737 3.4143 1.7012
9.6477 3.7641 1.7012
9.5090 4.1093 1.7012
9.3595 4.4501 1.7015
9.1948 4.7839 1.7012
9.1733 5.1994 1.7302
9.1901 5.6543 1.7701
9.1573 6.0979 1.8043
8.9348 6.4244 1.8043
8.7005 6.7428 1.8043
8.4549 7.0526 1.8043
8.1982 7.3534 1.8043
7.9308 7.6447 1.8043
7.6529 7.9264 1.8043
7.3650 8.1978 1.8043
-5.8913 6.9637 1.7043
-6.1364 6.7465 1.7043
-6.3735 6.5207 1.7043
-6.6023 6.2865 1.7043
-6.8224 6.0442 1.7043
-7.0336 5.7942 1.7043
-7.2356 5.5368 1.7043
-7.4281 5.2723 1.7043
-7.6110 5.0011 1.7043
-7.7838 4.7236 1.7043
-7.9466 4.4400 1.7043
-8.0990 4.1509 1.7043
-8.2408 3.8565 1.7043
-8.3719 3.5572 1.7043
-8.4921 3.2535 1.7043
-8.6013 2.9458 1.7043
-8.6993 2.6344 1.7043
-8.7860 2.3197 1.7043
-8.8613 2.0022 1.7043
-8.9251 1.6823 1.7043
-8.9774 1.3604 1.7043
-9.0180 1.0369 1.7043
-9.0470 0.7122 1.7043
-9.0643 0.3867 1.7043
-3.0823 0.0207 0.5792
-9.0638 -0.2647 1.7043
-9.0460 -0.5898 1.7043
-9.0165 -0.9140 1.7043
-8.9755 -1.2369 1.7043
-8.9228 -1.5580 1.7043
-8.8588 -1.8769 1.7043
-8.7833 -2.1932 1.7043
-8.6800 -2.5018 1.7010
-8.5823 -2.8111 1.7010
-6.3010 -2.3176 1.2649
-5.8916 -2.4106 1.1996
-5.3892 -2.4345 1.1147
-4.9549 -2.4562 1.0427
-4.5737 -2.4757 0.9808
-4.2351 -2.4931 0.9270
-3.9322 -2.5092 0.8801
-3.6583 -2.5238 0.8388
-3.2670 -2.4315 0.7688
-3.2529 -2.6077 0.7872
-3.2606 -2.8120 0.8131
-6.6040 -6.1226 1.7010
-6.3785 -6.3545 1.7010
-6.5180 -6.9775 1.8043
-6.2620 -7.2058 1.8043
-5.9981 -7.4247 1.8043
-5.7265 -7.6340 1.8043
-5.4478 -7.8334 1.8043
-5.1621 -8.0228 1.8043
-4.8699 -8.2018 1.8043
-4.5715 -8.3702 1.8043
-4.2673 -8.5279 1.8043
-3.9578 -8.6746 1.8043
-3.6433 -8.8101 1.8043
-3.3241 -8.9343 1.8043
-3.0008 -9.0471 1.8043
-2.6737 -9.1482 1.8043
-2.3432 -9.2376 1.8043
-2.0097 -9.3151 1.8043
-0.1402 -0.7855 0.1511
-0.1096 -0.7742 0.1481
-0.0820 -0.7805 0.1486
-0.0552 -0.8009 0.1520
-0.3130 -9.5223 1.8043
0.0292 -9.5273 1.8043
0.3714 -9.5201 1.8043
0.7131 -9.5006 1.8043
1.0539 -9.4690 1.8043
1.3934 -9.4253 1.8043
1.7311 -9.3695 1.8043
2.0666 -9.3017 1.8043
2.3995 -9.2220 1.8043
2.7294 -9.1304 1.8043
3.0557 -9.0271 1.8043
3.3783 -8.9123 1.8043
3.6966 -8.7860 1.8043
4.0102 -8.6484 1.8043
4.3187 -8.4998 1.8043
4.6217 -8.3401 1.8043
4.9189 -8.1698 1.8043
5.2099 -7.9889 1.8043
5.4942 -7.7978 1.8043
5.7716 -7.5966 1.8043
5.4869 -6.7073 1.6386
5.7437 -6.5280 1.6439
6.5586 -6.9351 1.8043
6.8047 -6.6964 1.8043
5.5320 -5.0659 1.4174
5.5425 -4.7210 1.3754
5.3103 -4.2037 1.2793
5.3883 -3.9592 1.2627
5.5707 -3.7929 1.2724
5.5793 -3.5122 1.2444
5.7384 -3.3308 1.2521
6.2758 -3.3474 1.3420
8.5961 -4.1957 1.8043
8.7433 -3.8852 1.8043
8.8485 -3.5571 1.7980
8.8624 -3.1980 1.7759
8.8759 -2.8470 1.7565
8.8892 -2.5030 1.7398
8.9022 -2.1649 1.7255
8.9192 -1.8325 1.7145
8.9373 -1.5039 1.7061
8.9624 -1.1790 1.7012
9.0014 -0.8566 1.7012
9.0287 -0.5330 1.7012
9.0445 -0.2085 1.7012
9.0486 0.1165 1.7012
9.0410 0.4415 1.7012
9.0235 0.7662 1.7015
9.0308 1.0947 1.7087
9.0369 1.4263 1.7180
9.0474 1.7630 1.7305
9.0599 2.1057 1.7458
9.0727 2.4552 1.7636
9.0858 2.8125 1.7842
9.0825 3.1732 1.8043
8.9651 3.4981 1.8043
8.8359 3.8188 1.8043
8.6953 4.1346 1.8043
8.5434 4.4452 1.8043
8.3803 4.7503 1.8043
8.2063 5.0493 1.8043
8.0216 5.3419 1.8043
7.8264 5.6278 1.8043
7.6210 5.9065 1.8043
7.4057 6.1777 1.8043
7.1806 6.4409 1.8043
6.9462 6.6960 1.8043
6.7026 6.9424 1.8043
6.4503 7.1800 1.8043
-5.2352 6.1885 1.7043
-5.4532 5.9956 1.7043
-5.6640 5.7950 1.7043
-5.8674 5.5870 1.7043
-6.0632 5.3718 1.7043
-6.2510 5.1497 1.7043
-6.4306 4.9211 1.7043
-6.6019 4.6861 1.7043
-6.7646 4.4452 1.7043
-6.9184 4.1986 1.7043
-7.0632 3.9467 1.7043
-7.1989 3.6898 1.7043
-7.3251 3.4282 1.7043
-7.4418 3.1623 1.7043
-7.5489 2.8924 1.7043
-7.6462 2.6189 1.7043
-7.7335 2.3421 1.7043
-7.8108 2.0625 1.7043
-7.8779 1.7803 1.7043
-7.9349 1.4959 1.7043
-7.9816 1.2097 1.7043
-8.0180 0.9221 1.7043
-8.0440 0.6335 1.7043
-8.0596 0.3441 1.7043
-3.0823 0.0208 0.6514
-8.0596 -0.2351 1.7043
-8.0440 -0.5242 1.7043
-8.0180 -0.8125 1.7043
-7.9817 -1.0997 1.7043
-7.9352 -1.3852 1.7043
-7.8784 -1.6689 1.7043
-7.8115 -1.9503 1.7043
-7.7346 -2.2290 1.7043
-7.6332 -2.5000 1.7010
-6.3014 -2.3175 1.4222
-5.7677 -2.3597 1.3204
-5.3896 -2.4345 1.2533
-4.9552 -2.4562 1.1723
-4.5739 -2.4757 1.1027
-4.2353 -2.4931 1.0422
-3.9324 -2.5092 0.9894
-3.6585 -2.5238 0.9429
-3.2673 -2.4316 0.8642
-3.2529 -2.6075 0.8848
-3.2606 -2.8119 0.9140
-5.8754 -5.4468 1.7010
-5.6750 -5.6533 1.7010
-5.4673 -5.8525 1.7010
-5.2527 -6.0441 1.7010
-5.0314 -6.2278 1.7010
-4.8037 -6.4035 1.7010
-4.8473 -6.9698 1.8043
-4.5932 -7.1384 1.8043
-4.3333 -7.2978 1.8043
-4.0678 -7.4478 1.8043
-3.7973 -7.5882 1.8043
-3.5218 -7.7188 1.8043
-3.2420 -7.8395 1.8043
-2.9580 -7.9501 1.8043
-2.6703 -8.0505 1.8043
-2.3793 -8.1406 1.8043
-2.0852 -8.2202 1.8043
-1.7885 -8.2893 1.8043
-0.1402 -0.7854 0.1698
-0.1096 -0.7741 0.1664
-0.0820 -0.7805 0.1670
-0.0552 -0.8006 0.1708
-0.2786 -8.4738 1.8043
0.0260 -8.4783 1.8043
0.3305 -8.4718 1.8043
0.6346 -8.4545 1.8043
0.9379 -8.4264 1.8043
1.2400 -8.3875 1.8043
1.5405 -8.3378 1.8043
1.8391 -8.2774 1.8043
2.1353 -8.2064 1.8043
2.4288 -8.1249 1.8043
2.7193 -8.0329 1.8043
3.0063 -7.9306 1.8043
3.2895 -7.8182 1.8043
3.5685 -7.6957 1.8043
3.8430 -7.5633 1.8043
4.1126 -7.4212 1.8043
4.3770 -7.2695 1.8043
4.6358 -7.1084 1.8043
4.8888 -6.9382 1.8043
5.1356 -6.7591 1.8043
5.3758 -6.5712 1.8043
5.6092 -6.3749 1.8043
5.8354 -6.1702 1.8043
6.0543 -5.9576 1.8043
6.2654 -5.7373 1.8043
6.4686 -5.5096 1.8043
5.3155 -4.2076 1.4393
5.3874 -3.9583 1.4191
5.5707 -3.7927 1.4302
5.5793 -3.5120 1.3989
5.7395 -3.3312 1.4078
7.5060 -4.0033 1.8043
7.6466 -3.7320 1.8043
7.7774 -3.4557 1.8043
7.8982 -3.1748 1.8043
8.0089 -2.8898 1.8043
8.1094 -2.6009 1.8043
8.1994 -2.3085 1.8043
8.2790 -2.0130 1.8043
8.3479 -1.7148 1.8043
8.4061 -1.4143 1.8043
8.4535 -1.1118 1.8043
8.4900 -0.8077 1.8043
8.5156 -0.5024 1.8043
8.5302 -0.1963 1.8043
8.5338 0.1101 1.8043
8.5264 0.4166 1.8043
8.5080 0.7227 1.8043
8.4787 1.0280 1.8043
8.4383 1.3321 1.8043
8.3871 1.6346 1.8043
8.3250 1.9352 1.8043
8.2521 2.2334 1.8043
8.1685 2.5289 1.8043
8.0743 2.8212 1.8043
7.9697 3.1100 1.8043
7.8547 3.3949 1.8043
7.7294 3.6756 1.8043
7.5942 3.9516 1.8043
7.4490 4.2227 1.8043
7.2942 4.4884 1.8043
7.1298 4.7484 1.8043
6.9562 5.0023 1.8043
6.7735 5.2499 1.8043
6.5819 5.4908 1.8043
6.3817 5.7246 1.8043
6.1732 5.9511 1.8043
5.9566 6.1700 1.8043
5.7323 6.3810 1.8043
-4.7062 5.5633 1.7043
-4.9022 5.3900 1.7043
-5.0917 5.2098 1.7043
-5.2747 5.0228 1.7043
-5.4508 4.8295 1.7043
-5.6197 4.6299 1.7043
-5.7813 4.4244 1.7043
-5.9354 4.2133 1.7043
-6.0818 3.9968 1.7043
-6.2202 3.7751 1.7043
-6.3505 3.5487 1.7043
-6.4726 3.3178 1.7043
-6.5863 3.0826 1.7043
-6.6914 2.8436 1.7043
-6.7878 2.6010 1.7043
-6.8754 2.3551 1.7043
-6.9540 2.1063 1.7043
-7.0237 1.8549 1.7043
-7.0843 1.6011 1.7043
-7.1357 1.3455 1.7043
-7.1778 1.0881 1.7043
-7.2107 0.8295 1.7043
-7.2342 0.5699 1.7043
-7.2484 0.3097 1.7043
-3.0824 0.0209 0.7243
-7.2488 -0.2112 1.7043
-7.2349 -0.4712 1.7043
-7.2117 -0.7306 1.7043
-7.1792 -0.9889 1.7043
-7.1375 -1.2458 1.7043
-7.0867 -1.5010 1.7043
-7.0267 -1.7541 1.7043
-6.9576 -2.0049 1.7043
-6.8797 -2.2530 1.7043
-6.7799 -2.4933 1.7010
-6.6846 -2.7346 1.7010
-6.5807 -2.9723 1.7010
-4.9021 -2.4297 1.2891
-4.5742 -2.4757 1.2258
-4.2356 -2.4931 1.1585
-3.9326 -2.5092 1.0998
-3.6587 -2.5238 1.0481
-3.2676 -2.4317 0.9606
-3.2529 -2.6074 0.9834
-3.2606 -2.8117 1.0158
-5.2866 -4.9007 1.7010
-5.1063 -5.0866 1.7010
-4.9196 -5.2659 1.7010
-4.7265 -5.4384 1.7010
-4.5275 -5.6038 1.7010
-4.3227 -5.7620 1.7010
-4.1124 -5.9127 1.7010
-3.8968 -6.0559 1.7010
-3.6763 -6.1912 1.7010
-3.6607 -6.7020 1.8043
-3.4172 -6.8284 1.8043
-3.1694 -6.9461 1.8043
-2.9176 -7.0548 1.8043
-2.6621 -7.1544 1.8043
-2.4032 -7.2448 1.8043
-2.1412 -7.3259 1.8043
-1.8766 -7.3976 1.8043
-1.6096 -7.4598 1.8043
-0.1401 -0.7853 0.1886
-0.1096 -0.7740 0.1848
-0.0820 -0.7804 0.1855
-0.0551 -0.8004 0.1897
-0.2507 -7.6261 1.8043
0.0234 -7.6301 1.8043
0.2974 -7.6243 1.8043
0.5711 -7.6087 1.8043
0.8441 -7.5834 1.8043
1.1160 -7.5483 1.8043
1.3864 -7.5036 1.8043
1.6551 -7.4492 1.8043
1.9217 -7.3853 1.8043
2.1859 -7.3119 1.8043
2.4472 -7.2291 1.8043
2.7055 -7.1370 1.8043
2.9603 -7.0357 1.8043
3.2114 -6.9254 1.8043
3.4584 -6.8062 1.8043
3.7010 -6.6782 1.8043
3.9389 -6.5416 1.8043
4.1718 -6.3966 1.8043
4.3994 -6.2434 1.8043
4.6214 -6.0821 1.8043
4.8375 -5.9130 1.8043
5.0474 -5.7362 1.8043
5.2510 -5.5520 1.8043
5.4478 -5.3606 1.8043
5.6377 -5.1623 1.8043
5.8204 -4.9572 1.8043
5.4082 -4.2808 1.6275
5.4405 -3.9971 1.5927
5.6541 -3.8492 1.6134
6.4748 -4.0755 1.8043
6.6182 -3.8410 1.8043
6.7531 -3.6015 1.8043
6.8795 -3.3573 1.8043
6.9970 -3.1087 1.8043
7.1055 -2.8560 1.8043
7.2050 -2.5995 1.8043
7.2952 -2.3395 1.8043
7.3760 -2.0765 1.8043
7.4474 -1.8106 1.8043
7.5093 -1.5423 1.8043
7.5614 -1.2719 1.8043
7.6039 -0.9998 1.8043
7.6365 -0.7262 1.8043
7.6594 -0.4516 1.8043
7.6723 -0.1763 1.8043
7.6754 0.0993 1.8043
7.6686 0.3750 1.8043
7.6519 0.6502 1.8043
7.6253 0.9248 1.8043
7.5888 1.1983 1.8043
7.5426 1.4703 1.8043
7.4865 1.7405 1.8043
7.4208 2.0087 1.8043
7.3455 2.2743 1.8043
7.2606 2.5371 1.8043
7.1664 2.7968 1.8043
7.0628 3.0529 1.8043
6.9501 3.3052 1.8043
6.8283 3.5534 1.8043
6.6976 3.7970 1.8043
6.5583 4.0358 1.8043
6.4104 4.2694 1.8043
6.2541 4.4977 1.8043
6.0897 4.7202 1.8043
5.9174 4.9367 1.8043
5.7373 5.1468 1.8043
5.5498 5.3504 1.8043
5.3550 5.5471 1.8043
5.1532 5.7366 1.8043
-4.2700 5.0479 1.7043
-4.4479 4.8908 1.7043
-4.6200 4.7273 1.7043
-4.7861 4.5578 1.7043
-4.9459 4.3823 1.7043
-5.0993 4.2013 1.7043
-5.2460 4.0149 1.7043
-5.3859 3.8234 1.7043
-5.5188 3.6270 1.7043
-5.6445 3.4259 1.7043
-5.7629 3.2205 1.7043
-5.8737 3.0110 1.7043
-5.9770 2.7977 1.7043
-6.0725 2.5808 1.7043
-6.1601 2.3607 1.7043
-6.2397 2.1376 1.7043
-6.3112 1.9118 1.7043
-6.3745 1.6837 1.7043
-6.4296 1.4534 1.7043
-6.4764 1.2214 1.7043
-6.5147 0.9878 1.7043
-6.5447 0.7531 1.7043
-6.5662 0.5175 1.7043
-6.5792 0.2814 1.7043
-3.0824 0.0210 0.7979
-6.5798 -0.1915 1.7043
-6.5673 -0.4276 1.7043
-6.5464 -0.6630 1.7043
-6.5171 -0.8975 1.7043
-6.4793 -1.1307 1.7043
-6.4333 -1.3624 1.7043
-6.3789 -1.5922 1.7043
-6.3164 -1.8199 1.7043
-6.2457 -2.0451 1.7043
-6.1671 -2.2677 1.7043
-6.0805 -2.4872 1.7043
-5.9747 -2.6983 1.7010
-5.8728 -2.9106 1.7010
-4.4784 -2.4236 1.3218
-4.2358 -2.4931 1.2760
-3.9329 -2.5092 1.2114
-3.6589 -2.5237 1.1544
-3.2679 -2.4318 1.0581
-3.2529 -2.6072 1.0830
-3.2606 -2.8116 1.1187
-4.8004 -4.4498 1.7010
-4.6368 -4.6187 1.7010
-4.4673 -4.7815 1.7010
-4.2920 -4.9382 1.7010
-4.1113 -5.0885 1.7010
-3.9254 -5.2322 1.7010
-3.7345 -5.3692 1.7010
-3.5388 -5.4992 1.7010
-3.3386 -5.6221 1.7010
-3.1341 -5.7378 1.7010
-2.9360 -5.8666 1.7070
-2.8783 -6.3078 1.8043
-2.6496 -6.4066 1.8043
-2.4176 -6.4971 1.8043
-2.1825 -6.5793 1.8043
-1.9446 -6.6530 1.8043
-1.7043 -6.7181 1.8043
-1.4618 -6.7747 1.8043
-0.1401 -0.7852 0.2077
-0.1096 -0.7739 0.2035
-0.0820 -0.7803 0.2043
-0.0551 -0.8002 0.2088
-0.2277 -6.9258 1.8043
0.0212 -6.9294 1.8043
0.2701 -6.9241 1.8043
0.5187 -6.9100 1.8043
0.7666 -6.8870 1.8043
1.0135 -6.8551 1.8043
1.2591 -6.8145 1.8043
1.5032 -6.7651 1.8043
1.7453 -6.7070 1.8043
1.9852 -6.6403 1.8043
2.2225 -6.5651 1.8043
2.4571 -6.4814 1.8043
2.6885 -6.3894 1.8043
2.9165 -6.2892 1.8043
3.1408 -6.1808 1.8043
3.3610 -6.0646 1.8043
3.5771 -5.9405 1.8043
3.7885 -5.8088 1.8043
3.9952 -5.6695 1.8043
4.1967 -5.5230 1.8043
4.3929 -5.3693 1.8043
4.5835 -5.2087 1.8043
4.7683 -5.0414 1.8043
4.9469 -4.8675 1.8043
5.1193 -4.6874 1.8043
5.2851 -4.5012 1.8043
