ply
format ascii 1.0
element vertex 2204
property float32 x
property float32 y
property float32 z
end_header
-8.5454 5.1933 0.4960
-26.8609 15.0316 1.5288
-29.8976 15.3491 1.6714
-30.2052 14.1615 1.6614
-30.6164 13.0356 1.6596
-8.5290 3.2751 0.4563
-8.6284 2.9626 0.4563
-31.9294 9.6972 1.6714
-32.2094 8.5327 1.6714
-32.4467 7.3606 1.6714
-32.6412 6.1824 1.6714
-8.5120 1.2977 0.4338
-8.5279 0.9886 0.4332
-24.7842 1.9749 1.2566
-24.5604 1.0721 1.2443
-25.0307 0.1936 1.2689
-29.8270 -0.8400 1.5149
-8.5303 -0.5471 0.4346
-8.4935 -0.8517 0.4347
8.7248 -9.2369 0.9515
8.8168 -8.6875 0.9262
8.9043 -8.1650 0.9034
7.1304 -6.0821 0.7002
7.1861 -5.6970 0.6846
7.2470 -5.3332 0.6712
7.3057 -4.9825 0.6591
7.3626 -4.6431 0.6482
7.4177 -4.3139 0.6385
7.4714 -3.9934 0.6298
7.5238 -3.6806 0.6221
7.5751 -3.3744 0.6153
7.6254 -3.0738 0.6095
7.6750 -2.7780 0.6045
7.7239 -2.4860 0.6003
7.7722 -2.1971 0.5970
7.8202 -1.9105 0.5944
7.8742 -1.6267 0.5931
7.8539 -1.3306 0.5870
7.9110 -1.0498 0.5874
7.9584 -0.7667 0.5879
8.0061 -0.4822 0.5892
8.0541 -0.1954 0.5912
8.1026 0.0942 0.5940
8.1437 0.3873 0.5970
8.2628 0.6908 0.6065
8.3070 0.9958 0.6114
8.3593 1.3078 0.6176
8.4128 1.6274 0.6248
8.4678 1.9556 0.6331
8.5244 2.2938 0.6424
8.5829 2.6432 0.6529
8.6436 3.0055 0.6646
8.7067 3.3823 0.6777
8.7726 3.7755 0.6922
8.8415 4.1873 0.7084
8.9140 4.6203 0.7263
8.9979 5.0814 0.7468
8.8104 5.4013 0.7462
8.2749 5.4910 0.7164
7.7791 5.5740 0.6898
7.3174 5.6514 0.6658
7.0109 5.8279 0.6560
7.0803 6.3287 0.6828
7.1746 6.8917 0.7147
7.2785 7.5119 0.7509
7.3938 8.2002 0.7920
7.5228 8.9705 0.8392
7.6686 9.8410 0.8937
7.8529 10.8598 0.9594
7.8847 11.7713 1.0137
8.2533 13.3325 1.1212
8.5225 14.9398 1.2292
8.8499 16.8947 1.3623
9.9008 20.6731 1.6364
9.1568 21.0245 1.6364
8.4001 21.3483 1.6364
7.6316 21.6441 1.6364
6.6512 21.2676 1.5883
5.8857 21.4991 1.5883
5.1119 21.7023 1.5883
4.3310 21.8768 1.5883
3.5440 22.0223 1.5883
2.9306 23.5756 1.6914
2.0832 23.6684 1.6914
1.2328 23.7297 1.6914
0.3806 23.7596 1.6914
-0.4720 23.7580 1.6914
-1.3241 23.7248 1.6914
-2.1742 23.6602 1.6914
-3.0214 23.5643 1.6914
-3.8643 23.4371 1.6914
-4.7017 23.2789 1.6914
-5.1949 21.6804 1.5882
-5.9678 21.4743 1.5882
-6.7323 21.2399 1.5882
-7.4875 20.9775 1.5882
-8.2322 20.6876 1.5882
-8.6701 19.6994 1.5359
-5.6160 11.6115 0.9208
-8.6412 16.3430 1.3204
-8.6296 14.9932 1.2363
-8.6194 13.8049 1.1637
-8.6103 12.7482 1.1006
-8.6022 11.8001 1.0454
-8.5948 10.9426 0.9967
-8.5913 10.1650 0.9540
-8.6200 9.4865 0.9195
-8.6811 8.8908 0.8920
-16.5640 15.7888 1.6440
-16.9122 15.0002 1.6253
-8.5615 7.0613 0.7985
-17.5157 13.4204 1.5891
-13.5934 9.6613 1.2020
-17.9434 11.8075 1.5496
-8.5454 5.1937 0.7221
-18.7250 10.4797 1.5508
-19.2386 9.8779 1.5644
-19.8730 9.3184 1.5893
-20.5091 8.7332 1.6156
-8.5290 3.2755 0.6628
-8.6271 2.9626 0.6624
-8.6280 2.6208 0.6555
-8.6269 2.2858 0.6494
-8.6289 1.9579 0.6445
-8.6303 1.6350 0.6405
-8.5120 1.2982 0.6285
-8.5274 0.9889 0.6273
-8.6230 0.6875 0.6327
-8.6222 0.3768 0.6320
-8.6209 0.0671 0.6319
-8.6191 -0.2423 0.6327
-8.5308 -0.5467 0.6279
-8.4935 -0.8512 0.6277
8.7249 -9.2364 1.2397
8.9031 -8.7719 1.2188
8.9914 -8.2443 1.1889
7.1304 -6.0816 0.9129
7.1861 -5.6966 0.8927
7.2471 -5.3329 0.8753
7.3058 -4.9821 0.8597
7.3626 -4.6428 0.8457
7.4178 -4.3135 0.8331
7.4715 -3.9930 0.8219
7.5239 -3.6802 0.8121
7.5751 -3.3740 0.8034
7.6255 -3.0734 0.7960
7.6750 -2.7776 0.7896
7.7239 -2.4857 0.7844
7.7723 -2.1968 0.7802
7.8203 -1.9101 0.7770
7.8805 -1.6276 0.7761
7.8924 -1.3367 0.7714
7.9111 -1.0495 0.7685
7.9585 -0.7663 0.7693
8.0062 -0.4818 0.7711
8.0542 -0.1951 0.7739
8.1027 0.0946 0.7778
8.1847 0.3896 0.7859
7.3589 0.6156 0.7077
8.3071 0.9962 0.8011
8.3593 1.3082 0.8095
8.4129 1.6278 0.8192
8.4678 1.9561 0.8302
8.5245 2.2942 0.8426
8.5830 2.6437 0.8566
8.6437 3.0060 0.8722
8.7068 3.3828 0.8895
8.7726 3.7760 0.9088
8.8416 4.1878 0.9303
8.9141 4.6208 0.9541
8.9980 5.0819 0.9812
8.8098 5.4014 0.9805
8.2744 5.4911 0.9416
7.7786 5.5741 0.9068
7.3170 5.6514 0.8755
7.0110 5.8285 0.8628
7.0804 6.3292 0.8982
7.1747 6.8923 0.9404
7.2786 7.5125 0.9881
7.3939 8.2008 1.0425
7.5229 8.9712 1.1048
7.7966 10.0058 1.1963
7.6354 10.5597 1.2284
7.4235 11.0834 1.2569
7.3964 11.9488 1.3235
8.5227 14.9410 1.6193
8.0689 15.4046 1.6364
7.5138 15.6899 1.6364
6.7443 15.4860 1.5883
6.1863 15.7229 1.5883
5.6199 15.9394 1.5883
5.0457 16.1349 1.5883
4.4647 16.3094 1.5883
3.8775 16.4624 1.5883
3.2850 16.5938 1.5883
2.8624 17.7876 1.6914
2.2226 17.8809 1.6914
1.5799 17.9508 1.6914
0.9349 17.9970 1.6914
0.2887 18.0195 1.6914
-0.3580 18.0182 1.6914
-1.0041 17.9933 1.6914
-1.6489 17.9446 1.6914
-2.2914 17.8723 1.6914
-2.9308 17.7765 1.6914
-3.5661 17.6573 1.6914
-4.1966 17.5150 1.6914
-4.8213 17.3496 1.6914
-5.1073 16.1139 1.5882
-5.6806 15.9162 1.5882
-6.2462 15.6976 1.5882
-6.8032 15.4585 1.5882
-5.6098 11.5992 1.2120
-7.8886 14.9203 1.5882
-8.4155 14.6219 1.5882
-8.6194 13.8057 1.5328
-8.6103 12.7490 1.4495
-8.6022 11.8008 1.3766
-8.5948 10.9432 1.3123
-8.5881 10.1619 1.2554
-8.5820 9.4452 1.2048
-8.5763 8.7840 1.1597
-8.5710 8.1705 1.1192
-8.5661 7.5982 1.0829
-8.5615 7.0619 1.0502
-8.5572 6.5569 1.0208
-8.5531 6.0795 0.9943
-8.5492 5.6262 0.9704
-8.5454 5.1942 0.9489
-8.5670 4.7951 0.9322
-8.5795 4.4055 0.9164
-8.6489 4.0559 0.9083
-8.7823 3.7402 0.9083
-8.5290 3.2760 0.8701
-8.6259 2.9626 0.8692
-16.4993 5.0126 1.6446
-16.5075 4.3747 1.6300
-16.4430 3.7317 1.6106
-16.3820 3.1044 1.5940
-8.5120 1.2986 0.8238
-8.5270 0.9893 0.8220
-16.1675 1.2899 1.5542
-16.1931 0.7084 1.5545
-16.2423 0.1272 1.5590
-16.2539 -0.4562 1.5620
-8.5312 -0.5463 0.8218
-8.4935 -0.8508 0.8213
8.7250 -9.2359 1.5292
8.9032 -8.7714 1.5036
7.4480 -6.8287 1.2151
7.1305 -6.0812 1.1264
7.1862 -5.6962 1.1016
7.2471 -5.3325 1.0803
7.3059 -4.9817 1.0612
7.3627 -4.6424 1.0440
7.4179 -4.3131 1.0286
7.4715 -3.9926 1.0150
7.5239 -3.6798 1.0029
7.5752 -3.3736 0.9924
7.6255 -3.0731 0.9833
7.6751 -2.7773 0.9756
7.7240 -2.4853 0.9692
7.7724 -2.1964 0.9642
7.8204 -1.9098 0.9604
7.8812 -1.6273 0.9595
7.9316 -1.3430 0.9585
7.9111 -1.0491 0.9503
7.9586 -0.7660 0.9514
8.0062 -0.4814 0.9538
8.0542 -0.1947 0.9575
8.1408 0.0955 0.9669
8.2108 0.3913 0.9756
8.2683 0.6921 0.9841
8.3071 0.9966 0.9917
8.3594 1.3086 1.0023
8.4129 1.6282 1.0144
8.4679 1.9565 1.0282
8.5245 2.2947 1.0437
8.5831 2.6442 1.0612
8.6438 3.0065 1.0806
8.7069 3.3832 1.1023
8.7727 3.7765 1.1264
8.8417 4.1884 1.1531
8.9142 4.6213 1.1828
8.9981 5.0825 1.2166
8.8091 5.4015 1.2158
8.2738 5.4912 1.1677
7.7780 5.5742 1.1247
7.3165 5.6515 1.0860
7.0111 5.8289 1.0705
7.0805 6.3298 1.1145
7.1748 6.8929 1.1670
7.4000 7.6384 1.2468
7.3940 8.2015 1.2940
7.5230 8.9719 1.3715
7.7967 10.0066 1.4853
7.6350 10.5597 1.5251
7.1934 10.7405 1.5124
7.1649 11.5756 1.5921
6.7313 11.8010 1.5883
6.3056 12.0388 1.5883
5.8714 12.2609 1.5883
5.4292 12.4671 1.5883
4.9798 12.6571 1.5883
4.5236 12.8306 1.5883
4.0612 12.9873 1.5883
3.5934 13.1271 1.5883
3.1206 13.2498 1.5883
2.8153 14.2219 1.6914
2.3035 14.3155 1.6914
1.7887 14.3903 1.6914
1.2714 14.4462 1.6914
0.7523 14.4832 1.6914
0.2323 14.5012 1.6914
-0.2881 14.5002 1.6914
-0.8081 14.4802 1.6914
-1.3269 14.4412 1.6914
-1.8440 14.3833 1.6914
-2.3586 14.3065 1.6914
-2.8700 14.2110 1.6914
-3.3775 14.0969 1.6914
-3.8804 13.9644 1.6914
-4.3780 13.8136 1.6914
-4.8697 13.6448 1.6914
-5.0280 12.6366 1.5882
-5.4767 12.4450 1.5882
-5.6035 11.5868 1.5038
-6.3513 12.0133 1.5882
-6.7760 11.7740 1.5882
-7.1916 11.5194 1.5882
-7.5975 11.2499 1.5882
-7.9931 10.9660 1.5882
-8.3781 10.6679 1.5882
-8.5881 10.1625 1.5585
-8.5820 9.4459 1.4955
-8.5763 8.7846 1.4393
-8.5710 8.1711 1.3889
-8.5661 7.5988 1.3437
-8.5615 7.0624 1.3030
-8.5572 6.5574 1.2664
-8.5531 6.0800 1.2333
-8.5492 5.6267 1.2035
-8.5455 5.1947 1.1766
-8.5419 4.7815 1.1524
-8.5385 4.3850 1.1307
-8.5352 4.0030 1.1111
-8.5320 3.6340 1.0937
-8.5290 3.2764 1.0782
-8.5260 2.9288 1.0645
-8.5231 2.5898 1.0525
-8.5202 2.2584 1.0421
-8.5174 1.9335 1.0333
-8.5147 1.6140 1.0259
-8.5120 1.2990 1.0200
-8.5093 0.9877 1.0154
-8.5067 0.6791 1.0122
-8.5040 0.3725 1.0103
-8.5014 0.0670 1.0097
-8.4988 -0.2381 1.0104
-8.4962 -0.5437 1.0124
-8.4935 -0.8504 1.0158
7.8437 -8.3025 1.6364
8.1397 -8.0187 1.6364
7.4481 -6.8283 1.4466
7.1305 -6.0808 1.3411
7.1863 -5.6958 1.3117
7.2472 -5.3321 1.2865
7.3960 -5.0427 1.2793
7.4536 -4.6992 1.2587
7.5094 -4.3659 1.2403
7.5637 -4.0415 1.2239
7.5240 -3.6795 1.1948
7.5753 -3.3733 1.1823
7.6256 -3.0727 1.1716
7.7698 -2.8111 1.1769
7.7240 -2.4849 1.1551
7.7724 -2.1960 1.1492
7.8204 -1.9094 1.1448
7.8813 -1.6270 1.1438
7.7484 -1.3116 1.1164
7.7947 -1.0332 1.1164
7.8311 -0.7533 1.1164
7.8574 -0.4721 1.1164
7.8736 -0.1899 1.1164
7.8797 0.0928 1.1164
7.8756 0.3757 1.1164
8.2684 0.6925 1.1742
8.3072 0.9970 1.1834
8.4626 1.3252 1.2108
8.5167 1.6488 1.2256
8.5724 1.9811 1.2424
8.5246 2.2951 1.2459
8.5832 2.6446 1.2669
8.7504 3.0440 1.3062
8.8143 3.4255 1.3325
8.8810 3.8236 1.3617
8.8418 4.1889 1.3772
8.9143 4.6219 1.4127
8.9983 5.0831 1.4533
7.8802 4.8324 1.2993
7.4013 4.9126 1.2480
7.4047 5.3071 1.2793
7.3160 5.6516 1.2976
7.0111 5.8294 1.2793
7.0806 6.3303 1.3320
7.1749 6.8935 1.3949
7.4002 7.6390 1.4904
7.3941 8.2021 1.5469
7.5085 8.9552 1.6364
6.9738 8.9511 1.5883
6.6504 9.1986 1.5883
6.3182 9.4342 1.5883
5.9775 9.6578 1.5883
5.6288 9.8688 1.5883
5.2726 10.0671 1.5883
4.9092 10.2523 1.5883
4.5394 10.4243 1.5883
4.1634 10.5827 1.5883
3.7818 10.7273 1.5883
3.3952 10.8580 1.5883
3.0939 11.3032 1.6359
0.7910 3.3589 0.4816
0.6698 3.3838 0.4814
0.5478 3.4046 0.4812
0.4252 3.4212 0.4810
0.3022 3.4336 0.4809
0.1788 3.4419 0.4809
0.0552 3.4459 0.4808
-0.0685 3.4457 0.4808
-0.1920 3.4413 0.4809
-0.3154 3.4327 0.4810
-0.4384 3.4199 0.4811
-0.5610 3.4029 0.4813
-0.6829 3.3817 0.4815
-0.8041 3.3564 0.4817
-3.2439 11.6745 1.6914
-3.6600 11.5488 1.6914
-4.0712 11.4080 1.6914
-4.4770 11.2525 1.6914
-4.8767 11.0822 1.6914
-4.9560 10.2484 1.5907
-5.3108 10.0458 1.5882
-5.6662 9.8462 1.5882
-6.0141 9.6338 1.5882
-6.3539 9.4090 1.5882
-6.6852 9.1721 1.5882
-7.0076 8.9234 1.5882
-7.3206 8.6632 1.5882
-7.6239 8.3919 1.5882
-7.9170 8.1099 1.5882
-8.1997 7.8176 1.5882
-8.4714 7.5153 1.5882
-8.5615 7.0630 1.5572
-8.5572 6.5580 1.5133
-8.5531 6.0805 1.4736
-8.5492 5.6272 1.4379
-8.5455 5.1952 1.4057
-8.5419 4.7820 1.3766
-8.5385 4.3854 1.3505
-8.5352 4.0035 1.3270
-8.5321 3.6345 1.3061
-8.5290 3.2768 1.2874
-8.5260 2.9292 1.2709
-8.5231 2.5903 1.2565
-8.5202 2.2588 1.2440
-8.5174 1.9339 1.2333
-8.5147 1.6144 1.2244
-8.5120 1.2994 1.2172
-8.5093 0.9881 1.2116
-8.5067 0.6795 1.2076
-8.5040 0.3729 1.2052
-8.5014 0.0674 1.2044
-8.4988 -0.2377 1.2051
-8.4962 -0.5432 1.2074
-8.4935 -0.8500 1.2113
6.5579 -6.9410 1.5883
6.8051 -6.7034 1.5883
7.0437 -6.4571 1.5883
7.1306 -6.0804 1.5571
7.1863 -5.6954 1.5231
7.2473 -5.3317 1.4939
7.3961 -5.0423 1.4857
7.4536 -4.6989 1.4619
7.5095 -4.3655 1.4406
7.5638 -4.0411 1.4216
7.5240 -3.6791 1.3878
7.5753 -3.3729 1.3735
7.6257 -3.0723 1.3611
7.7699 -2.8107 1.3674
7.8194 -2.5152 1.3587
7.8683 -2.2227 1.3519
7.8205 -1.9090 1.3304
7.8814 -1.6266 1.3293
7.4752 -1.2650 1.2518
7.5202 -0.9965 1.2519
7.5653 -0.7274 1.2537
7.6106 -0.4569 1.2571
7.6562 -0.1843 1.2621
7.7023 0.0911 1.2688
7.7491 0.3700 1.2773
8.2684 0.6929 1.3654
8.3073 0.9974 1.3762
8.4626 1.3256 1.4083
8.5168 1.6492 1.4256
8.5725 1.9815 1.4452
8.5247 2.2956 1.4494
8.5832 2.6451 1.4739
8.7505 3.0445 1.5197
8.8144 3.4260 1.5505
8.8811 3.8241 1.5846
8.8419 4.1894 1.6027
8.8724 4.6006 1.6364
8.7053 4.9181 1.6364
7.8796 4.8325 1.5122
7.4008 4.9127 1.4527
7.4048 5.3077 1.4893
7.3155 5.6517 1.5106
7.0112 5.8299 1.4894
7.0807 6.3309 1.5509
7.0168 6.7420 1.5883
6.7727 6.9918 1.5883
6.5197 7.2326 1.5883
6.2580 7.4642 1.5883
5.9880 7.6863 1.5883
5.7101 7.8984 1.5883
5.4246 8.1004 1.5883
5.1318 8.2919 1.5883
4.8323 8.4728 1.5883
4.5263 8.6427 1.5883
4.2143 8.8014 1.5883
3.8966 8.9487 1.5883
3.5738 9.0844 1.5883
3.2462 9.2083 1.5883
3.1033 9.9252 1.6914
0.7893 2.8839 0.4863
0.6851 2.9093 0.4860
0.5801 2.9310 0.4858
0.4745 2.9491 0.4856
0.3683 2.9636 0.4855
0.2617 2.9745 0.4854
0.1549 2.9816 0.4853
0.0478 2.9851 0.4853
-0.0593 2.9850 0.4853
-0.1663 2.9811 0.4853
-0.2732 2.9736 0.4854
-0.3798 2.9624 0.4855
-0.4859 2.9476 0.4857
-0.5915 2.9291 0.4859
-0.6964 2.9070 0.4861
-0.8006 2.8813 0.4863
-3.1415 9.9132 1.6914
-3.4946 9.7927 1.6914
-3.8429 9.6594 1.6914
-4.1862 9.5135 1.6914
-4.5238 9.3554 1.6914
-4.8555 9.1851 1.6914
-4.9362 8.5782 1.6116
-5.1632 8.2714 1.5882
-5.4552 8.0787 1.5882
-5.7399 7.8756 1.5882
-6.0170 7.6625 1.5882
-6.2861 7.4394 1.5882
-6.5469 7.2068 1.5882
-6.7989 6.9650 1.5882
-7.0420 6.7144 1.5882
-7.2758 6.4551 1.5882
-7.4999 6.1877 1.5882
-7.7142 5.9124 1.5882
-7.9183 5.6297 1.5882
-8.1120 5.3399 1.5882
-8.2950 5.0434 1.5882
-8.4670 4.7406 1.5882
-8.5385 4.3859 1.5717
-8.5352 4.0040 1.5443
-8.5321 3.6349 1.5198
-8.5290 3.2773 1.4980
-8.5260 2.9297 1.4787
-8.5231 2.5907 1.4618
-8.5202 2.2593 1.4471
-8.5174 1.9343 1.4346
-8.5147 1.6148 1.4241
-8.5120 1.2998 1.4156
-8.5093 0.9885 1.4090
-8.5067 0.6799 1.4043
-8.5040 0.3733 1.4014
-8.5014 0.0678 1.4004
-8.4988 -0.2373 1.4011
-8.4962 -0.5428 1.4037
-8.4935 -0.8496 1.4080
5.7544 -6.0901 1.5883
5.9710 -5.8814 1.5883
6.1801 -5.6650 1.5883
6.3815 -5.4412 1.5883
6.5748 -5.2103 1.5883
6.7598 -4.9727 1.5883
6.9363 -4.7285 1.5883
7.1040 -4.4780 1.5883
7.4826 -4.3495 1.6364
7.5639 -4.0407 1.6208
7.5241 -3.6787 1.5824
7.5754 -3.3725 1.5661
7.6257 -3.0719 1.5521
7.7699 -2.8103 1.5593
7.8194 -2.5148 1.5495
7.8684 -2.2223 1.5418
7.8206 -1.9086 1.5174
7.8814 -1.6262 1.5162
7.3074 -1.2362 1.3958
7.3513 -0.9738 1.3960
7.3954 -0.7107 1.3981
7.4397 -0.4462 1.4019
7.4843 -0.1798 1.4076
7.5294 0.0894 1.4152
7.5751 0.3621 1.4247
8.2685 0.6933 1.5581
8.3073 0.9979 1.5705
8.4627 1.3261 1.6072
8.5169 1.6496 1.6270
8.5047 1.9663 1.6364
8.4321 2.2711 1.6364
8.3486 2.5732 1.6364
8.2542 2.8722 1.6364
8.1491 3.1678 1.6364
8.0334 3.4595 1.6364
7.9071 3.7469 1.6364
7.7705 4.0297 1.6364
7.6238 4.3075 1.6364
7.4671 4.5799 1.6364
7.0861 4.7042 1.5883
6.9152 4.9571 1.5883
6.7352 5.2037 1.5883
6.5463 5.4438 1.5883
6.3489 5.6770 1.5883
6.1430 5.9029 1.5883
5.9291 6.1213 1.5883
5.7074 6.3319 1.5883
5.4781 6.5344 1.5883
5.2416 6.7285 1.5883
4.9981 6.9140 1.5883
4.7480 7.0905 1.5883
4.4917 7.2580 1.5883
4.2294 7.4160 1.5883
3.9614 7.5645 1.5883
3.6882 7.7032 1.5883
3.4102 7.8320 1.5883
3.1330 7.9644 1.5911
3.0252 8.5819 1.6914
0.7865 2.5155 0.4898
0.6955 2.5411 0.4896
0.6037 2.5636 0.4894
0.5112 2.5828 0.4892
0.4181 2.5989 0.4890
0.3246 2.6118 0.4889
0.2307 2.6214 0.4888
0.1365 2.6277 0.4888
0.0421 2.6308 0.4887
-0.0523 2.6306 0.4888
-0.1466 2.6272 0.4888
-0.2408 2.6206 0.4889
-0.3347 2.6107 0.4890
-0.4282 2.5975 0.4891
-0.5212 2.5812 0.4893
-0.6136 2.5616 0.4894
-0.7054 2.5388 0.4897
-0.7963 2.5129 0.4899
-3.0582 8.5702 1.6914
-3.3631 8.4537 1.6914
-3.6636 8.3263 1.6914
-3.9592 8.1881 1.6914
-4.2495 8.0393 1.6914
-4.5342 7.8800 1.6914
-4.8129 7.7106 1.6914
-4.9189 7.2849 1.6361
-5.0242 6.8941 1.5882
-5.2669 6.7077 1.5882
-5.5027 6.5127 1.5882
-5.7312 6.3093 1.5882
-5.9521 6.0979 1.5882
-6.1651 5.8787 1.5882
-6.3701 5.6520 1.5882
-6.5666 5.4181 1.5882
-6.7545 5.1773 1.5882
-6.9335 4.9300 1.5882
-7.1035 4.6765 1.5882
-7.2641 4.4170 1.5882
-7.4151 4.1521 1.5882
-7.5565 3.8819 1.5882
-7.6880 3.6069 1.5882
-7.8094 3.3275 1.5882
-7.9207 3.0440 1.5882
-8.0216 2.7568 1.5882
-8.1121 2.4662 1.5882
-8.1920 2.1727 1.5882
-8.2613 1.8766 1.5882
-8.3199 1.5783 1.5882
-8.3677 1.2782 1.5882
-8.4046 0.9768 1.5882
-8.4307 0.6743 1.5882
-8.4460 0.3712 1.5882
-8.4503 0.0678 1.5882
-8.4437 -0.2353 1.5882
-8.4263 -0.5379 1.5882
-8.3980 -0.8396 1.5882
5.1215 -5.4200 1.5883
5.3141 -5.2340 1.5883
5.5001 -5.0412 1.5883
5.6791 -4.8419 1.5883
5.8509 -4.6363 1.5883
6.0153 -4.4246 1.5883
6.1722 -4.2072 1.5883
6.3212 -3.9842 1.5883
6.4622 -3.7559 1.5883
6.5950 -3.5227 1.5883
6.7194 -3.2849 1.5883
6.8353 -3.0426 1.5883
6.9425 -2.7963 1.5883
7.0409 -2.5463 1.5883
7.1302 -2.2928 1.5883
7.2105 -2.0361 1.5883
7.5021 -1.8305 1.6364
7.5657 -1.5607 1.6364
7.1007 -1.2008 1.5250
7.1418 -0.9456 1.5250
7.1846 -0.6900 1.5272
7.2276 -0.4331 1.5315
7.2710 -0.1743 1.5378
7.3148 0.0872 1.5462
7.3591 0.3521 1.5566
7.4508 0.6251 1.5791
7.6958 0.9248 1.6364
7.6606 1.2008 1.6364
7.6154 1.4754 1.6364
7.5603 1.7483 1.6364
7.4955 2.0192 1.6364
7.4209 2.2877 1.6364
7.1211 2.4783 1.5883
7.0301 2.7332 1.5883
6.9300 2.9847 1.5883
6.8208 3.2325 1.5883
6.7027 3.4763 1.5883
6.5759 3.7158 1.5883
6.4404 3.9506 1.5883
6.2966 4.1805 1.5883
6.1445 4.4050 1.5883
5.9844 4.6240 1.5883
5.8164 4.8372 1.5883
5.6407 5.0442 1.5883
5.4577 5.2447 1.5883
5.2674 5.4386 1.5883
5.0703 5.6255 1.5883
4.8664 5.8052 1.5883
4.6562 5.9775 1.5883
4.4398 6.1421 1.5883
4.2176 6.2987 1.5883
3.9897 6.4473 1.5883
3.7566 6.5875 1.5883
3.5186 6.7193 1.5883
3.2759 6.8423 1.5883
3.1287 7.1860 1.6407
2.9580 7.5201 1.6914
0.7827 2.2204 0.4927
0.7022 2.2462 0.4925
0.6210 2.2692 0.4922
0.5391 2.2893 0.4921
0.4565 2.3066 0.4919
0.3734 2.3210 0.4918
0.2899 2.3325 0.4916
0.2060 2.3411 0.4916
0.1219 2.3468 0.4915
0.0376 2.3496 0.4915
-0.0467 2.3494 0.4915
-0.1309 2.3464 0.4915
-0.2150 2.3404 0.4916
-0.2989 2.3315 0.4917
-0.3824 2.3197 0.4918
-0.4654 2.3050 0.4919
-0.5479 2.2875 0.4921
-0.6298 2.2671 0.4923
-0.7110 2.2438 0.4925
-0.7913 2.2178 0.4928
-2.9870 7.5087 1.6914
-3.2539 7.3956 1.6914
-3.5165 7.2730 1.6914
-3.7745 7.1410 1.6914
-4.0275 6.9997 1.6914
-4.2751 6.8494 1.6914
-4.5171 6.6902 1.6914
-4.7531 6.5225 1.6914
-4.9095 6.2528 1.6665
-4.9162 5.8190 1.5973
-5.0914 5.6054 1.5882
-5.2878 5.4178 1.5882
-5.4773 5.2232 1.5882
-5.6596 5.0220 1.5882
-5.8344 4.8143 1.5882
-6.0015 4.6005 1.5882
-6.1608 4.3809 1.5882
-6.3121 4.1558 1.5882
-6.4550 3.9255 1.5882
-6.5895 3.6901 1.5882
-6.7154 3.4502 1.5882
-6.8326 3.2060 1.5882
-6.9408 2.9577 1.5882
-7.0399 2.7059 1.5882
-7.1299 2.4507 1.5882
-7.2107 2.1925 1.5882
-7.2821 1.9317 1.5882
-7.3440 1.6686 1.5882
-7.3964 1.4035 1.5882
-7.4392 1.1368 1.5882
-7.4724 0.8688 1.5882
-7.4959 0.5999 1.5882
-7.5098 0.3304 1.5882
-7.5140 0.0607 1.5882
-7.5085 -0.2089 1.5882
-7.4933 -0.4780 1.5882
-7.4685 -0.7463 1.5882
4.6097 -4.8779 1.5883
4.7829 -4.7105 1.5883
4.9501 -4.5369 1.5883
5.1111 -4.3574 1.5883
5.2656 -4.1722 1.5883
5.4134 -3.9816 1.5883
5.5544 -3.7858 1.5883
5.6883 -3.5850 1.5883
5.8150 -3.3795 1.5883
5.9344 -3.1695 1.5883
6.0461 -2.9554 1.5883
6.1502 -2.7373 1.5883
6.2465 -2.5156 1.5883
6.3347 -2.2906 1.5883
6.4149 -2.0624 1.5883
6.4870 -1.8315 1.5883
6.5507 -1.5980 1.5883
6.6060 -1.3624 1.5883
6.6529 -1.1248 1.5883
6.6912 -0.8856 1.5883
6.7210 -0.6452 1.5883
6.7421 -0.4037 1.5883
6.7546 -0.1616 1.5883
6.7584 0.0809 1.5883
6.7534 0.3235 1.5883
6.7398 0.5658 1.5883
6.7174 0.8075 1.5883
6.6864 1.0484 1.5883
6.6467 1.2881 1.5883
6.5985 1.5263 1.5883
6.5416 1.7626 1.5883
6.4763 1.9968 1.5883
6.4026 2.2286 1.5883
6.3206 2.4577 1.5883
6.2303 2.6837 1.5883
6.1320 2.9064 1.5883
6.0256 3.1255 1.5883
5.9114 3.3407 1.5883
5.7895 3.5516 1.5883
5.6600 3.7581 1.5883
5.5231 3.9599 1.5883
5.3790 4.1566 1.5883
5.2278 4.3481 1.5883
5.0149 4.4848 1.5711
4.8520 4.6630 1.5711
4.6827 4.8353 1.5711
4.5568 5.0561 1.5883
4.3735 5.2175 1.5883
4.1844 5.3722 1.5883
3.9899 5.5199 1.5883
3.7901 5.6606 1.5883
3.5853 5.7940 1.5883
3.3757 5.9199 1.5883
3.1618 6.0382 1.5883
3.1342 6.5469 1.6912
2.8982 6.6569 1.6914
0.7780 1.9779 0.4951
0.7063 2.0038 0.4948
0.6337 2.0271 0.4946
0.5604 2.0479 0.4944
0.4865 2.0661 0.4942
0.4120 2.0818 0.4941
0.3370 2.0948 0.4940
0.2616 2.1052 0.4939
0.1859 2.1130 0.4938
0.1100 2.1182 0.4937
0.0340 2.1207 0.4937
-0.0421 2.1206 0.4937
-0.1182 2.1178 0.4937
-0.1941 2.1124 0.4938
-0.2697 2.1043 0.4939
-0.3451 2.0937 0.4940
-0.4200 2.0804 0.4941
-0.4945 2.0645 0.4943
-0.5684 2.0460 0.4945
-0.6416 2.0249 0.4947
-0.7141 2.0013 0.4949
-0.7857 1.9752 0.4952
-2.9238 6.6458 1.6914
-3.1598 6.5357 1.6914
-3.3917 6.4171 1.6914
-3.6191 6.2903 1.6914
-3.8417 6.1554 1.6914
-4.0592 6.0125 1.6914
-4.2714 5.8619 1.6914
-4.4780 5.7037 1.6914
-4.6787 5.5382 1.6914
-4.8732 5.3656 1.6914
-4.8991 5.0199 1.6372
-4.9228 4.6948 1.5882
-5.1066 4.5317 1.5944
-5.2440 4.3275 1.5882
-5.3944 4.1355 1.5882
-5.5378 3.9382 1.5882
-5.6739 3.7360 1.5882
-5.8026 3.5290 1.5882
-5.9237 3.3176 1.5882
-6.0370 3.1020 1.5882
-6.1425 2.8825 1.5882
-6.2400 2.6595 1.5882
-6.3294 2.4331 1.5882
-6.4106 2.2038 1.5882
-6.4834 1.9717 1.5882
-6.5478 1.7372 1.5882
-6.6037 1.5007 1.5882
-6.6510 1.2624 1.5882
-6.6898 1.0226 1.5882
-6.7199 0.7816 1.5882
-6.7413 0.5398 1.5882
-6.7540 0.2975 1.5882
-6.7580 0.0549 1.5882
-6.7533 -0.1875 1.5882
-6.7399 -0.4296 1.5882
-6.7178 -0.6710 1.5882
4.1868 -4.4302 1.5883
4.3441 -4.2779 1.5883
4.4958 -4.1202 1.5883
4.6419 -3.9571 1.5883
4.7821 -3.7888 1.5883
4.9163 -3.6156 1.5883
5.0442 -3.4377 1.5883
5.1657 -3.2553 1.5883
5.2806 -3.0686 1.5883
5.3888 -2.8779 1.5883
5.4902 -2.6833 1.5883
5.5845 -2.4853 1.5883
5.6718 -2.2839 1.5883
5.7518 -2.0795 1.5883
5.8244 -1.8723 1.5883
5.8896 -1.6625 1.5883
5.9473 -1.4505 1.5883
5.9974 -1.2365 1.5883
6.0398 -1.0208 1.5883
6.0744 -0.8037 1.5883
6.1012 -0.5854 1.5883
6.1202 -0.3662 1.5883
6.1314 -0.1464 1.5883
6.1346 0.0738 1.5883
6.1299 0.2939 1.5883
6.1174 0.5139 1.5883
6.0969 0.7333 1.5883
6.0686 0.9519 1.5883
6.0324 1.1693 1.5883
5.9884 1.3854 1.5883
5.9366 1.5999 1.5883
5.8772 1.8124 1.5883
5.8101 2.0227 1.5883
5.7355 2.2305 1.5883
5.6535 2.4356 1.5883
5.5641 2.6376 1.5883
5.4674 2.8363 1.5883
5.3636 3.0314 1.5883
5.2529 3.2228 1.5883
5.1353 3.4100 1.5883
5.0109 3.5930 1.5883
4.8801 3.7714 1.5883
4.7428 3.9450 1.5883
4.5994 4.1136 1.5883
4.4499 4.2769 1.5883
4.2946 4.4348 1.5883
4.1337 4.5869 1.5883
3.9673 4.7332 1.5883
3.7957 4.8735 1.5883
3.6192 5.0074 1.5883
3.4379 5.1349 1.5883
3.2521 5.2558 1.5883
3.1447 5.5151 1.6313
3.0540 5.8327 1.6914
0.8360 1.7463 0.4973
0.7725 1.7744 0.4971
0.7081 1.8003 0.4968
0.6428 1.8239 0.4966
0.5768 1.8452 0.4964
0.5101 1.8642 0.4962
0.4428 1.8809 0.4960
0.3750 1.8951 0.4959
0.3068 1.9070 0.4958
0.2381 1.9166 0.4957
0.1692 1.9237 0.4956
0.1001 1.9284 0.4956
0.0309 1.9307 0.4956
-0.0383 1.9306 0.4956
-0.1076 1.9280 0.4956
-0.1767 1.9231 0.4956
-0.2455 1.9157 0.4957
-0.3141 1.9060 0.4958
-0.3824 1.8938 0.4959
-0.4501 1.8793 0.4961
-0.5174 1.8625 0.4962
-0.5840 1.8432 0.4964
-0.6499 1.8217 0.4966
-0.7151 1.7979 0.4969
-0.7794 1.7718 0.4971
-2.8661 5.9283 1.6914
-3.0764 5.8209 1.6914
-3.2827 5.7060 1.6914
-3.4847 5.5836 1.6914
-3.6820 5.4541 1.6914
-3.8746 5.3176 1.6914
-4.0620 5.1742 1.6914
-4.2442 5.0242 1.6914
-4.4207 4.8677 1.6914
-4.5915 4.7050 1.6914
-4.7562 4.5362 1.6914
-4.8931 4.3425 1.6840
-4.8918 4.0371 1.6330
-4.9003 3.7570 1.5902
-5.0243 3.5734 1.5882
-5.1479 3.3899 1.5882
-5.2647 3.2022 1.5882
-5.3748 3.0105 1.5882
-5.4778 2.8150 1.5882
-5.5737 2.6159 1.5882
-5.6623 2.4136 1.5882
-5.7435 2.2082 1.5882
-5.8173 2.0002 1.5882
-5.8836 1.7896 1.5882
-5.9422 1.5769 1.5882
-5.9931 1.3623 1.5882
-6.0363 1.1460 1.5882
-6.0716 0.9284 1.5882
-6.0991 0.7097 1.5882
-6.1187 0.4903 1.5882
-6.1305 0.2703 1.5882
-6.1343 0.0502 1.5882
-6.1302 -0.1699 1.5882
-6.1182 -0.3897 1.5882
-6.0984 -0.6088 1.5882
3.8312 -4.0536 1.5883
3.9750 -3.9143 1.5883
4.1139 -3.7698 1.5883
4.2475 -3.6205 1.5883
4.3757 -3.4665 1.5883
4.4983 -3.3079 1.5883
4.6153 -3.1451 1.5883
4.7263 -2.9781 1.5883
4.8314 -2.8072 1.5883
4.9303 -2.6327 1.5883
5.0229 -2.4547 1.5883
5.1091 -2.2734 1.5883
5.1888 -2.0891 1.5883
5.2619 -1.9021 1.5883
5.3282 -1.7125 1.5883
5.3877 -1.5205 1.5883
5.4404 -1.3266 1.5883
5.4860 -1.1308 1.5883
5.5246 -0.9335 1.5883
5.5562 -0.7348 1.5883
5.5806 -0.5351 1.5883
5.5978 -0.3346 1.5883
5.6079 -0.1336 1.5883
5.6107 0.0678 1.5883
5.6063 0.2691 1.5883
5.5946 0.4702 1.5883
5.5758 0.6709 1.5883
5.5497 0.8708 1.5883
5.5165 1.0696 1.5883
5.4761 1.2672 1.5883
5.4287 1.4633 1.5883
5.3742 1.6576 1.5883
5.3128 1.8498 1.5883
5.2444 2.0398 1.5883
5.1693 2.2272 1.5883
5.0874 2.4119 1.5883
4.9989 2.5935 1.5883
4.9039 2.7719 1.5883
4.8025 2.9468 1.5883
4.6949 3.1179 1.5883
4.5811 3.2851 1.5883
4.4614 3.4481 1.5883
4.3359 3.6068 1.5883
4.2046 3.7608 1.5883
4.0679 3.9101 1.5883
3.9259 4.0543 1.5883
3.7787 4.1933 1.5883
3.6265 4.3270 1.5883
3.4697 4.4551 1.5883
3.3082 4.5775 1.5883
3.1595 4.7194 1.5970
3.1468 5.0860 1.6814
2.9804 5.2273 1.6914
0.8235 1.5729 0.4990
0.7663 1.6008 0.4987
0.7081 1.6267 0.4985
0.6491 1.6504 0.4983
0.5893 1.6721 0.4981
0.5288 1.6917 0.4979
0.4677 1.7091 0.4977
0.4060 1.7244 0.4976
0.3438 1.7375 0.4974
0.2813 1.7485 0.4973
0.2183 1.7572 0.4972
0.1552 1.7638 0.4972
0.0918 1.7681 0.4971
0.0283 1.7702 0.4971
-0.0352 1.7701 0.4971
-0.0986 1.7678 0.4972
-0.1620 1.7632 0.4972
-0.2251 1.7565 0.4973
-0.2880 1.7475 0.4974
-0.3505 1.7363 0.4975
-0.4127 1.7230 0.4976
-0.4743 1.7075 0.4978
-0.5354 1.6898 0.4979
-0.5958 1.6701 0.4981
-0.6555 1.6482 0.4983
-0.7145 1.6242 0.4986
-0.7726 1.5981 0.4988
-0.8297 1.5700 0.4991
-3.0005 5.2158 1.6914
-3.1852 5.1041 1.6914
-3.3656 4.9857 1.6914
-3.5417 4.8610 1.6914
-3.7131 4.7300 1.6914
-3.8796 4.5930 1.6914
-4.0411 4.4500 1.6914
-4.1973 4.3013 1.6914
-4.3479 4.1472 1.6914
-4.4929 3.9877 1.6914
-4.6320 3.8231 1.6914
-4.7651 3.6537 1.6914
-4.8856 3.4750 1.6892
-4.8834 3.2161 1.6479
-4.8878 2.9733 1.6127
-4.9141 2.7527 1.5882
-5.0084 2.5740 1.5882
-5.0962 2.3921 1.5882
-5.1773 2.2071 1.5882
-5.2517 2.0194 1.5882
-5.3193 1.8292 1.5882
-5.3800 1.6367 1.5882
-5.4338 1.4423 1.5882
-5.4805 1.2460 1.5882
-5.5201 1.0483 1.5882
-5.5525 0.8493 1.5882
-5.5778 0.6494 1.5882
-5.5959 0.4487 1.5882
-5.6068 0.2475 1.5882
-5.6104 0.0462 1.5882
-5.6068 -0.1551 1.5882
-5.5960 -0.3561 1.5882
-5.5780 -0.5565 1.5882
3.5277 -3.7323 1.5883
3.6601 -3.6039 1.5883
3.7879 -3.4708 1.5883
3.9108 -3.3333 1.5883
4.0288 -3.1914 1.5883
4.1417 -3.0454 1.5883
4.2493 -2.8954 1.5883
4.3515 -2.7416 1.5883
4.4481 -2.5843 1.5883
4.5391 -2.4235 1.5883
4.6242 -2.2596 1.5883
4.7035 -2.0927 1.5883
4.7768 -1.9230 1.5883
4.8440 -1.7507 1.5883
4.9049 -1.5762 1.5883
4.9596 -1.3995 1.5883
5.0080 -1.2209 1.5883
5.0499 -1.0407 1.5883
5.0854 -0.8590 1.5883
5.1143 -0.6761 1.5883
5.1366 -0.4923 1.5883
5.1524 -0.3077 1.5883
5.1615 -0.1227 1.5883
5.1640 0.0626 1.5883
5.1598 0.2480 1.5883
5.1490 0.4331 1.5883
5.1316 0.6177 1.5883
5.1075 0.8016 1.5883
5.0768 0.9846 1.5883
5.0395 1.1665 1.5883
4.9958 1.3469 1.5883
4.9455 1.5256 1.5883
4.8889 1.7025 1.5883
4.8259 1.8773 1.5883
4.7566 2.0497 1.5883
4.6812 2.2196 1.5883
4.5997 2.3867 1.5883
4.5122 2.5508 1.5883
4.4188 2.7116 1.5883
4.3197 2.8690 1.5883
4.2150 3.0228 1.5883
4.1047 3.1727 1.5883
3.9892 3.3187 1.5883
3.8684 3.4603 1.5883
3.7425 3.5975 1.5883
3.6118 3.7302 1.5883
3.4763 3.8581 1.5883
3.3478 3.9947 1.5938
3.1919 4.0988 1.5883
3.1530 4.3630 1.6455
3.0785 4.5987 1.6914
2.9120 4.7068 1.6914
0.8112 1.4229 0.5005
0.7594 1.4505 0.5002
0.7066 1.4762 0.5000
0.6530 1.5001 0.4997
0.5986 1.5221 0.4995
0.5435 1.5421 0.4993
0.4877 1.5602 0.4992
0.4313 1.5763 0.4990
0.3744 1.5905 0.4989
0.3171 1.6026 0.4987
0.2594 1.6127 0.4986
0.2014 1.6208 0.4986
0.1431 1.6268 0.4985
0.0847 1.6308 0.4985
0.0261 1.6328 0.4985
-0.0324 1.6327 0.4985
-0.0910 1.6305 0.4985
-0.1494 1.6263 0.4985
-0.2076 1.6201 0.4986
-0.2656 1.6118 0.4987
-0.3233 1.6015 0.4988
-0.3806 1.5891 0.4989
-0.4374 1.5748 0.4990
-0.4937 1.5585 0.4992
-0.5495 1.5402 0.4994
-0.6045 1.5200 0.4996
-0.6589 1.4978 0.4998
-0.7124 1.4737 0.5000
-0.7651 1.4478 0.5003
-0.8169 1.4200 0.5006
-2.9301 4.6956 1.6914
-3.0962 4.5868 1.6914
-3.2582 4.4722 1.6914
-3.4159 4.3517 1.6914
-3.5691 4.2257 1.6914
-3.7177 4.0942 1.6914
-3.8615 3.9575 1.6914
-4.0001 3.8157 1.6914
-4.1336 3.6690 1.6914
-4.2617 3.5177 1.6914
-4.3842 3.3619 1.6914
-4.5009 3.2017 1.6914
-4.6118 3.0375 1.6914
-4.7167 2.8695 1.6914
-4.8155 2.6978 1.6914
-4.8773 2.5069 1.6808
-4.8754 2.2887 1.6512
-4.8768 2.0793 1.6258
-4.8806 1.8770 1.6040
-4.8949 1.6835 1.5882
-4.9509 1.5064 1.5882
-5.0004 1.3275 1.5882
-5.0435 1.1469 1.5882
-5.0801 0.9650 1.5882
-5.1100 0.7819 1.5882
-5.1334 0.5979 1.5882
-5.1502 0.4132 1.5882
-5.1603 0.2281 1.5882
-5.1637 0.0428 1.5882
-5.1605 -0.1425 1.5882
-5.1507 -0.3275 1.5882
-5.1342 -0.5120 1.5882
3.2655 -3.4545 1.5883
3.3880 -3.3357 1.5883
3.5062 -3.2125 1.5883
3.6200 -3.0851 1.5883
3.7291 -2.9538 1.5883
3.8335 -2.8186 1.5883
3.9331 -2.6797 1.5883
4.0276 -2.5373 1.5883
4.1169 -2.3916 1.5883
4.2011 -2.2428 1.5883
4.2798 -2.0910 1.5883
4.3531 -1.9365 1.5883
4.4209 -1.7794 1.5883
4.4830 -1.6200 1.5883
4.5393 -1.4584 1.5883
4.5899 -1.2949 1.5883
4.6345 -1.1296 1.5883
4.6732 -0.9628 1.5883
4.7060 -0.7946 1.5883
4.7326 -0.6254 1.5883
4.7532 -0.4553 1.5883
4.7677 -0.2845 1.5883
4.7761 -0.1132 1.5883
4.7783 0.0582 1.5883
4.7743 0.2297 1.5883
4.7642 0.4010 1.5883
4.7480 0.5718 1.5883
4.7256 0.7420 1.5883
4.6971 0.9113 1.5883
4.6626 1.0795 1.5883
4.6220 1.2464 1.5883
4.5754 1.4117 1.5883
4.5230 1.5753 1.5883
4.4646 1.7370 1.5883
4.4005 1.8965 1.5883
4.3306 2.0536 1.5883
4.2551 2.2081 1.5883
4.1741 2.3599 1.5883
4.0877 2.5086 1.5883
3.9959 2.6542 1.5883
3.8990 2.7965 1.5883
3.7970 2.9351 1.5883
3.6900 3.0700 1.5883
3.5782 3.2010 1.5883
3.4617 3.3279 1.5883
3.3524 3.4625 1.5939
3.2154 3.5688 1.5883
3.1607 3.7717 1.6269
3.1439 4.0374 1.6914
2.9976 4.1482 1.6914
2.8473 4.2537 1.6914
0.7990 1.2915 0.5018
0.7518 1.3188 0.5015
0.7038 1.3444 0.5012
0.6549 1.3683 0.5010
0.6052 1.3905 0.5008
0.5548 1.4109 0.5006
0.5037 1.4295 0.5004
0.4520 1.4463 0.5003
0.3998 1.4612 0.5001
0.3471 1.4743 0.5000
0.2939 1.4856 0.4999
0.2404 1.4950 0.4998
0.1867 1.5025 0.4997
0.1327 1.5081 0.4997
0.0785 1.5118 0.4996
0.0242 1.5136 0.4996
-0.0301 1.5135 0.4996
-0.0843 1.5115 0.4996
-0.1385 1.5076 0.4997
-0.1925 1.5018 0.4997
-0.2462 1.4941 0.4998
-0.2997 1.4846 0.4999
-0.3528 1.4731 0.5000
-0.4055 1.4598 0.5002
-0.4576 1.4447 0.5003
-0.5093 1.4277 0.5005
-0.5603 1.4089 0.5007
-0.6107 1.3883 0.5009
-0.6603 1.3660 0.5011
-0.7091 1.3419 0.5013
-0.7570 1.3161 0.5016
-0.8041 1.2886 0.5018
-2.8637 4.2427 1.6914
-3.0135 4.1366 1.6914
-3.1595 4.0253 1.6914
-3.3013 3.9088 1.6914
-3.4387 3.7872 1.6914
-3.5717 3.6608 1.6914
-3.7000 3.5297 1.6914
-3.8235 3.3941 1.6914
-3.9421 3.2541 1.6914
-4.0554 3.1100 1.6914
-4.1635 2.9620 1.6914
-4.2662 2.8101 1.6914
-4.3633 2.6547 1.6914
-4.4547 2.4959 1.6914
-4.5403 2.3340 1.6914
-4.6201 2.1692 1.6914
-4.6938 2.0016 1.6914
-4.7615 1.8314 1.6914
-4.8230 1.6591 1.6914
-4.8685 1.4816 1.6881
-4.8669 1.2923 1.6707
-4.8653 1.1067 1.6559
-4.8637 0.9242 1.6434
-4.8633 0.7444 1.6336
-4.8637 0.5667 1.6263
-4.8635 0.3905 1.6209
-4.8629 0.2152 1.6175
-4.8618 0.0405 1.6160
-4.8602 -0.1339 1.6165
-4.8581 -0.3086 1.6188
-4.8555 -0.4839 1.6231
3.2197 -3.4059 1.6843
3.2210 -3.1710 1.6240
3.2601 -2.9868 1.5883
3.3658 -2.8683 1.5883
3.4673 -2.7461 1.5883
3.5643 -2.6204 1.5883
3.6568 -2.4912 1.5883
3.7446 -2.3588 1.5883
3.8277 -2.2234 1.5883
3.9058 -2.0850 1.5883
3.9790 -1.9438 1.5883
4.0471 -1.8001 1.5883
4.1100 -1.6541 1.5883
4.1677 -1.5058 1.5883
4.2200 -1.3556 1.5883
4.2669 -1.2035 1.5883
4.3084 -1.0499 1.5883
4.3443 -0.8948 1.5883
4.3746 -0.7385 1.5883
4.3994 -0.5811 1.5883
4.4185 -0.4230 1.5883
4.4319 -0.2642 1.5883
4.4395 -0.1050 1.5883
4.4415 0.0544 1.5883
4.4378 0.2137 1.5883
4.4283 0.3729 1.5883
4.4132 0.5317 1.5883
4.3923 0.6899 1.5883
4.3657 0.8472 1.5883
4.3336 1.0035 1.5883
4.2958 1.1586 1.5883
4.2524 1.3123 1.5883
4.2036 1.4644 1.5883
4.1493 1.6146 1.5883
4.0896 1.7628 1.5883
4.0246 1.9087 1.5883
3.9544 2.0523 1.5883
3.8791 2.1933 1.5883
3.7987 2.3315 1.5883
3.7134 2.4668 1.5883
3.6233 2.5989 1.5883
3.5284 2.7277 1.5883
3.4289 2.8531 1.5883
3.3250 2.9748 1.5883
3.2168 3.0927 1.5883
3.1666 3.2709 1.6202
3.1603 3.5079 1.6800
3.0535 3.6441 1.6914
2.9213 3.7518 1.6914
0.8286 1.1467 0.5032
0.7866 1.1752 0.5029
0.7437 1.2022 0.5026
0.6998 1.2276 0.5024
0.6551 1.2515 0.5021
0.6096 1.2738 0.5019
0.5634 1.2944 0.5017
0.5165 1.3134 0.5016
0.4689 1.3308 0.5014
0.4208 1.3464 0.5012
0.3722 1.3604 0.5011
0.3231 1.3726 0.5010
0.2736 1.3831 0.5009
0.2239 1.3919 0.5008
0.1738 1.3989 0.5007
0.1235 1.4041 0.5007
0.0731 1.4076 0.5007
0.0226 1.4092 0.5006
-0.0280 1.4091 0.5006
-0.0785 1.4073 0.5007
-0.1289 1.4037 0.5007
-0.1792 1.3982 0.5008
-0.2292 1.3911 0.5008
-0.2790 1.3821 0.5009
-0.3284 1.3715 0.5010
-0.3775 1.3591 0.5011
-0.4260 1.3449 0.5013
-0.4741 1.3291 0.5014
-0.5216 1.3116 0.5016
-0.5684 1.2924 0.5018
-0.6146 1.2716 0.5020
-0.6600 1.2491 0.5022
-0.7046 1.2251 0.5025
-0.7484 1.1995 0.5027
-0.7912 1.1723 0.5030
-0.8331 1.1437 0.5033
-2.9358 3.7405 1.6914
-3.0675 3.6323 1.6914
-3.1953 3.5194 1.6914
-3.3189 3.4020 1.6914
-3.4382 3.2802 1.6914
-3.5530 3.1542 1.6914
-3.6632 3.0242 1.6914
-3.7686 2.8903 1.6914
-3.8691 2.7528 1.6914
-3.9645 2.6117 1.6914
-4.0548 2.4673 1.6914
-4.1399 2.3198 1.6914
-4.2195 2.1693 1.6914
-4.2937 2.0162 1.6914
-4.3623 1.8604 1.6914
-4.4252 1.7024 1.6914
-4.4824 1.5422 1.6914
-4.5338 1.3800 1.6914
-4.5793 1.2162 1.6914
-4.6189 1.0509 1.6914
-4.6526 0.8843 1.6914
-4.6802 0.7167 1.6914
-4.7018 0.5481 1.6914
-4.7173 0.3790 1.6914
-4.7267 0.2094 1.6914
-4.7300 0.0397 1.6914
-4.7273 -0.1300 1.6914
-4.7184 -0.2995 1.6914
-4.7035 -0.4685 1.6914
3.0182 -3.1925 1.6914
3.1314 -3.0825 1.6914
3.2158 -2.9459 1.6785
3.2168 -2.7411 1.6263
3.2364 -2.5630 1.5883
3.3269 -2.4456 1.5883
3.4132 -2.3250 1.5883
3.4951 -2.2014 1.5883
3.5726 -2.0750 1.5883
3.6455 -1.9458 1.5883
3.7137 -1.8140 1.5883
3.7773 -1.6799 1.5883
3.8359 -1.5435 1.5883
3.8897 -1.4052 1.5883
3.9385 -1.2649 1.5883
3.9822 -1.1230 1.5883
4.0208 -0.9796 1.5883
4.0543 -0.8348 1.5883
4.0826 -0.6889 1.5883
4.1056 -0.5421 1.5883
4.1233 -0.3945 1.5883
4.1358 -0.2463 1.5883
4.1429 -0.0978 1.5883
4.1447 0.0509 1.5883
4.1411 0.1997 1.5883
4.1322 0.3482 1.5883
4.1180 0.4964 1.5883
4.0985 0.6439 1.5883
4.0737 0.7907 1.5883
4.0436 0.9366 1.5883
4.0083 1.0813 1.5883
3.9678 1.2247 1.5883
3.9221 1.3665 1.5883
3.8714 1.5067 1.5883
3.8157 1.6449 1.5883
3.7550 1.7811 1.5883
3.6895 1.9150 1.5883
3.6191 2.0466 1.5883
3.5441 2.1755 1.5883
3.4645 2.3017 1.5883
3.3803 2.4249 1.5883
3.2918 2.5451 1.5883
3.1990 2.6620 1.5883
3.1697 2.8360 1.6230
3.1643 3.0425 1.6748
3.0840 3.1858 1.6914
2.9682 3.2949 1.6914
2.8486 3.3997 1.6914
0.8123 1.0433 0.5042
0.7741 1.0713 0.5039
0.7349 1.0980 0.5036
0.6948 1.1232 0.5034
0.6538 1.1470 0.5032
0.6121 1.1694 0.5029
0.5696 1.1902 0.5027
0.5264 1.2095 0.5026
0.4826 1.2273 0.5024
0.4382 1.2436 0.5022
0.3932 1.2582 0.5021
0.3478 1.2713 0.5020
0.3019 1.2827 0.5019
0.2557 1.2925 0.5018
0.2092 1.3007 0.5017
0.1624 1.3073 0.5016
0.1154 1.3122 0.5016
0.0683 1.3154 0.5015
0.0211 1.3170 0.5015
-0.0261 1.3169 0.5015
-0.0734 1.3151 0.5016
-0.1205 1.3117 0.5016
-0.1674 1.3067 0.5016
-0.2142 1.3000 0.5017
-0.2607 1.2916 0.5018
-0.3069 1.2816 0.5019
-0.3527 1.2700 0.5020
-0.3981 1.2568 0.5021
-0.4430 1.2420 0.5023
-0.4874 1.2256 0.5024
-0.5311 1.2076 0.5026
-0.5742 1.1882 0.5028
-0.6167 1.1672 0.5030
-0.6583 1.1447 0.5032
-0.6992 1.1207 0.5035
-0.7392 1.0953 0.5037
-0.7783 1.0685 0.5040
-0.8165 1.0404 0.5043
-2.8617 3.3887 1.6914
-2.9809 3.2835 1.6914
-3.0962 3.1739 1.6914
-3.2076 3.0604 1.6914
-3.3147 2.9429 1.6914
-3.4175 2.8216 1.6914
-3.5159 2.6967 1.6914
-3.6097 2.5684 1.6914
-3.6988 2.4368 1.6914
-3.7830 2.3022 1.6914
-3.8624 2.1646 1.6914
-3.9368 2.0242 1.6914
-4.0060 1.8813 1.6914
-4.0701 1.7361 1.6914
-4.1289 1.5886 1.6914
-4.1823 1.4392 1.6914
-4.2303 1.2879 1.6914
-4.2729 1.1351 1.6914
-4.3099 0.9808 1.6914
-4.3413 0.8254 1.6914
-4.3671 0.6690 1.6914
-4.3873 0.5117 1.6914
-4.4019 0.3539 1.6914
-4.4107 0.1957 1.6914
-4.4139 0.0373 1.6914
-4.4114 -0.1211 1.6914
-4.4032 -0.2793 1.6914
-4.3893 -0.4370 1.6914
2.8268 -2.9898 1.6914
2.9327 -2.8868 1.6914
3.0350 -2.7800 1.6914
3.1333 -2.6697 1.6914
3.2123 -2.5437 1.6834
3.2111 -2.3603 1.6369
3.2184 -2.1921 1.5992
3.2732 -2.0614 1.5883
3.3457 -1.9430 1.5883
3.4140 -1.8220 1.5883
3.4779 -1.6986 1.5883
3.5373 -1.5730 1.5883
3.5922 -1.4452 1.5883
3.6425 -1.3156 1.5883
3.6881 -1.1843 1.5883
3.7290 -1.0514 1.5883
3.7652 -0.9171 1.5883
3.7964 -0.7815 1.5883
3.8229 -0.6449 1.5883
3.8444 -0.5074 1.5883
3.8609 -0.3692 1.5883
3.8725 -0.2304 1.5883
3.8792 -0.0913 1.5883
3.8808 0.0479 1.5883
3.8774 0.1872 1.5883
3.8690 0.3263 1.5883
3.8557 0.4650 1.5883
3.8374 0.6031 1.5883
3.8141 0.7406 1.5883
3.7858 0.8771 1.5883
3.7527 1.0126 1.5883
3.7148 1.1468 1.5883
3.6720 1.2796 1.5883
3.6245 1.4108 1.5883
3.5723 1.5402 1.5883
3.5154 1.6677 1.5883
3.4540 1.7931 1.5883
3.3881 1.9162 1.5883
3.3179 2.0368 1.5883
3.2433 2.1549 1.5883
3.1806 2.2818 1.5964
3.1704 2.4514 1.6341
3.1678 2.6363 1.6802
3.0923 2.7670 1.6914
2.9915 2.8766 1.6914
2.8869 2.9825 1.6914
0.8301 0.9216 0.5054
0.7962 0.9504 0.5051
0.7613 0.9779 0.5048
0.7255 1.0042 0.5046
0.6888 1.0292 0.5043
0.6512 1.0529 0.5041
0.6129 1.0752 0.5039
0.5738 1.0962 0.5037
0.5339 1.1158 0.5035
0.4935 1.1339 0.5033
0.4524 1.1506 0.5031
0.4107 1.1658 0.5030
0.3686 1.1796 0.5029
0.3260 1.1918 0.5027
0.2830 1.2026 0.5026
0.2397 1.2118 0.5026
0.1961 1.2195 0.5025
0.1522 1.2256 0.5024
0.1082 1.2302 0.5024
0.0640 1.2332 0.5023
0.0198 1.2347 0.5023
-0.0245 1.2346 0.5023
-0.0688 1.2330 0.5024
-0.1129 1.2298 0.5024
-0.1570 1.2250 0.5024
-0.2008 1.2187 0.5025
-0.2444 1.2109 0.5026
-0.2877 1.2015 0.5027
-0.3306 1.1906 0.5028
-0.3732 1.1782 0.5029
-0.4153 1.1643 0.5030
-0.4568 1.1489 0.5032
-0.4979 1.1321 0.5034
-0.5383 1.1138 0.5035
-0.5780 1.0941 0.5037
-0.6171 1.0730 0.5039
-0.6554 1.0505 0.5042
-0.6929 1.0267 0.5044
-0.7295 1.0016 0.5046
-0.7652 0.9751 0.5049
-0.8000 0.9475 0.5052
-0.8338 0.9185 0.5054
-2.8984 2.9713 1.6914
-3.0026 2.8651 1.6914
-3.1029 2.7551 1.6914
-3.1992 2.6416 1.6914
-3.2913 2.5247 1.6914
-3.3791 2.4047 1.6914
-3.4626 2.2815 1.6914
-3.5415 2.1554 1.6914
-3.6159 2.0266 1.6914
-3.6855 1.8953 1.6914
-3.7504 1.7615 1.6914
-3.8104 1.6255 1.6914
-3.8655 1.4875 1.6914
-3.9156 1.3476 1.6914
-3.9606 1.2060 1.6914
-4.0005 1.0629 1.6914
-4.0352 0.9186 1.6914
-4.0646 0.7730 1.6914
-4.0889 0.6266 1.6914
-4.1078 0.4793 1.6914
-4.1215 0.3316 1.6914
-4.1298 0.1834 1.6914
-4.1329 0.0351 1.6914
-4.1306 -0.1132 1.6914
-4.1229 -0.2613 1.6914
-4.1100 -0.4090 1.6914
2.6552 -2.8081 1.6914
2.7547 -2.7114 1.6914
2.8507 -2.6111 1.6914
2.9431 -2.5074 1.6914
3.0317 -2.4005 1.6914
3.1165 -2.2905 1.6914
3.1972 -2.1775 1.6914
3.2078 -2.0201 1.6573
3.2101 -1.8640 1.6225
3.2157 -1.7160 1.5929
3.2665 -1.5951 1.5883
3.3223 -1.4771 1.5883
3.3930 -1.3649 1.5974
3.4210 -1.2354 1.5883
3.4638 -1.1121 1.5883
3.5022 -0.9872 1.5883
3.5361 -0.8611 1.5883
3.5655 -0.7338 1.5883
3.5902 -0.6054 1.5883
3.6104 -0.4763 1.5883
3.6259 -0.3465 1.5883
3.6368 -0.2162 1.5883
3.6429 -0.0856 1.5883
3.6444 0.0452 1.5883
3.6412 0.1760 1.5883
3.6333 0.3066 1.5883
3.6207 0.4368 1.5883
3.6035 0.5666 1.5883
3.5816 0.6956 1.5883
3.5550 0.8239 1.5883
3.5239 0.9511 1.5883
3.4882 1.0771 1.5883
3.4480 1.2018 1.5883
3.4034 1.3249 1.5883
3.3693 1.4529 1.5954
3.3009 1.5661 1.5883
3.2432 1.6838 1.5883
3.1860 1.8021 1.5907
3.1779 1.9511 1.6203
3.1724 2.1080 1.6547
3.1640 2.2702 1.6914
3.0811 2.3826 1.6914
2.9942 2.4920 1.6914
2.9033 2.5981 1.6914
2.8087 2.7010 1.6914
0.8111 0.8380 0.5062
0.7802 0.8662 0.5059
0.7484 0.8933 0.5056
0.7156 0.9192 0.5054
0.6820 0.9440 0.5051
0.6475 0.9675 0.5049
0.6122 0.9898 0.5047
0.5761 1.0108 0.5045
0.5393 1.0305 0.5043
0.5019 1.0489 0.5041
0.4639 1.0660 0.5040
0.4253 1.0817 0.5038
0.3861 1.0960 0.5037
0.3465 1.1090 0.5035
0.3065 1.1205 0.5034
0.2661 1.1306 0.5033
0.2254 1.1393 0.5033
0.1844 1.1465 0.5032
0.1431 1.1523 0.5031
0.1017 1.1566 0.5031
0.0602 1.1595 0.5031
0.0186 1.1609 0.5031
-0.0230 1.1608 0.5031
-0.0646 1.1593 0.5031
-0.1062 1.1563 0.5031
-0.1476 1.1518 0.5031
-0.1888 1.1458 0.5032
-0.2298 1.1385 0.5033
-0.2705 1.1297 0.5034
-0.3108 1.1194 0.5035
-0.3508 1.1077 0.5036
-0.3904 1.0946 0.5037
-0.4295 1.0802 0.5039
-0.4680 1.0643 0.5040
-0.5060 1.0471 0.5042
-0.5434 1.0286 0.5044
-0.5801 1.0087 0.5046
-0.6160 0.9876 0.5048
-0.6513 0.9651 0.5050
-0.6857 0.9415 0.5052
-0.7193 0.9166 0.5055
-0.7519 0.8906 0.5057
-0.7837 0.8634 0.5060
-0.8145 0.8350 0.5063
-2.8191 2.6902 1.6914
-2.9133 2.5870 1.6914
-3.0038 2.4804 1.6914
-3.0903 2.3707 1.6914
-3.1728 2.2580 1.6914
-3.2511 2.1424 1.6914
-3.3253 2.0240 1.6914
-3.3951 1.9031 1.6914
-3.4606 1.7798 1.6914
-3.5215 1.6542 1.6914
-3.5779 1.5266 1.6914
-3.6297 1.3970 1.6914
-3.6767 1.2656 1.6914
-3.7190 1.1327 1.6914
-3.7565 0.9984 1.6914
-3.7891 0.8628 1.6914
-3.8169 0.7261 1.6914
-3.8397 0.5886 1.6914
-3.8575 0.4504 1.6914
-3.8704 0.3116 1.6914
-3.8783 0.1725 1.6914
-3.8812 0.0332 1.6914
-3.8790 -0.1061 1.6914
-3.8719 -0.2451 1.6914
-3.8598 -0.3838 1.6914
2.5005 -2.6442 1.6914
2.5942 -2.5531 1.6914
2.6846 -2.4587 1.6914
2.7715 -2.3610 1.6914
2.8550 -2.2603 1.6914
2.9347 -2.1567 1.6914
3.0108 -2.0503 1.6914
3.0830 -1.9412 1.6914
3.1512 -1.8296 1.6914
3.2052 -1.7101 1.6860
3.2039 -1.5644 1.6545
3.2052 -1.4249 1.6274
3.2094 -1.2908 1.6046
3.2213 -1.1631 1.5883
3.2616 -1.0469 1.5883
3.2977 -0.9294 1.5883
3.3296 -0.8106 1.5883
3.3572 -0.6907 1.5883
3.3875 -0.5711 1.5917
3.3994 -0.4483 1.5883
3.4140 -0.3261 1.5883
3.4242 -0.2034 1.5883
3.4299 -0.0804 1.5883
3.4313 0.0428 1.5883
3.4283 0.1659 1.5883
3.4208 0.2889 1.5883
3.4089 0.4115 1.5883
3.3926 0.5336 1.5883
3.3772 0.6561 1.5908
3.3469 0.7758 1.5883
3.3176 0.8956 1.5883
3.2840 1.0142 1.5883
3.2461 1.1316 1.5883
3.2040 1.2475 1.5883
3.1869 1.3744 1.6030
3.1804 1.5092 1.6256
3.1763 1.6493 1.6524
3.1750 1.7961 1.6839
3.1230 1.9176 1.6914
3.0527 2.0288 1.6914
2.9785 2.1373 1.6914
2.9004 2.2431 1.6914
2.8186 2.3460 1.6914
0.8195 0.7334 0.5072
0.7924 0.7621 0.5069
0.7642 0.7897 0.5066
0.7352 0.8162 0.5064
0.7052 0.8418 0.5061
0.6743 0.8662 0.5059
0.6426 0.8896 0.5057
0.6101 0.9118 0.5055
0.5769 0.9328 0.5053
0.5429 0.9526 0.5051
0.5083 0.9712 0.5049
0.4730 0.9886 0.5047
0.4372 1.0047 0.5046
0.4008 1.0195 0.5044
0.3639 1.0330 0.5043
0.3266 1.0452 0.5042
0.2889 1.0561 0.5041
0.2508 1.0656 0.5040
0.2124 1.0738 0.5039
0.1738 1.0806 0.5038
0.1349 1.0861 0.5038
0.0959 1.0901 0.5037
0.0567 1.0928 0.5037
0.0175 1.0942 0.5037
-0.0217 1.0941 0.5037
-0.0609 1.0926 0.5037
-0.1001 1.0898 0.5037
-0.1391 1.0856 0.5038
-0.1779 1.0800 0.5038
-0.2165 1.0730 0.5039
-0.2549 1.0647 0.5040
-0.2929 1.0550 0.5041
-0.3306 1.0440 0.5042
-0.3679 1.0317 0.5043
-0.4047 1.0180 0.5045
-0.4411 1.0030 0.5046
-0.4768 0.9868 0.5048
-0.5120 0.9693 0.5049
-0.5466 0.9506 0.5051
-0.5805 0.9307 0.5053
-0.6137 0.9095 0.5055
-0.6461 0.8872 0.5057
-0.6777 0.8638 0.5060
-0.7085 0.8392 0.5062
-0.7384 0.8135 0.5065
-0.7674 0.7869 0.5067
-0.7954 0.7591 0.5070
-0.8225 0.7304 0.5073
-2.8276 2.3352 1.6914
-2.9090 2.2319 1.6914
-2.9867 2.1258 1.6914
-3.0605 2.0170 1.6914
-3.1304 1.9056 1.6914
-3.1962 1.7918 1.6914
-3.2578 1.6757 1.6914
-3.3152 1.5575 1.6914
-3.3683 1.4373 1.6914
-3.4171 1.3154 1.6914
-3.4614 1.1917 1.6914
-3.5013 1.0666 1.6914
-3.5366 0.9401 1.6914
-3.5673 0.8125 1.6914
-3.5935 0.6838 1.6914
-3.6150 0.5544 1.6914
-3.6318 0.4242 1.6914
-3.6440 0.2936 1.6914
-3.6514 0.1626 1.6914
-3.6542 0.0315 1.6914
-3.6522 -0.0996 1.6914
-3.6456 -0.2306 1.6914
-3.6342 -0.3612 1.6914
2.3600 -2.4955 1.6914
2.4484 -2.4095 1.6914
2.5337 -2.3203 1.6914
2.6158 -2.2282 1.6914
2.6945 -2.1331 1.6914
2.7698 -2.0353 1.6914
2.8415 -1.9349 1.6914
2.9096 -1.8319 1.6914
2.9740 -1.7265 1.6914
3.0346 -1.6189 1.6914
3.0913 -1.5092 1.6914
3.1440 -1.3975 1.6914
3.1927 -1.2839 1.6914
3.2004 -1.1554 1.6721
3.1993 -1.0268 1.6509
3.1995 -0.9015 1.6329
3.2018 -0.7793 1.6185
3.2036 -0.6589 1.6061
3.2050 -0.5401 1.5957
3.2080 -0.4228 1.5883
3.2217 -0.3075 1.5883
3.2313 -0.1917 1.5883
3.2367 -0.0757 1.5883
3.2380 0.0405 1.5883
3.2351 0.1567 1.5883
3.2280 0.2728 1.5883
3.2167 0.3885 1.5883
3.2013 0.5037 1.5883
3.1952 0.6210 1.5950
3.1918 0.7400 1.6052
3.1879 0.8608 1.6175
3.1835 0.9834 1.6318
3.1809 1.1091 1.6495
3.1798 1.2383 1.6706
3.1729 1.3686 1.6914
3.1224 1.4818 1.6914
3.0677 1.5931 1.6914
3.0091 1.7024 1.6914
2.9466 1.8095 1.6914
2.8803 1.9144 1.6914
2.8103 2.0168 1.6914
0.8221 0.6359 0.5081
0.7985 0.6647 0.5079
0.7738 0.6926 0.5076
0.7482 0.7196 0.5073
0.7217 0.7457 0.5071
0.6942 0.7709 0.5068
0.6659 0.7950 0.5066
0.6368 0.8181 0.5064
0.6068 0.8401 0.5062
0.5762 0.8611 0.5059
0.5448 0.8810 0.5058
0.5127 0.8997 0.5056
0.4800 0.9173 0.5054
0.4467 0.9337 0.5052
0.4129 0.9489 0.5051
0.3785 0.9629 0.5050
0.3437 0.9757 0.5048
0.3084 0.9872 0.5047
0.2728 0.9975 0.5046
0.2369 1.0065 0.5045
0.2006 1.0142 0.5045
0.1641 1.0207 0.5044
0.1274 1.0259 0.5044
0.0905 1.0297 0.5043
0.0536 1.0323 0.5043
0.0165 1.0335 0.5043
-0.0205 1.0334 0.5043
-0.0575 1.0321 0.5043
-0.0945 1.0294 0.5043
-0.1314 1.0254 0.5044
-0.1680 1.0201 0.5044
-0.2045 1.0135 0.5045
-0.2407 1.0056 0.5046
-0.2767 0.9965 0.5047
-0.3123 0.9861 0.5048
-0.3475 0.9744 0.5049
-0.3823 0.9615 0.5050
-0.4166 0.9474 0.5051
-0.4503 0.9320 0.5053
-0.4836 0.9155 0.5055
-0.5162 0.8978 0.5056
-0.5482 0.8790 0.5058
-0.5796 0.8590 0.5060
-0.6102 0.8379 0.5062
-0.6400 0.8157 0.5064
-0.6691 0.7925 0.5067
-0.6973 0.7683 0.5069
-0.7246 0.7431 0.5071
-0.7511 0.7169 0.5074
-0.7766 0.6897 0.5077
-0.8012 0.6617 0.5079
-0.8247 0.6328 0.5082
-2.8180 2.0059 1.6914
-2.8877 1.9033 1.6914
-2.9536 1.7982 1.6914
-3.0157 1.6908 1.6914
-3.0739 1.5813 1.6914
-3.1281 1.4698 1.6914
-3.1782 1.3564 1.6914
-3.2242 1.2413 1.6914
-3.2661 1.1247 1.6914
-3.3037 1.0066 1.6914
-3.3371 0.8873 1.6914
-3.3661 0.7669 1.6914
-3.3908 0.6455 1.6914
-3.4112 0.5233 1.6914
-3.4271 0.4005 1.6914
-3.4386 0.2772 1.6914
-3.4457 0.1536 1.6914
-3.4483 0.0299 1.6914
-3.4465 -0.0938 1.6914
-3.4402 -0.2174 1.6914
-3.4295 -0.3406 1.6914
2.2319 -2.3598 1.6914
2.3155 -2.2784 1.6914
2.3961 -2.1941 1.6914
2.4737 -2.1070 1.6914
2.5481 -2.0171 1.6914
2.6193 -1.9245 1.6914
2.6871 -1.8295 1.6914
2.7515 -1.7321 1.6914
2.8124 -1.6325 1.6914
2.8696 -1.5307 1.6914
2.9232 -1.4269 1.6914
2.9731 -1.3213 1.6914
3.0191 -1.2139 1.6914
3.0613 -1.1050 1.6914
3.0995 -0.9945 1.6914
3.1338 -0.8828 1.6914
3.1640 -0.7699 1.6914
3.1902 -0.6560 1.6914
3.1951 -0.5382 1.6824
3.1941 -0.4208 1.6725
3.1931 -0.3046 1.6649
3.1921 -0.1892 1.6594
3.1911 -0.0744 1.6562
3.1901 0.0401 1.6550
3.1891 0.1547 1.6560
3.1882 0.2696 1.6591
3.1872 0.3851 1.6644
3.1862 0.5015 1.6719
3.1852 0.6192 1.6817
3.1798 0.7375 1.6914
3.1519 0.8512 1.6914
3.1199 0.9639 1.6914
3.0838 1.0754 1.6914
3.0438 1.1855 1.6914
2.9999 1.2942 1.6914
2.9520 1.4012 1.6914
2.9003 1.5064 1.6914
2.8449 1.6097 1.6914
2.7858 1.7110 1.6914
0.8195 0.5447 0.5090
0.7991 0.5735 0.5087
0.7777 0.6016 0.5085
0.7554 0.6289 0.5082
0.7321 0.6553 0.5079
0.7079 0.6809 0.5077
0.6828 0.7056 0.5075
0.6568 0.7294 0.5072
0.6300 0.7522 0.5070
0.6025 0.7741 0.5068
0.5742 0.7950 0.5066
0.5452 0.8148 0.5064
0.5155 0.8336 0.5062
0.4851 0.8514 0.5060
0.4542 0.8680 0.5059
0.4227 0.8835 0.5057
0.3907 0.8980 0.5056
0.3582 0.9112 0.5055
0.3252 0.9233 0.5054
0.2919 0.9342 0.5052
0.2582 0.9440 0.5052
0.2241 0.9525 0.5051
0.1898 0.9599 0.5050
0.1553 0.9660 0.5049
0.1206 0.9708 0.5049
0.0857 0.9745 0.5049
0.0507 0.9769 0.5048
0.0157 0.9781 0.5048
-0.0194 0.9780 0.5048
-0.0545 0.9767 0.5048
-0.0894 0.9742 0.5049
-0.1243 0.9704 0.5049
-0.1590 0.9654 0.5050
-0.1935 0.9592 0.5050
-0.2278 0.9517 0.5051
-0.2618 0.9430 0.5052
-0.2955 0.9332 0.5053
-0.3288 0.9221 0.5054
-0.3617 0.9099 0.5055
-0.3942 0.8965 0.5056
-0.4261 0.8820 0.5058
-0.4576 0.8663 0.5059
-0.4885 0.8496 0.5061
-0.5187 0.8317 0.5063
-0.5484 0.8128 0.5065
-0.5773 0.7929 0.5067
-0.6055 0.7719 0.5069
-0.6330 0.7499 0.5071
-0.6597 0.7270 0.5073
-0.6856 0.7031 0.5075
-0.7106 0.6783 0.5078
-0.7347 0.6526 0.5080
-0.7579 0.6261 0.5083
-0.7802 0.5987 0.5086
-0.8015 0.5706 0.5088
-0.8217 0.5417 0.5091
-0.8410 0.5121 0.5094
-2.8511 1.5987 1.6914
-2.9061 1.4952 1.6914
-2.9574 1.3898 1.6914
-3.0048 1.2826 1.6914
-3.0484 1.1738 1.6914
-3.0880 1.0635 1.6914
-3.1236 0.9519 1.6914
-3.1551 0.8391 1.6914
-3.1826 0.7252 1.6914
-3.2060 0.6105 1.6914
-3.2253 0.4950 1.6914
-3.2403 0.3789 1.6914
-3.2512 0.2623 1.6914
-3.2580 0.1455 1.6914
-3.2605 0.0285 1.6914
-3.2588 -0.0885 1.6914
-3.2529 -0.2054 1.6914
-3.2428 -0.3219 1.6914
2.1143 -2.2353 1.6914
2.1935 -2.1582 1.6914
2.2699 -2.0783 1.6914
2.3434 -1.9958 1.6914
2.4139 -1.9106 1.6914
2.4813 -1.8229 1.6914
0.7818 -0.5322 0.5195
0.8001 -0.5036 0.5192
0.8174 -0.4744 0.5189
2.7184 -1.4498 1.6914
2.7691 -1.3515 1.6914
2.8163 -1.2514 1.6914
2.8599 -1.1497 1.6914
2.8998 -1.0465 1.6914
2.9360 -0.9419 1.6914
2.9685 -0.8360 1.6914
2.9971 -0.7291 1.6914
3.0219 -0.6212 1.6914
3.0427 -0.5124 1.6914
