ply
format ascii 1.0
element vertex 2124
property float32 x
property float32 y
property float32 z
end_header
-15.1141 17.7407 0.0945
-15.1302 16.5229 0.0919
-15.1451 15.3946 0.0897
-15.1590 14.3436 0.0878
-15.1720 13.3596 0.0861
-15.1843 12.4344 0.0847
-15.1958 11.5605 0.0835
-15.1663 10.7032 0.0824
-15.1916 9.9260 0.0816
-15.2272 9.1887 0.0810
-15.2639 8.4809 0.0807
-16.6771 8.4995 0.0877
-18.3116 8.5212 0.0960
-20.2292 8.5465 0.1058
-22.5170 8.5767 0.1178
-25.3013 8.6135 0.1325
-22.2001 6.6811 0.1165
-16.8871 4.4296 0.0890
-16.7327 3.7545 0.0887
-18.4451 3.4503 0.0984
-25.2347 3.7910 0.1356
-42.4510 4.8310 0.2302
-16.6358 1.2920 0.0911
-16.6851 0.6963 0.0924
-25.2829 0.1493 0.1418
-25.2948 -0.7565 0.1438
-25.3069 -1.6651 0.1460
-25.3189 -2.5788 0.1484
-40.4534 -5.5897 0.2411
-21.4589 -3.7523 0.1302
-21.4695 -4.5517 0.1328
-21.4802 -5.3641 0.1355
-21.4912 -6.1920 0.1385
-21.5023 -7.0380 0.1417
-21.5138 -7.9050 0.1451
-21.5256 -8.7961 0.1489
-21.5378 -9.7147 0.1529
-21.5503 -10.6646 0.1572
-16.7887 -9.0703 0.1260
-15.4698 -9.0877 0.1196
-14.2982 -9.1032 0.1141
-13.2482 -9.1171 0.1092
-12.2992 -9.1296 0.1050
-11.4354 -9.1411 0.1012
-10.6437 -9.1515 0.0978
-9.9138 -9.1612 0.0948
-9.2370 -9.1701 0.0921
-8.6061 -9.1784 0.0897
-8.2527 -9.4584 0.0901
-9.2543 -11.4061 0.1061
-9.2661 -12.2953 0.1120
-9.2790 -13.2758 0.1185
-9.2934 -14.3654 0.1259
-9.3095 -15.5868 0.1343
-8.9186 -16.2249 0.1376
-8.3465 -16.5622 0.1385
-10.2650 -22.3236 0.1843
-9.7400 -23.3493 0.1905
-9.2454 -24.6079 0.1987
-9.2830 -27.6793 0.2214
3.9770 -37.3590 0.2886
5.1722 -36.2155 0.2807
5.8690 -32.6861 0.2544
7.0782 -32.6532 0.2555
7.9800 -31.3478 0.2468
6.1660 -21.0407 0.1669
6.2527 -18.8130 0.1505
6.9187 -18.5680 0.1499
6.9425 -16.7709 0.1368
6.9626 -15.2505 0.1259
6.9799 -13.9444 0.1166
6.9990 -12.8149 0.1087
6.9595 -11.7243 0.1010
7.0199 -10.9160 0.0956
6.8917 -9.9174 0.0885
7.1195 -9.5005 0.0865
7.4656 -9.2527 0.0861
6.4151 -7.3928 0.0704
6.8535 -7.3491 0.0718
6.8602 -6.8475 0.0688
6.8663 -6.3797 0.0660
6.0911 -5.2659 0.0562
6.4245 -5.1641 0.0571
6.9266 -5.1708 0.0594
7.4808 -5.1781 0.0620
7.7306 -4.9513 0.0620
7.7356 -4.5726 0.0601
7.7404 -4.2090 0.0584
7.9637 -3.9679 0.0584
8.7568 -3.9784 0.0624
9.3634 -3.8559 0.0651
10.3638 -3.8400 0.0702
10.8511 -3.5843 0.0718
10.8567 -3.1599 0.0703
10.8622 -2.7439 0.0688
10.8676 -2.3348 0.0675
10.8730 -1.9317 0.0663
9.3962 -1.3243 0.0562
7.7853 -0.8143 0.0458
7.7890 -0.5337 0.0451
7.7927 -0.2542 0.0445
7.7964 0.0249 0.0439
13.9412 0.5439 0.0776
8.3936 0.6290 0.0462
7.7797 0.8640 0.0424
7.4630 1.1005 0.0403
7.1285 1.3134 0.0382
7.0104 1.5530 0.0373
6.8801 1.7847 0.0364
7.0090 2.0886 0.0369
7.0127 2.3662 0.0369
6.9083 2.6099 0.0363
7.1721 3.0072 0.0376
-15.1384 33.9736 0.9770
-15.5325 31.7497 0.9296
-16.4213 30.7287 0.9175
-14.9584 25.7308 0.7848
-14.9843 23.7739 0.7421
-15.0074 22.0217 0.7048
-14.9631 20.3512 0.6692
-15.0474 19.0013 0.6431
-15.1141 17.7417 0.6195
-15.1302 16.5240 0.5966
-15.1451 15.3956 0.5762
-15.1590 14.3445 0.5579
-15.1720 13.3606 0.5415
-15.1842 12.4353 0.5268
-15.1958 11.5613 0.5136
-15.1651 10.7031 0.5004
-15.1916 9.9268 0.4904
-15.2272 9.1896 0.4817
-15.2624 8.4809 0.4740
-16.6753 8.4995 0.5093
-18.3095 8.5211 0.5509
-20.2267 8.5465 0.6005
-18.0438 6.8738 0.5293
-17.9071 6.0971 0.5199
-17.7844 5.3531 0.5118
-16.4369 4.3123 0.4694
-16.6698 3.7411 0.4732
-18.1547 3.3968 0.5129
-25.2347 3.7922 0.7105
-16.5247 1.8813 0.4643
-16.3740 1.2725 0.4597
-16.3488 0.6830 0.4592
-18.7482 0.1116 0.5275
-25.2948 -0.7553 0.7139
-17.1925 -1.1304 0.4873
-17.0333 -1.7341 0.4855
-17.9032 -2.4730 0.5138
-21.4589 -3.7513 0.6209
-21.4694 -4.5507 0.6272
-21.4802 -5.3630 0.6343
-21.4911 -6.1909 0.6423
-21.5023 -7.0369 0.6514
-21.5138 -7.9039 0.6615
-21.5256 -8.7950 0.6727
-21.5377 -9.7136 0.6851
-21.5503 -10.6635 0.6988
-16.7903 -9.0703 0.5559
-15.4712 -9.0877 0.5238
-14.2995 -9.1032 0.4960
-13.2492 -9.1171 0.4716
-12.3002 -9.1296 0.4501
-11.4362 -9.1410 0.4310
-10.6445 -9.1515 0.4141
-9.9145 -9.1611 0.3989
-9.2376 -9.1701 0.3854
-8.6067 -9.1784 0.3732
-8.2526 -9.4578 0.3729
-9.2539 -11.4049 0.4370
-9.2656 -12.2939 0.4588
-9.2785 -13.2743 0.4833
-9.2929 -14.3638 0.5113
-9.3090 -15.5851 0.5432
-8.9191 -16.2249 0.5547
-8.3465 -16.5613 0.5563
-10.2650 -22.3224 0.7378
-9.7404 -23.3493 0.7605
-9.2453 -24.6066 0.7909
-9.2830 -27.6778 0.8791
3.9772 -37.3588 1.1350
5.1724 -36.2152 1.1049
5.8692 -32.6861 1.0026
7.6013 -35.0648 1.0827
7.9800 -31.3464 0.9756
6.1663 -21.0407 0.6609
6.2530 -18.8130 0.5971
6.9187 -18.5671 0.5963
6.9425 -16.7701 0.5458
6.9626 -15.2498 0.5036
6.9799 -13.9436 0.4679
7.0047 -12.8246 0.4380
6.9595 -11.7237 0.4082
7.0199 -10.9154 0.3880
6.8917 -9.9169 0.3606
7.3160 -9.7622 0.3637
7.5979 -9.4161 0.3602
6.4156 -7.3928 0.2909
6.8535 -7.3487 0.2982
6.8602 -6.8471 0.2871
6.8663 -6.3792 0.2771
6.0911 -5.2656 0.2376
6.4249 -5.1641 0.2428
6.9271 -5.1708 0.2541
7.4814 -5.1781 0.2670
7.7306 -4.9509 0.2688
7.7356 -4.5721 0.2625
7.7404 -4.2086 0.2568
7.9646 -3.9679 0.2588
8.7578 -3.9784 0.2791
9.3634 -3.8554 0.2932
10.3652 -3.8400 0.3193
10.8511 -3.5838 0.3293
10.8567 -3.1594 0.3250
10.8622 -2.7433 0.3212
10.8676 -2.3343 0.3179
10.8730 -1.9311 0.3150
9.3963 -1.3239 0.2700
7.7853 -0.8139 0.2222
7.7890 -0.5333 0.2210
7.7927 -0.2538 0.2201
7.7964 0.0252 0.2196
14.1525 0.5528 0.3978
8.3892 0.6291 0.2357
7.5380 0.8375 0.2119
7.2663 1.0718 0.2047
7.1283 1.3137 0.2015
7.0102 1.5533 0.1990
6.8800 1.7851 0.1965
6.8432 2.0396 0.1969
6.8574 2.3141 0.1991
6.9083 2.6103 0.2026
7.1724 3.0077 0.2129
-13.2722 29.7870 1.5921
-14.3208 29.2743 1.5921
-15.3489 28.7233 1.5921
-14.9584 25.7322 1.4561
-11.8674 18.8297 1.0897
-15.0074 22.0230 1.3059
-14.9622 20.3512 1.2388
-15.0474 19.0024 1.1898
-15.1141 17.7428 1.1452
-15.1302 16.5250 1.1020
-12.0002 12.1995 0.8425
-15.1590 14.3455 1.0286
-15.1720 13.3615 0.9975
-15.1842 12.4362 0.9695
-15.1958 11.5622 0.9443
-15.1638 10.7031 0.9190
-15.1916 9.9276 0.8997
-15.2271 9.1904 0.8828
-15.2609 8.4808 0.8677
-16.6736 8.4995 0.9314
-18.3074 8.5211 1.0063
-17.9945 7.6042 0.9748
-17.8685 6.8079 0.9555
-17.7425 6.0419 0.9379
-17.0763 5.1408 0.8936
-16.4690 4.3215 0.8544
-16.6567 3.7390 0.8579
-18.0842 3.3845 0.9259
-19.5190 2.9342 0.9948
-16.4620 1.8749 0.8362
-16.3645 1.2725 0.8296
-16.2853 0.6811 0.8251
-17.8831 0.1073 0.9066
-25.2948 -0.7541 1.2847
-16.9107 -1.1111 0.8616
-16.7898 -1.7085 0.8593
-16.7680 -2.3154 0.8631
-21.4589 -3.7503 1.1123
-21.4694 -4.5496 1.1222
-21.4802 -5.3620 1.1337
-21.4911 -6.1899 1.1468
-21.5023 -7.0359 1.1617
-21.5138 -7.9029 1.1785
-21.5256 -8.7939 1.1972
-21.5377 -9.7125 1.2181
-21.5503 -10.6623 1.2412
-16.7919 -9.0703 0.9865
-15.4725 -9.0877 0.9287
-14.3007 -9.1032 0.8784
-13.2503 -9.1171 0.8344
-12.3011 -9.1296 0.7956
-11.4371 -9.1410 0.7613
-10.6452 -9.1515 0.7308
-9.9152 -9.1611 0.7035
-9.2382 -9.1701 0.6790
-8.6072 -9.1784 0.6570
-8.2526 -9.4572 0.6560
-9.2534 -11.4037 0.7683
-9.2651 -12.2926 0.8060
-9.2780 -13.2729 0.8486
-9.2924 -14.3622 0.8971
-9.3084 -15.5833 0.9527
-8.9196 -16.2249 0.9724
-8.3465 -16.5604 0.9747
-10.2650 -22.3212 1.2920
-9.7410 -23.3493 1.3312
-9.2453 -24.6053 1.3838
-9.2829 -27.6764 1.5376
-8.5596 -28.9146 1.5890
-7.5162 -29.1915 1.5890
-6.4642 -29.4321 1.5890
-5.7565 -31.5641 1.6924
-4.6240 -31.7580 1.6932
-3.4852 -31.9131 1.6940
-2.3413 -32.0291 1.6949
-1.1930 -32.0853 1.6946
-0.0435 -32.0902 1.6938
1.1047 -32.0551 1.6929
2.2506 -31.9816 1.6921
3.1877 -29.9418 1.5890
4.2583 -29.8135 1.5890
5.3071 -29.5544 1.5840
6.3635 -29.3533 1.5840
7.4125 -29.1159 1.5840
6.1666 -21.0407 1.1555
6.2533 -18.8130 1.0444
6.9187 -18.5662 1.0433
6.9425 -16.7693 0.9552
6.9626 -15.2490 0.8817
6.9799 -13.9429 0.8197
7.0104 -12.8344 0.7683
6.9595 -11.7231 0.7157
7.0199 -10.9148 0.6808
6.8917 -9.9163 0.6330
7.4041 -9.8791 0.6466
7.7187 -9.5652 0.6432
6.4160 -7.3928 0.5118
6.8535 -7.3482 0.5248
6.8602 -6.8466 0.5058
6.8664 -6.3788 0.4886
6.0911 -5.2652 0.4193
6.4254 -5.1641 0.4288
6.9277 -5.1708 0.4492
7.4820 -5.1781 0.4722
7.7306 -4.9505 0.4759
7.7356 -4.5717 0.4652
7.7404 -4.2082 0.4556
7.9654 -3.9680 0.4596
8.7588 -3.9785 0.4962
9.3634 -3.8550 0.5216
10.3666 -3.8400 0.5687
10.8511 -3.5833 0.5870
10.8567 -3.1589 0.5801
10.8622 -2.7428 0.5739
10.8676 -2.3338 0.5686
10.8730 -1.9306 0.5641
9.3964 -1.3235 0.4841
7.7853 -0.8136 0.3987
7.7890 -0.5330 0.3971
7.7927 -0.2535 0.3960
7.7964 0.0256 0.3954
13.1501 0.5143 0.6665
8.3848 0.6291 0.4252
7.6293 0.8480 0.3876
7.3293 1.0815 0.3736
7.1281 1.3140 0.3649
7.0100 1.5536 0.3610
6.9304 1.7985 0.3595
6.8933 2.0548 0.3606
6.9132 2.3333 0.3653
6.9771 2.6366 0.3729
7.1726 3.0081 0.3883
-9.0718 20.3610 1.5921
-8.8431 18.0778 1.4380
-10.4956 19.6421 1.5921
-11.1862 19.2442 1.5921
-11.8615 18.8215 1.5921
-8.9092 13.0748 1.1329
-9.3054 12.6577 1.1256
-13.7860 17.4105 1.5921
-14.3909 16.8948 1.5921
-14.9762 16.3578 1.5921
-11.6586 11.8530 1.1944
-15.1590 14.3464 1.5005
-15.1720 13.3624 1.4545
-15.1842 12.4371 1.4132
-15.1958 11.5631 1.3760
-15.1626 10.7031 1.3385
-15.1916 9.9285 1.3099
-15.2271 9.1912 1.2849
-15.2594 8.4808 1.2623
-16.6718 8.4995 1.3543
-18.3053 8.5211 1.4626
-17.9834 7.6004 1.4156
-17.8353 6.7961 1.3852
-17.7106 6.0320 1.3592
-17.0472 5.1328 1.2946
-18.9762 4.9803 1.4280
-19.9234 4.4732 1.4877
-17.5015 3.2763 1.2986
-19.5008 2.9324 1.4397
-16.3954 1.8681 1.2059
-16.2622 1.2653 1.1932
-16.2362 0.6798 1.1900
-18.0034 0.1088 1.3197
-21.6884 -0.6456 1.5921
-16.8686 -1.1075 1.2416
-16.7617 -1.7049 1.2387
-16.7476 -2.3118 1.2443
-21.2886 -3.7195 1.5921
-21.4694 -4.5486 1.6184
-21.4524 -5.3540 1.6321
-21.2263 -6.1126 1.6321
-20.9738 -6.8619 1.6321
-20.6950 -7.6011 1.6321
-20.3906 -8.3292 1.6321
-20.0608 -9.0455 1.6321
-19.7063 -9.7489 1.6321
-16.7935 -9.0702 1.4181
-15.4739 -9.0877 1.3345
-14.3019 -9.1032 1.2618
-13.2514 -9.1171 1.1982
-12.3021 -9.1296 1.1421
-11.4379 -9.1410 1.0924
-10.6460 -9.1515 1.0482
-9.9158 -9.1611 1.0088
-9.2388 -9.1701 0.9734
-8.6078 -9.1784 0.9416
-8.2526 -9.4566 0.9398
-9.2530 -11.4024 1.1003
-9.2647 -12.2913 1.1540
-9.2775 -13.2714 1.2147
-9.2919 -14.3606 1.2838
-9.3079 -15.5815 1.3630
-8.9201 -16.2249 1.3911
-8.3465 -16.5595 1.3940
-8.8286 -19.1968 1.5890
-8.1325 -19.4928 1.5890
-7.4267 -19.7642 1.5890
-6.7121 -20.0107 1.5890
-5.9896 -20.2321 1.5890
-5.5072 -21.3881 1.6637
-4.8178 -21.9349 1.6921
-4.0286 -22.0889 1.6921
-3.2347 -22.2153 1.6921
-2.4370 -22.3140 1.6921
-1.6364 -22.3849 1.6921
-0.8339 -22.4278 1.6921
-0.0305 -22.4428 1.6921
0.7730 -22.4297 1.6921
1.5756 -22.3887 1.6921
2.3764 -22.3198 1.6921
2.9809 -20.8691 1.5890
3.7267 -20.7522 1.5890
4.4681 -20.6093 1.5890
5.2042 -20.4407 1.5890
5.8947 -20.1119 1.5784
6.2536 -18.8130 1.4927
6.9187 -18.5653 1.4913
6.9425 -16.7685 1.3655
6.9626 -15.2483 1.2608
6.9799 -13.9422 1.1722
7.0114 -12.8355 1.0991
6.9595 -11.7224 1.0240
7.0199 -10.9142 0.9742
6.8917 -9.9158 0.9060
7.4045 -9.8791 0.9258
7.9786 -9.8867 0.9521
6.4163 -7.3928 0.7331
6.8535 -7.3478 0.7520
6.8602 -6.8462 0.7249
6.8664 -6.3784 0.7004
6.0911 -5.2648 0.6013
6.4259 -5.1641 0.6152
6.9282 -5.1708 0.6447
7.4827 -5.1781 0.6780
7.7306 -4.9501 0.6834
7.7356 -4.5713 0.6684
7.7404 -4.2078 0.6548
7.9663 -3.9680 0.6609
8.7598 -3.9785 0.7138
9.3635 -3.8545 0.7505
10.3681 -3.8400 0.8187
10.8511 -3.5827 0.8454
10.8567 -3.1584 0.8357
10.8622 -2.7423 0.8272
10.8676 -2.3333 0.8199
10.8730 -1.9301 0.8138
9.3965 -1.3230 0.6986
7.7853 -0.8132 0.5757
7.7890 -0.5326 0.5736
7.7927 -0.2531 0.5723
7.7964 0.0260 0.5717
13.1384 0.5144 0.9631
8.3803 0.6292 0.6150
7.5369 0.8381 0.5544
7.2658 1.0724 0.5364
7.1280 1.3143 0.5288
7.0099 1.5539 0.5233
6.8799 1.7857 0.5175
6.8431 2.0402 0.5194
6.8575 2.3148 0.5259
6.9085 2.6110 0.5362
7.1729 3.0086 0.5641
-6.8714 15.4231 1.5888
-6.3056 12.8911 1.3509
-6.2397 11.6779 1.2468
-8.4758 14.5821 1.5888
-8.9886 14.2636 1.5888
-9.5087 13.9553 1.5921
-8.9217 12.1364 1.4208
-10.4728 13.2270 1.5921
-10.9341 12.8373 1.5921
-11.3806 12.4313 1.5921
-11.8119 12.0096 1.5921
-12.2273 11.5727 1.5921
-12.6263 11.1211 1.5921
-13.0085 10.6558 1.5921
-13.3733 10.1771 1.5921
-13.7203 9.6858 1.5921
-14.0491 9.1826 1.5921
-14.3592 8.6681 1.5921
-14.6503 8.1431 1.5921
-14.9221 7.6082 1.5921
-15.1742 7.0643 1.5921
-15.4063 6.5120 1.5921
-15.6182 5.9521 1.5921
-15.8096 5.3853 1.5921
-15.9804 4.8124 1.5921
-16.1303 4.2341 1.5921
-16.2592 3.6513 1.5921
-16.3670 3.0647 1.5921
-16.4535 2.4749 1.5921
-16.5188 1.8830 1.5921
-16.5628 1.2895 1.5921
-16.5855 0.6952 1.5921
-16.5869 0.1010 1.5921
-16.5670 -0.4924 1.5921
-16.5260 -1.0843 1.5921
-16.4638 -1.6738 1.5921
-16.3808 -2.2604 1.5921
-16.2769 -2.8431 1.5921
-16.1524 -3.4213 1.5921
-16.0075 -3.9943 1.5921
-16.2404 -4.6760 1.6321
-16.0508 -5.2505 1.6321
-15.8410 -5.8174 1.6321
-15.6113 -6.3762 1.6321
-15.3622 -6.9260 1.6321
-9.0729 -4.4880 0.9810
-14.8068 -7.9964 1.6321
-14.5013 -8.5156 1.6321
-14.1778 -9.0234 1.6321
-13.2524 -9.1170 1.5632
-12.3030 -9.1296 1.4897
-11.4388 -9.1410 1.4247
-10.6468 -9.1515 1.3668
-9.9165 -9.1611 1.3151
-9.2394 -9.1701 1.2688
-4.2285 -4.5086 0.6028
-4.0653 -4.6580 0.6032
-3.8968 -4.8017 0.6037
-3.7233 -4.9394 0.6041
-3.5451 -5.0709 0.6045
-3.3623 -5.1961 0.6050
-3.1751 -5.3148 0.6054
-2.9838 -5.4269 0.6058
-2.7886 -5.5323 0.6063
-6.7819 -14.7457 1.5888
-6.2477 -14.9744 1.5888
-5.7060 -15.1841 1.5888
-5.4421 -16.2236 1.6766
-4.9016 -16.5562 1.6921
-4.3048 -16.7176 1.6921
-3.7029 -16.8580 1.6921
-3.0965 -16.9772 1.6921
-2.4864 -17.0750 1.6921
-1.8733 -17.1513 1.6921
-1.2579 -17.2061 1.6921
-0.6410 -17.2394 1.6921
-0.0234 -17.2510 1.6921
0.5942 -17.2409 1.6921
1.2112 -17.2092 1.6921
1.8266 -17.1559 1.6921
2.4399 -17.0810 1.6921
2.8644 -15.9500 1.5890
3.4341 -15.8395 1.5890
3.9997 -15.7091 1.5890
4.5604 -15.5588 1.5890
2.8900 -8.6936 0.8977
5.6648 -15.1998 1.5890
2.9049 -7.0161 0.7437
6.7629 -14.8101 1.5940
6.9799 -13.9415 1.5259
7.0046 -12.8224 1.4295
6.9595 -11.7218 1.3332
7.0199 -10.9136 1.2686
6.8918 -9.9152 1.1800
7.4049 -9.8791 1.2059
7.9790 -9.8867 1.2404
6.4168 -7.3928 0.9553
6.8535 -7.3473 0.9800
6.8602 -6.8457 0.9447
6.8664 -6.3780 0.9131
6.0911 -5.2644 0.7839
6.4264 -5.1641 0.8023
6.9288 -5.1708 0.8408
7.4833 -5.1781 0.8845
7.7306 -4.9496 0.8916
7.7356 -4.5709 0.8722
7.7404 -4.2074 0.8546
7.9671 -3.9680 0.8628
8.7609 -3.9785 0.9321
9.3635 -3.8540 0.9802
10.3695 -3.8401 1.0697
10.8511 -3.5822 1.1046
10.8567 -3.1578 1.0922
10.8622 -2.7418 1.0813
10.8677 -2.3328 1.0721
10.8730 -1.9296 1.0643
9.3966 -1.3226 0.9139
7.7853 -0.8129 0.7533
7.7890 -0.5323 0.7507
7.7927 -0.2528 0.7491
7.7964 0.0263 0.7485
13.1267 0.5146 1.2603
8.3759 0.6292 0.8052
7.7780 0.8652 0.7496
7.4615 1.1017 0.7219
7.1278 1.3147 0.6932
7.0098 1.5542 0.6861
7.0054 1.8186 0.6911
7.0090 2.0900 0.6979
7.0127 2.3675 0.7057
6.9085 2.6114 0.7037
7.1731 3.0091 0.7406
-5.5323 12.4181 1.5888
-5.9716 12.2089 1.5888
-6.3465 11.8785 1.5749
-6.8255 11.7434 1.5888
-7.2390 11.4879 1.5888
-7.6428 11.2175 1.5888
-8.0364 10.9328 1.5888
-8.4193 10.6341 1.5888
-8.7910 10.3218 1.5888
-5.9914 6.5449 1.0403
-9.5180 9.6780 1.5921
-9.8538 9.3269 1.5921
-10.1766 8.9641 1.5921
-10.4858 8.5900 1.5921
-10.7811 8.2051 1.5921
-11.0622 7.8100 1.5921
-11.3287 7.4052 1.5921
-11.5803 6.9912 1.5921
-11.8166 6.5686 1.5921
-12.0374 6.1381 1.5921
-12.2424 5.7000 1.5921
-12.4313 5.2552 1.5921
-12.6040 4.8040 1.5921
-12.7603 4.3472 1.5921
-12.9000 3.8854 1.5921
-13.0229 3.4191 1.5921
-13.1288 2.9490 1.5921
-13.2178 2.4756 1.5921
-13.2896 1.9997 1.5921
-13.3443 1.5217 1.5921
-13.3819 1.0424 1.5921
-13.4022 0.5624 1.5921
-13.4052 0.0823 1.5921
-13.3911 -0.3974 1.5921
-13.3599 -0.8759 1.5921
-13.3117 -1.3527 1.5921
-13.2464 -1.8272 1.5921
-13.1643 -2.2988 1.5921
-13.0655 -2.7669 1.5921
-12.9502 -3.2308 1.5921
-12.8184 -3.6901 1.5921
-12.6705 -4.1441 1.5921
-12.8208 -4.7077 1.6321
-12.6367 -5.1606 1.6321
-12.4367 -5.6064 1.6321
-9.0841 -4.4931 1.2132
-11.9902 -6.4747 1.6321
-11.7442 -6.8960 1.6321
-4.2264 -2.6896 0.6007
-4.1275 -2.8393 0.6010
-4.0234 -2.9854 0.6013
-3.9142 -3.1277 0.6017
-3.8001 -3.2662 0.6020
-3.6811 -3.4005 0.6024
-3.5575 -3.5305 0.6027
-3.4293 -3.6562 0.6031
-3.2967 -3.7772 0.6034
-3.1600 -3.8936 0.6038
-3.0192 -4.0050 0.6041
-2.8745 -4.1115 0.6045
-2.7261 -4.2127 0.6048
-2.5742 -4.3087 0.6052
-2.4605 -4.4750 0.6160
-2.4702 -4.9003 0.6621
-2.4814 -5.3949 0.7166
-5.3977 -12.9365 1.6921
-4.9299 -13.1185 1.6921
-4.4562 -13.2838 1.6921
-3.9769 -13.4323 1.6921
-3.4929 -13.5638 1.6921
-3.0046 -13.6781 1.6921
-2.5126 -13.7752 1.6921
-2.0176 -13.8549 1.6921
-1.5201 -13.9171 1.6921
-1.0208 -13.9618 1.6921
-0.5202 -13.9889 1.6921
-0.0190 -13.9984 1.6921
0.4822 -13.9902 1.6921
0.9828 -13.9643 1.6921
1.4823 -13.9209 1.6921
1.9799 -13.8599 1.6921
2.4751 -13.7815 1.6921
2.7865 -12.8518 1.5890
3.2453 -12.7456 1.5890
3.7002 -12.6233 1.5890
4.1505 -12.4850 1.5890
4.5958 -12.3309 1.5890
5.0355 -12.1612 1.5890
5.4690 -11.9760 1.5890
2.9206 -5.8332 0.7871
2.9269 -5.3576 0.7364
6.7484 -11.3656 1.5940
7.0200 -10.9130 1.5643
6.8918 -9.9147 1.4551
7.4054 -9.8791 1.4873
7.9795 -9.8867 1.5299
6.4172 -7.3928 1.1784
6.8535 -7.3468 1.2089
6.8602 -6.8453 1.1656
6.8664 -6.3775 1.1266
6.0911 -5.2641 0.9674
6.4269 -5.1641 0.9902
6.9293 -5.1708 1.0379
7.4839 -5.1781 1.0919
7.7306 -4.9492 1.1008
7.7356 -4.5705 1.0769
7.7404 -4.2070 1.0554
7.9680 -3.9680 1.0657
8.7619 -3.9785 1.1515
9.3635 -3.8536 1.2109
10.3710 -3.8401 1.3218
10.8511 -3.5817 1.3650
10.8568 -3.1573 1.3498
10.8623 -2.7413 1.3366
10.8677 -2.3322 1.3253
10.8730 -1.9291 1.3159
9.3967 -1.3222 1.1300
7.7853 -0.8125 0.9316
7.7890 -0.5319 0.9286
7.7927 -0.2524 0.9268
7.7964 0.0267 0.9261
13.1149 0.5147 1.5581
8.3714 0.6293 0.9960
7.7776 0.8656 0.9278
7.4611 1.1020 0.8937
7.1277 1.3150 0.8583
7.0096 1.5545 0.8497
6.9789 1.8121 0.8528
6.9823 2.0824 0.8612
6.9857 2.3588 0.8710
6.9086 2.6118 0.8719
7.1734 3.0095 0.9178
-4.9266 11.0590 1.6921
-5.0943 10.4159 1.6209
-5.3543 10.0220 1.5888
-5.7081 9.8214 1.5888
-6.0542 9.6082 1.5888
-6.3923 9.3827 1.5888
-6.7219 9.1451 1.5888
-7.0426 8.8958 1.5888
-7.3540 8.6351 1.5888
-5.9829 6.5361 1.2417
-7.9471 8.0811 1.5888
-8.2280 7.7886 1.5888
-8.4981 7.4862 1.5888
-8.7571 7.1743 1.5888
-9.0044 6.8534 1.5888
-9.2588 6.5373 1.5921
-9.4827 6.1990 1.5921
-9.6941 5.8530 1.5921
-9.8928 5.4998 1.5921
-10.0785 5.1398 1.5921
-10.2511 4.7734 1.5921
-10.4103 4.4013 1.5921
-10.5559 4.0239 1.5921
-10.6878 3.6417 1.5921
-10.8058 3.2552 1.5921
-10.9098 2.8649 1.5921
-10.9997 2.4713 1.5921
-11.0753 2.0749 1.5921
-11.1367 1.6762 1.5921
-11.1836 1.2759 1.5921
-11.2162 0.8743 1.5921
-11.2343 0.4720 1.5921
-11.2380 0.0695 1.5921
-11.2273 -0.3326 1.5921
-11.2023 -0.7339 1.5921
-11.1629 -1.1338 1.5921
-11.1093 -1.5319 1.5921
-11.0416 -1.9276 1.5921
-10.9598 -2.3204 1.5921
-10.8641 -2.7099 1.5921
-10.7546 -3.0954 1.5921
-10.6315 -3.4767 1.5921
-10.4950 -3.8531 1.5921
-10.3452 -4.2243 1.5921
-4.0916 -1.8443 0.6397
-3.7738 -1.8664 0.6004
-3.7045 -2.0002 0.6007
-3.6305 -2.1316 0.6010
-3.5519 -2.2602 0.6012
-3.4688 -2.3860 0.6015
-3.3813 -2.5087 0.6018
-3.2895 -2.6283 0.6021
-3.1935 -2.7446 0.6024
-3.0935 -2.8574 0.6027
-2.9895 -2.9666 0.6030
-2.8817 -3.0722 0.6033
-2.7702 -3.1738 0.6036
-2.6552 -3.2714 0.6039
-2.5368 -3.3650 0.6042
-2.4383 -3.4874 0.6102
-2.4449 -3.7780 0.6455
-2.4523 -4.1045 0.6861
-2.4607 -4.4751 0.7330
-2.4704 -4.9005 0.7879
-2.4816 -5.3951 0.8527
-4.5368 -10.8725 1.6921
-4.1438 -11.0258 1.6921
-3.7457 -11.1651 1.6921
-3.3429 -11.2903 1.6921
-2.9361 -11.4011 1.6921
-2.5257 -11.4975 1.6921
-2.1122 -11.5794 1.6921
-1.6961 -11.6466 1.6921
-1.2779 -11.6990 1.6921
-0.8581 -11.7367 1.6921
-0.4373 -11.7595 1.6921
-0.0160 -11.7675 1.6921
0.4054 -11.7606 1.6921
0.8262 -11.7388 1.6921
1.2461 -11.7022 1.6921
1.6644 -11.6508 1.6921
2.0807 -11.5847 1.6921
2.4944 -11.5039 1.6921
2.7281 -10.7135 1.5890
3.1103 -10.6104 1.5890
2.8900 -8.6928 1.3163
3.8629 -10.3640 1.5890
2.9819 -7.2013 1.1195
2.9204 -6.3947 1.0096
2.9206 -5.8329 0.9366
2.9339 -5.3702 0.8784
5.6534 -9.5210 1.5890
5.9923 -9.3150 1.5890
2.9418 -4.2319 0.7392
6.5432 -8.7284 1.5641
6.8537 -8.4913 1.5641
6.4176 -7.3928 1.4027
6.8536 -7.3464 1.4391
6.8602 -6.8448 1.3876
6.8664 -6.3771 1.3412
6.0911 -5.2637 1.1518
6.4274 -5.1641 1.1792
6.9299 -5.1708 1.2360
7.4845 -5.1781 1.3005
7.7306 -4.9488 1.3110
7.7356 -4.5701 1.2827
7.7404 -4.2066 1.2572
7.9689 -3.9680 1.2698
8.7629 -3.9785 1.3720
9.3635 -3.8531 1.4428
10.3724 -3.8401 1.5753
10.6466 -3.5137 1.5960
10.7710 -3.1319 1.5960
10.8623 -2.7407 1.5932
10.8677 -2.3317 1.5799
10.8730 -1.9286 1.5688
9.3968 -1.3217 1.3474
7.7853 -0.8121 1.1109
7.7890 -0.5315 1.1074
7.7927 -0.2520 1.1053
7.7964 0.0271 1.1047
11.2614 0.4425 1.5960
8.3669 0.6294 1.1876
7.7771 0.8659 1.1070
7.4607 1.1023 1.0663
7.1275 1.3153 1.0242
7.0095 1.5548 1.0141
7.0054 1.8193 1.0218
7.0090 2.0907 1.0320
7.0127 2.3683 1.0438
6.9086 2.6121 1.0411
7.1736 3.0100 1.0960
-4.2293 9.4942 1.6921
-4.5654 9.3350 1.6921
-4.8955 9.1637 1.6921
-5.1112 8.7949 1.6571
-5.1980 8.2499 1.5888
-5.4886 8.0566 1.5888
-5.7718 7.8529 1.5888
-6.0474 7.6392 1.5888
-6.3151 7.4157 1.5888
-5.9744 6.5273 1.4438
-6.8251 6.9407 1.5888
-7.0667 6.6898 1.5888
-7.2991 6.4304 1.5888
-7.5219 6.1629 1.5888
-7.7349 5.8876 1.5888
-7.9377 5.6049 1.5888
-8.1301 5.3152 1.5888
-8.3118 5.0189 1.5888
-8.4827 4.7163 1.5888
-8.6426 4.4079 1.5888
-8.7911 4.0941 1.5888
-8.9283 3.7752 1.5888
-9.0538 3.4518 1.5888
-9.1675 3.1242 1.5888
-9.2884 2.7985 1.5921
-9.3784 2.4632 1.5921
-9.4563 2.1250 1.5921
-9.5220 1.7843 1.5921
-9.5754 1.4417 1.5921
-9.6165 1.0975 1.5921
-9.6452 0.7523 1.5921
-9.6615 0.4064 1.5921
-9.6654 0.0602 1.5921
-9.6569 -0.2856 1.5921
-9.6361 -0.6309 1.5921
-9.6029 -0.9749 1.5921
-9.5575 -1.3175 1.5921
-9.4999 -1.6580 1.5921
-9.4302 -1.9961 1.5921
-9.3485 -2.3314 1.5921
-9.2361 -2.6579 1.5888
-9.1310 -2.9855 1.5888
-9.0144 -3.3091 1.5888
-8.8863 -3.6281 1.5888
-4.0918 -1.8441 0.7432
-3.7452 -1.8520 0.6922
-3.4430 -1.8588 0.6485
-3.1766 -1.8649 0.6107
-3.0604 -1.9472 0.6017
-2.9887 -2.0556 0.6019
-2.9133 -2.1613 0.6021
-2.8342 -2.2644 0.6024
-2.7515 -2.3645 0.6026
-2.6653 -2.4617 0.6029
-2.5756 -2.5558 0.6031
-2.4827 -2.6466 0.6034
-2.4223 -2.7750 0.6127
-2.4272 -2.9903 0.6408
-2.4326 -3.2264 0.6725
-2.4385 -3.4874 0.7084
-2.4451 -3.7780 0.7493
-2.4525 -4.1046 0.7964
-2.4609 -4.4752 0.8508
-2.4706 -4.9006 0.9145
-2.4818 -5.3953 0.9898
-3.9092 -9.3681 1.6921
-3.5707 -9.5005 1.6921
-3.2277 -9.6208 1.6921
-2.8807 -9.7288 1.6921
-2.5302 -9.8245 1.6921
-2.1766 -9.9078 1.6921
-1.8203 -9.9784 1.6921
-1.4617 -10.0364 1.6921
-1.1013 -10.0817 1.6921
-0.7395 -10.1143 1.6921
-0.3769 -10.1340 1.6921
-0.0138 -10.1409 1.6921
0.3493 -10.1349 1.6921
0.7121 -10.1161 1.6921
1.0739 -10.0845 1.6921
1.4344 -10.0402 1.6921
1.7931 -9.9831 1.6921
2.1496 -9.9133 1.6921
2.5034 -9.8310 1.6921
2.7052 -9.2280 1.6038
3.0064 -9.0424 1.5890
3.3287 -8.9303 1.5890
3.1154 -7.5231 1.3574
2.9249 -6.4043 1.1735
2.9206 -5.8327 1.0870
3.1065 -5.6858 1.0794
3.3089 -5.5722 1.0794
5.1626 -8.0248 1.5890
5.4480 -7.8368 1.5890
2.9458 -3.9293 0.8174
5.9982 -7.4308 1.5890
2.9528 -3.4013 0.7492
6.4208 -6.8821 1.5652
6.6686 -6.6532 1.5660
6.8664 -6.3766 1.5573
6.0911 -5.2633 1.3374
6.4278 -5.1642 1.3693
6.9304 -5.1708 1.4355
7.4852 -5.1781 1.5105
7.7306 -4.9483 1.5227
7.7356 -4.5696 1.4899
7.7404 -4.2062 1.4602
7.9697 -3.9680 1.4751
8.7639 -3.9785 1.5941
8.9153 -3.6683 1.5960
9.0448 -3.3482 1.5960
9.1628 -3.0235 1.5960
9.2692 -2.6948 1.5960
9.3639 -2.3623 1.5960
9.4467 -2.0264 1.5960
9.5175 -1.6877 1.5960
9.3969 -1.3213 1.5662
7.7853 -0.8117 1.2913
7.7890 -0.5311 1.2873
7.7927 -0.2517 1.2850
7.7964 0.0274 1.2844
9.6850 0.3810 1.5960
8.3624 0.6294 1.3803
7.7767 0.8662 1.2873
7.4603 1.1026 1.2401
7.1274 1.3156 1.1913
7.0093 1.5551 1.1796
6.9789 1.8128 1.1841
6.9823 2.0831 1.1960
7.0127 2.3686 1.2144
6.9783 2.6388 1.2235
7.1739 3.0105 1.2754
-3.7015 8.3098 1.6921
-3.9958 8.1706 1.6921
-4.2848 8.0209 1.6921
-4.5682 7.8609 1.6921
-4.8455 7.6908 1.6921
-5.1164 7.5108 1.6921
-5.1407 6.9947 1.6166
-5.2938 6.6876 1.5888
-5.5283 6.4922 1.5888
-5.7555 6.2885 1.5888
-5.9752 6.0768 1.5888
-6.1870 5.8574 1.5888
-6.3907 5.6305 1.5888
-6.5861 5.3965 1.5888
-6.7728 5.1557 1.5888
-6.9507 4.9084 1.5888
-7.1195 4.6550 1.5888
-7.2790 4.3957 1.5888
-7.4291 4.1309 1.5888
-7.5694 3.8610 1.5888
-7.6999 3.5863 1.5888
-7.8204 3.3072 1.5888
-7.9308 3.0240 1.5888
-8.0309 2.7372 1.5888
-8.1205 2.4471 1.5888
-8.1997 2.1540 1.5888
-8.2683 1.8584 1.5888
-8.3262 1.5607 1.5888
-8.3733 1.2611 1.5888
-8.4097 0.9602 1.5888
-8.4353 0.6583 1.5888
-8.4500 0.3558 1.5888
-8.4539 0.0531 1.5888
-8.4469 -0.2494 1.5888
-8.4292 -0.5514 1.5888
-8.4006 -0.8525 1.5888
-8.3613 -1.1522 1.5888
-8.3114 -1.4502 1.5888
-8.2509 -1.7461 1.5888
-8.1799 -2.0395 1.5888
-8.0984 -2.3301 1.5888
-8.0067 -2.6175 1.5888
-7.9048 -2.9014 1.5888
-7.7929 -3.1813 1.5888
-4.0920 -1.8440 0.8475
-3.7453 -1.8519 0.7893
-3.4431 -1.8587 0.7394
-3.1767 -1.8648 0.6963
-2.9395 -1.8701 0.6588
-2.7264 -1.8750 0.6259
-2.5568 -1.8967 0.6024
-2.4874 -1.9871 0.6026
-2.4147 -2.0750 0.6028
-2.4100 -2.2258 0.6213
-2.4138 -2.3950 0.6442
-2.4180 -2.5774 0.6697
-2.4224 -2.7750 0.6983
-2.4273 -2.9903 0.7303
-2.4327 -3.2265 0.7664
-2.4386 -3.4874 0.8073
-2.4452 -3.7781 0.8539
-2.4527 -4.1047 0.9075
-2.4611 -4.4753 0.9695
-2.4708 -4.9008 1.0420
-2.4764 -5.3833 1.1252
-3.4311 -8.2219 1.6921
-3.1340 -8.3382 1.6921
-2.8331 -8.4440 1.6921
-2.5285 -8.5389 1.6921
-2.2209 -8.6231 1.6921
-1.9105 -8.6962 1.6921
-1.5978 -8.7584 1.6921
-1.2830 -8.8094 1.6921
-0.9667 -8.8492 1.6921
-0.6492 -8.8778 1.6921
-0.3308 -8.8951 1.6921
-0.0121 -8.9012 1.6921
0.3067 -8.8960 1.6921
0.6250 -8.8795 1.6921
0.9426 -8.8517 1.6921
1.2591 -8.8127 1.6921
1.5739 -8.7625 1.6921
1.8868 -8.7012 1.6921
2.1974 -8.6288 1.6921
2.5052 -8.5455 1.6921
2.7125 -8.1581 1.6334
2.9217 -7.8379 1.5890
2.9243 -7.0614 1.4517
3.4762 -7.6110 1.5890
2.9206 -5.8324 1.2385
3.0045 -5.4987 1.1895
2.9395 -4.9499 1.0927
3.0778 -4.7838 1.0794
3.2478 -4.6716 1.0794
2.9458 -3.9291 0.9315
5.2634 -6.5202 1.5890
5.4949 -6.3292 1.5890
5.7196 -6.1300 1.5890
5.9370 -5.9230 1.5890
2.9614 -2.7500 0.7655
2.9639 -2.5609 0.7417
6.4284 -5.1642 1.5610
6.7300 -5.0208 1.5890
6.9382 -4.7994 1.5960
7.1080 -4.5494 1.5960
7.2688 -4.2935 1.5960
7.4204 -4.0319 1.5960
7.5627 -3.7650 1.5960
7.6955 -3.4931 1.5960
7.8185 -3.2166 1.5960
7.9317 -2.9357 1.5960
8.0347 -2.6509 1.5960
8.1276 -2.3625 1.5960
8.2102 -2.0708 1.5960
8.2823 -1.7763 1.5960
8.3439 -1.4792 1.5960
8.3949 -1.1801 1.5960
7.7853 -0.8114 1.4731
7.7891 -0.5308 1.4686
7.7927 -0.2513 1.4661
7.7964 0.0278 1.4655
8.4880 0.3343 1.5960
8.3579 0.6295 1.5741
7.7589 0.8646 1.4656
7.4599 1.1029 1.4151
7.1272 1.3159 1.3595
7.0092 1.5555 1.3462
7.0054 1.8200 1.3566
7.0090 2.0914 1.3704
7.0127 2.3690 1.3863
6.9785 2.6393 1.3968
7.1741 3.0110 1.4560
-3.2877 7.3813 1.6921
-3.5491 7.2578 1.6921
-3.8059 7.1249 1.6921
-4.0577 6.9829 1.6921
-4.3042 6.8320 1.6921
-4.5450 6.6723 1.6921
-4.7798 6.5040 1.6921
-5.0084 6.3274 1.6921
-5.1476 6.0455 1.6653
-5.1619 5.6402 1.6040
-5.3085 5.3992 1.5888
-5.4969 5.2044 1.5888
-5.6781 5.0030 1.5888
-5.8519 4.7953 1.5888
-6.0180 4.5815 1.5888
-6.1762 4.3619 1.5888
-6.3265 4.1368 1.5888
-6.4685 3.9066 1.5888
-6.6020 3.6714 1.5888
-6.7270 3.4317 1.5888
-6.8433 3.1877 1.5888
-6.9507 2.9397 1.5888
-7.0490 2.6882 1.5888
-7.1383 2.4333 1.5888
-7.2183 2.1755 1.5888
-7.2890 1.9151 1.5888
-7.3502 1.6524 1.5888
-7.4020 1.3878 1.5888
-7.4443 1.1216 1.5888
-7.4769 0.8541 1.5888
-7.5000 0.5857 1.5888
-7.5134 0.3167 1.5888
-7.5172 0.0476 1.5888
-7.5113 -0.2215 1.5888
-7.4958 -0.4900 1.5888
-7.4708 -0.7577 1.5888
-7.4362 -1.0243 1.5888
-7.3921 -1.2894 1.5888
-7.3386 -1.5526 1.5888
-7.2757 -1.8137 1.5888
-7.2036 -2.0723 1.5888
-7.1223 -2.3280 1.5888
-7.0319 -2.5806 1.5888
-6.9327 -2.8297 1.5888
-4.0922 -1.8439 0.9527
-3.7455 -1.8518 0.8872
-3.4433 -1.8586 0.8311
-3.1768 -1.8647 0.7826
-2.9396 -1.8701 0.7405
-2.7265 -1.8749 0.7035
-2.5335 -1.8793 0.6708
-2.4031 -1.9197 0.6543
-2.4065 -2.0678 0.6751
-2.4101 -2.2257 0.6982
-2.4139 -2.3950 0.7239
-2.4181 -2.5774 0.7526
-2.4226 -2.7750 0.7846
-2.4275 -2.9903 0.8206
-2.4328 -3.2265 0.8611
-2.4388 -3.4874 0.9070
-2.4454 -3.7781 0.9594
-2.4529 -4.1047 1.0196
-2.4613 -4.4755 1.0893
-2.4710 -4.9009 1.1707
-2.4408 -5.3055 1.2459
-2.3291 -5.5809 1.2903
-2.7899 -7.4224 1.6921
-2.5221 -7.5166 1.6921
-2.2510 -7.6013 1.6921
-1.9772 -7.6763 1.6921
-1.7009 -7.7415 1.6921
-1.4224 -7.7968 1.6921
-1.1422 -7.8423 1.6921
-0.8606 -7.8778 1.6921
-0.5779 -7.9033 1.6921
-0.2945 -7.9188 1.6921
-0.0108 -7.9242 1.6921
0.2730 -7.9195 1.6921
0.5565 -7.9048 1.6921
0.8392 -7.8800 1.6921
1.1209 -7.8453 1.6921
1.4012 -7.8005 1.6921
1.6798 -7.7459 1.6921
1.9562 -7.6814 1.6921
2.2302 -7.6071 1.6921
2.5015 -7.5232 1.6921
2.7225 -7.3032 1.6633
2.8494 -6.8803 1.5890
3.0945 -6.7748 1.5890
2.9206 -5.8320 1.3913
3.0875 -5.6504 1.3733
3.0189 -5.0832 1.2607
3.0152 -4.6863 1.1880
3.0275 -4.3544 1.1305
2.9458 -3.9289 1.0465
3.5159 -4.3551 1.1926
3.3223 -3.8264 1.0794
3.4580 -3.7059 1.0794
5.2838 -5.2709 1.5890
5.4705 -5.0797 1.5890
2.9716 -2.5674 0.8357
5.8232 -4.6777 1.5890
5.9887 -4.4674 1.5890
2.9706 -2.0547 0.7679
2.9726 -1.9024 0.7501
2.9821 -1.7613 0.7359
6.5731 -3.5711 1.5890
6.6989 -3.3346 1.5890
6.8464 -3.1073 1.5960
6.9555 -2.8612 1.5960
7.0559 -2.6112 1.5960
7.1473 -2.3577 1.5960
7.2296 -2.1011 1.5960
7.3028 -1.8416 1.5960
7.3666 -1.5795 1.5960
7.4211 -1.3153 1.5960
7.4661 -1.0491 1.5960
7.5016 -0.7815 1.5960
7.5275 -0.5126 1.5960
7.5438 -0.2429 1.5960
7.5504 0.0273 1.5960
7.5473 0.2976 1.5960
7.5346 0.5678 1.5960
7.5121 0.8374 1.5960
7.2640 1.0743 1.5499
7.1271 1.3162 1.5292
7.0090 1.5558 1.5143
6.8797 1.7877 1.4987
6.8428 2.0421 1.5051
6.8579 2.3170 1.5252
6.9787 2.6397 1.5716
6.9893 2.9337 1.5960
-2.9543 6.6330 1.6921
-3.1893 6.5222 1.6921
-3.4201 6.4029 1.6921
-3.6464 6.2754 1.6921
-3.8679 6.1399 1.6921
-4.0844 5.9965 1.6921
-4.2955 5.8454 1.6921
-4.5010 5.6868 1.6921
-4.7006 5.5209 1.6921
-4.8941 5.3480 1.6921
-5.0812 5.1683 1.6921
-5.1629 4.8885 1.6603
-5.1744 4.5595 1.6109
-5.2599 4.3105 1.5888
-5.4093 4.1184 1.5888
-5.5517 3.9212 1.5888
-5.6870 3.7190 1.5888
-5.8148 3.5121 1.5888
-5.9350 3.3008 1.5888
-6.0476 3.0854 1.5888
-6.1523 2.8661 1.5888
-6.2490 2.6433 1.5888
-6.3377 2.4172 1.5888
-6.4181 2.1882 1.5888
-6.4903 1.9564 1.5888
-6.5540 1.7224 1.5888
-6.6093 1.4862 1.5888
-6.6561 1.2483 1.5888
-6.6944 1.0089 1.5888
-6.7240 0.7684 1.5888
-6.7449 0.5271 1.5888
-6.7572 0.2852 1.5888
-6.7609 0.0431 1.5888
-6.7559 -0.1988 1.5888
-6.7422 -0.4404 1.5888
-6.7199 -0.6813 1.5888
-6.6890 -0.9211 1.5888
-6.6495 -1.1595 1.5888
-6.6016 -1.3964 1.5888
-6.5453 -1.6313 1.5888
-6.4806 -1.8640 1.5888
-6.4077 -2.0941 1.5888
-6.3266 -2.3215 1.5888
-6.2376 -2.5457 1.5888
-4.0924 -1.8438 1.0589
-3.7457 -1.8516 0.9860
-3.4435 -1.8585 0.9237
-3.1770 -1.8646 0.8698
-2.9397 -1.8700 0.8229
-2.7266 -1.8748 0.7817
-2.5336 -1.8792 0.7454
-2.4033 -1.9196 0.7270
-2.4066 -2.0677 0.7502
-2.4102 -2.2257 0.7759
-2.4141 -2.3950 0.8044
-2.4182 -2.5773 0.8362
-2.4227 -2.7749 0.8718
-2.4276 -2.9903 0.9117
-2.4330 -3.2265 0.9567
-2.4390 -3.4875 1.0078
-2.4456 -3.7782 1.0659
-2.4530 -4.1048 1.1328
-2.4615 -4.4756 1.2102
-2.4712 -4.9011 1.3007
-2.4314 -5.2847 1.3787
-2.3266 -5.5745 1.4318
-2.5116 -6.6814 1.6921
-2.2704 -6.7663 1.6921
-2.0264 -6.8426 1.6921
-1.7799 -6.9102 1.6921
-1.5312 -6.9690 1.6921
-1.2806 -7.0189 1.6921
-1.0283 -7.0598 1.6921
-0.7748 -7.0918 1.6921
-0.5203 -7.1148 1.6921
-0.2652 -7.1287 1.6921
-0.0097 -7.1336 1.6921
0.2458 -7.1294 1.6921
0.5009 -7.1161 1.6921
0.7555 -7.0938 1.6921
1.0091 -7.0625 1.6921
1.2615 -7.0222 1.6921
1.5122 -6.9729 1.6921
1.7611 -6.9148 1.6921
2.0078 -6.8479 1.6921
2.2519 -6.7723 1.6921
2.4933 -6.6880 1.6921
2.7315 -6.5952 1.6921
2.7856 -6.0983 1.5890
2.9206 -5.8317 1.5456
2.9380 -5.3765 1.4517
3.3055 -5.5655 1.5335
3.6301 -5.6416 1.5890
3.0315 -4.3599 1.2575
2.9458 -3.9286 1.1626
3.0276 -3.7500 1.1409
3.0367 -3.4973 1.0962
2.9630 -3.1752 1.0276
2.9658 -2.9584 0.9910
3.3446 -3.1054 1.0794
3.4545 -2.9844 1.0794
5.1838 -4.1638 1.5718
5.3303 -3.9760 1.5716
5.5314 -3.8255 1.5890
5.6663 -3.6260 1.5890
5.7942 -3.4218 1.5890
5.9146 -3.2131 1.5890
6.0277 -3.0001 1.5890
2.9799 -1.3523 0.7721
2.9815 -1.2263 0.7604
2.9831 -1.1038 0.7500
2.9847 -0.9844 0.7408
2.9990 -0.8714 0.7359
6.5408 -1.6491 1.5890
6.5978 -1.4143 1.5890
6.6463 -1.1776 1.5890
6.6864 -0.9392 1.5890
6.7180 -0.6995 1.5890
6.7409 -0.4587 1.5890
6.7553 -0.2172 1.5890
6.7609 0.0248 1.5890
6.7580 0.2669 1.5890
6.7463 0.5088 1.5890
6.7260 0.7502 1.5890
6.6970 0.9907 1.5890
6.6595 1.2302 1.5890
6.6133 1.4683 1.5890
6.5587 1.7046 1.5890
6.4955 1.9388 1.5890
6.4240 2.1708 1.5890
6.3442 2.4000 1.5890
6.2562 2.6264 1.5890
-0.7875 1.7683 0.4973
-2.8928 5.9162 1.6921
-3.1022 5.8081 1.6921
-3.3075 5.6926 1.6921
-3.5085 5.5697 1.6921
-3.7050 5.4397 1.6921
-3.8965 5.3028 1.6921
-4.0830 5.1590 1.6921
-4.2642 5.0086 1.6921
-4.4398 4.8519 1.6921
-4.6096 4.6889 1.6921
-4.7734 4.5200 1.6921
-4.9309 4.3453 1.6921
-5.0821 4.1651 1.6921
-5.1754 3.9406 1.6755
-5.1803 3.6592 1.6341
-5.1928 3.3961 1.5990
-5.2759 3.1869 1.5888
-5.4002 3.0037 1.5933
-5.4874 2.7999 1.5888
-5.5826 2.6010 1.5888
-5.6705 2.3989 1.5888
-5.7511 2.1938 1.5888
-5.8243 1.9860 1.5888
-5.8899 1.7758 1.5888
-5.9479 1.5634 1.5888
-5.9983 1.3491 1.5888
-6.0410 1.1332 1.5888
-6.0758 0.9160 1.5888
-6.1028 0.6977 1.5888
-6.1221 0.4787 1.5888
-6.1334 0.2592 1.5888
-6.1369 0.0394 1.5888
-6.1325 -0.1802 1.5888
-6.1203 -0.3995 1.5888
-6.1002 -0.6181 1.5888
-6.0723 -0.8358 1.5888
-6.0367 -1.0524 1.5888
-5.9934 -1.2674 1.5888
-5.9424 -1.4807 1.5888
-5.8838 -1.6920 1.5888
-5.8178 -1.9010 1.5888
-5.7444 -2.1075 1.5888
-5.6636 -2.3111 1.5888
-4.0926 -1.8436 1.1662
-3.7459 -1.8515 1.0859
-3.4436 -1.8584 1.0172
-3.1771 -1.8645 0.9579
-2.9398 -1.8699 0.9062
-2.7267 -1.8747 0.8609
-2.5337 -1.8791 0.8209
-2.4034 -1.9196 0.8006
-2.4067 -2.0677 0.8261
-2.4103 -2.2256 0.8543
-2.4142 -2.3949 0.8857
-2.4184 -2.5773 0.9207
-2.4229 -2.7749 0.9599
-2.4278 -2.9903 1.0038
-2.4332 -3.2265 1.0534
-2.4391 -3.4875 1.1096
-2.4458 -3.7782 1.1736
-2.4532 -4.1049 1.2472
-2.4617 -4.4757 1.3324
-2.6466 -5.2486 1.5335
-2.4505 -5.3261 1.5297
-2.4977 -5.9841 1.6921
-2.2815 -6.0691 1.6921
-2.0625 -6.1462 1.6921
-1.8408 -6.2156 1.6921
-1.6169 -6.2770 1.6921
-1.3910 -6.3304 1.6921
-1.1633 -6.3758 1.6921
-0.9342 -6.4131 1.6921
-0.7039 -6.4422 1.6921
-0.4727 -6.4630 1.6921
-0.2409 -6.4757 1.6921
-0.0088 -6.4801 1.6921
0.2233 -6.4763 1.6921
0.4551 -6.4643 1.6921
0.6863 -6.4440 1.6921
0.9167 -6.4155 1.6921
1.1460 -6.3788 1.6921
1.3737 -6.3341 1.6921
1.5998 -6.2812 1.6921
1.8239 -6.2204 1.6921
2.0457 -6.1516 1.6921
2.2649 -6.0750 1.6921
2.4813 -5.9907 1.6921
2.6946 -5.8987 1.6921
2.7543 -5.4994 1.6046
2.9387 -5.3774 1.5985
3.1112 -5.2381 1.5890
3.2973 -5.1242 1.5890
3.1876 -4.5842 1.4558
2.9458 -3.9284 1.2800
3.0359 -3.7601 1.2596
3.0310 -3.4905 1.2047
3.0342 -3.2513 1.1586
3.0371 -3.0293 1.1174
3.0553 -2.8366 1.0857
3.1374 -2.7102 1.0794
3.2331 -2.5967 1.0794
3.3249 -2.4799 1.0794
3.4501 -2.3859 1.0914
5.1457 -3.2925 1.5890
5.2616 -3.1070 1.5890
5.3709 -2.9174 1.5890
5.4734 -2.7239 1.5890
5.5689 -2.5269 1.5890
5.6574 -2.3266 1.5890
5.7387 -2.1231 1.5890
5.8127 -1.9168 1.5890
5.8793 -1.7080 1.5890
2.9950 -0.7549 0.8014
5.9899 -1.2837 1.5890
6.0339 -1.0688 1.5890
6.0701 -0.8523 1.5890
6.0985 -0.6347 1.5890
6.1192 -0.4161 1.5890
6.1320 -0.1968 1.5890
6.1370 0.0228 1.5890
6.1341 0.2425 1.5890
6.1234 0.4621 1.5890
6.1048 0.6812 1.5890
6.0783 0.8995 1.5890
6.0440 1.1168 1.5890
6.0020 1.3328 1.5890
5.9522 1.5473 1.5890
5.8947 1.7598 1.5890
5.8297 1.9702 1.5890
5.7571 2.1782 1.5890
5.6770 2.3835 1.5890
-0.7219 1.6209 0.4987
-0.7797 1.5947 0.4990
-2.8356 5.3092 1.6921
-3.0233 5.2037 1.6921
-3.2071 5.0914 1.6921
-3.3867 4.9727 1.6921
-3.5618 4.8475 1.6921
-3.7323 4.7162 1.6921
-3.8980 4.5788 1.6921
-4.0586 4.4356 1.6921
-4.2138 4.2867 1.6921
-4.3637 4.1323 1.6921
-4.5078 3.9727 1.6921
-4.6461 3.8081 1.6921
-4.7783 3.6386 1.6921
-4.9043 3.4645 1.6921
-5.0240 3.2860 1.6921
-5.1371 3.1034 1.6921
-5.1893 2.8867 1.6746
-5.1925 2.6497 1.6443
-5.2006 2.4233 1.6188
-5.2093 2.2040 1.5963
-5.2587 2.0062 1.5888
-5.3257 1.8163 1.5888
-5.3858 1.6241 1.5888
-5.4390 1.4299 1.5888
-5.4852 1.2340 1.5888
-5.5244 1.0366 1.5888
-5.5564 0.8380 1.5888
-5.5812 0.6384 1.5888
-5.5990 0.4381 1.5888
-5.6095 0.2373 1.5888
-5.6128 0.0364 1.5888
-5.6089 -0.1645 1.5888
-5.5979 -0.3651 1.5888
-5.5796 -0.5651 1.5888
-5.5543 -0.7643 1.5888
-5.5218 -0.9623 1.5888
-5.4823 -1.1591 1.5888
-5.4574 -1.3596 1.5952
-5.3824 -1.5475 1.5888
-5.3221 -1.7388 1.5888
-5.2651 -1.9314 1.5919
-5.2624 -2.1471 1.6137
-4.0928 -1.8435 1.2748
-3.7461 -1.8514 1.1870
-3.4438 -1.8583 1.1119
-3.1772 -1.8644 1.0470
-2.9399 -1.8698 0.9905
-2.7268 -1.8746 0.9409
-2.5338 -1.8790 0.8972
-2.4035 -1.9195 0.8750
-2.4069 -2.0676 0.9028
-2.4105 -2.2256 0.9337
-2.4143 -2.3949 0.9680
-2.4185 -2.5773 1.0063
-2.4230 -2.7749 1.0490
-2.4247 -2.9862 1.0956
-2.4333 -3.2265 1.1512
-2.4393 -3.4875 1.2126
-2.4459 -3.7783 1.2826
-3.0459 -5.0963 1.6921
-2.8610 -5.2014 1.6921
-2.6726 -5.2998 1.6921
-2.4807 -5.3915 1.6921
-2.2858 -5.4762 1.6921
-2.0880 -5.5540 1.6921
-1.8875 -5.6247 1.6921
-1.6847 -5.6882 1.6921
-1.4798 -5.7444 1.6921
-1.2730 -5.7934 1.6921
-1.0647 -5.8349 1.6921
-0.8550 -5.8690 1.6921
-0.6442 -5.8957 1.6921
-0.4326 -5.9148 1.6921
-0.2205 -5.9264 1.6921
-0.0081 -5.9305 1.6921
0.2043 -5.9270 1.6921
0.4165 -5.9159 1.6921
0.6281 -5.8973 1.6921
0.8390 -5.8713 1.6921
1.0488 -5.8377 1.6921
1.2573 -5.7967 1.6921
1.4642 -5.7483 1.6921
1.6692 -5.6926 1.6921
1.8722 -5.6296 1.6921
2.0728 -5.5595 1.6921
2.2708 -5.4822 1.6921
2.4660 -5.3980 1.6921
2.6580 -5.3068 1.6921
2.7531 -5.0375 1.6364
2.8472 -4.7933 1.5890
3.0175 -4.6890 1.5890
2.9485 -4.2400 1.4715
2.9458 -3.9282 1.3988
2.9565 -3.6616 1.3405
3.1249 -3.5984 1.3572
3.3561 -3.5960 1.4005
2.9658 -2.9580 1.1924
3.0399 -2.8220 1.1805
3.0424 -2.6280 1.1440
3.0448 -2.4453 1.1110
3.1840 -2.3746 1.1298
3.4389 -2.3780 1.1890
4.7080 -3.0122 1.5890
3.2702 -1.9309 1.0794
3.3381 -1.8130 1.0794
3.4017 -1.6927 1.0794
3.4610 -1.5702 1.0794
3.5159 -1.4457 1.0794
5.2499 -1.9420 1.5890
2.9919 -0.9865 0.8941
5.3782 -1.5622 1.5890
5.4322 -1.3690 1.5890
5.4792 -1.1740 1.5890
5.5192 -0.9773 1.5890
5.5522 -0.7793 1.5890
5.5781 -0.5802 1.5890
5.5969 -0.3803 1.5890
5.6085 -0.1797 1.5890
5.6129 0.0211 1.5890
5.6101 0.2221 1.5890
5.6002 0.4229 1.5890
5.5830 0.6232 1.5890
5.5587 0.8229 1.5890
5.5272 1.0216 1.5890
5.4886 1.2191 1.5890
5.4430 1.4152 1.5890
5.3903 1.6095 1.5890
5.3307 1.8019 1.5890
5.2642 1.9920 1.5890
3.3950 1.4256 1.0392
-0.6657 1.4948 0.4999
-0.7190 1.4706 0.5002
-0.7714 1.4445 0.5004
-0.8230 1.4166 0.5007
-2.9503 4.6841 1.6921
-3.1155 4.5749 1.6921
-3.2767 4.4598 1.6921
-3.4336 4.3390 1.6921
-3.5861 4.2127 1.6921
-3.7339 4.0810 1.6921
-3.8768 3.9441 1.6921
-4.0147 3.8021 1.6921
-4.1473 3.6553 1.6921
-4.2746 3.5039 1.6921
-4.3963 3.3480 1.6921
-4.5124 3.1879 1.6921
-4.6225 3.0237 1.6921
-4.7267 2.8557 1.6921
-4.8248 2.6842 1.6921
-4.9166 2.5092 1.6921
-5.0021 2.3311 1.6921
-5.0811 2.1501 1.6921
-5.1535 1.9664 1.6921
-5.2040 1.7751 1.6871
-5.2068 1.5704 1.6691
-5.2094 1.3698 1.6536
-5.2120 1.1728 1.6405
-5.2167 0.9791 1.6303
-5.2213 0.7877 1.6223
-5.2254 0.5979 1.6163
-5.2289 0.4094 1.6123
-5.2319 0.2216 1.6101
-5.2345 0.0342 1.6099
-5.2365 -0.1533 1.6116
-5.2381 -0.3414 1.6153
-5.2392 -0.5303 1.6208
-5.2397 -0.7207 1.6284
-5.2398 -0.9129 1.6379
-5.2422 -1.1080 1.6505
-5.2448 -1.3064 1.6654
-5.2475 -1.5085 1.6827
-5.2177 -1.7044 1.6921
-5.1520 -1.8896 1.6921
-5.0798 -2.0724 1.6921
-5.0011 -2.2524 1.6921
-3.7462 -1.8513 1.2894
-3.4439 -1.8582 1.2078
-3.1774 -1.8643 1.1373
-2.9401 -1.8697 1.0759
-2.7269 -1.8745 1.0220
-2.5339 -1.8789 0.9745
-2.4036 -1.9194 0.9504
-2.4070 -2.0675 0.9806
-2.4106 -2.2255 1.0141
-2.4145 -2.3948 1.0514
-2.4186 -2.5773 1.0929
-2.4231 -2.7749 1.1394
-2.3729 -2.9222 1.1644
-2.3355 -3.0966 1.1999
-2.4395 -3.4876 1.3169
-2.9715 -4.5898 1.6921
-2.8048 -4.6926 1.6921
-2.6346 -4.7894 1.6921
-2.4611 -4.8801 1.6921
-2.2844 -4.9646 1.6921
-2.1049 -5.0427 1.6921
-1.9228 -5.1143 1.6921
-1.7382 -5.1795 1.6921
-1.5515 -5.2380 1.6921
-1.3628 -5.2898 1.6921
-1.1724 -5.3349 1.6921
-0.9805 -5.3732 1.6921
-0.7873 -5.4046 1.6921
-0.5932 -5.4292 1.6921
-0.3984 -5.4468 1.6921
-0.2030 -5.4575 1.6921
-0.0074 -5.4612 1.6921
0.1882 -5.4580 1.6921
0.3836 -5.4478 1.6921
0.5785 -5.4307 1.6921
0.7726 -5.4067 1.6921
0.9658 -5.3757 1.6921
1.1578 -5.3380 1.6921
1.3484 -5.2934 1.6921
1.5372 -5.2420 1.6921
1.7241 -5.1840 1.6921
1.9088 -5.1194 1.6921
2.0912 -5.0482 1.6921
2.2708 -4.9706 1.6921
2.4477 -4.8866 1.6921
2.6215 -4.7964 1.6921
2.7577 -4.6424 1.6714
2.7786 -4.3175 1.5890
2.9319 -4.2159 1.5890
2.9458 -3.9279 1.5191
2.9561 -3.6608 1.4556
3.1250 -3.5983 1.4740
3.3563 -3.5960 1.5211
3.6390 -3.6291 1.5890
3.7674 -3.4972 1.5890
3.0440 -2.6292 1.2431
3.0448 -2.4451 1.2067
3.1843 -2.3746 1.2272
4.2315 -2.9258 1.5890
3.0514 -1.9521 1.1186
3.0589 -1.8059 1.0967
3.0800 -1.6727 1.0818
3.1317 -1.5582 1.0794
3.1862 -1.4454 1.0794
2.9887 -1.2288 0.9967
3.2831 -1.2143 1.0794
3.3253 -1.0962 1.0794
3.3632 -0.9767 1.0794
3.3969 -0.8559 1.0794
3.4262 -0.7339 1.0794
3.4512 -0.6110 1.0794
3.4967 -0.4906 1.0872
5.1344 -0.5338 1.5890
5.1516 -0.3498 1.5890
5.1621 -0.1652 1.5890
5.1661 0.0197 1.5890
5.1634 0.2047 1.5890
5.1542 0.3895 1.5890
5.1383 0.5739 1.5890
3.3538 0.4967 1.0417
5.0867 0.9404 1.5890
5.0511 1.1222 1.5890
5.0090 1.3026 1.5890
4.9604 1.4814 1.5890
4.9054 1.6584 1.5890
3.3871 1.2819 1.1110
3.3345 1.4004 1.1093
-0.6170 1.3855 0.5010
-0.6664 1.3630 0.5012
-0.7150 1.3388 0.5014
-0.7627 1.3129 0.5017
-0.8095 1.2853 0.5020
-2.8816 4.2317 1.6921
-3.0308 4.1253 1.6921
-3.1759 4.0136 1.6921
-3.3170 3.8968 1.6921
-3.4537 3.7750 1.6921
-3.5859 3.6484 1.6921
-3.7135 3.5172 1.6921
-3.8363 3.3815 1.6921
-3.9541 3.2414 1.6921
-4.0667 3.0973 1.6921
-4.1741 2.9492 1.6921
-4.2761 2.7974 1.6921
-4.3725 2.6420 1.6921
-4.4633 2.4833 1.6921
-4.5483 2.3215 1.6921
-4.6275 2.1568 1.6921
-4.7006 1.9894 1.6921
-4.7677 1.8195 1.6921
-4.8287 1.6473 1.6921
-4.8834 1.4731 1.6921
-4.9318 1.2971 1.6921
-4.9739 1.1195 1.6921
-5.0095 0.9405 1.6921
-5.0388 0.7604 1.6921
-5.0615 0.5794 1.6921
-5.0778 0.3978 1.6921
-5.0875 0.2157 1.6921
-5.0907 0.0335 1.6921
-5.0874 -0.1487 1.6921
-5.0776 -0.3306 1.6921
-5.0612 -0.5121 1.6921
-5.0384 -0.6928 1.6921
-5.0092 -0.8725 1.6921
-4.9735 -1.0510 1.6921
-4.9315 -1.2281 1.6921
-4.8832 -1.4035 1.6921
-4.8287 -1.5771 1.6921
-4.7680 -1.7485 1.6921
-4.7013 -1.9177 1.6921
-4.6286 -2.0843 1.6921
-4.5500 -2.2482 1.6921
-3.4441 -1.8581 1.3050
-3.1775 -1.8642 1.2288
-2.9402 -1.8696 1.1624
-2.7270 -1.8744 1.1042
-2.5340 -1.8788 1.0529
-2.4037 -1.9194 1.0269
-2.4071 -2.0675 1.0595
-2.4107 -2.2255 1.0957
-2.4146 -2.3948 1.1359
-2.4188 -2.5772 1.1808
-2.4233 -2.7749 1.2309
-2.3428 -2.8850 1.2420
-2.2969 -3.0452 1.2748
-2.9015 -4.1478 1.6921
-2.7507 -4.2485 1.6921
-2.5964 -4.3437 1.6921
-2.4389 -4.4334 1.6921
-2.2783 -4.5174 1.6921
-2.1148 -4.5956 1.6921
-1.9486 -4.6679 1.6921
-1.7800 -4.7343 1.6921
-1.6092 -4.7946 1.6921
-1.4363 -4.8488 1.6921
-1.2616 -4.8968 1.6921
-1.0853 -4.9386 1.6921
-0.9077 -4.9740 1.6921
-0.7289 -5.0032 1.6921
-0.5492 -5.0259 1.6921
-0.3688 -5.0422 1.6921
-0.1880 -5.0521 1.6921
-0.0069 -5.0556 1.6921
0.1742 -5.0526 1.6921
0.3551 -5.0432 1.6921
0.5355 -5.0273 1.6921
0.7153 -5.0051 1.6921
0.8941 -4.9764 1.6921
1.0719 -4.9414 1.6921
1.2483 -4.9001 1.6921
1.4231 -4.8526 1.6921
1.5961 -4.7988 1.6921
1.7671 -4.7390 1.6921
1.9359 -4.6731 1.6921
2.1022 -4.6012 1.6921
2.2659 -4.5234 1.6921
2.4267 -4.4398 1.6921
2.5845 -4.3506 1.6921
2.7390 -4.2558 1.6921
2.7704 -3.9834 1.6220
2.8524 -3.8032 1.5890
2.9873 -3.6991 1.5890
3.1183 -3.5903 1.5890
2.9650 -3.1765 1.4517
3.3684 -3.3590 1.5890
3.4872 -3.2368 1.5890
3.1266 -2.7002 1.3794
3.2566 -2.6149 1.3943
3.8164 -2.8458 1.5890
3.9166 -2.7078 1.5890
3.0514 -1.9519 1.2086
3.0533 -1.8025 1.1828
3.0552 -1.6590 1.1595
3.0571 -1.5209 1.1385
2.9870 -1.3549 1.0934
3.0632 -1.2592 1.1038
3.0702 -1.1354 1.0907
3.0867 -1.0174 1.0827
3.1125 -0.9037 1.0794
3.1436 -0.7919 1.0794
3.1707 -0.6790 1.0794
3.1937 -0.5652 1.0794
3.4033 -0.4773 1.1435
4.7512 -0.4937 1.5890
4.7670 -0.3234 1.5890
4.7767 -0.1526 1.5890
4.7803 0.0185 1.5890
4.7777 0.1896 1.5890
4.7690 0.3606 1.5890
4.7542 0.5312 1.5890
3.3225 0.4922 1.1154
3.3770 0.6245 1.1402
3.3787 0.7508 1.1488
3.3804 0.8793 1.1591
3.3821 1.0102 1.1710
3.3839 1.1442 1.1848
3.3857 1.2816 1.2005
3.3345 1.4006 1.1990
-0.5743 1.2898 0.5019
-0.6203 1.2689 0.5021
-0.6655 1.2463 0.5023
-0.7099 1.2221 0.5026
-0.7534 1.1964 0.5028
-0.7961 1.1691 0.5031
-0.8377 1.1404 0.5034
-2.9511 3.7297 1.6921
-3.0822 3.6212 1.6921
-3.2093 3.5081 1.6921
-3.3322 3.3905 1.6921
-3.4508 3.2686 1.6921
-3.5649 3.1425 1.6921
-3.6744 3.0124 1.6921
-3.7791 2.8785 1.6921
-3.8790 2.7409 1.6921
-3.9738 2.5999 1.6921
-4.0635 2.4555 1.6921
-4.1479 2.3081 1.6921
-4.2270 2.1577 1.6921
-4.3006 2.0047 1.6921
-4.3686 1.8491 1.6921
-4.4310 1.6912 1.6921
-4.4877 1.5312 1.6921
-4.5387 1.3693 1.6921
-4.5837 1.2058 1.6921
-4.6229 1.0407 1.6921
-4.6561 0.8744 1.6921
-4.6834 0.7070 1.6921
-4.7046 0.5388 1.6921
-4.7198 0.3700 1.6921
-4.7289 0.2008 1.6921
-4.7319 0.0314 1.6921
-4.7289 -0.1380 1.6921
-4.7198 -0.3071 1.6921
-4.7047 -0.4758 1.6921
-4.6836 -0.6437 1.6921
-4.6565 -0.8108 1.6921
-4.6234 -0.9768 1.6921
-4.5844 -1.1414 1.6921
-4.5396 -1.3045 1.6921
-4.4890 -1.4659 1.6921
-4.4327 -1.6253 1.6921
-4.3707 -1.7826 1.6921
-4.3031 -1.9375 1.6921
-4.2301 -2.0899 1.6921
-4.1517 -2.2396 1.6921
-3.1777 -1.8640 1.3217
-2.9403 -1.8695 1.2503
-2.7271 -1.8743 1.1877
-2.5341 -1.8787 1.1324
-2.4039 -1.9193 1.1045
-2.4072 -2.0674 1.1395
-2.4109 -2.2254 1.1785
-2.4147 -2.3948 1.2217
-2.4189 -2.5772 1.2700
-2.4166 -2.7670 1.3202
-2.3285 -2.8672 1.3275
-2.2844 -3.0285 1.3636
-2.6980 -3.8566 1.6921
-2.5578 -3.9503 1.6921
-2.4144 -4.0389 1.6921
-2.2679 -4.1223 1.6921
-2.1185 -4.2004 1.6921
-1.9665 -4.2732 1.6921
-1.8120 -4.3405 1.6921
-1.6552 -4.4022 1.6921
-1.4964 -4.4583 1.6921
-1.3356 -4.5087 1.6921
-1.1732 -4.5534 1.6921
-1.0093 -4.5922 1.6921
-0.8441 -4.6252 1.6921
-0.6778 -4.6523 1.6921
-0.5107 -4.6735 1.6921
-0.3430 -4.6887 1.6921
-0.1748 -4.6979 1.6921
-0.0064 -4.7011 1.6921
0.1620 -4.6983 1.6921
0.3302 -4.6896 1.6921
0.4980 -4.6748 1.6921
0.6652 -4.6541 1.6921
0.8315 -4.6274 1.6921
0.9968 -4.5949 1.6921
1.1608 -4.5565 1.6921
1.3233 -4.5123 1.6921
1.4842 -4.4623 1.6921
1.6432 -4.4066 1.6921
1.8001 -4.3452 1.6921
1.9548 -4.2784 1.6921
2.1070 -4.2060 1.6921
2.2566 -4.1283 1.6921
2.4033 -4.0453 1.6921
2.5469 -3.9571 1.6921
2.6874 -3.8638 1.6921
2.7703 -3.6934 1.6596
2.7842 -3.4475 1.5927
2.8995 -3.3382 1.5890
3.0177 -3.2327 1.5890
3.1320 -3.1231 1.5890
2.9681 -2.7548 1.4546
3.1266 -2.7000 1.4836
3.2569 -2.6149 1.4998
3.5483 -2.6457 1.5890
3.6415 -2.5174 1.5890
3.7300 -2.3858 1.5890
2.9817 -1.7600 1.2423
3.0592 -1.6610 1.2487
3.0571 -1.5207 1.2246
3.0588 -1.3873 1.2044
3.0605 -1.2580 1.1863
3.0622 -1.1322 1.1702
3.0638 -1.0097 1.1560
3.0654 -0.8899 1.1436
3.0670 -0.7724 1.1329
3.0685 -0.6570 1.1237
3.0700 -0.5432 1.1162
3.4047 -0.4774 1.2306
4.4165 -0.4587 1.5890
4.4312 -0.3004 1.5890
4.4401 -0.1416 1.5890
4.4434 0.0174 1.5890
4.4409 0.1765 1.5890
4.4328 0.3354 1.5890
4.4190 0.4940 1.5890
2.9696 0.4401 1.0725
3.3770 0.6247 1.2267
3.3787 0.7510 1.2360
3.0024 0.7811 1.1076
2.9939 0.8944 1.1154
2.9915 1.0117 1.1270
2.9931 1.1331 1.1419
2.9948 1.2580 1.1587
-0.5366 1.2052 0.5027
-0.5795 1.1856 0.5029
-0.6218 1.1645 0.5031
-0.6633 1.1419 0.5033
-0.7039 1.1178 0.5036
-0.7437 1.0923 0.5038
-0.7826 1.0654 0.5041
-0.8206 1.0372 0.5044
-2.8753 3.3785 1.6921
-2.9939 3.2730 1.6921
-3.1086 3.1633 1.6921
-3.2193 3.0496 1.6921
-3.3258 2.9319 1.6921
-3.4280 2.8106 1.6921
-3.5257 2.6857 1.6921
-3.6189 2.5574 1.6921
-3.7074 2.4258 1.6921
-3.7911 2.2912 1.6921
-3.8700 2.1537 1.6921
-3.9438 2.0134 1.6921
-4.0125 1.8706 1.6921
-4.0761 1.7255 1.6921
-4.1343 1.5782 1.6921
-4.1873 1.4290 1.6921
-4.2349 1.2779 1.6921
-4.2770 1.1253 1.6921
-4.3136 0.9713 1.6921
-4.3446 0.8161 1.6921
-4.3701 0.6600 1.6921
-4.3900 0.5030 1.6921
-4.4042 0.3455 1.6921
-4.4128 0.1876 1.6921
-4.4157 0.0295 1.6921
-4.4129 -0.1285 1.6921
-4.4045 -0.2864 1.6921
-4.3905 -0.4437 1.6921
-4.3708 -0.6005 1.6921
-4.3456 -0.7564 1.6921
-4.3148 -0.9113 1.6921
-4.2785 -1.0650 1.6921
-4.2367 -1.2172 1.6921
-4.1895 -1.3678 1.6921
