ply
format ascii 1.0
element vertex 2168
property float32 x
property float32 y
property float32 z
end_header
-7.5329 7.8592 1.6537
-7.7725 7.5433 1.6537
-8.0035 7.2241 1.6537
-8.2260 6.9017 1.6537
-8.4401 6.5762 1.6537
-8.6461 6.2474 1.6537
-8.8381 5.9115 1.6527
-9.0061 5.5631 1.6487
-9.1873 5.2255 1.6487
-9.3608 4.8846 1.6487
-9.5263 4.5402 1.6487
-9.6842 4.1924 1.6487
-9.8343 3.8411 1.6487
-9.9767 3.4861 1.6487
-10.1114 3.1275 1.6487
-10.2384 2.7651 1.6487
-10.3576 2.3988 1.6487
-10.4691 2.0286 1.6487
-10.5727 1.6544 1.6487
-10.6684 1.2761 1.6487
-10.7562 0.8934 1.6487
-10.8359 0.5065 1.6487
-10.9075 0.1150 1.6487
-10.9707 -0.2810 1.6487
-11.0592 -0.6839 1.6537
-11.1056 -1.0907 1.6537
-11.1431 -1.5025 1.6537
-11.1717 -1.9195 1.6537
-11.1910 -2.3417 1.6537
-11.2009 -2.7693 1.6537
-11.2011 -3.2025 1.6537
-11.1913 -3.6414 1.6537
-11.1710 -4.0860 1.6537
-11.1405 -4.5367 1.6537
-11.0988 -4.9935 1.6537
-11.0458 -5.4565 1.6537
-10.9810 -5.9260 1.6537
-10.9041 -6.4021 1.6537
-10.8145 -6.8848 1.6537
-10.7117 -7.3744 1.6537
-10.5953 -7.8709 1.6537
-10.4646 -8.3746 1.6537
-10.3190 -8.8855 1.6537
-10.1579 -9.4037 1.6537
-9.9807 -9.9293 1.6537
-10.0960 -10.7932 1.7060
-10.1715 -11.6889 1.7568
-9.9268 -12.2714 1.7568
-9.6614 -12.8619 1.7568
-9.3745 -13.4605 1.7568
-9.0650 -14.0671 1.7568
-8.7318 -14.6817 1.7568
-8.3738 -15.3041 1.7568
-7.9897 -15.9342 1.7568
-7.5784 -16.5716 1.7568
-7.1384 -17.2161 1.7568
-6.6683 -17.8674 1.7568
-6.1668 -18.5248 1.7568
-5.6323 -19.1880 1.7568
-5.0633 -19.8561 1.7568
-4.4582 -20.5285 1.7568
-3.5911 -19.9579 1.6536
-2.9488 -20.5959 1.6536
-2.2678 -21.2348 1.6536
-1.5464 -21.8732 1.6536
-0.7831 -22.5096 1.6536
0.0165 -16.0411 1.1462
0.5674 -15.4005 1.0714
1.1253 -15.4677 1.0488
1.4870 -13.6615 0.9037
1.7750 -12.2231 0.7898
3.6073 -2.1420 0.2492
3.6380 -1.9879 0.2454
3.6680 -1.8373 0.2423
3.6974 -1.6896 0.2399
3.7263 -1.5443 0.2382
3.7549 -1.4011 0.2371
3.7831 -1.2596 0.2366
3.8110 -1.1193 0.2367
3.8387 -0.9799 0.2375
3.8664 -0.8411 0.2388
3.8940 -0.7024 0.2407
3.9216 -0.5635 0.2432
3.9494 -0.4241 0.2463
3.9773 -0.2838 0.2501
4.0055 -0.1423 0.2545
4.0340 0.0010 0.2596
4.0630 0.1462 0.2653
4.0924 0.2940 0.2718
4.1224 0.4447 0.2790
4.1531 0.5988 0.2871
4.1846 0.7569 0.2960
4.2169 0.9195 0.3058
4.2504 1.0872 0.3165
4.2849 1.2608 0.3284
4.3208 1.4410 0.3414
4.3582 1.6288 0.3556
4.3973 1.8251 0.3712
4.4383 2.0310 0.3883
4.4815 2.2478 0.4071
4.5271 2.4771 0.4277
4.5756 2.7206 0.4504
4.6273 2.9803 0.4755
4.6828 3.2586 0.5033
4.7425 3.5585 0.5341
4.8072 3.8834 0.5684
4.8835 4.2426 0.6075
13.3935 12.5039 1.7568
12.6735 12.7103 1.7568
11.9630 12.8890 1.7568
7.9807 9.2409 1.2449
7.7876 9.6985 1.2939
7.2693 9.7483 1.2905
6.7729 9.7961 1.2890
6.0247 9.4181 1.2338
5.6185 9.5180 1.2434
5.3911 9.9292 1.2953
4.9595 9.9707 1.3006
4.7547 10.4860 1.3696
5.5211 13.4375 1.7595
4.9475 13.3888 1.7595
4.3874 13.3251 1.7595
3.8406 13.2475 1.7595
3.3072 13.1566 1.7595
2.7869 13.0527 1.7595
2.2797 12.9373 1.7594
1.7855 12.8105 1.7594
1.3040 12.6730 1.7593
0.8351 12.5256 1.7592
0.3786 12.3689 1.7591
-0.0658 12.2028 1.7590
-0.4981 12.0284 1.7589
-0.9187 11.8460 1.7588
-1.3277 11.6559 1.7587
-1.7253 11.4583 1.7586
-2.1118 11.2540 1.7585
-2.4875 11.0431 1.7583
-2.8523 10.8257 1.7582
-3.2067 10.6024 1.7581
-3.5508 10.3734 1.7580
-3.8847 10.1389 1.7578
-4.2087 9.8990 1.7577
-4.5230 9.6541 1.7575
-4.8277 9.4043 1.7574
-5.1231 9.1499 1.7573
-5.4093 8.8910 1.7572
-5.6862 8.6274 1.7570
-5.9543 8.3596 1.7569
-6.2138 8.0880 1.7568
-6.3534 7.6778 1.7265
-6.4716 7.2682 1.6950
-6.5775 6.8694 1.6646
-6.7472 6.5542 1.6537
-6.9702 6.2967 1.6581
-7.1495 6.0030 1.6537
-7.3392 5.7222 1.6537
-7.5215 5.4379 1.6537
-7.6963 5.1503 1.6537
-7.8637 4.8594 1.6537
-8.0238 4.5651 1.6537
-8.1765 4.2674 1.6537
-8.3219 3.9665 1.6537
-8.4600 3.6622 1.6537
-8.5908 3.3547 1.6537
-8.7143 3.0438 1.6537
-8.8304 2.7297 1.6537
-8.9392 2.4121 1.6537
-9.0405 2.0913 1.6537
-9.1345 1.7671 1.6537
-9.2209 1.4395 1.6537
-9.2997 1.1085 1.6537
-9.3709 0.7741 1.6537
-9.4343 0.4362 1.6537
-9.4898 0.0949 1.6537
-9.5374 -0.2500 1.6537
-9.5769 -0.5983 1.6537
-9.6081 -0.9502 1.6537
-9.6309 -1.3057 1.6537
-9.6452 -1.6648 1.6537
-9.6508 -2.0275 1.6537
-9.6474 -2.3938 1.6537
-9.6348 -2.7639 1.6537
-9.6130 -3.1375 1.6537
-9.5814 -3.5149 1.6537
-9.5398 -3.8958 1.6537
-9.4881 -4.2804 1.6537
-9.4259 -4.6686 1.6536
-9.3540 -5.0610 1.6537
-9.2703 -5.4566 1.6537
-9.1752 -5.8558 1.6537
-9.2140 -6.3591 1.6803
-9.3258 -6.9450 1.7233
-9.3677 -7.5153 1.7568
-9.2143 -7.9540 1.7568
-9.0467 -8.3959 1.7568
-8.8644 -8.8411 1.7568
-8.6670 -9.2893 1.7568
-8.4538 -9.7404 1.7568
-8.2244 -10.1941 1.7568
-7.9781 -10.6502 1.7568
-7.7145 -11.1084 1.7568
-7.4329 -11.5683 1.7568
-7.1326 -12.0295 1.7568
-6.8131 -12.4917 1.7568
-6.4738 -12.9543 1.7568
-6.1138 -13.4169 1.7568
-5.7327 -13.8788 1.7568
-5.3297 -14.3394 1.7568
-4.9041 -14.7979 1.7568
-4.4553 -15.2536 1.7568
-3.9827 -15.7055 1.7568
-3.4856 -16.1527 1.7568
-2.7893 -15.6189 1.6536
-2.2736 -16.0279 1.6536
-1.7333 -16.4292 1.6536
-1.1679 -16.8215 1.6536
-0.5771 -17.2034 1.6536
0.0359 -15.9440 1.5003
0.5861 -15.4042 1.4207
1.1386 -15.3990 1.3936
1.4971 -13.6086 1.2101
1.7830 -12.1812 1.0657
3.6075 -2.1413 0.3441
3.6381 -1.9875 0.3392
3.6680 -1.8371 0.3352
3.6974 -1.6896 0.3319
3.7263 -1.5445 0.3295
3.7548 -1.4015 0.3278
3.7829 -1.2601 0.3269
3.8108 -1.1200 0.3266
3.8385 -0.9808 0.3271
3.8662 -0.8422 0.3283
3.8937 -0.7037 0.3303
3.9214 -0.5650 0.3329
3.9491 -0.4258 0.3363
3.9770 -0.2857 0.3404
4.0051 -0.1443 0.3452
4.0336 -0.0013 0.3509
4.0625 0.1438 0.3573
4.0919 0.2913 0.3647
4.1218 0.4418 0.3729
4.1525 0.5956 0.3820
4.1839 0.7534 0.3922
4.2162 0.9157 0.4034
4.2496 1.0832 0.4158
4.2841 1.2564 0.4294
4.3199 1.4363 0.4444
4.3572 1.6237 0.4608
4.3962 1.8195 0.4788
4.4371 2.0250 0.4986
4.4802 2.2413 0.5204
4.5257 2.4700 0.5443
4.5741 2.7128 0.5707
4.6256 2.9718 0.5999
4.6809 3.2493 0.6321
4.7404 3.5482 0.6679
4.8049 3.8720 0.7078
4.8785 4.2277 0.7530
10.8380 10.0929 1.7568
10.2961 10.2998 1.7568
9.7565 10.4847 1.7568
8.0153 9.2566 1.5272
8.6882 10.7911 1.7568
8.1634 10.9172 1.7573
7.6431 11.0234 1.7577
6.0619 9.4483 1.4950
5.6396 9.5243 1.4978
6.1195 11.2344 1.7588
5.6243 11.2691 1.7588
5.1369 11.2881 1.7588
4.6577 11.2925 1.7589
4.1865 11.2824 1.7589
3.7239 11.2589 1.7589
3.2699 11.2225 1.7590
0.8442 3.3396 0.5258
0.7232 3.3653 0.5327
0.6014 3.3870 0.5397
0.4790 3.4044 0.5466
0.3561 3.4176 0.5535
0.2328 3.4266 0.5603
0.1093 3.4315 0.5671
-0.0143 3.4321 0.5738
-0.1378 3.4284 0.5804
-0.2612 3.4206 0.5869
-0.3842 3.4085 0.5934
-0.5068 3.3923 0.5997
-0.6288 3.3719 0.6060
-0.7501 3.3473 0.6122
-2.4772 9.4427 1.7590
-2.7903 9.2599 1.7589
-3.0949 9.0710 1.7587
-3.3912 8.8763 1.7586
-3.6792 8.6759 1.7585
-3.9591 8.4701 1.7583
-4.2310 8.2591 1.7582
-4.4948 8.0430 1.7580
-4.7506 7.8220 1.7579
-4.9987 7.5963 1.7577
-5.2390 7.3661 1.7576
-5.4716 7.1314 1.7575
-5.6960 6.8918 1.7572
-5.9133 6.6487 1.7570
-6.1235 6.4018 1.7570
-6.3262 6.1510 1.7569
-6.5215 5.8963 1.7569
-6.7095 5.6378 1.7568
-6.8748 5.3636 1.7529
-6.9394 5.0200 1.7259
-7.0104 4.6936 1.7035
-7.0791 4.3762 1.6831
-7.1457 4.0667 1.6648
-7.2344 3.7764 1.6537
-7.3636 3.5100 1.6537
-7.4860 3.2404 1.6537
-7.6278 2.9780 1.6595
-7.7102 2.6920 1.6537
-7.8119 2.4133 1.6537
-7.9067 2.1317 1.6537
-7.9945 1.8470 1.6537
-8.0753 1.5595 1.6537
-8.1489 1.2691 1.6537
-8.2154 0.9758 1.6537
-8.2746 0.6797 1.6537
-8.3265 0.3808 1.6537
-8.3709 0.0791 1.6537
-8.4079 -0.2254 1.6537
-8.4371 -0.5326 1.6537
-8.4586 -0.8424 1.6537
-8.4722 -1.1549 1.6537
-8.5168 -1.4768 1.6614
-8.4751 -1.7877 1.6537
-8.4641 -2.1079 1.6537
-8.4446 -2.4305 1.6537
-8.5072 -2.7853 1.6716
-8.5729 -3.1542 1.6919
-8.6405 -3.5386 1.7147
-8.7175 -3.9435 1.7416
-8.7249 -4.3329 1.7568
-8.6456 -4.6899 1.7568
-8.5556 -5.0488 1.7568
-8.4549 -5.4097 1.7568
-8.3430 -5.7724 1.7568
-8.2197 -6.1366 1.7568
-8.0847 -6.5022 1.7568
-7.9376 -6.8691 1.7568
-7.7782 -7.2369 1.7568
-7.6062 -7.6055 1.7568
-7.4212 -7.9747 1.7568
-7.2228 -8.3441 1.7568
-7.0108 -8.7134 1.7568
-6.7848 -9.0823 1.7568
-6.5444 -9.4504 1.7568
-6.2892 -9.8173 1.7568
-6.0190 -10.1826 1.7568
-5.7333 -10.5458 1.7568
-5.4318 -10.9064 1.7568
-5.1142 -11.2638 1.7568
-4.7802 -11.6174 1.7568
-4.4293 -11.9667 1.7568
-4.0614 -12.3108 1.7568
-3.6762 -12.6490 1.7568
-3.2733 -12.9807 1.7568
-2.8526 -13.3048 1.7568
-2.2721 -12.8200 1.6536
-1.8421 -13.1083 1.6536
-1.3950 -13.3868 1.6536
-0.9306 -13.6545 1.6536
-0.4492 -13.9104 1.6536
0.0493 -14.1532 1.6536
0.5646 -14.3819 1.6536
1.0966 -14.5952 1.6536
1.5073 -13.5558 1.5154
1.7910 -12.1395 1.3409
3.6076 -2.1407 0.4394
3.6382 -1.9871 0.4334
3.6681 -1.8368 0.4283
3.6974 -1.6895 0.4243
3.7263 -1.5447 0.4211
3.7547 -1.4019 0.4189
3.7828 -1.2607 0.4174
3.8107 -1.1208 0.4169
3.8384 -0.9817 0.4171
3.8659 -0.8433 0.4182
3.8935 -0.7049 0.4202
3.9211 -0.5664 0.4229
3.9487 -0.4274 0.4265
3.9766 -0.2875 0.4310
4.0047 -0.1464 0.4363
4.0331 -0.0035 0.4425
4.0620 0.1413 0.4497
4.0913 0.2886 0.4579
4.1213 0.4388 0.4670
4.1518 0.5924 0.4773
4.1832 0.7500 0.4888
4.2155 0.9120 0.5014
4.2487 1.0791 0.5154
4.2832 1.2521 0.5308
4.3189 1.4316 0.5478
4.3562 1.6186 0.5664
4.3951 1.8140 0.5869
4.4359 2.0189 0.6093
4.4789 2.2347 0.6341
4.5243 2.4629 0.6613
4.5725 2.7050 0.6913
4.6239 2.9632 0.7245
4.6790 3.2399 0.7613
4.7383 3.5379 0.8021
4.8026 3.8605 0.8476
4.8735 4.2128 0.8987
8.5633 7.9545 1.6537
8.1572 8.1394 1.6537
7.7505 8.3074 1.6537
7.3439 8.4589 1.6537
7.3714 9.1308 1.7570
6.9420 9.2581 1.7570
6.5156 9.3703 1.7573
6.0914 9.4662 1.7575
5.6702 9.5465 1.7575
5.2527 9.6121 1.7576
4.8394 9.6633 1.7577
4.4305 9.7007 1.7578
4.0266 9.7249 1.7579
3.6279 9.7363 1.7580
3.2347 9.7354 1.7581
0.8389 2.8646 0.5181
0.7349 2.8907 0.5241
0.6301 2.9132 0.5302
0.5247 2.9320 0.5362
0.4186 2.9472 0.5422
0.3122 2.9588 0.5481
0.2054 2.9666 0.5540
0.0984 2.9708 0.5599
-0.0086 2.9713 0.5657
-0.1156 2.9682 0.5714
-0.2225 2.9613 0.5771
-0.3291 2.9508 0.5827
-0.4353 2.9366 0.5882
-0.5410 2.9188 0.5936
-0.6460 2.8974 0.5989
-0.7502 2.8723 0.6042
-2.4652 8.2118 1.7594
-2.7382 8.0520 1.7593
-3.0042 7.8864 1.7591
-3.2633 7.7151 1.7590
-3.5153 7.5382 1.7589
-3.7604 7.3560 1.7587
-3.9985 7.1688 1.7586
-4.2294 6.9761 1.7583
-4.4532 6.7783 1.7579
-4.6701 6.5759 1.7576
-4.8806 6.3698 1.7574
-5.0847 6.1598 1.7574
-5.2819 5.9455 1.7573
-5.4725 5.7271 1.7573
-5.6563 5.5048 1.7572
-5.8327 5.2780 1.7570
-6.0027 5.0478 1.7568
-6.1665 4.8143 1.7568
-6.3236 4.5772 1.7568
-6.4739 4.3366 1.7568
-6.6176 4.0925 1.7568
-6.7545 3.8452 1.7568
-6.8847 3.5946 1.7568
-7.0082 3.3408 1.7568
-7.1248 3.0839 1.7568
-7.2347 2.8239 1.7568
-7.3376 2.5610 1.7568
-7.4337 2.2951 1.7568
-7.5189 2.0253 1.7559
-7.5745 1.7478 1.7498
-7.6299 1.4710 1.7453
-7.6853 1.1940 1.7426
-7.7409 0.9162 1.7415
-7.7968 0.6368 1.7422
-7.8532 0.3551 1.7445
-7.9102 0.0703 1.7486
-7.9680 -0.2184 1.7545
-8.0022 -0.5103 1.7568
-8.0180 -0.8041 1.7568
-8.0260 -1.1001 1.7568
-8.0260 -1.3981 1.7568
-8.0179 -1.6980 1.7568
-8.0015 -1.9999 1.7568
-7.9768 -2.3036 1.7568
-7.9435 -2.6089 1.7568
-7.9014 -2.9158 1.7568
-7.8506 -3.2242 1.7568
-7.7906 -3.5339 1.7568
-7.7215 -3.8449 1.7568
-7.6430 -4.1569 1.7568
-7.5549 -4.4697 1.7568
-7.4570 -4.7833 1.7568
-7.3491 -5.0975 1.7568
-7.2310 -5.4120 1.7568
-7.1025 -5.7267 1.7568
-6.9634 -6.0412 1.7568
-6.8135 -6.3554 1.7568
-6.6526 -6.6691 1.7568
-6.4803 -6.9818 1.7568
-6.2966 -7.2934 1.7568
-6.1012 -7.6035 1.7568
-5.8939 -7.9117 1.7568
-5.6744 -8.2177 1.7568
-5.4425 -8.5210 1.7568
-5.1982 -8.8213 1.7568
-4.9411 -9.1181 1.7568
-4.6710 -9.4109 1.7568
-4.3879 -9.6992 1.7568
-4.0915 -9.9825 1.7568
-3.7818 -10.2601 1.7568
-3.4586 -10.5315 1.7568
-3.1218 -10.7960 1.7568
-2.7714 -11.0530 1.7568
-2.4074 -11.3017 1.7568
-1.9628 -11.1608 1.6989
-1.5422 -11.0795 1.6536
-1.1613 -11.2859 1.6536
-0.7678 -11.4815 1.6536
-0.3620 -11.6656 1.6536
0.0559 -11.8373 1.6536
0.4856 -11.9957 1.6536
0.9267 -12.1399 1.6536
1.3787 -12.2690 1.6536
1.7990 -12.0978 1.6156
3.6077 -2.1400 0.5351
3.6383 -1.9866 0.5280
3.6681 -1.8366 0.5220
3.6974 -1.6895 0.5171
3.7262 -1.5449 0.5132
3.7546 -1.4022 0.5103
3.7827 -1.2612 0.5085
3.8105 -1.1215 0.5075
3.8382 -0.9827 0.5076
3.8657 -0.8444 0.5086
3.8932 -0.7062 0.5105
3.9208 -0.5679 0.5134
3.9484 -0.4291 0.5172
3.9762 -0.2894 0.5220
4.0043 -0.1484 0.5278
4.0327 -0.0058 0.5346
4.0615 0.1388 0.5425
4.0908 0.2859 0.5515
4.1207 0.4359 0.5617
4.1512 0.5893 0.5731
4.1825 0.7465 0.5858
4.2147 0.9083 0.5999
4.2479 1.0751 0.6155
4.2823 1.2477 0.6326
4.3180 1.4268 0.6516
4.3551 1.6134 0.6724
4.3940 1.8084 0.6953
4.4347 2.0129 0.7205
4.4775 2.2282 0.7482
4.5229 2.4557 0.7787
4.5709 2.6972 0.8124
4.6222 2.9547 0.8496
4.6771 3.2305 0.8909
4.7363 3.5275 0.9367
4.8003 3.8490 0.9878
4.8701 4.1993 1.0450
7.3740 6.8324 1.6537
7.0384 7.0050 1.6537
6.7007 7.1635 1.6537
6.3616 7.3080 1.6537
6.0218 7.4389 1.6537
5.6818 7.5563 1.6537
5.3421 7.6607 1.6537
5.0033 7.7521 1.6537
4.6658 7.8311 1.6537
4.3301 7.8979 1.6537
4.2462 8.4497 1.7571
3.8947 8.4965 1.7572
3.5462 8.5312 1.7573
3.2009 8.5544 1.7575
0.8332 2.4962 0.5121
0.7424 2.5225 0.5175
0.6508 2.5456 0.5228
0.5585 2.5655 0.5282
0.4656 2.5822 0.5335
0.3722 2.5957 0.5388
0.2784 2.6059 0.5440
0.1843 2.6128 0.5492
0.0900 2.6166 0.5544
-0.0043 2.6170 0.5595
-0.0986 2.6142 0.5646
-0.1928 2.6081 0.5695
-0.2867 2.5988 0.5745
-0.3803 2.5863 0.5793
-0.4734 2.5705 0.5841
-0.5659 2.5515 0.5888
-0.6577 2.5292 0.5934
-0.7488 2.5039 0.5979
-2.4513 7.2325 1.7597
-2.6924 7.0887 1.7595
-2.9272 6.9388 1.7592
-3.1559 6.7835 1.7589
-3.3785 6.6231 1.7585
-3.5949 6.4576 1.7582
-3.8051 6.2873 1.7579
-4.0096 6.1129 1.7577
-4.2081 5.9342 1.7577
-4.4006 5.7511 1.7576
-4.5869 5.5637 1.7576
-4.7666 5.3715 1.7573
-4.9401 5.1753 1.7571
-5.1075 4.9754 1.7568
-5.2694 4.7723 1.7568
-5.4251 4.5655 1.7568
-5.5747 4.3551 1.7568
-5.7180 4.1413 1.7568
-5.8552 3.9240 1.7568
-5.9861 3.7035 1.7568
-6.1107 3.4797 1.7568
-6.2291 3.2529 1.7568
-6.3412 3.0230 1.7568
-6.4469 2.7903 1.7568
-6.5462 2.5546 1.7568
-6.6391 2.3162 1.7568
-6.7255 2.0752 1.7568
-6.8054 1.8315 1.7568
-6.8787 1.5853 1.7568
-6.9453 1.3367 1.7568
-7.0053 1.0856 1.7568
-7.0585 0.8324 1.7568
-7.1049 0.5769 1.7568
-7.1443 0.3193 1.7568
-7.1768 0.0597 1.7568
-7.2022 -0.2018 1.7568
-7.2204 -0.4652 1.7568
-7.2314 -0.7303 1.7568
-7.2350 -0.9971 1.7568
-7.2311 -1.2654 1.7568
-7.2197 -1.5352 1.7568
-7.2006 -1.8063 1.7568
-7.1737 -2.0786 1.7568
-7.1388 -2.3521 1.7568
-7.0960 -2.6265 1.7568
-7.0449 -2.9017 1.7568
-6.9856 -3.1776 1.7568
-6.9178 -3.4539 1.7568
-6.8414 -3.7307 1.7568
-6.7564 -4.0077 1.7568
-6.6624 -4.2846 1.7568
-6.5594 -4.5613 1.7568
-6.4473 -4.8376 1.7568
-6.3259 -5.1133 1.7568
-6.1949 -5.3881 1.7568
-6.0544 -5.6618 1.7568
-5.9042 -5.9341 1.7568
-5.7440 -6.2048 1.7568
-5.5738 -6.4734 1.7568
-5.3934 -6.7398 1.7568
-5.2027 -7.0036 1.7568
-5.0016 -7.2644 1.7568
-4.7899 -7.5218 1.7568
-4.5675 -7.7755 1.7568
-4.3345 -8.0251 1.7568
-4.0905 -8.2700 1.7568
-3.8357 -8.5099 1.7568
-3.5700 -8.7442 1.7568
-3.2933 -8.9726 1.7568
-3.0056 -9.1943 1.7568
-2.7069 -9.4090 1.7568
-2.3973 -9.6160 1.7568
-2.0769 -9.8147 1.7568
-1.7458 -10.0046 1.7568
-1.3215 -9.5864 1.6536
-0.9901 -9.7466 1.6536
-0.6491 -9.8966 1.6536
-0.2987 -10.0359 1.6536
0.0606 -10.1637 1.6536
0.4287 -10.2793 1.6536
0.8050 -10.3823 1.6536
1.1892 -10.4717 1.6536
1.3818 -9.2192 1.4454
3.6079 -2.1394 0.6313
3.6384 -1.9862 0.6231
3.6682 -1.8364 0.6161
3.6974 -1.6895 0.6104
3.7262 -1.5450 0.6058
3.7546 -1.4026 0.6023
3.7826 -1.2618 0.6000
3.8104 -1.1223 0.5987
3.8380 -0.9836 0.5986
3.8655 -0.8455 0.5994
3.8930 -0.7075 0.6013
3.9205 -0.5694 0.6043
3.9481 -0.4308 0.6084
3.9759 -0.2912 0.6135
4.0039 -0.1505 0.6198
4.0323 -0.0081 0.6272
4.0610 0.1363 0.6358
4.0903 0.2832 0.6457
4.1201 0.4329 0.6568
4.1506 0.5860 0.6693
4.1818 0.7430 0.6833
4.2140 0.9045 0.6989
4.2471 1.0710 0.7161
4.2814 1.2433 0.7350
4.3170 1.4221 0.7560
4.3541 1.6083 0.7790
4.3929 1.8028 0.8044
4.4335 2.0068 0.8322
4.4762 2.2215 0.8629
4.5214 2.4485 0.8968
4.5694 2.6893 0.9341
4.6205 2.9461 0.9754
4.6753 3.2210 1.0211
4.7342 3.5171 1.0719
4.7980 3.8375 1.1286
4.8675 4.1865 1.1921
6.4708 5.9802 1.6537
6.1857 6.1406 1.6537
5.8980 6.2888 1.6537
5.6080 6.4251 1.6537
5.3165 6.5496 1.6537
5.0238 6.6625 1.6537
4.7306 6.7640 1.6537
4.4371 6.8543 1.6537
4.1439 6.9335 1.6537
3.8514 7.0019 1.6537
3.5600 7.0598 1.6537
3.2699 7.1074 1.6537
3.1676 7.5908 1.7569
0.8271 2.2011 0.5075
0.7469 2.2275 0.5123
0.6659 2.2510 0.5171
0.5841 2.2717 0.5218
0.5017 2.2896 0.5266
0.4188 2.3046 0.5313
0.3354 2.3166 0.5361
0.2516 2.3258 0.5407
0.1676 2.3321 0.5454
0.0834 2.3354 0.5500
-0.0009 2.3358 0.5546
-0.0851 2.3333 0.5591
-0.1692 2.3278 0.5635
-0.2531 2.3195 0.5679
-0.3366 2.3082 0.5723
-0.4197 2.2940 0.5765
-0.5023 2.2770 0.5807
-0.5843 2.2571 0.5848
-0.6656 2.2343 0.5888
-0.7461 2.2087 0.5927
-2.4345 6.4289 1.7590
-2.6493 6.2967 1.7587
-2.8586 6.1593 1.7585
-3.0625 6.0168 1.7582
-3.2613 5.8699 1.7580
-3.4547 5.7185 1.7580
-3.6423 5.5621 1.7578
-3.8244 5.4012 1.7576
-4.0009 5.2359 1.7573
-4.1717 5.0665 1.7571
-4.3370 4.8930 1.7569
-4.4971 4.7162 1.7568
-4.6516 4.5357 1.7568
-4.8005 4.3515 1.7568
-4.9437 4.1636 1.7568
-5.0812 3.9724 1.7568
-5.2130 3.7777 1.7568
-5.3390 3.5799 1.7568
-5.4591 3.3788 1.7568
-5.5734 3.1747 1.7568
-5.6819 2.9677 1.7568
-5.7844 2.7578 1.7568
-5.8810 2.5452 1.7568
-5.9715 2.3298 1.7568
-6.0561 2.1120 1.7568
-6.1345 1.8916 1.7568
-6.2068 1.6689 1.7568
-6.2729 1.4438 1.7568
-6.3327 1.2166 1.7568
-6.3863 0.9872 1.7568
-6.4334 0.7559 1.7568
-6.4742 0.5226 1.7568
-6.5084 0.2875 1.7568
-6.5360 0.0507 1.7568
-6.5570 -0.1877 1.7568
-6.5713 -0.4277 1.7568
-6.5787 -0.6691 1.7568
-6.5793 -0.9117 1.7568
-6.5729 -1.1556 1.7568
-6.5594 -1.4005 1.7568
-6.5387 -1.6464 1.7568
-6.5108 -1.8930 1.7568
-6.4756 -2.1404 1.7568
-6.4328 -2.3882 1.7568
-6.3826 -2.6365 1.7568
-6.3246 -2.8849 1.7568
-6.2589 -3.1335 1.7568
-6.1854 -3.3819 1.7568
-6.1038 -3.6300 1.7568
-6.0142 -3.8777 1.7568
-5.9163 -4.1247 1.7568
-5.8102 -4.3707 1.7568
-5.6957 -4.6157 1.7568
-5.5726 -4.8593 1.7568
-5.4410 -5.1013 1.7568
-5.3006 -5.3415 1.7568
-5.1515 -5.5795 1.7568
-4.9934 -5.8151 1.7568
-4.8264 -6.0480 1.7568
-4.6504 -6.2779 1.7568
-4.4652 -6.5044 1.7568
-4.2709 -6.7273 1.7568
-4.0674 -6.9461 1.7568
-3.8547 -7.1605 1.7568
-3.6327 -7.3700 1.7568
-3.4014 -7.5744 1.7568
-3.1609 -7.7731 1.7568
-2.9112 -7.9657 1.7568
-2.6523 -8.1518 1.7568
-2.3844 -8.3309 1.7568
-2.1074 -8.5025 1.7568
-1.8216 -8.6662 1.7568
-1.5271 -8.8214 1.7568
-1.1522 -8.4405 1.6536
-0.8591 -8.5692 1.6536
-0.5586 -8.6885 1.6536
-0.2507 -8.7977 1.6536
0.0642 -8.8966 1.6536
0.3858 -8.9844 1.6536
0.7136 -9.0608 1.6536
1.0473 -9.1251 1.6536
1.3863 -9.1770 1.6536
3.6080 -2.1387 0.7283
3.6384 -1.9857 0.7189
3.6682 -1.8362 0.7109
3.6974 -1.6895 0.7043
3.7262 -1.5452 0.6990
3.7545 -1.4030 0.6950
3.7825 -1.2624 0.6922
3.8102 -1.1230 0.6906
3.8378 -0.9845 0.6902
3.8653 -0.8466 0.6909
3.8927 -0.7088 0.6928
3.9202 -0.5709 0.6959
3.9477 -0.4325 0.7002
3.9755 -0.2931 0.7057
4.0035 -0.1526 0.7124
4.0318 -0.0104 0.7204
4.0605 0.1338 0.7298
4.0897 0.2804 0.7405
4.1195 0.4300 0.7526
4.1499 0.5828 0.7663
4.1811 0.7395 0.7815
4.2132 0.9007 0.7985
4.2463 1.0669 0.8173
4.2806 1.2388 0.8381
4.3161 1.4173 0.8610
4.3531 1.6031 0.8863
4.3917 1.7972 0.9141
4.4323 2.0007 0.9447
4.4749 2.2149 0.9784
4.5200 2.4412 1.0155
4.5678 2.6814 1.0565
4.6188 2.9374 1.1018
4.6734 3.2115 1.1521
4.7321 3.5066 1.2079
4.7957 3.8259 1.2702
4.8649 4.1736 1.3399
5.7608 5.3104 1.6537
5.5138 5.4593 1.6537
5.2637 5.5977 1.6537
5.0110 5.7257 1.6537
4.7563 5.8434 1.6537
4.5000 5.9509 1.6537
4.2424 6.0483 1.6537
3.9841 6.1358 1.6537
3.7254 6.2135 1.6537
3.4666 6.2815 1.6537
3.2082 6.3401 1.6537
2.9504 6.3895 1.6537
0.8205 1.9586 0.5038
0.7491 1.9850 0.5081
0.6767 2.0089 0.5124
0.6037 2.0302 0.5167
0.5299 2.0489 0.5210
0.4555 2.0651 0.5253
0.3807 2.0787 0.5296
0.3054 2.0896 0.5339
0.2298 2.0979 0.5381
0.1539 2.1036 0.5423
0.0780 2.1066 0.5464
0.0019 2.1069 0.5506
-0.0741 2.1047 0.5546
-0.1500 2.0997 0.5587
-0.2257 2.0922 0.5626
-0.3011 2.0820 0.5665
-0.3761 2.0691 0.5704
-0.4506 2.0537 0.5741
-0.5246 2.0357 0.5778
-0.5979 2.0150 0.5815
-0.6705 1.9919 0.5850
-0.7423 1.9662 0.5885
-2.4160 5.7576 1.7582
-2.6090 5.6350 1.7581
-2.7971 5.5073 1.7579
-2.9803 5.3749 1.7577
-3.1585 5.2379 1.7575
-3.3318 5.0964 1.7573
-3.5000 4.9506 1.7571
-3.6632 4.8006 1.7569
-3.8214 4.6470 1.7568
-3.9748 4.4896 1.7568
-4.1229 4.3284 1.7568
-4.2659 4.1636 1.7568
-4.4036 3.9951 1.7568
-4.5360 3.8233 1.7568
-4.6632 3.6481 1.7568
-4.7850 3.4696 1.7568
-4.9013 3.2881 1.7568
-5.0123 3.1035 1.7568
-5.1178 2.9161 1.7568
-5.2177 2.7258 1.7568
-5.3122 2.5329 1.7568
-5.4010 2.3373 1.7568
-5.4841 2.1392 1.7568
-5.5616 1.9388 1.7568
-5.6334 1.7360 1.7568
-5.6993 1.5310 1.7568
-5.7594 1.3240 1.7568
-5.8137 1.1149 1.7568
-5.8619 0.9039 1.7568
-5.9042 0.6911 1.7568
-5.9404 0.4767 1.7568
-5.9705 0.2606 1.7568
-5.9943 0.0430 1.7568
-6.0119 -0.1759 1.7568
-6.0232 -0.3961 1.7568
-6.0281 -0.6174 1.7568
-6.0265 -0.8398 1.7568
-6.0184 -1.0631 1.7568
-6.0036 -1.2871 1.7568
-5.9822 -1.5118 1.7568
-5.9539 -1.7371 1.7568
-5.9189 -1.9627 1.7568
-5.8769 -2.1885 1.7568
-5.8279 -2.4144 1.7568
-5.7717 -2.6402 1.7568
-5.7084 -2.8657 1.7568
-5.6379 -3.0909 1.7568
-5.5600 -3.3154 1.7568
-5.4747 -3.5391 1.7568
-5.3820 -3.7618 1.7568
-5.2816 -3.9833 1.7568
-5.1736 -4.2034 1.7568
-5.0579 -4.4219 1.7568
-4.9344 -4.6385 1.7568
-4.8031 -4.8529 1.7568
-4.6639 -5.0650 1.7568
-4.5168 -5.2744 1.7568
-4.3616 -5.4809 1.7568
-4.1985 -5.6842 1.7568
-4.0273 -5.8839 1.7568
-3.8480 -6.0798 1.7568
-3.6607 -6.2716 1.7568
-3.4653 -6.4589 1.7568
-3.2619 -6.6413 1.7568
-3.0505 -6.8185 1.7568
-2.8312 -6.9902 1.7568
-2.6040 -7.1560 1.7568
-2.3689 -7.3153 1.7568
-2.1262 -7.4680 1.7568
-1.8760 -7.6135 1.7568
-1.6183 -7.7514 1.7568
-1.3534 -7.8814 1.7568
-1.0180 -7.5326 1.6536
-0.7557 -7.6387 1.6536
-0.4872 -7.7361 1.6536
-0.2129 -7.8243 1.6536
0.0671 -7.9030 1.6536
0.3522 -7.9717 1.6536
0.6423 -8.0301 1.6536
0.9368 -8.0777 1.6536
1.2354 -8.1142 1.6536
3.6081 -2.1380 0.8259
3.6385 -1.9853 0.8154
3.6683 -1.8359 0.8065
3.6975 -1.6894 0.7990
3.7261 -1.5454 0.7930
3.7544 -1.4033 0.7884
3.7824 -1.2629 0.7851
3.8101 -1.1237 0.7831
3.8376 -0.9855 0.7825
3.8651 -0.8477 0.7831
3.8924 -0.7101 0.7850
3.9199 -0.5724 0.7882
3.9474 -0.4342 0.7928
3.9751 -0.2950 0.7986
4.0031 -0.1547 0.8058
4.0313 -0.0127 0.8144
4.0600 0.1313 0.8245
4.0892 0.2777 0.8360
4.1189 0.4270 0.8491
4.1493 0.5796 0.8639
4.1804 0.7360 0.8805
4.2124 0.8969 0.8989
4.2455 1.0628 0.9193
4.2797 1.2344 0.9419
4.3151 1.4124 0.9669
4.3520 1.5978 0.9943
4.3906 1.7915 1.0246
4.4310 1.9945 1.0579
4.4736 2.2082 1.0946
4.5185 2.4339 1.1351
4.5662 2.6734 1.1798
4.6170 2.9287 1.2292
4.6715 3.2020 1.2839
4.7300 3.4960 1.3448
4.7934 3.8142 1.4127
4.8623 4.1606 1.4887
5.1876 4.7696 1.6537
4.9701 4.9080 1.6537
4.7494 5.0373 1.6537
4.5260 5.1574 1.6537
4.3002 5.2684 1.6537
4.0726 5.3703 1.6537
3.8434 5.4633 1.6537
3.6130 5.5473 1.6537
3.3818 5.6226 1.6537
3.1502 5.6892 1.6537
2.9184 5.7473 1.6537
0.8135 1.7552 0.5007
0.7493 1.7816 0.5046
0.6843 1.8056 0.5086
0.6185 1.8274 0.5125
0.5520 1.8469 0.5164
0.4848 1.8640 0.5203
0.4172 1.8787 0.5242
0.3490 1.8911 0.5281
0.2805 1.9011 0.5320
0.2117 1.9087 0.5359
0.1426 1.9138 0.5397
0.0735 1.9166 0.5435
0.0042 1.9169 0.5472
-0.0650 1.9148 0.5509
-0.1341 1.9103 0.5546
-0.2030 1.9034 0.5582
-0.2716 1.8941 0.5618
-0.3399 1.8824 0.5653
-0.4077 1.8683 0.5687
-0.4750 1.8518 0.5721
-0.5418 1.8330 0.5754
-0.6078 1.8119 0.5786
-0.6731 1.7884 0.5817
-0.7376 1.7627 0.5848
-0.8012 1.7347 0.5877
-2.5703 5.0720 1.7575
-2.7402 4.9518 1.7573
-2.9055 4.8272 1.7571
-3.0663 4.6982 1.7569
-3.2227 4.5654 1.7568
-3.3746 4.4287 1.7568
-3.5218 4.2882 1.7568
-3.6643 4.1438 1.7568
-3.8020 3.9958 1.7568
-3.9349 3.8443 1.7568
-4.0629 3.6893 1.7568
-4.1860 3.5310 1.7568
-4.3041 3.3695 1.7568
-4.4172 3.2049 1.7568
-4.5253 3.0374 1.7568
-4.6283 2.8669 1.7568
-4.7261 2.6937 1.7568
-4.8188 2.5179 1.7568
-4.9062 2.3395 1.7568
-4.9883 2.1586 1.7568
-5.0652 1.9753 1.7568
-5.1366 1.7899 1.7568
-5.2027 1.6022 1.7568
-5.2633 1.4126 1.7568
-5.3183 1.2210 1.7568
-5.3678 1.0275 1.7568
-5.4117 0.8323 1.7568
-5.4499 0.6355 1.7568
-5.4824 0.4372 1.7568
-5.5091 0.2375 1.7568
-5.5299 0.0365 1.7568
-5.5448 -0.1657 1.7568
-5.5538 -0.3690 1.7568
-5.5568 -0.5732 1.7568
-5.5537 -0.7782 1.7568
-5.5444 -0.9840 1.7568
-5.5289 -1.1903 1.7568
-5.5072 -1.3970 1.7568
-5.4791 -1.6041 1.7568
-5.4445 -1.8113 1.7568
-5.4036 -2.0184 1.7568
-5.3561 -2.2255 1.7568
-5.3020 -2.4322 1.7568
-5.2412 -2.6385 1.7568
-5.1738 -2.8441 1.7568
-5.0995 -3.0489 1.7568
-5.0184 -3.2527 1.7568
-4.9305 -3.4553 1.7568
-4.8356 -3.6564 1.7568
-4.7337 -3.8560 1.7568
-4.6247 -4.0538 1.7568
-4.5087 -4.2495 1.7568
-4.3856 -4.4429 1.7568
-4.2554 -4.6338 1.7568
-4.1179 -4.8220 1.7568
-3.9733 -5.0071 1.7568
-3.8216 -5.1889 1.7568
-3.6626 -5.3672 1.7568
-3.4965 -5.5416 1.7568
-3.3232 -5.7118 1.7568
-3.1428 -5.8776 1.7568
-2.9553 -6.0387 1.7568
-2.7609 -6.1946 1.7568
-2.5595 -6.3452 1.7568
-2.3513 -6.4900 1.7568
-2.1363 -6.6288 1.7568
-1.9148 -6.7611 1.7568
-1.6867 -6.8867 1.7568
-1.4524 -7.0051 1.7568
-1.2120 -7.1160 1.7568
-0.9089 -6.7948 1.6536
-0.6717 -6.8841 1.6536
-0.4294 -6.9654 1.6536
-0.1823 -7.0382 1.6536
0.0693 -7.1023 1.6536
0.3252 -7.1573 1.6536
0.5850 -7.2030 1.6536
0.8484 -7.2389 1.6536
1.1149 -7.2648 1.6536
3.6082 -2.1374 0.9244
3.6386 -1.9849 0.9128
3.6683 -1.8357 0.9028
3.6975 -1.6894 0.8945
3.7261 -1.5456 0.8878
3.7543 -1.4037 0.8826
3.7823 -1.2635 0.8788
3.8099 -1.1245 0.8765
3.8374 -0.9864 0.8756
3.8648 -0.8489 0.8761
3.8922 -0.7115 0.8781
3.9196 -0.5739 0.8814
3.9471 -0.4359 0.8861
3.9747 -0.2969 0.8923
4.0026 -0.1568 0.9000
4.0309 -0.0150 0.9092
4.0595 0.1287 0.9200
4.0886 0.2749 0.9324
4.1183 0.4239 0.9465
4.1486 0.5763 0.9625
4.1797 0.7324 0.9803
4.2117 0.8930 1.0002
4.2447 1.0586 1.0223
4.2788 1.2299 1.0467
4.3141 1.4075 1.0736
4.3510 1.5925 1.1033
4.3895 1.7858 1.1361
4.4298 1.9883 1.1721
4.4722 2.2014 1.2118
4.5171 2.4266 1.2556
4.5646 2.6654 1.3040
4.6153 2.9199 1.3575
4.6695 3.1923 1.4168
4.7279 3.4854 1.4827
4.7911 3.8025 1.5562
4.8598 4.1475 1.6385
4.7147 4.3234 1.6537
4.5208 4.4524 1.6537
4.3236 4.5734 1.6537
4.1237 4.6861 1.6537
3.9214 4.7907 1.6537
3.7169 4.8872 1.6537
3.5108 4.9756 1.6537
3.3032 5.0560 1.6537
3.0946 5.1285 1.6537
0.8630 1.5533 0.4946
0.8060 1.5816 0.4982
0.7480 1.6079 0.5018
0.6892 1.6321 0.5054
0.6296 1.6542 0.5090
0.5693 1.6742 0.5126
0.5083 1.6921 0.5162
0.4468 1.7078 0.5198
0.3847 1.7214 0.5233
0.3223 1.7327 0.5269
0.2595 1.7419 0.5305
0.1964 1.7489 0.5340
0.1331 1.7536 0.5375
0.0697 1.7561 0.5410
0.0062 1.7565 0.5444
-0.0573 1.7545 0.5478
-0.1206 1.7504 0.5512
-0.1838 1.7440 0.5545
-0.2467 1.7355 0.5577
-0.3093 1.7247 0.5610
-0.3715 1.7118 0.5641
-0.4332 1.6966 0.5672
-0.4943 1.6793 0.5702
-0.5549 1.6599 0.5731
-0.6148 1.6384 0.5760
-0.6738 1.6147 0.5788
-0.7321 1.5890 0.5815
-0.7894 1.5613 0.5842
-2.5326 4.5861 1.7569
-2.6868 4.4721 1.7568
-2.8370 4.3542 1.7568
-2.9829 4.2323 1.7568
-3.1246 4.1066 1.7568
-3.2620 3.9770 1.7568
-3.3949 3.8439 1.7568
-3.5235 3.7072 1.7568
-3.6475 3.5671 1.7568
-3.7669 3.4237 1.7568
-3.8818 3.2771 1.7568
-3.9921 3.1275 1.7568
-4.0976 2.9749 1.7568
-4.1984 2.8194 1.7568
-4.2944 2.6612 1.7568
-4.3855 2.5004 1.7568
-4.4718 2.3370 1.7568
-4.5531 2.1713 1.7568
-4.6295 2.0031 1.7568
-4.7008 1.8328 1.7568
-4.7671 1.6604 1.7568
-4.8282 1.4859 1.7568
-4.8842 1.3096 1.7568
-4.9349 1.1314 1.7568
-4.9804 0.9516 1.7568
-5.0205 0.7702 1.7568
-5.0553 0.5873 1.7568
-5.0847 0.4030 1.7568
-5.1086 0.2174 1.7568
-5.1270 0.0308 1.7568
-5.1398 -0.1569 1.7568
-5.1470 -0.3455 1.7568
-5.1485 -0.5349 1.7568
-5.1442 -0.7249 1.7568
-5.1342 -0.9155 1.7568
-5.1183 -1.1065 1.7568
-5.0966 -1.2978 1.7568
-5.0689 -1.4892 1.7568
-5.0352 -1.6806 1.7568
-4.9954 -1.8718 1.7568
-4.9495 -2.0627 1.7568
-4.8975 -2.2532 1.7568
-4.8393 -2.4430 1.7568
-4.7749 -2.6320 1.7568
-4.7041 -2.8201 1.7568
-4.6271 -3.0070 1.7568
-4.5436 -3.1926 1.7568
-4.4538 -3.3766 1.7568
-4.3575 -3.5590 1.7568
-4.2548 -3.7394 1.7568
-4.1456 -3.9177 1.7568
-4.0299 -4.0936 1.7568
-3.9077 -4.2669 1.7568
-3.7790 -4.4374 1.7568
-3.6437 -4.6049 1.7568
-3.5020 -4.7691 1.7568
-3.3539 -4.9297 1.7568
-3.1993 -5.0866 1.7568
-3.0383 -5.2393 1.7568
-2.8710 -5.3877 1.7568
-2.6973 -5.5315 1.7568
-2.5175 -5.6704 1.7568
-2.3316 -5.8040 1.7568
-2.1396 -5.9322 1.7568
-1.9418 -6.0546 1.7568
-1.7382 -6.1709 1.7568
-1.5290 -6.2807 1.7568
-1.3144 -6.3839 1.7568
-1.0945 -6.4801 1.7568
-0.8186 -6.1835 1.6537
-0.6023 -6.2599 1.6537
-0.3817 -6.3289 1.6537
-0.1571 -6.3901 1.6537
0.0712 -6.4433 1.6537
0.3031 -6.4882 1.6537
0.5381 -6.5245 1.6537
0.7760 -6.5520 1.6537
1.0163 -6.5705 1.6537
3.6084 -2.1367 1.0239
3.6387 -1.9844 1.0111
3.6684 -1.8355 1.0002
3.6975 -1.6894 0.9910
3.7261 -1.5457 0.9835
3.7543 -1.4041 0.9777
3.7822 -1.2641 0.9735
3.8098 -1.1253 0.9708
3.8373 -0.9874 0.9697
3.8646 -0.8500 0.9701
3.8919 -0.7128 0.9720
3.9193 -0.5755 0.9755
3.9467 -0.4376 0.9805
3.9743 -0.2989 0.9870
4.0022 -0.1589 0.9952
4.0304 -0.0174 1.0050
4.0590 0.1262 1.0165
4.0880 0.2721 1.0298
4.1177 0.4209 1.0449
4.1480 0.5729 1.0620
4.1790 0.7288 1.0811
4.2109 0.8891 1.1025
4.2438 1.0544 1.1262
4.2779 1.2253 1.1524
4.3132 1.4026 1.1814
4.3499 1.5872 1.2134
4.3883 1.7800 1.2486
4.4285 1.9820 1.2874
4.4709 2.1946 1.3301
4.5156 2.4191 1.3773
4.5630 2.6573 1.4294
4.6135 2.9110 1.4870
4.6676 3.1826 1.5508
4.7258 3.4747 1.6218
4.6558 3.6855 1.6537
4.4885 3.8206 1.6537
4.3174 3.9486 1.6537
4.1428 4.0692 1.6537
3.9650 4.1826 1.6537
3.7844 4.2886 1.6537
3.6013 4.3872 1.6537
3.4161 4.4786 1.6537
3.2290 4.5626 1.6537
3.0404 4.6393 1.6537
0.8495 1.4033 0.4928
0.7979 1.4313 0.4961
0.7453 1.4574 0.4994
0.6919 1.4817 0.5027
0.6377 1.5041 0.5060
0.5828 1.5245 0.5093
0.5272 1.5430 0.5126
0.4710 1.5595 0.5160
0.4142 1.5741 0.5193
0.3570 1.5866 0.5226
0.2994 1.5971 0.5259
0.2415 1.6056 0.5291
0.1833 1.6120 0.5324
0.1249 1.6164 0.5356
0.0664 1.6187 0.5388
0.0079 1.6190 0.5420
-0.0507 1.6173 0.5452
-0.1091 1.6134 0.5482
-0.1673 1.6076 0.5513
-0.2254 1.5996 0.5543
-0.2831 1.5897 0.5573
-0.3404 1.5777 0.5602
-0.3973 1.5637 0.5630
-0.4537 1.5478 0.5658
-0.5096 1.5298 0.5685
-0.5648 1.5099 0.5712
-0.6192 1.4880 0.5737
-0.6729 1.4643 0.5762
-0.7257 1.4387 0.5787
-0.7777 1.4112 0.5810
-2.4959 4.1622 1.7568
-2.6364 4.0534 1.7568
-2.7730 3.9407 1.7568
-2.9057 3.8244 1.7568
-3.0343 3.7044 1.7568
-3.1588 3.5809 1.7568
-3.2792 3.4540 1.7568
-3.3954 3.3239 1.7568
-3.5073 3.1906 1.7568
-3.6149 3.0542 1.7568
-3.7181 2.9149 1.7568
-3.8169 2.7728 1.7568
-3.9112 2.6280 1.7568
-4.0011 2.4805 1.7568
-4.0863 2.3306 1.7568
-4.1670 2.1782 1.7568
-4.2429 2.0235 1.7568
-4.3142 1.8666 1.7568
-4.3807 1.7076 1.7568
-4.4424 1.5466 1.7568
-4.4992 1.3838 1.7568
-4.5512 1.2191 1.7568
-4.5982 1.0528 1.7568
-4.6402 0.8849 1.7568
-4.6772 0.7156 1.7568
-4.7091 0.5449 1.7568
-4.7358 0.3730 1.7568
-4.7574 0.1999 1.7568
-4.7738 0.0258 1.7568
-4.7848 -0.1492 1.7568
-4.7906 -0.3249 1.7568
-4.7909 -0.5014 1.7568
-4.7859 -0.6783 1.7568
-4.7754 -0.8557 1.7568
-4.7594 -1.0333 1.7568
-4.7378 -1.2111 1.7568
-4.7107 -1.3889 1.7568
-4.6779 -1.5665 1.7568
-4.6394 -1.7439 1.7568
-4.5953 -1.9209 1.7568
-4.5453 -2.0972 1.7568
-4.4896 -2.2729 1.7568
-4.4280 -2.4476 1.7568
-4.3606 -2.6213 1.7568
-4.2873 -2.7937 1.7568
-4.2081 -2.9648 1.7568
-4.1230 -3.1342 1.7568
-4.0319 -3.3018 1.7568
-3.9348 -3.4675 1.7568
-3.8318 -3.6310 1.7568
-3.7229 -3.7921 1.7568
-3.6079 -3.9506 1.7568
-3.4870 -4.1063 1.7568
-3.3602 -4.2590 1.7568
-3.2275 -4.4084 1.7568
-3.0889 -4.5544 1.7568
-2.9445 -4.6966 1.7568
-2.7944 -4.8348 1.7568
-2.6385 -4.9688 1.7568
-2.4770 -5.0984 1.7568
-2.3099 -5.2232 1.7568
-2.1374 -5.3431 1.7568
-1.9596 -5.4577 1.7568
-1.7765 -5.5668 1.7568
-1.5884 -5.6701 1.7568
-1.3953 -5.7674 1.7568
-1.1976 -5.8584 1.7568
-0.9952 -5.9428 1.7568
-0.7422 -5.6671 1.6537
-0.5437 -5.7334 1.6537
-0.3416 -5.7928 1.6537
-0.1360 -5.8451 1.6537
0.0728 -5.8899 1.6537
0.2845 -5.9271 1.6537
0.4988 -5.9564 1.6537
0.7154 -5.9777 1.6537
0.9340 -5.9907 1.6537
3.6085 -2.1360 1.1245
3.6388 -1.9839 1.1105
3.6684 -1.8352 1.0986
3.6975 -1.6894 1.0885
3.7260 -1.5459 1.0803
3.7542 -1.4045 1.0739
3.7820 -1.2647 1.0692
3.8096 -1.1261 1.0662
3.8371 -0.9883 1.0648
3.8644 -0.8512 1.0651
3.8917 -0.7142 1.0670
3.9190 -0.5770 1.0706
3.9464 -0.4394 1.0758
3.9740 -0.3008 1.0827
4.0018 -0.1611 1.0914
4.0299 -0.0198 1.1018
4.0585 0.1236 1.1140
4.0875 0.2693 1.1282
4.1171 0.4178 1.1443
4.1473 0.5696 1.1626
4.1783 0.7252 1.1830
4.2101 0.8852 1.2059
4.2430 1.0501 1.2312
4.2769 1.2207 1.2593
4.3122 1.3976 1.2903
4.3488 1.5818 1.3246
4.3871 1.7741 1.3623
4.4273 1.9757 1.4038
4.4695 2.1877 1.4497
4.5141 2.4116 1.5002
4.5614 2.6491 1.5560
4.6117 2.9021 1.6177
4.5760 3.1118 1.6537
4.4328 3.2506 1.6537
4.2854 3.3832 1.6537
4.1339 3.5093 1.6537
3.9787 3.6290 1.6537
3.8201 3.7421 1.6537
3.6585 3.8485 1.6537
3.4941 3.9484 1.6537
3.3271 4.0415 1.6537
3.1581 4.1280 1.6537
2.9871 4.2079 1.6537
0.8362 1.2720 0.4913
0.7893 1.2996 0.4944
0.7415 1.3256 0.4974
0.6928 1.3499 0.5004
0.6434 1.3724 0.5035
0.5931 1.3932 0.5065
0.5422 1.4121 0.5096
0.4907 1.4293 0.5127
0.4386 1.4446 0.5158
0.3860 1.4581 0.5188
0.3330 1.4698 0.5219
0.2796 1.4795 0.5250
0.2259 1.4874 0.5280
0.1719 1.4934 0.5310
0.1178 1.4974 0.5340
0.0636 1.4996 0.5370
0.0093 1.4999 0.5399
-0.0449 1.4982 0.5428
-0.0991 1.4947 0.5457
-0.1531 1.4892 0.5485
-0.2069 1.4819 0.5513
-0.2604 1.4726 0.5541
-0.3135 1.4615 0.5567
-0.3663 1.4485 0.5594
-0.4185 1.4337 0.5620
-0.4703 1.4170 0.5645
-0.5214 1.3986 0.5669
-0.5719 1.3783 0.5693
-0.6216 1.3562 0.5716
-0.6706 1.3324 0.5739
-0.7187 1.3069 0.5761
-0.7659 1.2797 0.5782
-2.4592 3.7877 1.7568
-2.5875 3.6831 1.7568
-2.7121 3.5749 1.7568
-2.8329 3.4632 1.7568
-2.9499 3.3482 1.7568
-3.0630 3.2300 1.7568
-3.1722 3.1086 1.7568
-3.2774 2.9842 1.7568
-3.3784 2.8569 1.7568
-3.4754 2.7267 1.7568
-3.5682 2.5938 1.7568
-3.6568 2.4584 1.7568
-3.7412 2.3204 1.7568
-3.8212 2.1801 1.7568
-3.8968 2.0374 1.7568
-3.9680 1.8925 1.7568
-4.0348 1.7456 1.7568
-4.0970 1.5967 1.7568
-4.1547 1.4458 1.7568
-4.2077 1.2932 1.7568
-4.2562 1.1390 1.7568
-4.2999 0.9832 1.7568
-4.3389 0.8259 1.7568
-4.3731 0.6672 1.7568
-4.4025 0.5074 1.7568
-4.4270 0.3464 1.7568
-4.4466 0.1843 1.7568
-4.4613 0.0214 1.7568
-4.4709 -0.1423 1.7568
-4.4755 -0.3068 1.7568
-4.4750 -0.4717 1.7568
-4.4694 -0.6371 1.7568
-4.4586 -0.8028 1.7568
-4.4426 -0.9687 1.7568
-4.4214 -1.1346 1.7568
-4.3949 -1.3004 1.7568
-4.3631 -1.4661 1.7568
-4.3260 -1.6313 1.7568
-4.2835 -1.7960 1.7568
-4.2355 -1.9601 1.7568
-4.1822 -2.1234 1.7568
-4.1234 -2.2857 1.7568
-4.0591 -2.4468 1.7568
-3.9893 -2.6067 1.7568
-3.9141 -2.7651 1.7568
-3.8333 -2.9219 1.7568
-3.7470 -3.0769 1.7568
-3.6552 -3.2298 1.7568
-3.5578 -3.3806 1.7568
-3.4550 -3.5290 1.7568
-3.3466 -3.6749 1.7568
-3.2328 -3.8179 1.7568
-3.1135 -3.9580 1.7568
-2.9889 -4.0949 1.7568
-2.8589 -4.2284 1.7568
-2.7235 -4.3582 1.7568
-2.5830 -4.4842 1.7568
-2.4372 -4.6062 1.7568
-2.2864 -4.7238 1.7568
-2.1306 -4.8370 1.7568
-1.9699 -4.9454 1.7568
-1.8044 -5.0487 1.7568
-1.6342 -5.1469 1.7568
-1.4596 -5.2396 1.7568
-1.2806 -5.3265 1.7568
-1.0974 -5.4076 1.7568
-0.9101 -5.4825 1.7568
-0.6769 -5.2252 1.6537
-0.4937 -5.2835 1.6537
-0.3073 -5.3352 1.6537
-0.1179 -5.3803 1.6537
0.0741 -5.4186 1.6537
0.2687 -5.4498 1.6537
0.4654 -5.4738 1.6537
0.6640 -5.4903 1.6537
0.8643 -5.4993 1.6537
3.6087 -2.1353 1.2263
3.6389 -1.9835 1.2111
3.6685 -1.8350 1.1982
3.6975 -1.6894 1.1873
3.7260 -1.5461 1.1783
3.7541 -1.4049 1.1713
3.7819 -1.2652 1.1661
3.8095 -1.1268 1.1627
3.8369 -0.9893 1.1611
3.8641 -0.8523 1.1613
3.8914 -0.7155 1.1632
3.9187 -0.5786 1.1669
3.9460 -0.4411 1.1724
3.9736 -0.3028 1.1796
4.0014 -0.1633 1.1888
4.0294 -0.0221 1.1998
4.0579 0.1209 1.2128
4.0869 0.2664 1.2278
4.1164 0.4146 1.2450
4.1466 0.5662 1.2644
4.1775 0.7215 1.2862
4.2093 0.8812 1.3105
4.2421 1.0458 1.3375
4.2760 1.2160 1.3674
4.3112 1.3926 1.4005
4.3478 1.5763 1.4371
4.3860 1.7682 1.4773
4.4260 1.9693 1.5217
4.4681 2.1808 1.5706
4.5126 2.4041 1.6245
4.4777 2.5933 1.6537
4.3565 2.7340 1.6537
4.2307 2.8692 1.6537
4.1005 2.9988 1.6537
3.9661 3.1227 1.6537
3.8279 3.2408 1.6537
3.6862 3.3530 1.6537
3.5412 3.4593 1.6537
3.3932 3.5595 1.6537
3.2425 3.6537 1.6537
3.0894 3.7418 1.6537
2.9341 3.8238 1.6537
0.8230 1.1557 0.4901
0.7803 1.1830 0.4929
0.7366 1.2088 0.4957
0.6921 1.2330 0.4985
0.6469 1.2557 0.5013
0.6008 1.2767 0.5042
0.5541 1.2960 0.5070
0.5067 1.3137 0.5099
0.4587 1.3297 0.5127
0.4102 1.3440 0.5156
0.3613 1.3566 0.5185
0.3119 1.3674 0.5213
0.2622 1.3765 0.5242
0.2122 1.3839 0.5270
0.1620 1.3895 0.5298
0.1116 1.3932 0.5326
0.0611 1.3953 0.5354
0.0106 1.3955 0.5381
-0.0399 1.3940 0.5408
-0.0903 1.3907 0.5435
-0.1406 1.3856 0.5461
-0.1907 1.3787 0.5487
-0.2405 1.3701 0.5513
-0.2900 1.3597 0.5538
-0.3391 1.3476 0.5562
-0.3877 1.3338 0.5586
-0.4359 1.3183 0.5610
-0.4835 1.3010 0.5632
-0.5304 1.2821 0.5655
-0.5767 1.2616 0.5676
-0.6223 1.2394 0.5697
-0.6670 1.2156 0.5717
-0.7109 1.1902 0.5737
-0.7540 1.1633 0.5755
-0.7960 1.1349 0.5773
-2.5396 3.3525 1.7568
-2.6534 3.2483 1.7568
-2.7636 3.1407 1.7568
-2.8702 3.0301 1.7568
-2.9731 2.9165 1.7568
-3.0722 2.8000 1.7568
-3.1674 2.6807 1.7568
-3.2588 2.5586 1.7568
-3.3462 2.4340 1.7568
-3.4296 2.3069 1.7568
-3.5090 2.1774 1.7568
-3.5843 2.0456 1.7568
-3.6555 1.9116 1.7568
-3.7224 1.7755 1.7568
-3.7851 1.6375 1.7568
-3.8436 1.4975 1.7568
-3.8977 1.3558 1.7568
-3.9474 1.2124 1.7568
-3.9927 1.0674 1.7568
-4.0336 0.9210 1.7568
-4.0699 0.7732 1.7568
-4.1017 0.6241 1.7568
-4.1289 0.4739 1.7568
-4.1515 0.3226 1.7568
-4.1694 0.1704 1.7568
-4.1825 0.0174 1.7568
-4.1910 -0.1363 1.7568
-4.1947 -0.2906 1.7568
-4.1935 -0.4453 1.7568
-4.1875 -0.6004 1.7568
-4.1766 -0.7557 1.7568
-4.1607 -0.9112 1.7568
-4.1399 -1.0666 1.7568
-4.1142 -1.2218 1.7568
-4.0834 -1.3768 1.7568
-4.0476 -1.5313 1.7568
-4.0067 -1.6852 1.7568
-3.9607 -1.8384 1.7568
-3.9096 -1.9908 1.7568
-3.8535 -2.1422 1.7568
-3.7921 -2.2923 1.7568
-3.7257 -2.4412 1.7568
-3.6540 -2.5886 1.7568
-3.5773 -2.7343 1.7568
-3.4954 -2.8782 1.7568
-3.4083 -3.0201 1.7568
-3.3162 -3.1598 1.7568
-3.2189 -3.2972 1.7568
-3.1166 -3.4321 1.7568
-3.0091 -3.5642 1.7568
-2.8967 -3.6934 1.7568
-2.7793 -3.8195 1.7568
-2.6570 -3.9423 1.7568
-2.5298 -4.0616 1.7568
-2.3979 -4.1772 1.7568
-2.2612 -4.2889 1.7568
-2.1199 -4.3964 1.7568
-1.9740 -4.4997 1.7568
-1.8237 -4.5983 1.7568
-1.6691 -4.6923 1.7568
-1.5104 -4.7812 1.7568
-1.3476 -4.8650 1.7568
-1.1808 -4.9435 1.7568
-1.0104 -5.0163 1.7568
-0.8364 -5.0833 1.7568
-0.6203 -4.8424 1.6537
-0.4504 -4.8940 1.6537
-0.2777 -4.9396 1.6537
-0.1024 -4.9790 1.6537
0.0753 -5.0120 1.6537
0.2550 -5.0384 1.6537
0.4366 -5.0582 1.6537
0.6198 -5.0711 1.6537
0.8043 -5.0771 1.6537
3.6088 -2.1346 1.3294
3.6390 -1.9830 1.3131
3.6685 -1.8348 1.2991
3.6975 -1.6893 1.2873
3.7259 -1.5463 1.2776
3.7540 -1.4053 1.2699
3.7818 -1.2658 1.2643
3.8093 -1.1276 1.2605
3.8367 -0.9903 1.2587
3.8639 -0.8535 1.2587
3.8911 -0.7169 1.2606
3.9183 -0.5802 1.2645
3.9457 -0.4429 1.2702
3.9732 -0.3048 1.2778
4.0009 -0.1655 1.2874
4.0290 -0.0246 1.2991
4.0574 0.1182 1.3128
4.0863 0.2635 1.3287
4.1158 0.4115 1.3469
4.1459 0.5628 1.3675
4.1768 0.7178 1.3906
4.2085 0.8772 1.4165
4.2412 1.0414 1.4452
4.2751 1.2113 1.4770
4.3101 1.3875 1.5122
4.3467 1.5708 1.5510
4.3848 1.7622 1.5938
4.4247 1.9628 1.6410
4.3632 2.1233 1.6537
4.2621 2.2641 1.6537
4.1561 2.4003 1.6537
4.0454 2.5317 1.6537
3.9303 2.6581 1.6537
3.8110 2.7795 1.6537
3.6879 2.8957 1.6537
3.5610 3.0065 1.6537
3.4308 3.1121 1.6537
3.2975 3.2122 1.6537
3.1612 3.3067 1.6537
3.0224 3.3957 1.6537
0.8476 1.0236 0.4865
0.8096 1.0519 0.4891
0.7707 1.0789 0.4916
0.7308 1.1044 0.4942
0.6901 1.1286 0.4968
0.6485 1.1512 0.4995
0.6062 1.1724 0.5021
0.5632 1.1920 0.5048
0.5195 1.2102 0.5074
0.4752 1.2267 0.5101
0.4304 1.2417 0.5128
0.3851 1.2551 0.5155
0.3394 1.2668 0.5181
0.2932 1.2770 0.5208
0.2468 1.2855 0.5235
0.2001 1.2923 0.5261
0.1532 1.2976 0.5287
0.1061 1.3011 0.5313
0.0589 1.3030 0.5339
0.0117 1.3032 0.5365
-0.0355 1.3018 0.5390
-0.0826 1.2987 0.5415
-0.1296 1.2940 0.5440
-0.1764 1.2875 0.5464
-0.2229 1.2795 0.5488
-0.2691 1.2698 0.5511
-0.3150 1.2584 0.5534
-0.3605 1.2455 0.5556
-0.4055 1.2310 0.5578
-0.4499 1.2148 0.5600
-0.4938 1.1971 0.5620
-0.5370 1.1779 0.5641
-0.5796 1.1572 0.5660
-0.6214 1.1349 0.5679
-0.6624 1.1112 0.5697
-0.7026 1.0860 0.5715
-0.7418 1.0594 0.5731
-0.7801 1.0315 0.5747
-2.4922 3.0552 1.7568
-2.5963 2.9544 1.7568
-2.6970 2.8506 1.7568
-2.7941 2.7439 1.7568
-2.8877 2.6344 1.7568
-2.9777 2.5223 1.7568
-3.0640 2.4075 1.7568
-3.1465 2.2903 1.7568
-3.2253 2.1707 1.7568
-3.3002 2.0488 1.7568
-3.3713 1.9247 1.7568
-3.4384 1.7985 1.7568
-3.5015 1.6703 1.7568
-3.5606 1.5402 1.7568
-3.6156 1.4084 1.7568
-3.6665 1.2748 1.7568
-3.7132 1.1397 1.7568
-3.7558 1.0031 1.7568
-3.7940 0.8651 1.7568
-3.8280 0.7258 1.7568
-3.8577 0.5853 1.7568
-3.8829 0.4438 1.7568
-3.9038 0.3013 1.7568
-3.9203 0.1580 1.7568
-3.9322 0.0139 1.7568
-3.9396 -0.1308 1.7568
-3.9425 -0.2760 1.7568
-3.9409 -0.4216 1.7568
-3.9345 -0.5675 1.7568
-3.9236 -0.7135 1.7568
-3.9080 -0.8596 1.7568
-3.8877 -1.0056 1.7568
-3.8627 -1.1514 1.7568
-3.8329 -1.2968 1.7568
-3.7984 -1.4418 1.7568
-3.7591 -1.5861 1.7568
-3.7150 -1.7297 1.7568
-3.6661 -1.8723 1.7568
-3.6124 -2.0140 1.7568
-3.5538 -2.1544 1.7568
-3.4904 -2.2935 1.7568
-3.4222 -2.4312 1.7568
-3.3492 -2.5671 1.7568
-3.2714 -2.7013 1.7568
-3.1887 -2.8335 1.7568
-3.1013 -2.9635 1.7568
-3.0092 -3.0913 1.7568
-2.9123 -3.2165 1.7568
-2.8107 -3.3391 1.7568
-2.7045 -3.4588 1.7568
-2.5936 -3.5756 1.7568
-2.4783 -3.6891 1.7568
-2.3585 -3.7993 1.7568
-2.2342 -3.9059 1.7568
-2.1057 -4.0087 1.7568
-1.9729 -4.1075 1.7568
-1.8359 -4.2023 1.7568
-1.6950 -4.2927 1.7568
-1.5501 -4.3786 1.7568
-1.4014 -4.4597 1.7568
-1.2491 -4.5360 1.7568
-1.0933 -4.6071 1.7568
-0.9341 -4.6730 1.7568
-0.7717 -4.7334 1.7568
-0.5708 -4.5073 1.6537
-0.4125 -4.5534 1.6537
-0.2518 -4.5938 1.6537
-0.0887 -4.6285 1.6537
0.0763 -4.6572 1.6537
0.2431 -4.6799 1.6537
0.4116 -4.6963 1.6537
0.5814 -4.7064 1.6537
0.7522 -4.7101 1.6537
3.6089 -2.1339 1.4340
3.6391 -1.9825 1.4165
3.6686 -1.8345 1.4015
3.6975 -1.6893 1.3888
3.7259 -1.5465 1.3783
3.7539 -1.4057 1.3700
3.7817 -1.2664 1.3638
3.8092 -1.1284 1.3597
3.8365 -0.9913 1.3577
3.8637 -0.8547 1.3576
3.8908 -0.7183 1.3595
3.9180 -0.5818 1.3634
3.9453 -0.4447 1.3694
3.9728 -0.3068 1.3774
4.0005 -0.1677 1.3875
4.0285 -0.0271 1.3998
4.0569 0.1155 1.4143
4.0857 0.2605 1.4311
4.1152 0.4083 1.4503
4.1452 0.5593 1.4721
4.1760 0.7140 1.4966
4.2077 0.8731 1.5240
4.2404 1.0370 1.5544
4.2741 1.2065 1.5881
4.3091 1.3823 1.6254
4.3122 1.5532 1.6537
4.2347 1.6965 1.6537
4.1518 1.8361 1.6537
4.0640 1.9718 1.6537
3.9713 2.1035 1.6537
3.8739 2.2310 1.6537
3.7722 2.3541 1.6537
3.6663 2.4726 1.6537
3.5565 2.5866 1.6537
3.4430 2.6958 1.6537
3.3260 2.8002 1.6537
3.2057 2.8997 1.6537
3.0824 2.9941 1.6537
2.9564 3.0835 1.6537
0.8308 0.9307 0.4859
0.7962 0.9586 0.4882
0.7606 0.9852 0.4906
0.7241 1.0105 0.4930
0.6867 1.0344 0.4954
0.6486 1.0571 0.4979
0.6096 1.0783 0.5003
0.5700 1.0982 0.5028
0.5297 1.1166 0.5053
0.4887 1.1336 0.5078
0.4473 1.1491 0.5103
0.4052 1.1632 0.5128
0.3628 1.1758 0.5153
0.3199 1.1868 0.5178
0.2767 1.1963 0.5203
0.2331 1.2043 0.5228
0.1893 1.2108 0.5253
0.1453 1.2157 0.5278
0.1012 1.2190 0.5302
0.0570 1.2208 0.5326
0.0127 1.2210 0.5350
-0.0315 1.2197 0.5374
-0.0757 1.2167 0.5398
-0.1197 1.2123 0.5421
-0.1636 1.2062 0.5443
-0.2072 1.1987 0.5466
-0.2506 1.1896 0.5488
-0.2936 1.1789 0.5509
-0.3362 1.1668 0.5530
-0.3784 1.1531 0.5551
-0.4200 1.1380 0.5571
-0.4612 1.1214 0.5590
-0.5017 1.1034 0.5609
-0.5415 1.0839 0.5627
-0.5807 1.0630 0.5645
-0.6191 1.0408 0.5662
-0.6568 1.0171 0.5678
-0.6936 0.9922 0.5694
-0.7295 0.9659 0.5709
-0.7644 0.9384 0.5723
-0.7984 0.9097 0.5737
-2.5403 2.6882 1.7568
-2.6323 2.5878 1.7568
-2.7209 2.4847 1.7568
-2.8060 2.3790 1.7568
-2.8877 2.2708 1.7568
-2.9659 2.1602 1.7568
-3.0404 2.0474 1.7568
-3.1113 1.9323 1.7568
-3.1784 1.8152 1.7568
-3.2419 1.6961 1.7568
-3.3015 1.5750 1.7568
-3.3573 1.4522 1.7568
-3.4093 1.3277 1.7568
-3.4573 1.2015 1.7568
-3.5013 1.0738 1.7568
-3.5413 0.9448 1.7568
-3.5772 0.8144 1.7568
-3.6091 0.6829 1.7568
-3.6369 0.5502 1.7568
-3.6605 0.4166 1.7568
-3.6798 0.2820 1.7568
-3.6950 0.1467 1.7568
-3.7059 0.0107 1.7568
-3.7125 -0.1258 1.7568
-3.7147 -0.2629 1.7568
-3.7126 -0.4002 1.7568
-3.7062 -0.5378 1.7568
-3.6953 -0.6754 1.7568
-3.6799 -0.8131 1.7568
-3.6602 -0.9506 1.7568
-3.6359 -1.0879 1.7568
-3.6072 -1.2247 1.7568
-3.5739 -1.3611 1.7568
-3.5361 -1.4968 1.7568
-3.4938 -1.6317 1.7568
-3.4469 -1.7657 1.7568
-3.3955 -1.8987 1.7568
-3.3396 -2.0304 1.7568
-3.2791 -2.1609 1.7568
-3.2140 -2.2898 1.7568
-3.1445 -2.4171 1.7568
-3.0704 -2.5426 1.7568
-2.9918 -2.6662 1.7568
-2.9088 -2.7876 1.7568
-2.8213 -2.9068 1.7568
-2.7295 -3.0236 1.7568
-2.6332 -3.1378 1.7568
-2.5327 -3.2492 1.7568
-2.4278 -3.3577 1.7568
-2.3188 -3.4631 1.7568
-2.2056 -3.5653 1.7568
-2.0884 -3.6640 1.7568
-1.9672 -3.7591 1.7568
-1.8421 -3.8505 1.7568
-1.7132 -3.9378 1.7568
-1.5806 -4.0211 1.7568
-1.4444 -4.1000 1.7568
-1.3048 -4.1745 1.7568
-1.1618 -4.2443 1.7568
-1.0157 -4.3092 1.7568
-0.8666 -4.3692 1.7568
-0.7146 -4.4241 1.7568
-0.5270 -4.2111 1.6537
-0.3791 -4.2526 1.6537
-0.2289 -4.2888 1.6537
-0.0767 -4.3196 1.6537
0.0772 -4.3448 1.6537
0.2327 -4.3643 1.6537
0.3896 -4.3780 1.6537
0.5476 -4.3859 1.6537
0.7065 -4.3877 1.6537
3.6091 -2.1331 1.5402
3.6392 -1.9821 1.5215
3.6686 -1.8343 1.5054
3.6975 -1.6893 1.4918
3.7259 -1.5467 1.4806
3.7539 -1.4061 1.4717
3.7816 -1.2671 1.4650
3.8090 -1.1293 1.4605
3.8363 -0.9923 1.4582
3.8634 -0.8560 1.4580
3.8905 -0.7198 1.4599
3.9177 -0.5834 1.4640
3.9449 -0.4466 1.4702
3.9724 -0.3089 1.4786
4.0000 -0.1700 1.4892
4.0280 -0.0296 1.5021
4.0563 0.1128 1.5173
4.0851 0.2575 1.5351
4.1145 0.4050 1.5553
4.1445 0.5557 1.5783
4.1753 0.7102 1.6042
4.2069 0.8689 1.6331
4.2102 1.0254 1.6537
4.1548 1.1684 1.6537
4.0939 1.3086 1.6537
4.0277 1.4458 1.6537
3.9564 1.5799 1.6537
3.8803 1.7106 1.6537
3.7994 1.8379 1.6537
3.7139 1.9614 1.6537
3.6241 2.0810 1.6537
3.5302 2.1967 1.6537
3.4323 2.3082 1.6537
3.3307 2.4155 1.6537
3.2256 2.5185 1.6537
3.1171 2.6169 1.6537
3.0056 2.7109 1.6537
0.8448 0.8182 0.4832
0.8142 0.8467 0.4854
0.7826 0.8740 0.4875
0.7500 0.9002 0.4897
0.7166 0.9253 0.4920
0.6823 0.9490 0.4942
0.6472 0.9716 0.4965
0.6113 0.9929 0.4988
0.5747 1.0129 0.5011
0.5375 1.0316 0.5035
0.4996 1.0489 0.5058
0.4611 1.0649 0.5082
0.4221 1.0795 0.5105
0.3826 1.0928 0.5129
0.3427 1.1046 0.5152
0.3024 1.1150 0.5176
0.2617 1.1239 0.5199
0.2208 1.1315 0.5223
0.1796 1.1375 0.5246
0.1383 1.1421 0.5269
0.0968 1.1453 0.5292
0.0552 1.1470 0.5315
0.0136 1.1472 0.5337
-0.0280 1.1459 0.5360
-0.0695 1.1432 0.5382
-0.1109 1.1389 0.5403
-0.1521 1.1333 0.5425
-0.1932 1.1262 0.5446
-0.2339 1.1176 0.5466
-0.2743 1.1076 0.5487
-0.3144 1.0961 0.5506
-0.3540 1.0833 0.5526
-0.3932 1.0691 0.5544
-0.4318 1.0534 0.5563
-0.4699 1.0365 0.5580
-0.5074 1.0181 0.5598
-0.5442 0.9985 0.5614
-0.5803 0.9775 0.5630
-0.6157 0.9553 0.5646
-0.6502 0.9318 0.5660
-0.6840 0.9072 0.5674
-0.7168 0.8813 0.5688
-0.7487 0.8543 0.5701
-0.7797 0.8261 0.5713
-0.8097 0.7969 0.5724
-2.5691 2.3484 1.7568
-2.6499 2.2486 1.7568
-2.7273 2.1464 1.7568
-2.8014 2.0419 1.7568
-2.8720 1.9352 1.7568
-2.9392 1.8264 1.7568
-3.0029 1.7155 1.7568
-3.0630 1.6028 1.7568
-3.1195 1.4883 1.7568
-3.1723 1.3721 1.7568
-3.2214 1.2542 1.7568
-3.2668 1.1348 1.7568
-3.3083 1.0139 1.7568
-3.3461 0.8918 1.7568
-3.3800 0.7684 1.7568
-3.4100 0.6439 1.7568
-3.4360 0.5183 1.7568
-3.4581 0.3918 1.7568
-3.4761 0.2645 1.7568
-3.4901 0.1364 1.7568
-3.5001 0.0078 1.7568
-3.5060 -0.1213 1.7568
-3.5077 -0.2509 1.7568
-3.5053 -0.3807 1.7568
-3.4987 -0.5108 1.7568
-3.4879 -0.6408 1.7568
-3.4729 -0.7708 1.7568
-3.4536 -0.9007 1.7568
-3.4301 -1.0302 1.7568
-3.4024 -1.1594 1.7568
-3.3703 -1.2880 1.7568
-3.3340 -1.4159 1.7568
-3.2934 -1.5430 1.7568
-3.2485 -1.6692 1.7568
-3.1992 -1.7943 1.7568
-3.1457 -1.9183 1.7568
-3.0879 -2.0409 1.7568
-3.0259 -2.1620 1.7568
-2.9595 -2.2816 1.7568
-2.8890 -2.3993 1.7568
-2.8142 -2.5152 1.7568
-2.7352 -2.6290 1.7568
-2.6520 -2.7406 1.7568
-2.5648 -2.8498 1.7568
-2.4735 -2.9565 1.7568
-2.3781 -3.0606 1.7568
-2.2787 -3.1618 1.7568
-2.1755 -3.2601 1.7568
-2.0684 -3.3552 1.7568
-1.9575 -3.4470 1.7568
-1.8430 -3.5353 1.7568
-1.7248 -3.6200 1.7568
