ply
format ascii 1.0
element vertex 2112
property float32 x
property float32 y
property float32 z
end_header
6.0237 -7.7138 -0.3737
6.0075 -7.1469 -0.3568
5.9927 -6.6293 -0.3419
5.9791 -6.1536 -0.3286
5.9665 -5.7139 -0.3167
2.0828 -1.8556 -0.1071
5.9439 -4.9233 -0.2965
5.9336 -4.5649 -0.2880
4.9270 -3.5156 -0.2331
4.9194 -3.2494 -0.2273
4.9122 -2.9964 -0.2221
4.9053 -2.7549 -0.2175
4.8987 -2.5237 -0.2133
5.1461 -2.4208 -0.2204
5.6346 -2.4068 -0.2378
6.2058 -2.3905 -0.2584
6.8847 -2.3711 -0.2833
7.7072 -2.3476 -0.3140
4.8835 6.2850 -0.1443
4.8701 6.7563 -0.1513
4.8553 7.2743 -0.1592
4.8389 7.8476 -0.1681
4.8206 8.4876 -0.1782
4.8000 9.2083 -0.1899
4.7766 10.0285 -0.2034
4.7496 10.9729 -0.2193
4.7181 12.0752 -0.2380
4.6807 13.3821 -0.2606
4.6356 14.9610 -0.2882
4.5798 16.9125 -0.3226
4.8504 20.8617 -0.3947
5.2493 26.9409 -0.5061
4.6723 29.6255 -0.5533
4.4991 37.1835 -0.6913
1.5538 18.3651 -0.3403
-10.9849 44.9485 -0.8525
-10.6495 37.6432 -0.7202
-10.8945 33.8113 -0.6534
-10.7978 29.7913 -0.5823
-10.7041 26.5120 -0.5248
-10.7088 23.9967 -0.4818
-11.7479 23.9670 -0.4887
-9.2361 17.2426 -0.3576
-6.9443 11.9127 -0.2517
-10.0620 15.9150 -0.3432
-10.5670 15.4526 -0.3406
-9.6648 13.0952 -0.2956
-9.9617 12.5271 -0.2902
-10.3007 12.0370 -0.2866
-10.2571 11.1473 -0.2735
-10.2172 10.3313 -0.2618
-10.1804 9.5784 -0.2513
-10.1462 8.8797 -0.2418
-9.6546 7.8541 -0.2227
-9.6382 7.2801 -0.2156
-9.8164 6.8740 -0.2133
-10.2899 6.6668 -0.2177
-10.5404 6.3022 -0.2174
-10.7920 5.9360 -0.2175
-11.0454 5.5672 -0.2178
-11.3013 5.1947 -0.2183
-11.2623 4.6933 -0.2135
-11.5607 4.3361 -0.2155
-12.0096 4.0175 -0.2203
-12.3172 3.6329 -0.2227
-19.4345 4.9791 -0.3468
-13.3562 1.4314 -0.2292
-47.9444 -12.4124 -0.8172
-41.0560 -12.2220 -0.7045
-35.7848 -12.0714 -0.6190
-31.6246 -11.9525 -0.5524
-28.2496 -11.8561 -0.4989
-25.4503 -11.7761 -0.4552
-23.0852 -11.7085 -0.4189
-21.0556 -11.6505 -0.3882
-19.2906 -11.6001 -0.3620
-17.7379 -11.5557 -0.3394
-16.3560 -11.5150 -0.3198
-15.1168 -11.4782 -0.3026
-13.9994 -11.4472 -0.2875
-12.9869 -11.4236 -0.2742
-12.0630 -11.4070 -0.2625
-11.2119 -11.3942 -0.2521
-10.2741 -11.2222 -0.2394
-10.2508 -12.0397 -0.2482
-10.2255 -12.9252 -0.2581
-10.1979 -13.8902 -0.2692
-10.1677 -14.9488 -0.2819
-10.1342 -16.1184 -0.2962
-10.0970 -17.4211 -0.3127
-10.0552 -18.8850 -0.3317
-10.0077 -20.5465 -0.3537
-9.9532 -22.4538 -0.3795
-17.8954 -44.6437 -0.7421
-16.0361 -44.5900 -0.7302
-9.6859 -30.3186 -0.4899
-12.4568 -44.4534 -0.7096
-9.4912 -39.2594 -0.6204
4.5930 -23.2669 -0.3639
5.3874 -22.9155 -0.3615
4.3637 -15.9587 -0.2543
4.9822 -15.9410 -0.2570
5.6134 -15.9229 -0.2601
6.2593 -15.9045 -0.2636
6.3413 -14.5524 -0.2452
6.9665 -14.5345 -0.2493
5.1058 -9.7368 -0.1703
5.5543 -9.7240 -0.1738
6.0204 -9.7107 -0.1777
6.0611 -9.0331 -0.1695
6.0413 -8.3382 -0.1608
6.0234 -7.7130 -0.1531
6.0072 -7.1462 -0.1464
5.9924 -6.6287 -0.1405
5.9788 -6.1531 -0.1352
5.9662 -5.7134 -0.1305
2.0826 -1.8553 -0.0442
5.9436 -4.9229 -0.1226
5.9334 -4.5644 -0.1192
4.9270 -3.5153 -0.0967
4.9194 -3.2492 -0.0944
4.9122 -2.9962 -0.0924
4.9053 -2.7547 -0.0907
4.8987 -2.5235 -0.0891
5.1465 -2.4208 -0.0922
5.6350 -2.4068 -0.0997
6.2064 -2.3905 -0.1086
6.8854 -2.3711 -0.1192
7.7081 -2.3476 -0.1324
4.8835 6.2853 0.0349
4.8701 6.7566 0.0363
4.8553 7.2746 0.0378
4.8389 7.8480 0.0396
4.8206 8.4879 0.0416
4.8000 9.2086 0.0440
4.7766 10.0289 0.0467
4.7496 10.9733 0.0500
4.7181 12.0756 0.0540
4.6807 13.3826 0.0587
4.6356 14.9616 0.0646
4.5798 16.9130 0.0720
4.5089 19.3938 0.0815
5.1768 26.5700 0.1105
4.2865 27.1801 0.1121
4.0958 33.8516 0.1386
3.7848 44.7371 0.1823
-10.9845 44.9485 0.1896
-10.6491 37.6432 0.1609
-10.8941 33.8112 0.1466
-10.7979 29.7926 0.1314
-10.7042 26.5131 0.1191
-10.7084 23.9967 0.1101
-11.7474 23.9670 0.1124
-9.2361 17.2433 0.0829
-9.5994 16.4682 0.0813
-10.0617 15.9153 0.0809
-10.5666 15.4526 0.0810
-9.6648 13.0958 0.0710
-9.9613 12.5271 0.0703
-10.3007 12.0376 0.0702
-10.2572 11.1479 0.0677
-10.2172 10.3319 0.0655
-10.1804 9.5789 0.0636
-10.1462 8.8802 0.0619
-9.6546 7.8545 0.0576
-9.6382 7.2806 0.0565
-9.8162 6.8743 0.0566
-10.2897 6.6671 0.0585
-10.5402 6.3025 0.0592
-10.7918 5.9363 0.0599
-11.0452 5.5675 0.0608
-11.3011 5.1950 0.0618
-11.2620 4.6936 0.0612
-11.5604 4.3364 0.0626
-12.0096 4.0180 0.0649
-12.3158 3.6329 0.0665
-19.4345 4.9798 0.1050
-31.2071 5.6407 0.1695
-13.3548 1.4318 0.0733
-20.6514 1.4644 0.1142
-19.3983 -1.4234 0.1117
-19.3767 -2.1255 0.1130
-34.3668 -6.2990 0.2065
-47.9519 -12.4125 0.2983
-41.0616 -12.2222 0.2603
-35.7892 -12.0715 0.2315
-31.6280 -11.9526 0.2091
-28.2524 -11.8562 0.1911
-25.4526 -11.7762 0.1764
-23.0871 -11.7086 0.1641
-21.0572 -11.6506 0.1538
-19.2920 -11.6002 0.1450
-17.7391 -11.5558 0.1373
-16.3571 -11.5150 0.1307
-15.1177 -11.4782 0.1249
-14.0002 -11.4472 0.1198
-12.9876 -11.4236 0.1153
-12.0636 -11.4070 0.1114
-11.2125 -11.3942 0.1079
-10.2742 -11.2216 0.1033
-10.2508 -12.0391 0.1080
-10.2255 -12.9246 0.1131
-10.1979 -13.8896 0.1189
-10.1677 -14.9482 0.1253
-10.1343 -16.1178 0.1326
-10.0970 -17.4204 0.1408
-10.0552 -18.8842 0.1502
-10.0077 -20.5457 0.1610
-9.9532 -22.4530 0.1736
-17.8961 -44.6438 0.3411
-16.0367 -44.5901 0.3370
-9.6862 -30.3184 0.2270
-12.4579 -44.4555 0.3300
-9.4916 -39.2595 0.2892
4.5931 -23.2669 0.1702
5.3866 -22.9113 0.1687
4.3639 -15.9586 0.1183
4.9824 -15.9410 0.1192
5.6136 -15.9229 0.1202
6.2596 -15.9045 0.1213
6.3416 -14.5524 0.1123
6.9667 -14.5345 0.1137
5.1060 -9.7368 0.0773
5.5546 -9.7240 0.0784
6.0207 -9.7107 0.0797
6.0608 -9.0322 0.0755
6.0410 -8.3374 0.0711
6.0231 -7.7123 0.0673
6.0069 -7.1456 0.0638
5.9921 -6.6281 0.0608
5.9785 -6.1525 0.0580
5.9660 -5.7128 0.0555
2.0824 -1.8550 0.0186
5.9434 -4.9224 0.0512
5.9331 -4.5640 0.0494
4.9270 -3.5151 0.0396
4.9194 -3.2490 0.0383
4.9122 -2.9959 0.0371
4.9053 -2.7545 0.0360
4.8987 -2.5233 0.0350
5.1469 -2.4208 0.0359
5.6355 -2.4068 0.0383
6.2070 -2.3905 0.0412
6.8861 -2.3711 0.0448
7.7089 -2.3476 0.0491
4.8835 6.2855 0.2142
4.8700 6.7569 0.2239
4.8552 7.2749 0.2348
4.8389 7.8483 0.2473
4.8206 8.4882 0.2615
4.8000 9.2090 0.2779
4.7765 10.0293 0.2970
4.7496 10.9737 0.3194
4.7181 12.0760 0.3460
4.6807 13.3830 0.3781
4.6356 14.9621 0.4175
4.5798 16.9136 0.4667
4.5089 19.3944 0.5301
5.1767 26.5700 0.7203
4.2865 27.1809 0.7319
4.0958 33.8526 0.9068
3.7848 44.7382 1.1937
-0.9174 38.8227 1.0322
-2.3157 38.7850 1.0329
-10.9841 44.9485 1.2319
-10.6487 37.6433 1.0421
-10.8937 33.8112 0.9469
-10.7979 29.7937 0.8453
-10.7042 26.5142 0.7633
-10.7080 23.9967 0.7020
-11.7470 23.9670 0.7137
-9.2361 17.2441 0.5236
-9.5992 16.4684 0.5107
-10.0615 15.9155 0.5050
-10.5661 15.4526 0.5027
-9.6648 13.0963 0.4376
-9.9608 12.5272 0.4309
-10.3008 12.0382 0.4271
-10.2572 11.1485 0.4089
-10.2173 10.3324 0.3928
-10.1804 9.5794 0.3785
-10.1462 8.8807 0.3656
-9.6547 7.8550 0.3380
-9.6383 7.2810 0.3286
-9.8160 6.8746 0.3266
-10.2895 6.6674 0.3347
-10.5400 6.3029 0.3358
-10.7916 5.9366 0.3374
-11.0450 5.5678 0.3395
-11.3009 5.1954 0.3420
-11.2617 4.6939 0.3361
-11.5601 4.3367 0.3408
-12.0096 4.0184 0.3502
-12.3144 3.6330 0.3557
-19.4345 4.9805 0.5570
-26.2204 5.7222 0.7466
-30.9230 5.5905 0.8759
-36.0867 5.1902 1.0173
-13.3534 1.4321 0.3758
-17.7218 -0.6596 0.5003
-17.7022 -1.2983 0.5018
-17.6824 -1.9390 0.5039
-34.7522 -5.0829 0.9968
-29.2331 -5.3570 0.8452
-27.6877 -6.1116 0.8079
-40.8524 -12.1584 1.2192
-35.7935 -12.0717 1.0825
-31.6314 -11.9527 0.9709
-28.2552 -11.8563 0.8814
-25.4549 -11.7762 0.8082
-23.0890 -11.7086 0.7473
-21.0589 -11.6506 0.6960
-19.2934 -11.6002 0.6521
-17.7403 -11.5558 0.6143
-16.3582 -11.5150 0.5814
-15.1187 -11.4782 0.5525
-14.0011 -11.4472 0.5272
-12.9883 -11.4236 0.5050
-12.0643 -11.4070 0.4855
-11.2130 -11.3942 0.4681
-10.2742 -11.2211 0.4461
-10.2508 -12.0386 0.4642
-10.2255 -12.9241 0.4844
-10.1979 -13.8891 0.5071
-10.1677 -14.9475 0.5326
-10.1343 -16.1171 0.5615
-10.0971 -17.4198 0.5944
-10.0552 -18.8835 0.6322
-10.0078 -20.5449 0.6759
-9.9533 -22.4522 0.7269
-9.6865 -30.3182 0.9440
-12.4588 -44.4573 1.3702
-4.7174 -19.5115 0.5960
-3.9752 -19.4891 0.5908
-3.2635 -19.5748 0.5897
-3.2955 -25.3669 0.7603
-2.7065 -28.9628 0.8648
4.5933 -23.2669 0.7045
5.3858 -22.9069 0.6988
4.3640 -15.9586 0.4911
4.9826 -15.9410 0.4955
5.6138 -15.9229 0.5006
6.2598 -15.9045 0.5064
6.3418 -14.5524 0.4700
6.9670 -14.5345 0.4768
5.1062 -9.7368 0.3250
5.5548 -9.7240 0.3307
6.0209 -9.7106 0.3371
6.0605 -9.0313 0.3205
6.0406 -8.3366 0.3031
6.0228 -7.7116 0.2877
6.0066 -7.1449 0.2741
5.9918 -6.6274 0.2621
5.9783 -6.1519 0.2513
5.9657 -5.7123 0.2416
2.0822 -1.8547 0.0815
5.9431 -4.9219 0.2251
5.9329 -4.5635 0.2180
4.9270 -3.5149 0.1760
4.9194 -3.2487 0.1711
4.9122 -2.9957 0.1668
4.9053 -2.7543 0.1628
4.8987 -2.5231 0.1592
5.1473 -2.4208 0.1640
5.6360 -2.4068 0.1764
6.2075 -2.3905 0.1911
6.8868 -2.3711 0.2089
7.7098 -2.3475 0.2307
4.8835 6.2858 0.3938
4.8700 6.7572 0.4118
4.8552 7.2752 0.4321
4.8389 7.8486 0.4552
4.8206 8.4886 0.4817
4.8000 9.2094 0.5121
4.7765 10.0297 0.5475
4.7495 10.9742 0.5891
4.7180 12.0765 0.6385
4.6807 13.3835 0.6979
4.6356 14.9626 0.7708
4.5798 16.9142 0.8620
4.5089 19.3950 0.9792
5.1765 26.5700 1.3308
4.2864 27.1818 1.3526
3.8847 32.1091 1.5895
2.7267 32.2321 1.5895
1.5647 32.3119 1.5895
0.4265 34.4498 1.6928
-0.6619 28.0130 1.3768
-1.6700 27.9713 1.3769
-3.2895 34.2903 1.6928
-4.5212 34.1453 1.6928
-5.7465 33.9547 1.6928
-6.9637 33.7187 1.6928
-7.6733 31.4014 1.5897
-8.7962 31.0957 1.5897
-9.9066 30.7487 1.5897
-10.6221 29.3098 1.5347
-10.7042 26.5153 1.4082
-10.7076 23.9967 1.2947
-10.9294 22.2998 1.2242
-9.2361 17.2448 0.9648
-9.5989 16.4687 0.9406
-10.0612 15.9158 0.9297
-10.5657 15.4526 0.9249
-9.6648 13.0969 0.8047
-9.9604 12.5272 0.7918
-10.3008 12.0388 0.7845
-10.2572 11.1490 0.7506
-10.2173 10.3330 0.7206
-10.1804 9.5799 0.6938
-10.1462 8.8812 0.6698
-9.6547 7.8555 0.6188
-9.6383 7.2815 0.6011
-9.8158 6.8749 0.5968
-10.2893 6.6677 0.6112
-10.5398 6.3032 0.6128
-10.7914 5.9370 0.6152
-11.0448 5.5681 0.6184
-11.3006 5.1957 0.6225
-11.2615 4.6942 0.6113
-11.5598 4.3371 0.6192
-12.0096 4.0189 0.6359
-12.3130 3.6330 0.6453
-19.4345 4.9812 1.0095
-26.2166 5.7223 1.3517
-30.9169 5.5905 1.5844
-31.3260 4.5066 1.5978
-13.3520 1.4324 0.6787
-19.6171 1.3924 0.9951
-29.2966 1.0215 1.4849
-33.3803 -0.0386 1.6928
-17.7196 -0.6589 0.9002
-17.7000 -1.2975 0.9020
-17.6802 -1.9381 0.9050
-32.8819 -4.8081 1.6928
-28.0475 -5.1387 1.4541
-30.4338 -6.7166 1.5911
-30.4574 -7.8818 1.6078
-29.0179 -8.6352 1.5489
-29.4090 -9.9173 1.5895
-29.0025 -10.9582 1.5895
-28.6181 -12.0074 1.5928
-28.1387 -13.0168 1.5928
-27.6243 -14.0074 1.5928
-20.9522 -11.5908 1.2326
-19.2948 -11.6002 1.1600
-17.7415 -11.5558 1.0920
-16.3592 -11.5151 1.0327
-15.1196 -11.4783 0.9808
-14.0019 -11.4473 0.9352
-12.9890 -11.4236 0.8952
-12.0649 -11.4070 0.8600
-11.2136 -11.3942 0.8287
-10.2742 -11.2206 0.7893
-10.2508 -12.0380 0.8208
-10.2255 -12.9235 0.8561
-10.1980 -13.8884 0.8957
-10.1677 -14.9469 0.9404
-10.1343 -16.1165 0.9909
-10.0971 -17.4191 1.0486
-10.0553 -18.8828 1.1147
-9.9665 -20.4594 1.1864
-12.3766 -27.9174 1.5928
-11.3585 -28.3328 1.5928
-10.3270 -28.7122 1.5928
-9.2653 -28.9988 1.5897
-8.2126 -29.3044 1.5897
-4.3845 -18.1342 0.9748
-3.6942 -18.1105 0.9660
-3.1203 -18.7152 0.9918
-2.8232 -21.7306 1.1456
-2.6934 -28.8218 1.5136
-1.8497 -32.3188 1.6928
-0.6848 -32.3630 1.6928
0.4809 -32.3664 1.6928
1.6460 -32.3292 1.6928
2.6377 -30.2842 1.5895
2.2226 -17.9949 0.9480
4.8115 -30.0236 1.5895
4.5934 -23.2669 1.2395
5.3850 -22.9027 1.2294
4.3642 -15.9586 0.8643
4.9828 -15.9410 0.8722
5.6140 -15.9229 0.8814
6.2600 -15.9045 0.8920
6.3420 -14.5524 0.8281
6.9673 -14.5345 0.8404
5.1064 -9.7368 0.5730
5.5550 -9.7240 0.5833
6.0212 -9.7106 0.5948
6.0601 -9.0304 0.5658
6.0403 -8.3358 0.5353
6.0225 -7.7108 0.5084
6.0063 -7.1442 0.4847
5.9916 -6.6268 0.4636
5.9780 -6.1513 0.4448
5.9655 -5.7118 0.4279
2.0820 -1.8545 0.1443
5.9429 -4.9214 0.3991
5.9327 -4.5631 0.3868
4.9270 -3.5147 0.3125
4.9194 -3.2485 0.3041
4.9122 -2.9955 0.2965
4.9053 -2.7541 0.2897
4.8986 -2.5229 0.2835
5.1477 -2.4208 0.2923
5.6365 -2.4068 0.3146
6.2081 -2.3905 0.3412
6.8875 -2.3710 0.3732
7.7106 -2.3475 0.4125
4.8835 6.2861 0.5737
4.8700 6.7575 0.6000
4.8552 7.2755 0.6298
4.8388 7.8489 0.6637
4.8206 8.4889 0.7023
4.8000 9.2097 0.7469
4.7765 10.0300 0.7987
4.7495 10.9745 0.8594
4.7180 12.0769 0.9316
4.6807 13.3840 1.0184
4.6355 14.9631 1.1249
4.5798 16.9147 1.2581
4.5089 19.3957 1.4293
4.2352 21.7397 1.5895
3.4504 21.8811 1.5895
2.6608 21.9936 1.5895
1.8675 22.0770 1.5895
1.0716 22.1311 1.5895
0.2921 23.5951 1.6928
-0.5574 23.5903 1.6928
-1.4062 23.5542 1.6928
-2.2531 23.4869 1.6928
-3.0968 23.3885 1.6928
-3.9363 23.2591 1.6928
-4.7703 23.0991 1.6928
-5.5978 22.9084 1.6928
-6.4175 22.6875 1.6928
-7.1308 22.1338 1.6699
-7.5403 20.8069 1.5897
-8.2821 20.5162 1.5897
-9.0125 20.1986 1.5897
-9.7305 19.8544 1.5897
-9.0835 16.9605 1.3838
-9.5213 16.3363 1.3605
-9.9799 15.7879 1.3444
-10.5652 15.4526 1.3480
-9.6648 13.0974 1.1727
-9.9600 12.5272 1.1536
-10.3008 12.0394 1.1426
-10.2573 11.1496 1.0931
-10.2173 10.3335 1.0491
-10.1805 9.5805 1.0098
-10.1463 8.8817 0.9746
-7.4881 6.0930 0.6982
-7.5553 5.7082 0.6852
-7.6279 5.3428 0.6743
-10.2891 6.6680 0.8884
-10.5396 6.3035 0.8904
-10.7911 5.9373 0.8936
-11.0445 5.5685 0.8980
-8.3054 3.8189 0.6642
-8.4987 3.5430 0.6695
-8.7044 3.2661 0.6765
-8.9150 2.9836 0.6845
-9.1826 2.7097 0.6977
-19.4345 4.9819 1.4631
-21.3896 4.6695 1.5978
-21.4161 3.8733 1.5895
-21.5252 3.0974 1.5895
-12.5901 1.3511 0.9262
-19.6171 1.3932 1.4397
-21.6831 0.7568 1.5895
-23.0876 -0.0259 1.6928
-18.2095 -0.6764 1.3371
-22.9901 -1.6845 1.6928
-18.4309 -2.0198 1.3626
-18.1685 -2.6560 1.3504
-22.6222 -4.1439 1.6928
-22.4412 -4.9519 1.6928
-22.2317 -5.7523 1.6928
-21.9937 -6.5441 1.6928
-21.7278 -7.3263 1.6928
-20.1290 -7.6047 1.5897
-19.8276 -8.3184 1.5897
-19.5012 -9.0203 1.5896
-16.8519 -8.5444 1.3988
-18.7749 -10.3855 1.5896
-18.3762 -11.0472 1.5896
-17.9913 -11.7178 1.5928
-17.5466 -12.3501 1.5928
-17.0799 -12.9657 1.5928
-16.5920 -13.5640 1.5928
-16.0834 -14.1443 1.5928
-12.0041 -11.3489 1.2292
-11.1718 -11.3511 1.1857
-10.2742 -11.2201 1.1332
-10.2260 -12.0083 1.1755
-10.1697 -12.8524 1.2220
-12.6375 -17.2101 1.5928
-12.0044 -17.6461 1.5928
-11.3565 -18.0593 1.5928
-7.0614 -12.1815 1.0517
-10.0197 -18.8153 1.5928
-9.3136 -19.1184 1.5896
-8.6166 -19.4354 1.5896
-7.9090 -19.7275 1.5896
-7.1917 -19.9944 1.5896
-6.4657 -20.2358 1.5897
-5.8970 -21.0409 1.6355
-4.5434 -18.7904 1.4472
-4.5187 -22.1520 1.6928
-3.1062 -18.6299 1.4144
-2.9121 -22.4141 1.6928
-2.1030 -22.5025 1.6928
-1.2913 -22.5623 1.6928
-0.4781 -22.5934 1.6928
0.3357 -22.5959 1.6928
1.1491 -22.5697 1.6928
1.9611 -22.5148 1.6928
2.2227 -17.9948 1.3580
3.3591 -20.9601 1.5897
4.1122 -20.8284 1.5897
4.8602 -20.6701 1.5897
4.3644 -15.9586 1.2384
4.9829 -15.9410 1.2499
5.6142 -15.9229 1.2632
6.2603 -15.9045 1.2785
6.3423 -14.5523 1.1870
6.9676 -14.5345 1.2049
5.1067 -9.7368 0.8216
5.5552 -9.7240 0.8366
6.0214 -9.7106 0.8532
6.0598 -9.0295 0.8117
6.0400 -8.3350 0.7680
6.0222 -7.7101 0.7296
6.0060 -7.1435 0.6957
5.9913 -6.6262 0.6655
5.9777 -6.1508 0.6387
5.9652 -5.7112 0.6146
2.0818 -1.8542 0.2074
5.9427 -4.9210 0.5736
5.9324 -4.5627 0.5560
4.9270 -3.5145 0.4493
4.9194 -3.2483 0.4374
4.9121 -2.9953 0.4266
4.9052 -2.7539 0.4169
4.8986 -2.5227 0.4080
5.1481 -2.4208 0.4210
5.6370 -2.4068 0.4532
6.2087 -2.3904 0.4916
6.8882 -2.3710 0.5379
7.7115 -2.3475 0.5948
4.8835 6.2864 0.7542
4.8700 6.7578 0.7890
4.8552 7.2758 0.8282
4.8388 7.8492 0.8728
4.8206 8.4892 0.9238
4.8000 9.2101 0.9825
4.7765 10.0304 1.0506
4.7495 10.9750 1.1306
4.7180 12.0773 1.2256
4.6807 13.3844 1.3400
4.6355 14.9636 1.4801
4.3976 16.2426 1.5897
3.8107 16.3928 1.5897
3.2185 16.5215 1.5897
2.6220 16.6284 1.5897
2.0219 16.7134 1.5897
1.4191 16.7765 1.5897
0.8671 17.9080 1.6928
0.2219 17.9279 1.6928
-0.4235 17.9243 1.6928
-1.0685 17.8970 1.6928
-1.7119 17.8461 1.6928
-2.3530 17.7717 1.6928
-2.9909 17.6740 1.6928
-3.6248 17.5529 1.6928
-4.2537 17.4088 1.6928
-4.8769 17.2417 1.6928
-5.4934 17.0520 1.6928
-6.1025 16.8400 1.6928
-6.7033 16.6058 1.6928
-6.9287 15.5291 1.6078
-7.3963 15.0922 1.5895
-7.9326 14.8122 1.5895
-8.4582 14.5127 1.5895
-8.9723 14.1944 1.5895
-9.4743 13.8576 1.5895
-9.9635 13.5029 1.5895
-7.3456 9.2394 1.1185
-10.3008 12.0400 1.5020
-10.2573 11.1502 1.4367
-10.2173 10.3340 1.3787
-10.1805 9.5810 1.3269
-7.3891 6.4685 0.9325
-9.6547 7.8564 1.1825
-9.6383 7.2823 1.1481
-9.8154 6.8755 1.1395
-10.2889 6.6683 1.1664
-10.5393 6.3038 1.1689
-10.7909 5.9376 1.1730
-11.0443 5.5688 1.1786
-10.6471 4.8961 1.1172
-10.9157 4.5510 1.1281
-11.5593 4.3377 1.1784
-12.0097 4.0198 1.2094
-12.5808 3.7130 1.2534
-16.1050 4.1290 1.5895
-16.2337 3.5445 1.5895
-16.3412 2.9560 1.5895
-16.4274 2.3644 1.5895
-12.5899 1.3515 1.2134
-16.5352 1.1749 1.5895
-16.7280 0.5844 1.6059
-17.6327 -0.0191 1.6928
-17.6100 -0.6535 1.6928
-17.5646 -1.2863 1.6928
-17.4965 -1.9167 1.6928
-17.4059 -2.5439 1.6928
-17.2928 -3.1671 1.6928
-17.1576 -3.7854 1.6928
-17.0004 -4.3981 1.6928
-16.8213 -5.0044 1.6928
-16.6208 -5.6037 1.6928
-16.3992 -6.1950 1.6928
-16.1566 -6.7776 1.6928
-15.8935 -7.3510 1.6928
-14.6595 -7.4322 1.5897
-14.3747 -7.9509 1.5897
-14.0717 -8.4589 1.5897
-13.7510 -8.9554 1.5896
-13.4129 -9.4400 1.5896
-13.0578 -9.9119 1.5896
-12.6864 -10.3707 1.5896
-12.2991 -10.8157 1.5896
-11.8964 -11.2465 1.5895
-11.5023 -11.6864 1.5928
-11.0696 -12.0881 1.5928
-10.6230 -12.4739 1.5928
-10.1424 -12.8173 1.5895
-9.6710 -13.1696 1.5896
-9.1875 -13.5049 1.5896
-8.6926 -13.8226 1.5896
-7.0486 -12.1589 1.3686
-7.6710 -14.4042 1.5896
-7.1455 -14.6673 1.5897
-6.6112 -14.9115 1.5897
-6.0772 -15.1578 1.5919
-5.8764 -16.3370 1.6928
-5.2834 -16.5348 1.6928
-4.6838 -16.7115 1.6928
-4.0784 -16.8668 1.6928
-3.4680 -17.0005 1.6928
-2.8533 -17.1125 1.6928
-2.2351 -17.2026 1.6928
-1.6141 -17.2708 1.6928
-0.9911 -17.3169 1.6928
-0.3670 -17.3410 1.6928
0.2577 -17.3429 1.6928
0.8820 -17.3226 1.6928
1.5052 -17.2803 1.6928
2.0078 -16.2546 1.5983
2.0799 -12.9774 1.2825
3.1560 -15.9848 1.5897
3.7300 -15.8627 1.5897
4.2994 -15.7204 1.5897
4.8634 -15.5579 1.5897
5.4214 -15.3756 1.5897
5.9728 -15.1735 1.5897
6.3425 -14.5523 1.5472
6.9678 -14.5345 1.5706
5.1068 -9.7368 1.0711
5.5555 -9.7240 1.0907
6.0217 -9.7106 1.1124
6.0594 -9.0286 1.0583
6.0397 -8.3342 1.0014
6.0219 -7.7094 0.9515
6.0057 -7.1429 0.9073
5.9910 -6.6256 0.8681
5.9775 -6.1502 0.8332
5.9649 -5.7107 0.8019
2.0816 -1.8539 0.2706
5.9424 -4.9205 0.7485
5.9322 -4.5622 0.7257
4.9270 -3.5142 0.5866
4.9194 -3.2481 0.5711
4.9121 -2.9951 0.5571
4.9052 -2.7537 0.5445
4.8986 -2.5225 0.5330
5.1485 -2.4208 0.5501
5.6374 -2.4068 0.5923
6.2093 -2.3904 0.6426
6.8889 -2.3710 0.7032
7.7124 -2.3475 0.7777
4.8835 6.2866 0.9356
4.8700 6.7581 0.9787
4.8552 7.2761 1.0274
4.8388 7.8495 1.0828
4.8205 8.4895 1.1461
4.7999 9.2104 1.2190
4.7765 10.0308 1.3037
4.7495 10.9754 1.4030
4.7180 12.0778 1.5210
4.4744 12.7951 1.5897
4.0115 12.9498 1.5897
3.5433 13.0877 1.5897
3.0703 13.2083 1.5897
2.5931 13.3116 1.5897
2.1125 13.3975 1.5897
1.6290 13.4658 1.5897
1.1503 13.6000 1.5995
0.6986 14.4279 1.6928
0.1788 14.4439 1.6928
-0.3412 14.4410 1.6928
-0.8608 14.4191 1.6928
-1.3792 14.3782 1.6928
-1.8957 14.3185 1.6928
-2.4097 14.2400 1.6928
-2.9205 14.1427 1.6928
-3.4273 14.0269 1.6928
-3.9295 13.8928 1.6928
-4.4264 13.7404 1.6928
-4.9173 13.5700 1.6928
-5.4016 13.3819 1.6928
-5.8787 13.1763 1.6928
-6.3479 12.9534 1.6928
-6.8085 12.7137 1.6928
-6.8315 11.7221 1.5929
-7.2320 11.4417 1.5895
-7.6371 11.1710 1.5895
-8.0320 10.8858 1.5895
-7.3339 9.2251 1.3851
-8.7891 10.2734 1.5895
-9.1502 9.9472 1.5895
-9.4991 9.6081 1.5895
-7.3646 6.9313 1.1902
-7.3890 6.4688 1.1562
-9.6547 7.8568 1.4660
-9.6383 7.2828 1.4233
-9.8152 6.8758 1.4125
-10.2887 6.6686 1.4457
-10.5391 6.3041 1.4487
-10.7907 5.9379 1.4535
-11.0441 5.5691 1.4603
-10.6470 4.8964 1.3842
-10.9151 4.5511 1.3974
-11.5590 4.3381 1.4596
-12.0097 4.0202 1.4979
-12.3087 3.6331 1.5186
-13.0060 3.3350 1.5895
-9.9452 2.1718 1.2057
-13.1998 2.3882 1.5895
-13.2708 1.9106 1.5895
-12.5561 1.3484 1.4979
-13.3610 0.9498 1.5895
-14.2492 0.4984 1.6928
-14.2510 -0.0150 1.6928
-14.2343 -0.5278 1.6928
-14.1992 -1.0394 1.6928
-14.1458 -1.5492 1.6928
-14.0740 -2.0564 1.6928
-13.9842 -2.5606 1.6928
-13.8764 -3.0609 1.6928
-13.7507 -3.5569 1.6928
-13.6074 -4.0478 1.6928
-13.4467 -4.5330 1.6928
-13.2687 -5.0119 1.6928
-13.0738 -5.4839 1.6928
-12.8622 -5.9484 1.6928
-12.6342 -6.4049 1.6928
-12.3901 -6.8527 1.6928
-12.1302 -7.2913 1.6928
-11.4370 -7.4480 1.6331
-10.8605 -7.6431 1.5897
-10.5741 -8.0261 1.5897
-10.2743 -8.3983 1.5897
-9.9615 -8.7595 1.5897
-9.6360 -9.1091 1.5896
-9.2983 -9.4467 1.5896
-8.9490 -9.7719 1.5896
-8.5885 -10.0845 1.5895
-8.2176 -10.3843 1.5896
-7.8362 -10.6706 1.5896
-7.4451 -10.9431 1.5897
-7.0444 -11.2012 1.5897
-6.6349 -11.4448 1.5897
-6.3766 -11.9731 1.6305
-6.1670 -12.6582 1.6928
-5.7060 -12.8694 1.6928
-5.2379 -13.0641 1.6928
-4.7633 -13.2419 1.6928
-4.2828 -13.4028 1.6928
-3.7969 -13.5464 1.6928
-3.3062 -13.6727 1.6928
-2.8114 -13.7814 1.6928
-2.3132 -13.8725 1.6928
-1.8120 -13.9458 1.6928
-1.3086 -14.0013 1.6928
-0.8035 -14.0388 1.6928
-0.2975 -14.0583 1.6928
0.2089 -14.0599 1.6928
0.7151 -14.0434 1.6928
1.2203 -14.0090 1.6928
1.7240 -13.9567 1.6928
2.0901 -13.0408 1.5897
2.5585 -12.9581 1.5897
3.0238 -12.8589 1.5897
3.4852 -12.7432 1.5897
3.9424 -12.6111 1.5897
4.3946 -12.4628 1.5897
4.8413 -12.2985 1.5897
5.2819 -12.1185 1.5897
5.7160 -11.9228 1.5897
5.1070 -9.7368 1.3216
5.5557 -9.7240 1.3459
6.0219 -9.7106 1.3728
6.0591 -9.0277 1.3060
6.0393 -8.3333 1.2359
6.0216 -7.7086 1.1743
6.0055 -7.1422 1.1199
5.9907 -6.6249 1.0716
5.9772 -6.1496 1.0285
5.9647 -5.7101 0.9900
2.0813 -1.8536 0.3340
5.9422 -4.9200 0.9243
5.9320 -4.5617 0.8962
4.9270 -3.5140 0.7245
4.9194 -3.2479 0.7054
4.9121 -2.9949 0.6882
4.9052 -2.7535 0.6726
4.8986 -2.5223 0.6585
5.1489 -2.4207 0.6797
5.6379 -2.4067 0.7320
6.2099 -2.3904 0.7943
6.8896 -2.3710 0.8693
7.7133 -2.3474 0.9615
4.8835 6.2869 1.1179
4.8700 6.7584 1.1695
4.8552 7.2764 1.2277
4.8388 7.8498 1.2940
4.8205 8.4899 1.3697
4.7999 9.2108 1.4569
4.7765 10.0312 1.5581
4.5026 10.4051 1.5897
4.1258 10.5621 1.5897
3.7435 10.7053 1.5897
3.3561 10.8345 1.5897
2.9643 10.9496 1.5897
0.7812 3.3608 0.4835
0.6595 3.3855 0.4833
0.5370 3.4059 0.4831
0.4140 3.4222 0.4829
0.2905 3.4343 0.4828
0.1667 3.4422 0.4828
0.0427 3.4458 0.4827
-0.0814 3.4452 0.4827
-0.2054 3.4403 0.4828
-0.3291 3.4312 0.4829
-0.4525 3.4179 0.4830
-0.5754 3.4003 0.4832
-0.6976 3.3786 0.4834
-0.8191 3.3527 0.4836
-3.2874 11.6232 1.6928
-3.7032 11.4960 1.6928
-4.1141 11.3537 1.6928
-4.5194 11.1966 1.6928
-4.9187 11.0249 1.6928
-5.3114 10.8389 1.6928
-5.6970 10.6387 1.6928
-6.0751 10.4246 1.6928
-6.4450 10.1970 1.6928
-6.7709 9.9044 1.6840
-6.7578 9.1593 1.5980
-7.0438 8.8606 1.5895
-7.3562 8.5990 1.5895
-7.6589 8.3264 1.5895
-7.9514 8.0430 1.5895
-8.2333 7.7493 1.5895
-7.3889 6.4690 1.3810
-8.7641 7.1325 1.5895
-9.0123 6.8102 1.5895
-9.2485 6.4792 1.5895
-9.4725 6.1400 1.5895
-9.6840 5.7930 1.5895
-9.8828 5.4387 1.5895
-10.0685 5.0776 1.5895
-10.2410 4.7101 1.5895
-10.4000 4.3368 1.5895
-10.5453 3.9581 1.5895
-10.6768 3.5745 1.5895
-10.7944 3.1866 1.5895
-10.8978 2.7948 1.5895
-10.9870 2.3997 1.5895
-11.0618 2.0018 1.5895
-11.1222 1.6017 1.5895
-11.1681 1.1997 1.5895
-11.6647 0.8296 1.6556
-11.9449 0.4182 1.6928
-11.9473 -0.0121 1.6928
-11.9343 -0.4420 1.6928
-11.9058 -0.8711 1.6928
-11.8619 -1.2986 1.6928
-11.8027 -1.7241 1.6928
-11.7282 -2.1471 1.6928
-11.6386 -2.5669 1.6928
-11.5341 -2.9831 1.6928
-11.4147 -3.3951 1.6928
-11.2807 -3.8024 1.6928
-11.1322 -4.2045 1.6928
-10.9695 -4.6008 1.6928
-10.7927 -4.9909 1.6928
-10.6021 -5.3743 1.6928
-10.3980 -5.7505 1.6928
-10.1806 -6.1190 1.6928
-9.9502 -6.4793 1.6928
-9.7072 -6.8311 1.6928
-9.4519 -7.1738 1.6928
-9.1845 -7.5071 1.6928
-8.9055 -7.8305 1.6928
-8.6152 -8.1436 1.6928
-8.3139 -8.4461 1.6928
-8.0022 -8.7376 1.6928
-7.6803 -9.0176 1.6928
-7.3487 -9.2859 1.6928
-7.0078 -9.5422 1.6928
-6.6581 -9.7860 1.6928
-6.3001 -10.0172 1.6928
-5.9340 -10.2354 1.6928
-5.5605 -10.4404 1.6928
-5.1800 -10.6319 1.6928
-4.7930 -10.8096 1.6928
-4.3999 -10.9735 1.6928
-4.0013 -11.1232 1.6928
-3.5977 -11.2586 1.6928
-3.1896 -11.3795 1.6928
-2.7775 -11.4858 1.6928
-2.3619 -11.5773 1.6928
-1.9433 -11.6540 1.6928
-1.5223 -11.7157 1.6928
-1.0994 -11.7624 1.6928
-0.6751 -11.7940 1.6928
-0.2499 -11.8104 1.6928
0.1755 -11.8117 1.6928
0.6007 -11.7979 1.6928
1.0252 -11.7689 1.6928
1.4484 -11.7249 1.6928
1.8698 -11.6658 1.6928
2.1494 -10.8858 1.5897
2.5402 -10.8022 1.5897
2.9279 -10.7048 1.5897
3.3118 -10.5936 1.5897
3.6916 -10.4688 1.5897
4.0667 -10.3305 1.5897
4.4368 -10.1790 1.5897
4.8012 -10.0143 1.5897
5.1073 -9.7368 1.5735
5.5116 -9.6464 1.5897
5.9002 -9.5139 1.6015
6.0588 -9.0268 1.5549
6.0390 -8.3325 1.4715
6.0213 -7.7079 1.3983
6.0052 -7.1415 1.3336
5.9904 -6.6243 1.2761
5.9769 -6.1490 1.2249
5.9644 -5.7096 1.1791
2.0811 -1.8533 0.3978
5.9419 -4.9195 1.1010
5.9317 -4.5613 1.0676
4.9270 -3.5138 0.8631
4.9194 -3.2477 0.8405
4.9121 -2.9947 0.8200
4.9052 -2.7533 0.8015
4.8986 -2.5221 0.7847
5.1493 -2.4207 0.8101
5.6384 -2.4067 0.8725
6.2104 -2.3904 0.9468
6.8903 -2.3710 1.0363
7.7141 -2.3474 1.1463
4.8835 6.2872 1.3013
4.8700 6.7587 1.3614
4.8552 7.2767 1.4293
4.8388 7.8502 1.5065
4.8055 8.4637 1.5897
4.4985 8.6327 1.5897
4.1855 8.7904 1.5897
3.8670 8.9367 1.5897
3.5433 9.0714 1.5897
3.2149 9.1941 1.5897
2.8822 9.3050 1.5897
0.7812 2.8857 0.4878
0.6766 2.9109 0.4876
0.5712 2.9324 0.4874
0.4652 2.9503 0.4873
0.3586 2.9645 0.4871
0.2516 2.9750 0.4870
0.1444 2.9819 0.4870
0.0369 2.9850 0.4870
-0.0705 2.9845 0.4870
-0.1779 2.9802 0.4870
-0.2851 2.9723 0.4871
-0.3919 2.9607 0.4872
-0.4984 2.9453 0.4873
-0.6043 2.9264 0.4875
-0.7094 2.9038 0.4877
-0.8138 2.8775 0.4880
-3.1803 9.8731 1.6928
-3.5332 9.7511 1.6928
-3.8814 9.6164 1.6928
-4.2244 9.4691 1.6928
-4.5618 9.3095 1.6928
-4.8931 9.1378 1.6928
-5.2180 8.9542 1.6928
-5.5359 8.7590 1.6928
-5.8464 8.5524 1.6928
-6.1492 8.3347 1.6928
-6.4438 8.1062 1.6928
-6.7268 7.8636 1.6920
-6.7192 7.3052 1.6232
-6.8312 6.9103 1.5895
-7.0737 6.6582 1.5895
-7.3069 6.3976 1.5895
-7.5304 6.1288 1.5895
-7.7439 5.8521 1.5895
-7.9473 5.5680 1.5895
-8.1402 5.2767 1.5895
-8.3223 4.9788 1.5895
-8.4935 4.6745 1.5895
-8.6536 4.3644 1.5895
-8.8023 4.0488 1.5895
-8.9394 3.7281 1.5895
-9.0648 3.4027 1.5895
-9.1784 3.0732 1.5895
-9.2799 2.7399 1.5895
-9.3693 2.4032 1.5895
-9.4660 2.0679 1.5928
-9.5887 1.7356 1.6025
-9.9770 1.4371 1.6582
-10.2277 1.0991 1.6928
-10.2570 0.7299 1.6928
-10.2730 0.3600 1.6928
-10.2757 -0.0100 1.6928
-10.2650 -0.3798 1.6928
-10.2411 -0.7489 1.6928
-10.2039 -1.1167 1.6928
-10.1535 -1.4828 1.6928
-10.0900 -1.8468 1.6928
-10.0135 -2.2081 1.6928
-9.9241 -2.5663 1.6928
-9.8219 -2.9210 1.6928
-9.7071 -3.2716 1.6928
-9.5798 -3.6178 1.6928
-9.4403 -3.9591 1.6928
-9.2886 -4.2950 1.6928
-9.1250 -4.6252 1.6928
-8.9498 -4.9492 1.6928
-8.7631 -5.2666 1.6928
-8.5652 -5.5771 1.6928
-8.3564 -5.8802 1.6928
-8.1370 -6.1755 1.6928
-7.9071 -6.4627 1.6928
-7.6672 -6.7414 1.6928
-7.4176 -7.0113 1.6928
-7.1585 -7.2720 1.6928
-6.8904 -7.5232 1.6928
-6.6134 -7.7646 1.6928
-6.3281 -7.9959 1.6928
-6.0348 -8.2169 1.6928
-5.7338 -8.4271 1.6928
-5.4256 -8.6265 1.6928
-5.1106 -8.8146 1.6928
-4.7890 -8.9914 1.6928
-4.4614 -9.1566 1.6928
-4.1282 -9.3099 1.6928
-3.7897 -9.4512 1.6928
-3.4465 -9.5804 1.6928
-3.0989 -9.6972 1.6928
-2.7474 -9.8015 1.6928
-2.3924 -9.8932 1.6928
-2.0345 -9.9721 1.6928
-1.6739 -10.0383 1.6928
-1.3113 -10.0915 1.6928
-0.9470 -10.1318 1.6928
-0.5815 -10.1590 1.6928
-0.2153 -10.1732 1.6928
0.1512 -10.1744 1.6928
0.5175 -10.1624 1.6928
0.8831 -10.1374 1.6928
1.2477 -10.0994 1.6928
1.6106 -10.0484 1.6928
1.8515 -9.3765 1.5897
2.1881 -9.3044 1.5897
2.5219 -9.2204 1.5897
2.8526 -9.1245 1.5897
3.1797 -9.0168 1.5897
3.5027 -8.8975 1.5897
3.8214 -8.7668 1.5897
4.1352 -8.6248 1.5897
4.4438 -8.4716 1.5897
4.7468 -8.3075 1.5897
5.0438 -8.1326 1.5897
5.3343 -7.9472 1.5897
5.6182 -7.7515 1.5897
5.9388 -7.6020 1.6015
6.0048 -7.1408 1.5486
5.9902 -6.6237 1.4820
5.9766 -6.1484 1.4226
5.9642 -5.7090 1.3694
2.0809 -1.8530 0.4620
5.9417 -4.9191 1.2787
5.9315 -4.5609 1.2400
4.9270 -3.5136 1.0026
4.9194 -3.2475 0.9763
4.9121 -2.9945 0.9526
4.9052 -2.7531 0.9311
4.8986 -2.5219 0.9118
5.1497 -2.4207 0.9414
5.6389 -2.4067 1.0139
6.2110 -2.3904 1.1003
6.8910 -2.3709 1.2044
7.7150 -2.3474 1.3323
4.8835 6.2875 1.4862
4.8700 6.7589 1.5548
4.7281 7.0865 1.5897
4.4707 7.2533 1.5897
4.2074 7.4107 1.5897
3.9386 7.5585 1.5897
3.6645 7.6965 1.5897
3.3855 7.8244 1.5897
3.1021 7.9421 1.5897
2.8146 8.0495 1.5897
0.7797 2.5173 0.4912
0.6883 2.5427 0.4910
0.5962 2.5650 0.4908
0.5033 2.5841 0.4906
0.4099 2.5999 0.4905
0.3160 2.6125 0.4904
0.2217 2.6218 0.4903
0.1272 2.6279 0.4902
0.0326 2.6307 0.4902
-0.0621 2.6302 0.4902
-0.1568 2.6264 0.4903
-0.2512 2.6194 0.4903
-0.3454 2.6091 0.4904
-0.4392 2.5955 0.4905
-0.5324 2.5787 0.4907
-0.6251 2.5587 0.4909
-0.7170 2.5354 0.4911
-0.8082 2.5090 0.4914
-3.0932 8.5371 1.6928
-3.3981 8.4193 1.6928
-3.6985 8.2906 1.6928
-3.9939 8.1510 1.6928
-4.2841 8.0008 1.6928
-4.5686 7.8402 1.6928
-4.8470 7.6695 1.6928
-5.1191 7.4887 1.6928
-5.3843 7.2983 1.6928
-5.6424 7.0984 1.6928
-5.8931 6.8894 1.6928
-6.1360 6.6714 1.6928
-6.3708 6.4448 1.6928
-6.5971 6.2099 1.6928
-6.7844 5.9404 1.6852
-6.8324 5.5610 1.6467
-6.9440 5.2479 1.6274
-7.0581 4.9453 1.6118
-7.1750 4.6514 1.5996
-7.2925 4.3630 1.5901
-7.4399 4.0950 1.5895
-7.5804 3.8234 1.5895
-7.7327 3.5571 1.5940
-7.9174 3.3022 1.6070
-8.1040 3.0424 1.6220
-8.2930 2.7770 1.6393
-8.4970 2.5090 1.6611
-8.7426 2.2427 1.6928
-8.8150 1.9260 1.6928
-8.8759 1.6069 1.6928
-8.9252 1.2860 1.6928
-8.9630 0.9635 1.6928
-8.9890 0.6400 1.6928
-9.0034 0.3159 1.6928
-9.0062 -0.0085 1.6928
-8.9972 -0.3326 1.6928
-8.9766 -0.6561 1.6928
-8.9444 -0.9785 1.6928
-8.9006 -1.2995 1.6928
-8.8453 -1.6186 1.6928
-8.7786 -1.9355 1.6928
-8.7006 -2.2496 1.6928
-8.6113 -2.5606 1.6928
-8.5110 -2.8682 1.6928
-8.3998 -3.1718 1.6928
-8.2777 -3.4712 1.6928
-8.1450 -3.7659 1.6928
-8.0019 -4.0556 1.6928
-7.8485 -4.3399 1.6928
-7.6851 -4.6184 1.6928
-7.5118 -4.8908 1.6928
-7.3290 -5.1568 1.6928
-7.1367 -5.4160 1.6928
-6.9354 -5.6681 1.6928
-6.7252 -5.9128 1.6928
-6.5064 -6.1497 1.6928
-6.2794 -6.3786 1.6928
-6.0443 -6.5991 1.6928
-5.8016 -6.8111 1.6928
-5.5514 -7.0142 1.6928
-5.2942 -7.2082 1.6928
-5.0303 -7.3928 1.6928
-4.7600 -7.5679 1.6928
-4.4837 -7.7332 1.6928
-4.2017 -7.8884 1.6928
-3.9143 -8.0335 1.6928
-3.6220 -8.1681 1.6928
-3.3251 -8.2922 1.6928
-3.0240 -8.4057 1.6928
-2.7191 -8.5083 1.6928
-2.4107 -8.5999 1.6928
-2.0993 -8.6805 1.6928
-1.7852 -8.7498 1.6928
-1.4688 -8.8079 1.6928
-1.1506 -8.8547 1.6928
-0.8310 -8.8901 1.6928
-0.5103 -8.9140 1.6928
-0.1889 -8.9265 1.6928
0.1327 -8.9275 1.6928
0.4541 -8.9170 1.6928
0.7749 -8.8951 1.6928
1.0948 -8.8617 1.6928
1.4133 -8.8169 1.6928
1.7300 -8.7607 1.6928
1.9200 -8.1639 1.5897
2.2129 -8.0901 1.5897
2.5030 -8.0058 1.5897
2.7899 -7.9113 1.5897
3.0734 -7.8065 1.5897
3.3529 -7.6917 1.5897
3.6282 -7.5669 1.5897
3.8989 -7.4324 1.5897
4.1646 -7.2882 1.5897
1.8679 -3.0118 0.6711
1.8191 -2.7100 0.6179
1.9417 -2.6789 0.6263
5.1714 -6.6193 1.5897
5.4075 -6.4301 1.5897
5.6367 -6.2325 1.5897
5.9023 -6.0716 1.6015
5.9639 -5.7085 1.5611
2.0807 -1.8527 0.5267
5.9415 -4.9186 1.4578
5.9313 -4.5604 1.4138
4.9269 -3.5133 1.1432
4.9193 -3.2472 1.1132
4.9121 -2.9943 1.0862
4.9052 -2.7529 1.0618
4.8986 -2.5217 1.0397
5.1501 -2.4207 1.0736
5.6394 -2.4067 1.1564
6.2116 -2.3904 1.2549
6.8917 -2.3709 1.3738
7.7159 -2.3474 1.5198
4.6415 5.9763 1.5897
4.4242 6.1405 1.5897
4.2010 6.2968 1.5897
3.9722 6.4449 1.5897
3.7382 6.5846 1.5897
3.4993 6.7158 1.5897
3.2557 6.8383 1.5897
3.0079 6.9518 1.5897
2.7560 7.0563 1.5897
0.7769 2.2221 0.4939
0.6962 2.2477 0.4937
0.6146 2.2706 0.4935
0.5324 2.2905 0.4933
0.4495 2.3076 0.4932
0.3660 2.3218 0.4930
0.2822 2.3331 0.4929
0.1980 2.3415 0.4929
0.1136 2.3469 0.4928
0.0291 2.3494 0.4928
-0.0555 2.3490 0.4928
-0.1400 2.3456 0.4928
-0.2243 2.3393 0.4929
-0.3084 2.3300 0.4930
-0.3922 2.3178 0.4931
-0.4755 2.3028 0.4932
-0.5582 2.2848 0.4934
-0.6403 2.2640 0.4936
-0.7216 2.2403 0.4938
-0.8021 2.2138 0.4941
-3.0190 7.4803 1.6928
-3.2859 7.3660 1.6928
-3.5485 7.2421 1.6928
-3.8063 7.1088 1.6928
-4.0591 6.9663 1.6928
-4.3066 6.8147 1.6928
-4.5484 6.6542 1.6928
-4.7842 6.4851 1.6928
-5.0136 6.3077 1.6928
-5.2365 6.1220 1.6928
-5.4524 5.9285 1.6928
-5.6611 5.7273 1.6928
-5.8624 5.5187 1.6928
-6.0560 5.3030 1.6928
-6.2416 5.0805 1.6928
-6.4190 4.8515 1.6928
-6.5880 4.6162 1.6928
-6.7483 4.3751 1.6928
-6.8998 4.1283 1.6928
-7.0422 3.8764 1.6928
-7.1754 3.6195 1.6928
-7.2992 3.3580 1.6928
-7.4134 3.0923 1.6928
-7.5180 2.8227 1.6928
-7.6127 2.5495 1.6928
-7.6974 2.2732 1.6928
-7.7722 1.9941 1.6928
-7.8368 1.7126 1.6928
-7.8912 1.4289 1.6928
-7.9353 1.1436 1.6928
-7.9691 0.8570 1.6928
-7.9926 0.5693 1.6928
-8.0057 0.2812 1.6928
-8.0083 -0.0072 1.6928
-8.0006 -0.2955 1.6928
-7.9826 -0.5831 1.6928
-7.9542 -0.8699 1.6928
-7.9155 -1.1554 1.6928
-7.8666 -1.4393 1.6928
-7.8075 -1.7211 1.6928
-7.7384 -2.0005 1.6928
-7.6593 -2.2772 1.6928
-7.5703 -2.5508 1.6928
-7.4716 -2.8210 1.6928
-7.3632 -3.0874 1.6928
-7.2454 -3.3497 1.6928
-7.1183 -3.6075 1.6928
-6.9821 -3.8605 1.6928
-6.8369 -4.1084 1.6928
-6.6829 -4.3509 1.6928
-6.5204 -4.5876 1.6928
-6.3496 -4.8184 1.6928
-6.1706 -5.0428 1.6928
-5.9837 -5.2606 1.6928
-5.7892 -5.4715 1.6928
-5.5873 -5.6753 1.6928
-5.3783 -5.8717 1.6928
-5.1624 -6.0604 1.6928
-4.9399 -6.2413 1.6928
-4.7112 -6.4141 1.6928
-4.4764 -6.5785 1.6928
-4.2360 -6.7344 1.6928
-3.9901 -6.8816 1.6928
-3.7392 -7.0198 1.6928
-3.4835 -7.1490 1.6928
-3.2234 -7.2690 1.6928
-2.9593 -7.3795 1.6928
-2.6913 -7.4806 1.6928
-2.4199 -7.5720 1.6928
-2.1455 -7.6536 1.6928
-1.8684 -7.7254 1.6928
-1.5888 -7.7872 1.6928
-1.3073 -7.8389 1.6928
-1.0241 -7.8806 1.6928
-0.7396 -7.9121 1.6928
-0.4542 -7.9334 1.6928
-0.1682 -7.9445 1.6928
0.1181 -7.9454 1.6928
0.4041 -7.9361 1.6928
0.6897 -7.9165 1.6928
0.9744 -7.8868 1.6928
1.2578 -7.8469 1.6928
1.5397 -7.7969 1.6928
1.7514 -7.4469 1.6293
1.9695 -7.1999 1.5897
2.2277 -7.1248 1.5897
2.4830 -7.0406 1.5897
2.7352 -6.9473 1.5897
2.9839 -6.8450 1.5897
3.2289 -6.7339 1.5897
3.4697 -6.6141 1.5897
3.7062 -6.4857 1.5897
1.7244 -2.7801 0.6961
1.8064 -2.6910 0.6895
1.9369 -2.6721 0.7020
4.6018 -5.8900 1.5897
4.8118 -5.7215 1.5897
5.0156 -5.5455 1.5897
5.2130 -5.3623 1.5897
5.4038 -5.1721 1.5897
2.0805 -1.8524 0.5919
5.8074 -4.8073 1.6015
5.9310 -4.5599 1.5889
4.9269 -3.5131 1.2849
4.9193 -3.2470 1.2513
4.9121 -2.9940 1.2210
4.9052 -2.7526 1.1935
4.8986 -2.5215 1.1688
5.1506 -2.4207 1.2070
5.6399 -2.4067 1.3002
6.2122 -2.3903 1.4110
6.8925 -2.3709 1.5446
7.2321 -2.1999 1.6015
4.1721 5.3721 1.5897
3.9767 5.5196 1.5897
3.7760 5.6600 1.5897
3.5703 5.7931 1.5897
3.3600 5.9186 1.5897
3.1452 6.0364 1.5897
2.9262 6.1464 1.5897
2.7034 6.2484 1.5897
0.7731 1.9795 0.4962
0.7011 2.0052 0.4959
0.6283 2.0285 0.4957
0.5547 2.0492 0.4955
0.4804 2.0672 0.4954
0.4056 2.0827 0.4952
0.3304 2.0956 0.4951
0.2547 2.1058 0.4950
0.1787 2.1134 0.4949
0.1025 2.1183 0.4949
0.0262 2.1205 0.4949
-0.0501 2.1201 0.4949
-0.1264 2.1171 0.4949
-0.2025 2.1113 0.4950
-0.2784 2.1030 0.4951
-0.3539 2.0920 0.4952
-0.4291 2.0783 0.4953
-0.5037 2.0620 0.4954
-0.5778 2.0432 0.4956
-0.6512 2.0217 0.4958
-0.7238 1.9977 0.4960
-0.7955 1.9711 0.4963
-2.9533 6.6207 1.6928
-3.1893 6.5094 1.6928
-3.4211 6.3897 1.6928
-3.6484 6.2616 1.6928
-3.8709 6.1255 1.6928
-4.0883 5.9813 1.6928
-4.3003 5.8295 1.6928
-4.5066 5.6700 1.6928
-4.7070 5.5033 1.6928
-4.9012 5.3294 1.6928
-5.0889 5.1486 1.6928
-5.2700 4.9612 1.6928
-5.4441 4.7674 1.6928
-5.6110 4.5675 1.6928
-5.7707 4.3617 1.6928
-5.9227 4.1503 1.6928
-6.0670 3.9336 1.6928
-6.2033 3.7119 1.6928
-6.3314 3.4854 1.6928
-6.4513 3.2545 1.6928
-6.5628 3.0195 1.6928
-6.6657 2.7806 1.6928
-6.7599 2.5383 1.6928
-6.8452 2.2928 1.6928
-6.9216 2.0444 1.6928
-6.9890 1.7934 1.6928
-7.0473 1.5403 1.6928
-7.0964 1.2853 1.6928
-7.1363 1.0287 1.6928
-7.1669 0.7710 1.6928
-7.1881 0.5123 1.6928
-7.2001 0.2531 1.6928
-7.2027 -0.0062 1.6928
-7.1960 -0.2655 1.6928
-7.1799 -0.5242 1.6928
-7.1546 -0.7822 1.6928
-7.1200 -1.0390 1.6928
-7.0762 -1.2944 1.6928
-7.0232 -1.5479 1.6928
-6.9612 -1.7993 1.6928
-6.8902 -2.0483 1.6928
-6.8103 -2.2945 1.6928
-6.7217 -2.5376 1.6928
-6.6244 -2.7774 1.6928
-6.5186 -3.0134 1.6928
-6.4044 -3.2454 1.6928
-6.2820 -3.4731 1.6928
-6.1515 -3.6963 1.6928
-6.0131 -3.9145 1.6928
-5.8670 -4.1276 1.6928
-5.7134 -4.3353 1.6928
-5.5525 -4.5374 1.6928
-5.3844 -4.7334 1.6928
-5.2095 -4.9233 1.6928
-5.0279 -5.1068 1.6928
-4.8399 -5.2836 1.6928
-4.6457 -5.4536 1.6928
-4.4456 -5.6164 1.6928
-4.2398 -5.7720 1.6928
-4.0286 -5.9201 1.6928
-3.8122 -6.0605 1.6928
-3.5910 -6.1930 1.6928
-3.3653 -6.3175 1.6928
-3.1352 -6.4339 1.6928
-2.9011 -6.5419 1.6928
-2.6634 -6.6415 1.6928
-2.4223 -6.7325 1.6928
-2.1780 -6.8148 1.6928
-1.9311 -6.8883 1.6928
-1.6816 -6.9530 1.6928
-1.4300 -7.0086 1.6928
-1.1766 -7.0552 1.6928
-0.9218 -7.0928 1.6928
-0.6657 -7.1212 1.6928
-0.4088 -7.1404 1.6928
-0.1514 -7.1504 1.6928
0.1063 -7.1512 1.6928
0.3638 -7.1428 1.6928
0.6208 -7.1252 1.6928
0.8770 -7.0984 1.6928
1.1321 -7.0624 1.6928
1.3858 -7.0174 1.6928
1.6377 -6.9633 1.6928
1.7726 -6.4800 1.5897
2.0050 -6.4124 1.5897
2.2348 -6.3365 1.5897
2.4351 -6.1848 1.5725
2.6565 -6.0937 1.5725
2.8746 -5.9947 1.5725
3.1227 -5.9524 1.5897
3.3355 -5.8368 1.5897
1.7204 -2.7737 0.7717
1.8002 -2.6816 0.7635
1.9265 -2.6576 0.7759
4.1413 -5.3003 1.5897
4.3302 -5.1486 1.5897
4.5136 -4.9901 1.5897
4.6911 -4.8252 1.5897
4.8627 -4.6540 1.5897
2.0803 -1.8521 0.6577
5.1870 -4.2935 1.5897
5.3393 -4.1048 1.5897
4.9269 -3.5129 1.4280
4.9193 -3.2468 1.3907
4.9121 -2.9938 1.3570
4.9052 -2.7524 1.3265
4.8986 -2.5213 1.2990
5.1510 -2.4207 1.3417
5.6404 -2.4067 1.4453
6.2128 -2.3903 1.5685
6.4290 -2.2112 1.6015
6.5060 -1.9788 1.6015
3.7852 4.8742 1.5897
3.6079 5.0080 1.5897
3.4258 5.1353 1.5897
3.2391 5.2559 1.5897
3.0482 5.3697 1.5897
2.8533 5.4765 1.5897
0.8321 1.7478 0.4983
0.7683 1.7759 0.4980
0.7036 1.8017 0.4978
0.6381 1.8253 0.4976
0.5718 1.8465 0.4974
0.5049 1.8653 0.4972
0.4373 1.8818 0.4971
0.3693 1.8960 0.4969
0.3007 1.9077 0.4968
0.2319 1.9170 0.4967
0.1627 1.9239 0.4967
0.0934 1.9284 0.4966
0.0239 1.9305 0.4966
-0.0456 1.9301 0.4966
-0.1150 1.9273 0.4967
-0.1843 1.9221 0.4967
-0.2534 1.9145 0.4968
-0.3222 1.9044 0.4969
-0.3906 1.8919 0.4970
-0.4585 1.8771 0.4971
-0.5259 1.8599 0.4973
-0.5927 1.8403 0.4975
-0.6587 1.8184 0.4977
-0.7240 1.7941 0.4979
-0.7884 1.7676 0.4982
-2.8934 5.9056 1.6928
-3.1037 5.7971 1.6928
-3.3099 5.6809 1.6928
-3.5118 5.5575 1.6928
-3.7091 5.4268 1.6928
-3.9014 5.2891 1.6928
-4.0887 5.1445 1.6928
-4.2706 4.9933 1.6928
-4.4468 4.8356 1.6928
-4.6172 4.6716 1.6928
-4.7816 4.5017 1.6928
-4.9396 4.3259 1.6928
-5.0912 4.1446 1.6928
-5.2361 3.9579 1.6928
-5.3742 3.7662 1.6928
-5.5052 3.5696 1.6928
-5.6290 3.3685 1.6928
-5.7454 3.1630 1.6928
-5.8543 2.9536 1.6928
-5.9556 2.7403 1.6928
-6.0491 2.5236 1.6928
-6.1347 2.3038 1.6928
-6.2122 2.0810 1.6928
-6.2817 1.8556 1.6928
-6.3430 1.6279 1.6928
-6.3961 1.3982 1.6928
-6.4408 1.1668 1.6928
-6.4771 0.9340 1.6928
-6.5050 0.7000 1.6928
-6.5245 0.4653 1.6928
-6.5355 0.2300 1.6928
-6.5380 -0.0054 1.6928
-6.5320 -0.2407 1.6928
-6.5176 -0.4756 1.6928
-6.4947 -0.7098 1.6928
-6.4635 -0.9430 1.6928
-6.4238 -1.1748 1.6928
-6.3759 -1.4050 1.6928
-6.3198 -1.6333 1.6928
-6.2554 -1.8593 1.6928
-6.1831 -2.0829 1.6928
-6.1027 -2.3037 1.6928
-6.0145 -2.5214 1.6928
-5.9186 -2.7357 1.6928
-5.8150 -2.9465 1.6928
-5.7039 -3.1533 1.6928
-5.5855 -3.3559 1.6928
-5.4600 -3.5542 1.6928
-5.3275 -3.7478 1.6928
-5.1881 -3.9364 1.6928
-5.0420 -4.1200 1.6928
-4.8895 -4.2981 1.6928
-4.7307 -4.4706 1.6928
-4.5659 -4.6373 1.6928
-4.3952 -4.7980 1.6928
-4.2189 -4.9524 1.6928
-4.0373 -5.1003 1.6928
-3.8504 -5.2417 1.6928
-3.6587 -5.3762 1.6928
-3.4622 -5.5038 1.6928
-3.2614 -5.6242 1.6928
-3.0563 -5.7374 1.6928
-2.8474 -5.8431 1.6928
-2.6349 -5.9413 1.6928
-2.4190 -6.0318 1.6928
-2.2000 -6.1145 1.6928
-1.9782 -6.1893 1.6928
-1.7539 -6.2561 1.6928
-1.5273 -6.3148 1.6928
-1.2989 -6.3654 1.6928
-1.0687 -6.4078 1.6928
-0.8372 -6.4419 1.6928
-0.6046 -6.4677 1.6928
-0.3713 -6.4851 1.6928
-0.1375 -6.4943 1.6928
0.0965 -6.4950 1.6928
0.3304 -6.4873 1.6928
0.5638 -6.4713 1.6928
0.7966 -6.4470 1.6928
1.0283 -6.4143 1.6928
1.2587 -6.3734 1.6928
1.4875 -6.3242 1.6928
1.7144 -6.2669 1.6928
1.8210 -5.8238 1.5897
2.0297 -5.7549 1.5897
2.2358 -5.6785 1.5897
2.4391 -5.5948 1.5897
2.6393 -5.5038 1.5897
2.8361 -5.4058 1.5897
3.0293 -5.3007 1.5897
1.7164 -2.7671 0.8478
1.7939 -2.6721 0.8378
1.9160 -2.6431 0.8497
3.7609 -4.8133 1.5897
3.9324 -4.6754 1.5897
4.0989 -4.5315 1.5897
4.2601 -4.3816 1.5897
4.4158 -4.2260 1.5897
2.0800 -1.8518 0.7242
4.7102 -3.8986 1.5897
4.8484 -3.7271 1.5897
4.9269 -3.5126 1.5726
4.9193 -3.2466 1.5316
4.9121 -2.9936 1.4945
4.9052 -2.7522 1.4610
4.8986 -2.5210 1.4307
5.1514 -2.4207 1.4778
5.6409 -2.4067 1.5920
5.7595 -2.2157 1.6015
5.8368 -2.0073 1.6015
5.9066 -1.7963 1.6015
3.4606 4.4563 1.5897
3.2984 4.5786 1.5897
3.1318 4.6949 1.5897
2.9612 4.8051 1.5897
2.7867 4.9091 1.5897
0.8202 1.5743 0.4999
0.7627 1.6022 0.4996
0.7043 1.6280 0.4994
0.6450 1.6517 0.4992
0.5850 1.6733 0.4990
0.5242 1.6928 0.4988
0.4629 1.7101 0.4986
0.4009 1.7253 0.4985
0.3385 1.7383 0.4984
0.2757 1.7491 0.4983
0.2126 1.7576 0.4982
0.1492 1.7640 0.4982
0.0856 1.7681 0.4981
0.0219 1.7700 0.4981
-0.0418 1.7697 0.4981
-0.1055 1.7671 0.4981
-0.1690 1.7623 0.4982
-0.2323 1.7553 0.4982
-0.2954 1.7460 0.4983
-0.3581 1.7346 0.4984
-0.4204 1.7209 0.4986
-0.4821 1.7051 0.4987
-0.5433 1.6871 0.4989
-0.6039 1.6669 0.4991
-0.6637 1.6447 0.4993
-0.7227 1.6203 0.4995
-0.7809 1.5939 0.4998
-2.8373 5.2998 1.6928
-3.0259 5.1937 1.6928
-3.2105 5.0809 1.6928
-3.3909 4.9614 1.6928
-3.5668 4.8356 1.6928
-3.7380 4.7035 1.6928
-3.9043 4.5653 1.6928
-4.0655 4.4212 1.6928
-4.2214 4.2713 1.6928
-4.3717 4.1160 1.6928
-4.5162 3.9554 1.6928
-4.6549 3.7896 1.6928
-4.7875 3.6190 1.6928
-4.9138 3.4438 1.6928
-5.0336 3.2641 1.6928
-5.1469 3.0802 1.6928
-5.2534 2.8924 1.6928
-5.3531 2.7009 1.6928
-5.4458 2.5060 1.6928
-5.5314 2.3079 1.6928
-5.6098 2.1069 1.6928
-5.6808 1.9032 1.6928
-5.7444 1.6971 1.6928
-5.8006 1.4889 1.6928
-5.8492 1.2789 1.6928
-5.8902 1.0673 1.6928
-5.9235 0.8544 1.6928
-5.9492 0.6404 1.6928
-5.9671 0.4257 1.6928
-5.9772 0.2106 1.6928
-5.9796 -0.0047 1.6928
-5.9743 -0.2199 1.6928
-5.9612 -0.4348 1.6928
-5.9404 -0.6490 1.6928
-5.9119 -0.8623 1.6928
-5.8758 -1.0743 1.6928
-5.8321 -1.2849 1.6928
-5.7808 -1.4938 1.6928
-5.7221 -1.7006 1.6928
-5.6560 -1.9051 1.6928
-5.5826 -2.1071 1.6928
-5.5020 -2.3063 1.6928
-5.4143 -2.5024 1.6928
-5.3196 -2.6952 1.6928
-5.2181 -2.8845 1.6928
-5.1099 -3.0700 1.6928
-4.9951 -3.2514 1.6928
-4.8739 -3.4285 1.6928
-4.7465 -3.6012 1.6928
-4.6129 -3.7691 1.6928
-4.4735 -3.9322 1.6928
-4.3283 -4.0901 1.6928
-4.1775 -4.2426 1.6928
-4.0214 -4.3897 1.6928
-3.8602 -4.5310 1.6928
-3.6940 -4.6664 1.6928
-3.5231 -4.7958 1.6928
-3.3476 -4.9190 1.6928
-3.1679 -5.0358 1.6928
-2.9842 -5.1460 1.6928
-2.7966 -5.2496 1.6928
-2.6055 -5.3464 1.6928
-2.4110 -5.4363 1.6928
-2.2135 -5.5191 1.6928
-2.0131 -5.5948 1.6928
-1.8102 -5.6633 1.6928
-1.6049 -5.7244 1.6928
-1.3976 -5.7782 1.6928
-1.1885 -5.8245 1.6928
-0.9779 -5.8633 1.6928
-0.7661 -5.8946 1.6928
-0.5533 -5.9182 1.6928
-0.3397 -5.9342 1.6928
-0.1258 -5.9425 1.6928
0.0883 -5.9432 1.6928
0.3023 -5.9362 1.6928
0.5159 -5.9215 1.6928
0.7289 -5.8992 1.6928
0.9409 -5.8693 1.6928
1.1518 -5.8318 1.6928
1.3611 -5.7868 1.6928
1.5688 -5.7343 1.6928
1.6902 -5.4054 1.6125
1.8573 -5.2658 1.5897
2.0459 -5.1959 1.5897
2.2319 -5.1192 1.5897
2.4150 -5.0360 1.5897
2.5951 -4.9462 1.5897
2.7718 -4.8500 1.5897
1.7124 -2.7605 0.9243
1.7876 -2.6626 0.9124
1.9023 -2.6241 0.9220
3.4412 -4.4039 1.5897
3.5980 -4.2776 1.5897
3.7503 -4.1459 1.5897
3.8977 -4.0087 1.5897
4.0402 -3.8663 1.5897
2.0798 -1.8515 0.7915
4.3094 -3.5667 1.5897
4.4358 -3.4097 1.5897
4.5565 -3.2483 1.5897
4.6713 -3.0827 1.5897
4.7802 -2.9130 1.5897
4.8829 -2.7395 1.5897
4.8986 -2.5208 1.5639
5.0693 -2.3819 1.5897
5.1528 -2.1982 1.5897
5.2297 -2.0117 1.5897
5.2998 -1.8224 1.5897
5.3631 -1.6307 1.5897
3.1839 4.1003 1.5897
3.0347 4.2128 1.5897
2.8815 4.3197 1.5897
2.7244 4.4211 1.5897
0.8084 1.4242 0.5012
0.7563 1.4518 0.5010
0.7033 1.4775 0.5008
0.6495 1.5013 0.5005
0.5948 1.5232 0.5003
0.5395 1.5432 0.5002
0.4835 1.5612 0.5000
0.4269 1.5772 0.4999
0.3698 1.5912 0.4997
0.3122 1.6032 0.4996
0.2543 1.6132 0.4995
0.1961 1.6211 0.4995
0.1376 1.6270 0.4994
0.0789 1.6308 0.4994
0.0202 1.6326 0.4994
-0.0386 1.6323 0.4994
-0.0973 1.6299 0.4994
-0.1559 1.6254 0.4994
-0.2143 1.6189 0.4995
-0.2724 1.6104 0.4996
-0.3303 1.5998 0.4997
-0.3877 1.5872 0.4998
-0.4446 1.5726 0.4999
-0.5011 1.5559 0.5001
-0.5569 1.5373 0.5003
-0.6120 1.5168 0.5005
-0.6665 1.4942 0.5007
-0.7201 1.4698 0.5009
-0.7728 1.4435 0.5011
-0.8246 1.4154 0.5014
-2.9538 4.6748 1.6928
-3.1198 4.5650 1.6928
-3.2817 4.4493 1.6928
-3.4392 4.3278 1.6928
-3.5923 4.2006 1.6928
-3.7406 4.0681 1.6928
-3.8841 3.9303 1.6928
-4.0224 3.7874 1.6928
-4.1555 3.6396 1.6928
-4.2831 3.4872 1.6928
-4.4052 3.3302 1.6928
-4.5214 3.1690 1.6928
-4.6318 3.0037 1.6928
-4.7361 2.8346 1.6928
-4.8342 2.6618 1.6928
-4.9260 2.4856 1.6928
-5.0114 2.3063 1.6928
-5.0902 2.1240 1.6928
-5.1624 1.9391 1.6928
-5.2278 1.7517 1.6928
-5.2865 1.5620 1.6928
-5.3382 1.3705 1.6928
-5.3830 1.1772 1.6928
-5.4209 0.9824 1.6928
-5.4516 0.7865 1.6928
-5.4753 0.5896 1.6928
-5.4919 0.3920 1.6928
-5.5013 0.1940 1.6928
-5.5036 -0.0041 1.6928
-5.4988 -0.2022 1.6928
-5.4868 -0.4000 1.6928
-5.4678 -0.5972 1.6928
-5.4416 -0.7935 1.6928
-5.4085 -0.9887 1.6928
-5.3683 -1.1825 1.6928
-5.3212 -1.3748 1.6928
-5.2672 -1.5652 1.6928
-5.2065 -1.7535 1.6928
-5.1390 -1.9395 1.6928
-5.0649 -2.1229 1.6928
-4.9842 -2.3034 1.6928
-4.8971 -2.4810 1.6928
-4.8038 -2.6552 1.6928
-4.7042 -2.8260 1.6928
-4.5986 -2.9931 1.6928
-4.4871 -3.1562 1.6928
-4.3698 -3.3152 1.6928
-4.2469 -3.4698 1.6928
-4.1186 -3.6200 1.6928
-3.9849 -3.7654 1.6928
-3.8462 -3.9059 1.6928
-3.7025 -4.0413 1.6928
-3.5541 -4.1715 1.6928
-3.4011 -4.2962 1.6928
-3.2438 -4.4154 1.6928
-3.0823 -4.5288 1.6928
-2.9168 -4.6364 1.6928
-2.7477 -4.7379 1.6928
-2.5750 -4.8334 1.6928
-2.3990 -4.9225 1.6928
-2.2200 -5.0053 1.6928
-2.0381 -5.0816 1.6928
-1.8536 -5.1514 1.6928
-1.6668 -5.2144 1.6928
-1.4778 -5.2708 1.6928
-1.2869 -5.3203 1.6928
-1.0944 -5.3630 1.6928
-0.9005 -5.3987 1.6928
-0.7054 -5.4275 1.6928
-0.5094 -5.4492 1.6928
-0.3129 -5.4640 1.6928
-0.1158 -5.4716 1.6928
0.0813 -5.4723 1.6928
0.2784 -5.4658 1.6928
0.4751 -5.4523 1.6928
0.6712 -5.4318 1.6928
0.8664 -5.4042 1.6928
1.0605 -5.3697 1.6928
1.2533 -5.3282 1.6928
1.4445 -5.2799 1.6928
1.6338 -5.2247 1.6928
1.7102 -4.8484 1.5897
1.8838 -4.7840 1.5897
2.0551 -4.7134 1.5897
2.2237 -4.6367 1.5897
2.3894 -4.5540 1.5897
2.5522 -4.4654 1.5897
1.7108 -2.7578 1.0030
1.7813 -2.6531 0.9875
1.8952 -2.6141 0.9976
3.1683 -4.0545 1.5897
3.3127 -3.9382 1.5897
3.4529 -3.8169 1.5897
3.5886 -3.6906 1.5897
3.7197 -3.5594 1.5897
2.0796 -1.8512 0.8596
3.9675 -3.2834 1.5897
4.0838 -3.1389 1.5897
4.1948 -2.9903 1.5897
4.3005 -2.8378 1.5897
4.4007 -2.6815 1.5897
4.4952 -2.5218 1.5897
4.5839 -2.3587 1.5897
4.6667 -2.1925 1.5897
4.7435 -2.0234 1.5897
4.8141 -1.8516 1.5897
4.8786 -1.6774 1.5897
4.9368 -1.5009 1.5897
2.9452 3.7931 1.5897
2.8072 3.8971 1.5897
2.6654 3.9960 1.5897
0.7965 1.2927 0.5025
0.7492 1.3200 0.5022
0.7010 1.3456 0.5020
0.6519 1.3695 0.5018
0.6020 1.3916 0.5016
0.5513 1.4119 0.5014
0.5001 1.4305 0.5012
0.4481 1.4472 0.5011
0.3957 1.4620 0.5009
0.3428 1.4751 0.5008
0.2894 1.4862 0.5007
0.2357 1.4954 0.5006
0.1817 1.5028 0.5006
0.1275 1.5083 0.5005
0.0732 1.5118 0.5005
0.0187 1.5134 0.5005
-0.0357 1.5131 0.5005
-0.0902 1.5109 0.5005
-0.1445 1.5068 0.5005
-0.1986 1.5008 0.5006
-0.2525 1.4928 0.5007
-0.3061 1.4830 0.5008
-0.3594 1.4713 0.5009
-0.4122 1.4577 0.5010
-0.4644 1.4422 0.5011
-0.5162 1.4250 0.5013
-0.5673 1.4059 0.5015
-0.6177 1.3850 0.5017
-0.6674 1.3623 0.5019
-0.7162 1.3379 0.5021
-0.7642 1.3118 0.5023
-0.8112 1.2840 0.5026
-2.8859 4.2229 1.6928
-3.0356 4.1159 1.6928
-3.1814 4.0035 1.6928
-3.3230 3.8859 1.6928
-3.4603 3.7634 1.6928
