ply
format ascii 1.0
element vertex 2154
property float32 x
property float32 y
property float32 z
end_header
7.1846 2.5253 -0.2600
25.6358 10.0620 -0.9300
28.1003 12.2149 -1.0218
33.9824 16.2511 -1.2384
26.7805 14.0137 -0.9779
28.6301 16.3211 -1.0474
31.5772 19.5405 -1.1572
34.2918 24.8021 -1.2604
12.0354 18.1887 -0.4427
11.5185 18.8481 -0.4228
10.8241 19.2350 -0.3963
20.8863 40.4568 -0.7620
6.0714 15.7187 -0.2176
15.3204 44.3490 -0.5439
13.1935 43.1656 -0.4624
6.8696 25.7561 -0.2367
4.7463 20.7694 -0.1596
3.9810 20.8477 -0.1293
3.0005 19.4958 -0.0922
2.1483 18.3209 -0.0598
1.3323 16.4633 -0.0297
0.7242 16.1673 -0.0056
0.1430 16.2744 0.0181
-0.4378 16.0995 0.0415
-1.0075 15.9281 0.0646
-6.6665 12.9365 0.6278
-7.0114 12.4808 0.6370
-7.3456 12.0392 0.6465
-7.6705 11.6099 0.6562
-7.9873 11.1913 0.6662
-8.2971 10.7821 0.6765
-8.6008 10.3808 0.6870
-8.8738 9.9574 0.6959
-9.1758 9.5782 0.7077
-9.4663 9.1943 0.7193
-9.7735 8.8312 0.7326
-10.0603 8.4523 0.7450
-9.4403 7.3679 0.6914
-10.5105 7.6100 0.7622
-10.4603 7.0134 0.7519
-11.0288 6.8316 0.7865
-11.4594 6.5390 0.8115
-11.7493 6.1540 0.8269
-12.0439 5.7649 0.8430
-11.4234 4.9700 0.7959
-11.2901 4.4350 0.7834
-11.5672 4.0689 0.8000
-11.8508 3.6942 0.8174
-12.1419 3.3095 0.8357
-12.4415 2.9136 0.8550
-12.9841 2.5505 0.8914
-13.3105 2.1193 0.9134
-13.6498 1.6710 0.9368
-14.0035 1.2036 0.9618
-14.3738 0.7144 0.9884
-14.7627 0.2005 1.0169
-15.1728 -0.3414 1.0475
-15.6072 -0.9153 1.0805
-16.0691 -1.5256 1.1161
-16.5878 -2.1811 1.1566
-17.0927 -2.8781 1.1971
-17.6649 -3.6341 1.2433
-20.1221 -4.9023 1.4242
-20.0168 -5.6488 1.4255
-19.2851 -6.2015 1.3827
-20.1708 -7.2991 1.4570
-20.4023 -8.2266 1.4857
-14.8360 -6.6138 1.0900
-16.2534 -7.9603 1.2056
-16.4566 -8.8093 1.2334
-18.1027 -10.5474 1.3722
-19.2381 -12.1587 1.4761
-20.3609 -13.9203 1.5829
-21.3811 -15.7783 1.6860
-21.0555 -16.7432 1.6860
-20.7090 -17.7230 1.6860
-20.3406 -18.7191 1.6860
-19.9489 -19.7331 1.6860
-19.5327 -20.7665 1.6860
-19.0903 -21.8211 1.6860
-18.6203 -22.8988 1.6860
-18.1205 -24.0016 1.6860
-16.5118 -23.5926 1.5827
-15.9810 -24.6813 1.5827
-15.4160 -25.8005 1.5827
-14.8140 -26.9526 1.5827
-14.2013 -28.1984 1.5860
-8.2915 -18.0542 0.9730
-5.5096 -13.2335 0.6836
-5.0803 -13.5585 0.6716
-4.3360 -12.9758 0.6163
-3.4955 -11.8654 0.5405
-2.8013 -10.9482 0.4782
-1.7223 -7.9063 0.3312
-1.3338 -7.3929 0.2969
-1.0656 -7.4270 0.2858
-0.8144 -7.6171 0.2808
-0.5521 -7.8156 0.2759
-0.2772 -8.0237 0.2710
0.0119 -8.2425 0.2662
0.3173 -8.4736 0.2614
0.5820 -7.9142 0.2329
0.8328 -7.5828 0.2127
1.0651 -7.2758 0.1942
1.3286 -7.2458 0.1837
1.6543 -7.4924 0.1801
2.0089 -7.7607 0.1765
2.3971 -8.0546 0.1728
2.7347 -8.1098 0.1636
3.1955 -8.4585 0.1599
3.7121 -8.8496 0.1562
3.9680 -8.5807 0.1406
4.1963 -8.2791 0.1252
4.4167 -7.9878 0.1107
4.6302 -7.7058 0.0969
3.0387 -4.6682 0.0527
3.1656 -4.5004 0.0449
3.2897 -4.3365 0.0375
3.4112 -4.1759 0.0305
3.5307 -4.0181 0.0237
0.8456 -0.8953 0.0040
0.8566 -0.8439 0.0025
0.8957 -0.8210 0.0012
3.1949 -2.7238 -0.0004
3.2859 -2.6032 -0.0048
3.3768 -2.4829 -0.0090
3.4678 -2.3624 -0.0131
3.5591 -2.2415 -0.0170
3.6510 -2.1199 -0.0208
3.7437 -1.9972 -0.0245
3.8374 -1.8731 -0.0281
3.9325 -1.7472 -0.0315
4.0292 -1.6192 -0.0349
4.1278 -1.4886 -0.0382
4.2286 -1.3552 -0.0414
4.3320 -1.2183 -0.0445
4.4383 -1.0774 -0.0475
4.5481 -0.9322 -0.0504
4.6616 -0.7818 -0.0533
4.7795 -0.6257 -0.0561
4.9024 -0.4631 -0.0589
5.0308 -0.2930 -0.0616
5.1656 -0.1146 -0.0642
5.3075 0.0733 -0.0668
5.4576 0.2721 -0.0693
5.6171 0.4832 -0.0718
5.7872 0.7084 -0.0742
5.9696 0.9499 -0.0766
6.1662 1.2102 -0.0790
6.3792 1.4923 -0.0813
6.6116 1.7999 -0.0835
6.8666 2.1375 -0.0858
7.1820 2.5226 -0.0883
24.9272 9.7768 -0.3009
26.1116 11.3418 -0.3079
26.4458 12.6369 -0.3032
25.8760 13.5291 -0.2869
27.4846 15.6545 -0.2927
29.3878 18.1693 -0.2984
41.1493 27.5354 -0.3946
12.0478 18.1793 0.0483
10.8374 19.2249 0.1005
6.0852 15.7159 0.1616
15.3510 44.3176 0.5119
13.2342 43.1676 0.5536
7.0193 26.2266 0.3700
4.7724 20.8000 0.3203
4.0069 20.8834 0.3490
3.0231 19.5270 0.3523
2.1682 18.3484 0.3559
1.3491 16.4855 0.3425
0.7392 16.1716 0.3587
0.1580 16.2789 0.3845
-0.4232 16.1040 0.4041
-0.9930 15.9324 0.4239
-6.6582 12.9476 0.9567
-7.0034 12.4914 0.9606
-7.3380 12.0493 0.9653
-7.6632 11.6195 0.9708
-7.9803 11.2006 0.9770
-8.2904 10.7909 0.9841
-8.5944 10.3892 0.9918
-8.8750 9.9738 0.9983
-9.1699 9.5860 1.0077
-9.4607 9.2018 1.0177
-9.7680 8.8384 1.0305
-10.0550 8.4593 1.0422
-9.4357 7.3740 0.9623
-10.1817 7.3815 1.0232
-11.8402 7.9487 1.1741
-11.0919 6.8793 1.0867
-11.4558 6.5451 1.1101
-11.7471 6.1604 1.1272
-12.0419 5.7711 1.1454
-11.4471 4.9864 1.0804
-11.2868 4.4393 1.0580
-11.5641 4.0729 1.0776
-11.8479 3.6980 1.0984
-12.1391 3.3131 1.1206
-12.4390 2.9170 1.1443
-12.9817 2.5537 1.1911
-13.3083 2.1222 1.2187
-13.6478 1.6736 1.2483
-14.0018 1.2059 1.2802
-14.3723 0.7164 1.3144
-14.7615 0.2021 1.3514
-15.1720 -0.3402 1.3914
-15.6067 -0.9146 1.4348
-16.0690 -1.5255 1.4820
-16.5722 -2.1795 1.5344
-17.0696 -2.8752 1.5878
-16.9244 -3.4834 1.5829
-16.8199 -4.1001 1.5829
-16.7028 -4.7165 1.5829
-16.5730 -5.3329 1.5829
-16.4301 -5.9496 1.5829
-16.2740 -6.5669 1.5829
-14.8124 -6.6084 1.4559
-15.9214 -7.8040 1.5829
-15.9354 -8.5375 1.6041
-16.5232 -9.6356 1.6860
-16.2824 -10.3000 1.6860
-16.0256 -10.9667 1.6860
-15.7523 -11.6359 1.6860
-15.4619 -12.3078 1.6860
-15.1540 -12.9828 1.6860
-14.8279 -13.6611 1.6860
-14.4830 -14.3429 1.6860
-14.1186 -15.0286 1.6860
-13.7340 -15.7185 1.6860
-13.3282 -16.4127 1.6860
-12.9005 -17.1116 1.6860
-11.6875 -16.7243 1.5827
-11.2421 -17.3899 1.5827
-10.7732 -18.0605 1.5827
-10.2797 -18.7365 1.5827
-9.7604 -19.4180 1.5827
-8.2728 -18.0514 1.4210
-5.5001 -13.2408 1.0076
-5.0703 -13.5660 0.9988
-4.3140 -12.9460 0.9228
-3.4772 -11.8406 0.8178
-2.7858 -10.9272 0.7317
-1.7122 -7.8929 0.5128
-1.3249 -7.3812 0.4655
-1.0595 -7.4317 0.4553
-0.8080 -7.6220 0.4539
-0.5453 -7.8208 0.4528
-0.2701 -8.0291 0.4523
0.0195 -8.2482 0.4523
0.3253 -8.4797 0.4529
0.5887 -7.9053 0.4114
0.8390 -7.5747 0.3842
1.0709 -7.2682 0.3596
1.3365 -7.2519 0.3500
1.6630 -7.4990 0.3533
2.0182 -7.7678 0.3575
2.4074 -8.0623 0.3625
2.7456 -8.1181 0.3569
3.2075 -8.4677 0.3641
3.7256 -8.8597 0.3729
3.9737 -8.5732 0.3533
4.2017 -8.2720 0.3341
4.4218 -7.9811 0.3161
4.6351 -7.6993 0.2992
3.0416 -4.6643 0.1781
3.1684 -4.4967 0.1688
3.2923 -4.3330 0.1600
3.4138 -4.1725 0.1518
3.5332 -4.0148 0.1441
0.8432 -0.8914 0.0316
0.8573 -0.8434 0.0296
0.8968 -0.8210 0.0286
3.1966 -2.7215 0.0941
3.2876 -2.6011 0.0896
3.3784 -2.4808 0.0854
3.4693 -2.3604 0.0814
3.5606 -2.2396 0.0777
3.6524 -2.1181 0.0742
3.7450 -1.9954 0.0710
3.8387 -1.8714 0.0681
3.9337 -1.7456 0.0654
4.0303 -1.6176 0.0629
4.1289 -1.4872 0.0606
4.2296 -1.3538 0.0586
4.3330 -1.2169 0.0569
4.4392 -1.0762 0.0554
4.5489 -0.9310 0.0541
4.6624 -0.7808 0.0532
4.7802 -0.6248 0.0524
4.9030 -0.4622 0.0520
5.0313 -0.2923 0.0519
5.1660 -0.1140 0.0522
5.3078 0.0738 0.0528
5.4578 0.2723 0.0538
5.6171 0.4833 0.0552
5.7871 0.7083 0.0571
5.9693 0.9496 0.0595
6.1657 1.2095 0.0625
6.3785 1.4913 0.0663
6.6106 1.7985 0.0708
6.8652 2.1357 0.0762
7.1795 2.5200 0.0830
24.6763 9.6714 0.2990
23.6092 10.2470 0.3012
24.5733 11.7327 0.3315
25.8620 13.5105 0.3704
27.4666 15.6307 0.4192
29.3646 18.1386 0.4791
41.1099 27.4834 0.7194
6.5312 8.4522 0.2406
6.0947 8.5023 0.2470
12.0602 18.1699 0.5393
10.8508 19.2148 0.5974
6.1045 15.7274 0.5417
15.3572 44.2162 1.5649
13.2749 43.1697 1.5707
7.0394 26.2114 0.9810
4.7986 20.8307 0.8023
4.0330 20.9193 0.8295
3.0458 19.5583 0.7988
2.1882 18.3760 0.7733
1.3660 16.5079 0.7161
0.7542 16.1758 0.7236
0.1729 16.2834 0.7515
-0.4084 16.1084 0.7673
-0.9786 15.9368 0.7838
-6.6498 12.9587 1.2868
-6.9954 12.5020 1.2853
-7.3304 12.0594 1.2852
-7.6559 11.6292 1.2865
-7.9733 11.2098 1.2890
-8.2837 10.7998 1.2928
-8.5879 10.3977 1.2977
-8.8762 9.9902 1.3023
-9.1640 9.5939 1.3087
-9.4550 9.2094 1.3172
-9.7625 8.8457 1.3295
-10.0497 8.4663 1.3404
-9.4310 7.3801 1.2342
-10.0152 7.2702 1.2880
-11.8351 7.9554 1.4979
-11.1559 6.9278 1.3916
-11.4533 6.5518 1.4100
-11.7448 6.1669 1.4288
-12.0399 5.7773 1.4490
-11.4709 5.0030 1.3674
-11.2836 4.4436 1.3336
-11.5611 4.0770 1.3562
-11.8450 3.7018 1.3805
-12.1364 3.3168 1.4067
-12.4364 2.9203 1.4348
-12.9793 2.5569 1.4919
-13.3062 2.1251 1.5252
-13.6458 1.6763 1.5610
-13.8952 1.1991 1.5878
-13.8553 0.6925 1.5829
-13.8471 0.1911 1.5829
-13.8273 -0.3091 1.5829
-13.7961 -0.8079 1.5829
-13.7533 -1.3055 1.5829
-13.6991 -1.8020 1.5829
-13.6333 -2.2973 1.5829
-13.5560 -2.7915 1.5829
-13.4672 -3.2846 1.5829
-13.3667 -3.7767 1.5829
-13.2544 -4.2679 1.5829
-13.1304 -4.7581 1.5829
-13.6318 -5.5047 1.6605
-13.6832 -6.1094 1.6860
-13.5126 -6.6287 1.6860
-13.3288 -7.1471 1.6860
-13.1316 -7.6645 1.6860
-12.9208 -8.1810 1.6860
-12.6962 -8.6966 1.6860
-12.4576 -9.2113 1.6860
-12.2046 -9.7249 1.6860
-11.9369 -10.2375 1.6860
-11.6542 -10.7491 1.6860
-11.3562 -11.2595 1.6860
-11.0426 -11.7686 1.6860
-10.7128 -12.2764 1.6860
-10.3666 -12.7828 1.6860
-10.0034 -13.2876 1.6860
-9.0335 -12.9460 1.5827
-8.6596 -13.4163 1.5827
-8.2683 -13.8847 1.5827
-7.8593 -14.3509 1.5827
-7.4320 -14.8145 1.5827
-6.9859 -15.2754 1.5827
-5.4904 -13.2481 1.3327
-5.0603 -13.5736 1.3271
-4.2919 -12.9163 1.2287
-3.4590 -11.8159 1.0946
-2.7704 -10.9063 0.9849
-1.7020 -7.8794 0.6942
-1.3161 -7.3695 0.6341
-1.0533 -7.4363 0.6254
-0.8015 -7.6269 0.6275
-0.5385 -7.8259 0.6305
-0.2629 -8.0345 0.6343
0.0271 -8.2540 0.6392
0.3334 -8.4858 0.6451
0.5954 -7.8965 0.5898
0.8451 -7.5665 0.5558
1.0766 -7.2606 0.5250
1.3446 -7.2580 0.5171
1.6717 -7.5055 0.5273
2.0277 -7.7750 0.5392
2.4177 -8.0701 0.5531
2.7566 -8.1264 0.5510
3.2197 -8.4769 0.5692
3.7391 -8.8700 0.5906
3.9793 -8.5658 0.5662
4.2070 -8.2649 0.5431
4.4269 -7.9743 0.5217
4.6399 -7.6929 0.5017
3.0445 -4.6604 0.3035
3.1712 -4.4930 0.2927
3.2950 -4.3294 0.2827
3.4164 -4.1691 0.2733
3.5356 -4.0115 0.2646
0.8430 -0.8899 0.0592
0.8580 -0.8428 0.0567
0.8984 -0.8212 0.0560
3.1983 -2.7193 0.1887
3.2892 -2.5989 0.1841
3.3799 -2.4787 0.1798
3.4708 -2.3584 0.1760
3.5620 -2.2377 0.1725
3.6538 -2.1162 0.1694
3.7463 -1.9937 0.1667
3.8400 -1.8697 0.1643
3.9349 -1.7440 0.1623
4.0315 -1.6161 0.1608
4.1300 -1.4857 0.1595
4.2307 -1.3524 0.1587
4.3340 -1.2156 0.1583
4.4402 -1.0750 0.1583
4.5498 -0.9299 0.1588
4.6632 -0.7797 0.1597
4.7810 -0.6238 0.1611
4.9036 -0.4614 0.1630
5.0319 -0.2916 0.1655
5.1664 -0.1134 0.1686
5.3082 0.0742 0.1724
5.4580 0.2726 0.1769
5.6172 0.4834 0.1822
5.7870 0.7082 0.1884
5.9690 0.9492 0.1957
6.1652 1.2089 0.2041
6.3778 1.4904 0.2138
6.6095 1.7972 0.2251
6.8639 2.1339 0.2381
7.1769 2.5173 0.2544
15.2765 5.9829 0.5548
23.5234 10.2019 0.8778
24.5809 11.7270 0.9452
25.8479 13.4919 1.0271
24.4637 13.9098 1.0073
29.3414 18.1080 1.2555
36.0162 24.0555 1.6060
9.3858 6.7687 0.4373
8.7250 6.7816 0.4260
8.1205 6.7935 0.4167
7.5640 6.8044 0.4090
7.0486 6.8145 0.4029
6.5688 6.8239 0.3981
6.1199 6.8327 0.3944
6.0702 7.2879 0.4174
6.0812 7.8589 0.4478
6.0934 8.4880 0.4822
3.6721 5.5238 0.3135
3.2206 5.2440 0.2980
2.9088 5.1419 0.2931
2.6566 5.1167 0.2931
2.4122 5.0850 0.2931
2.1757 5.0471 0.2932
1.9469 5.0037 0.2935
1.7257 4.9551 0.2937
1.5119 4.9019 0.2941
1.3055 4.8443 0.2945
1.1062 4.7828 0.2950
0.9138 4.7176 0.2955
0.7283 4.6491 0.2961
0.5493 4.5776 0.2967
0.3768 4.5034 0.2974
0.2156 4.5359 0.3054
0.0553 4.7951 0.3296
-0.3937 16.1128 1.1314
-0.9640 15.9411 1.1446
-6.4744 12.6439 1.5778
-6.8409 12.2503 1.5778
-7.1911 11.8527 1.5778
-7.5254 11.4515 1.5778
-7.8441 11.0470 1.5778
-8.1474 10.6396 1.5778
-8.4358 10.2296 1.5778
-8.7094 9.8174 1.5778
-8.9687 9.4033 1.5778
-9.2139 8.9874 1.5778
-9.4452 8.5701 1.5778
-9.6630 8.1515 1.5778
-9.4263 7.3862 1.5073
-9.8487 7.1587 1.5449
-10.2374 6.8903 1.5778
-10.4034 6.4687 1.5778
-10.2901 5.8938 1.5379
-10.4279 5.4823 1.5379
-10.5541 5.0706 1.5379
-10.6688 4.6590 1.5379
-10.5174 4.1470 1.5016
-10.8663 3.8368 1.5382
-11.0411 3.4550 1.5514
-11.3130 3.0958 1.5795
-11.3986 2.6803 1.5829
-11.4487 2.2586 1.5829
-11.4876 1.8375 1.5828
-11.5164 1.4171 1.5829
-11.5342 0.9974 1.5829
-11.5413 0.5785 1.5829
-11.5378 0.1604 1.5829
-11.5237 -0.2567 1.5829
-11.4992 -0.6729 1.5829
-11.4641 -1.0882 1.5829
-11.4186 -1.5023 1.5829
-11.3626 -1.9153 1.5829
-11.2961 -2.3272 1.5829
-11.6098 -2.8332 1.6380
-11.8566 -3.3521 1.6860
-11.7521 -3.7867 1.6860
-11.6363 -4.2197 1.6860
-11.5092 -4.6511 1.6860
-11.3706 -5.0808 1.6860
-11.2204 -5.5087 1.6860
-11.0586 -5.9348 1.6860
-10.8851 -6.3589 1.6860
-10.6997 -6.7809 1.6860
-10.5023 -7.2007 1.6860
-10.2927 -7.6181 1.6860
-10.0709 -8.0330 1.6860
-9.8366 -8.4453 1.6860
-9.5897 -8.8548 1.6860
-9.3300 -9.2614 1.6860
-9.0574 -9.6647 1.6860
-8.7715 -10.0647 1.6860
-8.4722 -10.4610 1.6860
-8.1593 -10.8535 1.6860
-7.3969 -10.6163 1.5922
-7.0331 -10.9138 1.5827
-6.6997 -11.2698 1.5827
-6.3528 -11.6211 1.5827
-5.9920 -11.9674 1.5827
-5.6170 -12.3082 1.5827
-5.2277 -12.6433 1.5827
-4.8238 -12.9721 1.5827
-4.2700 -12.8866 1.5342
-3.4407 -11.7913 1.3713
-2.7550 -10.8855 1.2379
-1.6918 -7.8660 0.8757
-1.3072 -7.3578 0.8027
-1.0472 -7.4410 0.7963
-0.7950 -7.6318 0.8020
-0.5317 -7.8311 0.8090
-0.2557 -8.0400 0.8172
0.0347 -8.2598 0.8270
0.3415 -8.4920 0.8383
0.6020 -7.8877 0.7685
0.8513 -7.5583 0.7276
1.0824 -7.2530 0.6907
1.3527 -7.2641 0.6850
1.6804 -7.5121 0.7022
2.0372 -7.7821 0.7220
2.4280 -8.0780 0.7447
2.7676 -8.1347 0.7462
3.2319 -8.4861 0.7755
3.7486 -8.8706 0.8087
3.9849 -8.5584 0.7795
4.2124 -8.2578 0.7525
4.4321 -7.9676 0.7276
4.6448 -7.6864 0.7046
3.0475 -4.6566 0.4292
3.1740 -4.4893 0.4169
3.2977 -4.3259 0.4055
3.4190 -4.1657 0.3950
3.5381 -4.0082 0.3854
0.8432 -0.8887 0.0869
0.8586 -0.8423 0.0839
0.8999 -0.8215 0.0836
3.1999 -2.7170 0.2835
3.2908 -2.5968 0.2787
3.3815 -2.4767 0.2744
3.4723 -2.3564 0.2707
3.5635 -2.2358 0.2675
3.6551 -2.1144 0.2647
3.7477 -1.9919 0.2625
3.8412 -1.8680 0.2607
3.9361 -1.7423 0.2595
4.0327 -1.6146 0.2588
4.1311 -1.4843 0.2586
4.2317 -1.3510 0.2590
4.3349 -1.2143 0.2599
4.4411 -1.0738 0.2615
4.5506 -0.9288 0.2636
4.6640 -0.7787 0.2664
4.7817 -0.6229 0.2699
4.9043 -0.4606 0.2742
5.0324 -0.2909 0.2793
5.1669 -0.1129 0.2852
5.3085 0.0746 0.2922
5.4582 0.2729 0.3002
5.6173 0.4834 0.3094
5.7869 0.7081 0.3200
5.9688 0.9488 0.3321
6.1647 1.2083 0.3458
6.3770 1.4894 0.3616
6.6085 1.7958 0.3796
6.8625 2.1321 0.4002
7.1742 2.5147 0.4258
13.0586 5.1106 0.7906
12.5969 5.4590 0.7798
12.1536 5.7936 0.7711
11.7265 6.1158 0.7643
12.3535 7.0180 0.8292
23.1762 14.2902 1.6060
22.3951 14.9439 1.6060
9.3945 6.7684 0.6989
8.7335 6.7814 0.6759
8.1288 6.7932 0.6560
7.5720 6.8041 0.6391
7.0564 6.8142 0.6246
6.5764 6.8236 0.6122
6.1273 6.8324 0.6018
6.0690 7.2769 0.6310
6.0799 7.8464 0.6714
6.0920 8.4737 0.7173
3.6839 5.5331 0.4644
3.2310 5.2523 0.4379
2.8386 5.0090 0.4157
2.4947 4.7958 0.3969
2.1899 4.6069 0.3809
1.9174 4.4380 0.3672
1.6716 4.2856 0.3554
1.4482 4.1472 0.3452
1.2438 4.0205 0.3364
1.0557 3.9039 0.3289
0.8814 3.7959 0.3223
0.7233 3.7162 0.3185
0.6135 3.8936 0.3372
0.4941 4.0866 0.3581
0.3635 4.2979 0.3815
0.2195 4.5306 0.4078
0.0597 4.7891 0.4376
-0.3789 16.1173 1.4969
-0.9495 15.9455 1.5068
-5.3610 10.4919 1.5778
-5.6769 10.1863 1.5778
-5.9801 9.8753 1.5778
-6.2706 9.5593 1.5778
-6.5488 9.2386 1.5778
-6.8146 8.9137 1.5778
-7.0682 8.5848 1.5778
-7.3098 8.2523 1.5778
-7.5394 7.9164 1.5778
-7.7574 7.5776 1.5778
-7.9637 7.2359 1.5778
-8.1586 6.8919 1.5778
-8.3422 6.5455 1.5778
-8.5146 6.1971 1.5778
-8.6760 5.8470 1.5778
-8.8265 5.4952 1.5778
-8.9662 5.1420 1.5778
-9.1242 4.8029 1.5829
-9.2431 4.4463 1.5829
-9.3515 4.0889 1.5829
-9.4496 3.7307 1.5829
-9.5374 3.3719 1.5829
-9.6150 3.0127 1.5829
-9.6826 2.6532 1.5829
-9.7402 2.2935 1.5829
-9.7879 1.9337 1.5829
-9.8255 1.5740 1.5828
-9.8534 1.2145 1.5828
-9.8715 0.8554 1.5828
-9.8808 0.4967 1.5829
-9.8799 0.1385 1.5829
-9.8733 -0.2192 1.5835
-9.9159 -0.5799 1.5936
-10.1981 -0.9679 1.6439
-10.4173 -1.3709 1.6860
-10.3654 -1.7479 1.6860
-10.3034 -2.1237 1.6860
-10.2312 -2.4982 1.6860
-10.1489 -2.8711 1.6860
-10.0565 -3.2425 1.6860
-9.9538 -3.6121 1.6860
-9.8408 -3.9799 1.6860
-9.7177 -4.3456 1.6860
-9.5842 -4.7093 1.6860
-9.4404 -5.0707 1.6860
-9.2861 -5.4296 1.6860
-9.1214 -5.7860 1.6860
-8.9461 -6.1396 1.6860
-8.7602 -6.4903 1.6860
-8.5637 -6.8379 1.6860
-8.3563 -7.1822 1.6860
-8.1382 -7.5230 1.6860
-7.9091 -7.8601 1.6860
-7.6689 -8.1932 1.6860
-7.4176 -8.5222 1.6860
-7.1552 -8.8467 1.6860
-6.8814 -9.1666 1.6860
-6.5962 -9.4815 1.6860
-5.9137 -9.1915 1.5827
-5.6243 -9.4769 1.5827
-5.3239 -9.7568 1.5827
-5.0125 -10.0308 1.5827
-4.6899 -10.2986 1.5827
-4.3561 -10.5599 1.5827
-4.0111 -10.8142 1.5827
-3.6547 -11.0612 1.5827
-3.2869 -11.3004 1.5827
-2.7396 -10.8645 1.4912
-1.6816 -7.8525 1.0574
-1.2983 -7.3460 0.9716
-1.0409 -7.4457 0.9683
-0.7885 -7.6367 0.9776
-0.5248 -7.8363 0.9885
-0.2484 -8.0455 1.0012
0.0424 -8.2656 1.0159
0.3497 -8.4981 1.0326
0.6088 -7.8788 0.9476
0.8575 -7.5501 0.8999
1.0881 -7.2454 0.8567
1.3608 -7.2702 0.8539
1.6892 -7.5188 0.8782
2.0467 -7.7894 0.9059
2.4385 -8.0859 0.9376
2.7787 -8.1431 0.9427
3.2441 -8.4954 0.9832
3.7546 -8.8627 1.0269
3.9906 -8.5509 0.9934
4.2178 -8.2507 0.9625
4.4372 -7.9608 0.9342
4.6497 -7.6799 0.9080
3.0504 -4.6527 0.5553
3.1768 -4.4856 0.5414
3.3004 -4.3223 0.5287
3.4216 -4.1623 0.5171
3.5406 -4.0050 0.5065
0.8433 -0.8876 0.1145
0.8593 -0.8418 0.1111
0.9015 -0.8218 0.1113
3.2016 -2.7148 0.3786
3.2924 -2.5946 0.3737
3.3831 -2.4746 0.3694
3.4738 -2.3544 0.3657
3.5649 -2.2339 0.3627
3.6565 -2.1125 0.3603
3.7490 -1.9901 0.3586
3.8425 -1.8663 0.3575
3.9374 -1.7407 0.3570
4.0338 -1.6130 0.3572
4.1322 -1.4828 0.3580
4.2328 -1.3496 0.3596
4.3359 -1.2130 0.3618
4.4420 -1.0726 0.3649
4.5515 -0.9276 0.3687
4.6648 -0.7777 0.3734
4.7824 -0.6219 0.3791
4.9049 -0.4597 0.3857
5.0330 -0.2902 0.3933
5.1673 -0.1123 0.4022
5.3088 0.0751 0.4123
5.4584 0.2732 0.4239
5.6173 0.4835 0.4370
5.7868 0.7079 0.4519
5.9685 0.9485 0.4687
6.1642 1.2076 0.4879
6.3763 1.4884 0.5096
6.6075 1.7945 0.5344
6.8611 2.1303 0.5626
7.1716 2.5120 0.5975
13.0619 5.1081 1.1080
12.6004 5.4564 1.0906
12.1574 5.7907 1.0759
11.7305 6.1128 1.0638
12.3493 7.0095 1.1501
17.4640 10.7584 1.6740
16.8512 11.2340 1.6664
9.4032 6.7681 0.9616
8.7420 6.7811 0.9267
8.1370 6.7929 0.8964
7.5800 6.8039 0.8700
7.0642 6.8140 0.8471
6.5840 6.8234 0.8273
6.1348 6.8322 0.8101
5.7349 6.8673 0.7984
5.5253 7.1208 0.8138
5.5362 7.6894 0.8659
3.6959 5.5425 0.6163
3.2414 5.2606 0.5788
2.8479 5.0164 0.5473
2.5029 4.8025 0.5204
2.1973 4.6130 0.4974
1.9240 4.4435 0.4776
1.6776 4.2907 0.4604
1.4538 4.1519 0.4455
1.2490 4.0249 0.4325
1.0604 3.9080 0.4212
0.8859 3.7998 0.4113
0.7260 3.7126 0.4041
0.6165 3.8897 0.4264
0.4974 4.0823 0.4512
0.3671 4.2931 0.4790
0.2235 4.5253 0.5103
0.0640 4.7832 0.5459
-0.3091 13.6897 1.5829
-0.7910 13.4959 1.5829
-4.5825 8.9878 1.5829
-4.8603 8.7389 1.5829
-5.1278 8.4842 1.5829
-5.3849 8.2240 1.5829
-5.6317 7.9587 1.5829
-5.8682 7.6885 1.5829
-6.0945 7.4140 1.5829
-6.3106 7.1352 1.5829
-6.5166 6.8526 1.5829
-6.7126 6.5664 1.5829
-6.8986 6.2769 1.5829
-7.0747 5.9844 1.5829
-7.2409 5.6890 1.5829
-7.3974 5.3911 1.5829
-7.5443 5.0909 1.5829
-7.6815 4.7885 1.5829
-7.8091 4.4842 1.5829
-7.9274 4.1782 1.5829
-8.0362 3.8706 1.5829
-8.1356 3.5617 1.5829
-8.2258 3.2517 1.5829
-8.3069 2.9406 1.5829
-8.3787 2.6287 1.5829
-8.4415 2.3162 1.5829
-8.4953 2.0031 1.5829
-8.5434 1.6903 1.5835
-8.5758 1.3760 1.5829
-8.6740 1.0710 1.5960
-8.8833 0.7713 1.6311
-9.1145 0.4595 1.6717
-9.1928 0.1298 1.6860
-9.1840 -0.2032 1.6860
-9.1660 -0.5357 1.6860
-9.1386 -0.8673 1.6860
-9.1020 -1.1980 1.6860
-9.0561 -1.5277 1.6860
-9.0010 -1.8562 1.6860
-8.9366 -2.1833 1.6860
-8.8631 -2.5089 1.6860
-8.7803 -2.8329 1.6860
-8.6882 -3.1551 1.6860
-8.5869 -3.4754 1.6860
-8.4764 -3.7935 1.6860
-8.3565 -4.1095 1.6860
-8.2274 -4.4230 1.6860
-8.0889 -4.7339 1.6860
-7.9411 -5.0420 1.6860
-7.7839 -5.3472 1.6860
-7.6174 -5.6492 1.6860
-7.4414 -5.9480 1.6860
-7.2559 -6.2431 1.6860
-7.0609 -6.5346 1.6860
-6.8564 -6.8221 1.6860
-6.6424 -7.1053 1.6860
-6.4188 -7.3842 1.6860
-6.1856 -7.6583 1.6860
-5.9427 -7.9276 1.6860
-5.6901 -8.1916 1.6860
-5.0955 -7.9326 1.5827
-4.8403 -8.1699 1.5827
-4.5759 -8.4015 1.5827
-4.3024 -8.6270 1.5827
-4.0198 -8.8463 1.5827
-3.7281 -9.0589 1.5827
-3.4274 -9.2645 1.5827
-3.1176 -9.4628 1.5827
-2.7988 -9.6534 1.5827
-2.4710 -9.8360 1.5827
-1.6714 -7.8390 1.2394
-1.2894 -7.3343 1.1408
-1.0347 -7.4504 1.1414
-0.7819 -7.6417 1.1543
-0.5179 -7.8416 1.1693
-0.2411 -8.0510 1.1865
0.0502 -8.2714 1.2061
0.3579 -8.5044 1.2284
0.6155 -7.8699 1.1273
0.8637 -7.5419 1.0727
1.0939 -7.2378 1.0234
1.3690 -7.2764 1.0241
1.6980 -7.5255 1.0555
2.0563 -7.7966 1.0912
2.4490 -8.0938 1.1319
2.7899 -8.1516 1.1407
3.2565 -8.5047 1.1925
3.7606 -8.8548 1.2459
3.9963 -8.5434 1.2080
4.2232 -8.2435 1.1733
4.4424 -7.9540 1.1415
4.6546 -7.6734 1.1123
3.0534 -4.6487 0.6819
3.1797 -4.4819 0.6665
3.3031 -4.3187 0.6524
3.4242 -4.1588 0.6397
3.5431 -4.0017 0.6281
0.8435 -0.8865 0.1423
0.8600 -0.8412 0.1385
0.9030 -0.8220 0.1392
3.2034 -2.7125 0.4740
3.2941 -2.5924 0.4690
3.3847 -2.4725 0.4647
3.4754 -2.3524 0.4611
3.5664 -2.2319 0.4584
3.6579 -2.1107 0.4563
3.7503 -1.9883 0.4551
3.8438 -1.8646 0.4546
3.9386 -1.7391 0.4548
4.0350 -1.6115 0.4559
4.1333 -1.4813 0.4578
4.2338 -1.3482 0.4605
4.3369 -1.2117 0.4641
4.4430 -1.0713 0.4687
4.5524 -0.9265 0.4743
4.6656 -0.7766 0.4809
4.7831 -0.6210 0.4886
4.9055 -0.4589 0.4976
5.0335 -0.2895 0.5078
5.1678 -0.1117 0.5196
5.3091 0.0755 0.5329
5.4587 0.2734 0.5479
5.6174 0.4836 0.5650
5.7867 0.7078 0.5842
5.9682 0.9481 0.6059
6.1638 1.2070 0.6304
6.3756 1.4875 0.6582
6.6065 1.7932 0.6897
6.8598 2.1285 0.7255
7.1690 2.5094 0.7697
13.0651 5.1056 1.4267
12.5504 5.4305 1.3966
12.1612 5.7879 1.3819
11.7346 6.1098 1.3644
12.3450 7.0009 1.4717
13.7693 8.4747 1.6867
13.3756 8.9085 1.6873
9.4490 6.7944 1.2303
8.5410 6.6184 1.1505
8.1773 6.8193 1.1423
7.6178 6.8303 1.1065
7.0998 6.8404 1.0750
6.6176 6.8499 1.0475
6.1664 6.8587 1.0234
5.6790 6.7913 0.9913
5.4101 6.9625 0.9967
5.1649 7.1632 1.0079
3.7080 5.5519 0.7696
3.2520 5.2689 0.7209
2.8571 5.0239 0.6799
2.5111 4.8092 0.6449
2.2047 4.6191 0.6148
1.9308 4.4491 0.5889
1.6838 4.2959 0.5663
1.4594 4.1567 0.5466
1.2542 4.0294 0.5293
1.0652 3.9122 0.5142
0.7876 3.3647 0.4431
0.6658 3.3890 0.4478
0.5434 3.4090 0.4525
0.4204 3.4249 0.4573
0.2970 3.4365 0.4622
0.1732 3.4440 0.4672
0.0493 3.4471 0.4722
-0.0746 3.4461 0.4773
-0.1984 3.4408 0.4824
-3.9866 7.8359 1.5829
-4.2335 7.6274 1.5829
-4.4718 7.4131 1.5829
-4.7013 7.1932 1.5829
-4.9221 6.9681 1.5829
-5.1342 6.7381 1.5829
-5.3375 6.5036 1.5829
-5.5321 6.2647 1.5829
-5.7179 6.0218 1.5829
-5.8950 5.7751 1.5829
-6.0635 5.5249 1.5829
-6.2232 5.2714 1.5829
-6.3743 5.0149 1.5829
-6.5167 4.7556 1.5829
-6.6506 4.4937 1.5829
-6.7760 4.2295 1.5829
-6.8928 3.9630 1.5829
-7.0174 3.7032 1.5865
-7.1010 3.4245 1.5829
-7.1925 3.1528 1.5829
-7.3016 2.8900 1.5885
-7.4736 2.6491 1.6094
-7.6486 2.4028 1.6323
-7.8272 2.1505 1.6574
-8.0155 1.8926 1.6860
-8.0601 1.5970 1.6860
-8.0960 1.3010 1.6860
-8.1233 1.0048 1.6860
-8.1419 0.7084 1.6860
-8.1519 0.4121 1.6860
-8.1534 0.1160 1.6860
-8.1463 -0.1796 1.6860
-8.1307 -0.4748 1.6860
-8.1066 -0.7693 1.6860
-8.0740 -1.0629 1.6860
-8.0329 -1.3556 1.6860
-7.9834 -1.6471 1.6860
-7.9254 -1.9373 1.6860
-7.8590 -2.2261 1.6860
-7.7842 -2.5132 1.6860
-7.7009 -2.7986 1.6860
-7.6092 -3.0820 1.6860
-7.5090 -3.3633 1.6860
-7.4005 -3.6424 1.6860
-7.2835 -3.9190 1.6860
-7.1581 -4.1929 1.6860
-7.0243 -4.4641 1.6860
-6.8821 -4.7323 1.6860
-6.7315 -4.9973 1.6860
-6.5724 -5.2589 1.6860
-6.4049 -5.5170 1.6860
-6.2290 -5.7712 1.6860
-6.0446 -6.0215 1.6860
-5.8519 -6.2676 1.6860
-5.6508 -6.5092 1.6860
-5.4413 -6.7461 1.6860
-5.2233 -6.9781 1.6860
-4.9971 -7.2049 1.6860
-4.4709 -6.9715 1.5827
-4.2428 -7.1740 1.5827
-4.0071 -7.3708 1.5827
-3.7636 -7.5618 1.5827
-3.5125 -7.7466 1.5827
-3.2538 -7.9249 1.5827
-2.9875 -8.0966 1.5827
-2.7138 -8.2611 1.5827
-2.4327 -8.4184 1.5827
-2.1444 -8.5680 1.5827
-1.6612 -7.8255 1.4221
-1.2805 -7.3225 1.3106
-1.0284 -7.4552 1.3158
-0.7753 -7.6467 1.3324
-0.5109 -7.8468 1.3515
-0.2337 -8.0566 1.3732
0.0580 -8.2774 1.3978
0.3662 -8.5106 1.4256
0.6222 -7.8610 1.3078
0.8700 -7.5337 1.2463
1.0997 -7.2302 1.1908
1.3772 -7.2827 1.1957
1.7070 -7.5322 1.2343
2.0660 -7.8040 1.2781
2.4624 -8.1111 1.3294
2.8011 -8.1601 1.3404
3.2690 -8.5142 1.4036
3.7666 -8.8469 1.4659
4.0020 -8.5358 1.4238
4.2286 -8.2364 1.3852
4.4475 -7.9471 1.3498
4.6596 -7.6669 1.3175
3.0563 -4.6448 0.8090
3.1825 -4.4781 0.7921
3.3059 -4.3151 0.7768
3.4268 -4.1554 0.7628
3.5456 -3.9984 0.7503
0.8437 -0.8853 0.1702
0.8607 -0.8406 0.1661
0.9046 -0.8223 0.1673
3.2051 -2.7103 0.5700
3.2957 -2.5902 0.5648
3.3862 -2.4704 0.5605
3.4769 -2.3504 0.5570
3.5678 -2.2300 0.5545
3.6594 -2.1088 0.5528
3.7517 -1.9866 0.5520
3.8451 -1.8629 0.5521
3.9398 -1.7375 0.5532
4.0362 -1.6099 0.5551
4.1344 -1.4798 0.5580
4.2349 -1.3468 0.5620
4.3379 -1.2104 0.5669
4.4439 -1.0701 0.5730
4.5532 -0.9253 0.5803
4.6664 -0.7755 0.5888
4.7838 -0.6200 0.5987
4.9062 -0.4581 0.6100
5.0340 -0.2887 0.6229
5.1682 -0.1111 0.6375
5.3095 0.0759 0.6540
5.4589 0.2737 0.6726
5.6175 0.4837 0.6935
5.7866 0.7077 0.7171
5.9680 0.9478 0.7436
6.1633 1.2064 0.7736
6.3749 1.4865 0.8073
6.6054 1.7918 0.8456
6.8584 2.1267 0.8891
7.1664 2.5067 0.9425
11.8416 4.6241 1.5829
12.3861 5.3553 1.6860
12.1424 5.7742 1.6863
11.8786 6.1796 1.6863
11.5972 6.5711 1.6864
11.3010 6.9491 1.6868
10.9897 7.3125 1.6872
9.4579 6.7941 1.4969
8.5133 6.5902 1.3921
8.1856 6.8190 1.3863
7.6260 6.8300 1.3409
7.1078 6.8402 1.3009
6.6253 6.8496 1.2658
5.9805 6.6436 1.1961
5.5766 6.6599 1.1712
5.3546 6.8815 1.1849
5.1095 7.0759 1.1957
3.7202 5.5614 0.9243
3.2465 5.2513 0.8601
2.8665 5.0314 0.8137
2.5195 4.8160 0.7705
2.2122 4.6252 0.7333
1.9376 4.4548 0.7011
1.6900 4.3011 0.6730
1.4651 4.1615 0.6485
1.2594 4.0339 0.6270
0.7895 2.8897 0.4486
0.6849 2.9145 0.4526
0.5795 2.9356 0.4566
0.4735 2.9531 0.4607
0.3670 2.9670 0.4649
0.2601 2.9771 0.4691
0.1529 2.9836 0.4734
0.0455 2.9864 0.4778
-0.0618 2.9855 0.4822
-0.1691 2.9808 0.4866
-3.7525 7.3921 1.6860
-3.9889 7.2016 1.6860
-4.1875 6.9553 1.6740
-4.3758 6.7075 1.6624
-4.5611 6.4684 1.6536
-4.7420 6.2339 1.6468
-4.9190 6.0033 1.6418
-5.0925 5.7760 1.6387
-5.2632 5.5513 1.6374
-5.4314 5.3288 1.6378
-5.5977 5.1078 1.6400
-5.7622 4.8878 1.6438
-5.9256 4.6683 1.6493
-6.0882 4.4488 1.6566
-6.2508 4.2291 1.6657
-6.4164 4.0103 1.6773
-6.5640 3.7789 1.6860
-6.6703 3.5246 1.6860
-6.7684 3.2683 1.6860
-6.8584 3.0102 1.6860
-6.9402 2.7505 1.6860
-7.0141 2.4894 1.6860
-7.0798 2.2271 1.6860
-7.1375 1.9637 1.6860
-7.1872 1.6994 1.6860
-7.2289 1.4344 1.6860
-7.2626 1.1689 1.6860
-7.2884 0.9031 1.6860
-7.3062 0.6370 1.6860
-7.3162 0.3709 1.6860
-7.3182 0.1050 1.6860
-7.3124 -0.1607 1.6860
-7.2987 -0.4259 1.6860
-7.2771 -0.6905 1.6860
-7.2478 -0.9544 1.6860
-7.2106 -1.2173 1.6860
-7.1657 -1.4791 1.6860
-7.1130 -1.7397 1.6860
-7.0525 -1.9989 1.6860
-6.9843 -2.2565 1.6860
-6.9083 -2.5124 1.6860
-6.8247 -2.7664 1.6860
-6.7333 -3.0183 1.6860
-6.6342 -3.2680 1.6860
-6.5275 -3.5152 1.6860
-6.4131 -3.7599 1.6860
-6.2910 -4.0018 1.6860
-6.1613 -4.2408 1.6860
-6.0240 -4.4767 1.6860
-5.8791 -4.7092 1.6860
-5.7266 -4.9382 1.6860
-5.5665 -5.1634 1.6860
-5.3990 -5.3848 1.6860
-5.2239 -5.6020 1.6860
-5.0413 -5.8148 1.6860
-4.8514 -6.0231 1.6860
-4.6540 -6.2266 1.6860
-4.4493 -6.4251 1.6860
-3.9778 -6.2129 1.5827
-3.7721 -6.3891 1.5827
-3.5596 -6.5599 1.5827
-3.3404 -6.7250 1.5827
-3.1146 -6.8842 1.5827
-2.8824 -7.0373 1.5827
-2.6438 -7.1840 1.5827
-2.3989 -7.3240 1.5827
-2.1478 -7.4571 1.5827
-1.8906 -7.5829 1.5827
-1.6275 -7.7013 1.5827
-1.2715 -7.3106 1.4812
-1.0220 -7.4600 1.4918
-0.7686 -7.6518 1.5122
-0.5039 -7.8522 1.5354
-0.2263 -8.0622 1.5616
0.0659 -8.2833 1.5913
0.3746 -8.5170 1.6247
0.6290 -7.8520 1.4892
0.8763 -7.5254 1.4208
1.1055 -7.2224 1.3591
1.3856 -7.2890 1.3688
1.7160 -7.5391 1.4148
2.0758 -7.8114 1.4668
2.4382 -8.0046 1.5060
2.7468 -7.9777 1.5060
3.0566 -7.9394 1.5060
3.3674 -7.8895 1.5060
3.6786 -7.8277 1.5060
3.9896 -7.7540 1.5060
4.3001 -7.6681 1.5060
4.6095 -7.5698 1.5060
3.0593 -4.6409 0.9370
3.1854 -4.4743 0.9185
3.3086 -4.3115 0.9018
3.4294 -4.1519 0.8867
3.5481 -3.9950 0.8732
0.8438 -0.8842 0.1983
0.8613 -0.8401 0.1938
0.9062 -0.8226 0.1957
3.2068 -2.7080 0.6665
3.2974 -2.5880 0.6611
3.3879 -2.4683 0.6568
3.4784 -2.3484 0.6535
3.5693 -2.2280 0.6512
3.6608 -2.1069 0.6499
3.7530 -1.9848 0.6496
3.8464 -1.8612 0.6503
3.9411 -1.7358 0.6521
4.0374 -1.6083 0.6549
4.1356 -1.4783 0.6589
4.2360 -1.3454 0.6640
4.3389 -1.2091 0.6704
4.4448 -1.0688 0.6780
4.5541 -0.9242 0.6870
4.6672 -0.7745 0.6974
4.7845 -0.6191 0.7094
4.9068 -0.4572 0.7231
5.0346 -0.2880 0.7386
5.1687 -0.1105 0.7561
5.3098 0.0764 0.7758
5.4591 0.2740 0.7979
5.6175 0.4838 0.8228
5.7865 0.7076 0.8508
5.9677 0.9474 0.8821
6.1628 1.2057 0.9175
6.3741 1.4855 0.9573
6.6044 1.7904 1.0024
6.8570 2.1249 1.0535
7.1638 2.5040 1.1161
10.0006 3.9023 1.5829
9.8261 4.2451 1.5829
9.6369 4.5790 1.5829
9.4333 4.9033 1.5829
9.2160 5.2172 1.5829
8.9857 5.5203 1.5829
8.7430 5.8120 1.5829
9.0428 6.4894 1.6862
8.7611 6.7750 1.6864
8.4685 7.0471 1.6866
8.1657 7.3052 1.6867
7.8535 7.5490 1.6869
6.6332 6.8493 1.4856
5.9658 6.6188 1.3972
5.5632 6.6350 1.3666
5.4194 6.9551 1.4010
5.1961 7.1851 1.4188
3.3169 4.9508 0.9603
3.1237 5.0442 0.9631
2.8760 5.0390 0.9489
2.5279 4.8229 0.8973
2.2198 4.6315 0.8529
1.9444 4.4605 0.8144
1.6962 4.3063 0.7808
1.4708 4.1664 0.7514
0.7895 2.5212 0.4529
0.6982 2.5464 0.4564
0.6060 2.5683 0.4599
0.5132 2.5871 0.4634
0.4197 2.6026 0.4670
0.3259 2.6148 0.4707
0.2317 2.6238 0.4745
0.1372 2.6296 0.4782
0.0426 2.6320 0.4821
-0.0520 2.6312 0.4859
-0.1465 2.6271 0.4898
-3.3572 6.6281 1.6860
-3.5717 6.4617 1.6860
-3.7793 6.2896 1.6860
-3.9799 6.1120 1.6860
-4.1735 5.9292 1.6860
-4.3599 5.7414 1.6860
-4.5392 5.5489 1.6860
-4.7113 5.3520 1.6860
-4.8761 5.1508 1.6860
-5.0335 4.9457 1.6860
-5.1837 4.7368 1.6860
-5.3264 4.5245 1.6860
-5.4618 4.3088 1.6860
-5.5898 4.0902 1.6860
-5.7103 3.8686 1.6860
-5.8235 3.6445 1.6860
-5.9292 3.4179 1.6860
-6.0275 3.1891 1.6860
-6.1183 2.9582 1.6860
-6.2017 2.7255 1.6860
-6.2777 2.4912 1.6860
-6.3463 2.2554 1.6860
-6.4075 2.0183 1.6860
-6.4613 1.7801 1.6860
-6.5077 1.5409 1.6860
-6.5467 1.3010 1.6860
-6.5784 1.0605 1.6860
-6.6027 0.8196 1.6860
-6.6197 0.5784 1.6860
-6.6294 0.3371 1.6860
-6.6318 0.0959 1.6860
-6.6269 -0.1451 1.6860
-6.6147 -0.3857 1.6860
-6.5953 -0.6258 1.6860
-6.5686 -0.8651 1.6860
-6.5347 -1.1036 1.6860
-6.4936 -1.3411 1.6860
-6.4453 -1.5773 1.6860
-6.3899 -1.8122 1.6860
-6.3273 -2.0456 1.6860
-6.2576 -2.2774 1.6860
-6.1807 -2.5073 1.6860
-6.0968 -2.7352 1.6860
-6.0058 -2.9609 1.6860
-5.9077 -3.1843 1.6860
-5.8026 -3.4051 1.6860
-5.6905 -3.6233 1.6860
-5.5714 -3.8386 1.6860
-5.4454 -4.0509 1.6860
-5.3125 -4.2599 1.6860
-5.1727 -4.4655 1.6860
-5.0261 -4.6675 1.6860
-4.8726 -4.8657 1.6860
-4.7124 -5.0599 1.6860
-4.5455 -5.2499 1.6860
-4.3719 -5.4355 1.6860
-4.1918 -5.6165 1.6860
-4.0051 -5.7926 1.6860
-3.5785 -5.5984 1.5827
-3.3912 -5.7541 1.5827
-3.1979 -5.9046 1.5827
-2.9988 -6.0497 1.5827
-2.7940 -6.1892 1.5827
-2.5835 -6.3229 1.5827
-2.3676 -6.4506 1.5827
-2.1462 -6.5719 1.5827
-1.9195 -6.6868 1.5827
-1.6876 -6.7949 1.5827
-1.4508 -6.8960 1.5827
-1.2091 -6.9900 1.5827
-0.9628 -7.0764 1.5827
-0.7119 -7.1552 1.5827
-0.4568 -7.2260 1.5827
-0.1976 -7.2886 1.5827
0.0654 -7.3428 1.5827
0.3411 -7.5901 1.6260
0.6184 -7.6277 1.6260
0.8826 -7.5170 1.5964
1.1114 -7.2147 1.5285
1.3688 -7.1635 1.5159
1.6266 -7.1152 1.5060
1.8951 -7.1045 1.5060
2.1651 -7.0840 1.5060
2.4360 -7.0537 1.5060
2.7075 -7.0133 1.5060
2.9793 -6.9627 1.5060
3.2510 -6.9017 1.5060
3.5220 -6.8302 1.5060
3.7920 -6.7481 1.5060
4.0605 -6.6554 1.5060
3.0623 -4.6369 1.0658
3.1883 -4.4705 1.0458
3.3114 -4.3079 1.0278
3.4320 -4.1484 1.0115
3.5507 -3.9917 0.9970
0.8440 -0.8830 0.2265
0.8620 -0.8396 0.2217
0.9078 -0.8229 0.2243
3.2085 -2.7057 0.7637
3.2991 -2.5858 0.7582
3.3895 -2.4662 0.7539
3.4799 -2.3463 0.7507
3.5708 -2.2261 0.7486
3.6622 -2.1050 0.7476
3.7544 -1.9829 0.7478
3.8477 -1.8594 0.7492
3.9423 -1.7342 0.7517
4.0386 -1.6068 0.7555
4.1367 -1.4768 0.7605
4.2370 -1.3440 0.7668
4.3399 -1.2077 0.7745
4.4458 -1.0676 0.7837
4.5550 -0.9230 0.7944
4.6680 -0.7734 0.8067
4.7853 -0.6181 0.8209
4.9074 -0.4563 0.8369
5.0351 -0.2873 0.8551
5.1691 -0.1099 0.8755
5.3102 0.0768 0.8984
5.4593 0.2743 0.9241
5.6176 0.4839 0.9530
5.7865 0.7075 0.9853
5.9674 0.9470 1.0215
6.1623 1.2051 1.0623
6.3734 1.4846 1.1082
6.6034 1.7891 1.1601
6.8556 2.1230 1.2189
7.1611 2.5013 1.2908
8.6474 3.3718 1.5829
8.5000 3.6693 1.5829
8.3400 3.9596 1.5829
8.1678 4.2419 1.5829
7.9840 4.5158 1.5829
7.7889 4.7807 1.5829
7.5832 5.0362 1.5829
7.3674 5.2819 1.5829
7.1421 5.5173 1.5829
6.9078 5.7422 1.5829
7.1001 6.3448 1.6862
6.8342 6.5615 1.6863
6.5606 6.7661 1.6865
6.2800 6.9584 1.6867
5.6393 6.7168 1.5873
5.7004 7.3052 1.6870
3.5580 4.9126 1.1111
3.2656 4.8665 1.0803
3.0784 4.9626 1.0834
2.8855 5.0467 1.0856
2.5364 4.8298 1.0256
2.2275 4.6378 0.9739
1.9513 4.4662 0.9290
1.7025 4.3117 0.8898
0.7880 2.2261 0.4565
0.7072 2.2515 0.4595
0.6256 2.2740 0.4625
0.5434 2.2937 0.4656
0.4605 2.3105 0.4688
0.3771 2.3244 0.4721
0.2933 2.3354 0.4753
0.2091 2.3434 0.4787
0.1248 2.3486 0.4821
0.0403 2.3508 0.4855
-0.0442 2.3500 0.4889
-0.1286 2.3463 0.4924
-3.0332 6.0020 1.6860
-3.2293 5.8547 1.6860
-3.4193 5.7018 1.6860
-3.6031 5.5438 1.6860
-3.7806 5.3808 1.6860
-3.9519 5.2130 1.6860
-4.1167 5.0407 1.6860
-4.2750 4.8641 1.6860
-4.4268 4.6834 1.6860
-4.5720 4.4989 1.6860
-4.7105 4.3108 1.6860
-4.8424 4.1192 1.6860
-4.9676 3.9244 1.6860
-5.0861 3.7267 1.6860
-5.1977 3.5261 1.6860
-5.3026 3.3229 1.6860
-5.4007 3.1174 1.6860
-5.4920 2.9096 1.6860
-5.5764 2.6997 1.6860
-5.6541 2.4881 1.6860
-5.7249 2.2748 1.6860
-5.7888 2.0600 1.6860
-5.8459 1.8439 1.6860
-5.8962 1.6266 1.6860
-5.9396 1.4084 1.6860
-5.9762 1.1894 1.6860
-6.0060 0.9698 1.6860
-6.0290 0.7497 1.6860
-6.0451 0.5293 1.6860
-6.0545 0.3088 1.6860
-6.0571 0.0883 1.6860
-6.0529 -0.1321 1.6860
-6.0420 -0.3521 1.6860
-6.0243 -0.5716 1.6860
-5.9999 -0.7904 1.6860
-5.9687 -1.0084 1.6860
-5.9309 -1.2255 1.6860
-5.8864 -1.4414 1.6860
-5.8353 -1.6560 1.6860
-5.7775 -1.8692 1.6860
-5.7131 -2.0808 1.6860
-5.6421 -2.2906 1.6860
-5.5646 -2.4985 1.6860
-5.4805 -2.7043 1.6860
-5.3899 -2.9078 1.6860
-5.2928 -3.1089 1.6860
-5.1893 -3.3074 1.6860
-5.0794 -3.5031 1.6860
-4.9631 -3.6959 1.6860
-4.8404 -3.8856 1.6860
-4.7115 -4.0719 1.6860
-4.5763 -4.2548 1.6860
-4.4349 -4.4341 1.6860
-4.2874 -4.6095 1.6860
-4.1338 -4.7809 1.6860
-3.9742 -4.9480 1.6860
-3.8086 -5.1108 1.6860
-3.6372 -5.2689 1.6860
-3.3590 -5.2639 1.6368
-3.1013 -5.2717 1.5955
-2.8993 -5.3636 1.5827
-2.7171 -5.4928 1.5827
-2.5299 -5.6167 1.5827
-2.3376 -5.7351 1.5827
-2.1405 -5.8477 1.5827
-1.9387 -5.9545 1.5827
-1.7323 -6.0552 1.5827
-1.5214 -6.1496 1.5827
-1.3062 -6.2375 1.5827
-1.0869 -6.3186 1.5827
-0.8636 -6.3928 1.5827
-0.6366 -6.4599 1.5827
-0.4060 -6.5203 1.5829
-0.1719 -6.5725 1.5829
0.0653 -6.6169 1.5829
0.3054 -6.6534 1.5829
0.5482 -6.6818 1.5829
0.8150 -6.8843 1.6260
1.0691 -6.8961 1.6260
1.3251 -6.8990 1.6260
1.5827 -6.8929 1.6260
1.7746 -6.6272 1.5668
1.9580 -6.3849 1.5150
2.1875 -6.3151 1.5060
2.4289 -6.2743 1.5060
2.6702 -6.2243 1.5060
2.9109 -6.1652 1.5060
3.1507 -6.0967 1.5060
3.3892 -6.0189 1.5060
3.6261 -5.9317 1.5060
3.0654 -4.6329 1.1957
3.1912 -4.4667 1.1742
3.3141 -4.3042 1.1547
3.4347 -4.1449 1.1373
3.5532 -3.9883 1.1218
0.8441 -0.8818 0.2549
0.8627 -0.8390 0.2498
0.9094 -0.8231 0.2532
3.2103 -2.7034 0.8617
3.3007 -2.5836 0.8560
3.3911 -2.4640 0.8517
3.4815 -2.3443 0.8486
3.5723 -2.2241 0.8468
3.6636 -2.1031 0.8462
3.7558 -1.9811 0.8469
3.8490 -1.8577 0.8488
3.9436 -1.7325 0.8521
4.0398 -1.6052 0.8568
4.1378 -1.4753 0.8629
4.2381 -1.3425 0.8704
4.3410 -1.2064 0.8795
4.4467 -1.0663 0.8902
4.5559 -0.9218 0.9027
4.6688 -0.7723 0.9169
4.7860 -0.6172 0.9332
4.9081 -0.4555 0.9517
5.0357 -0.2865 0.9725
5.1696 -0.1093 0.9958
5.3105 0.0773 1.0220
5.4595 0.2746 1.0513
5.6177 0.4840 1.0841
5.7864 0.7073 1.1208
5.9671 0.9467 1.1620
6.1618 1.2044 1.2082
6.3726 1.4835 1.2602
6.6023 1.7877 1.3189
6.8542 2.1212 1.3855
7.1585 2.4986 1.4666
7.6100 2.9650 1.5829
7.4827 3.2276 1.5829
7.3443 3.4839 1.5829
7.1954 3.7336 1.5829
7.0364 3.9762 1.5829
6.8675 4.2112 1.5829
6.6894 4.4383 1.5829
6.5024 4.6570 1.5829
6.3069 4.8670 1.5829
6.1035 5.0681 1.5829
5.8927 5.2598 1.5829
6.0446 5.7966 1.6860
5.8063 5.9809 1.6862
5.5618 6.1547 1.6864
5.3115 6.3178 1.6865
5.0558 6.4700 1.6867
3.5239 4.8582 1.2396
3.2458 4.8293 1.2086
3.0605 4.9254 1.2114
2.8952 5.0545 1.2241
2.5451 4.8368 1.1554
2.2352 4.6442 1.0963
0.8563 1.9554 0.4569
0.7852 1.9835 0.4595
0.7131 2.0090 0.4621
0.6403 2.0320 0.4648
0.5667 2.0524 0.4675
0.4924 2.0702 0.4704
0.4176 2.0854 0.4732
0.3424 2.0980 0.4761
0.2667 2.1080 0.4791
0.1908 2.1153 0.4821
0.1146 2.1199 0.4852
0.0384 2.1219 0.4882
-0.0379 2.1212 0.4914
-0.1141 2.1179 0.4945
-2.7626 5.4790 1.6860
-2.9430 5.3470 1.6860
-3.1180 5.2099 1.6860
-3.2874 5.0678 1.6860
-3.4512 4.9209 1.6860
-3.6093 4.7695 1.6860
-3.7617 4.6138 1.6860
-3.9081 4.4539 1.6860
-4.0487 4.2901 1.6860
-4.1832 4.1226 1.6860
-4.3117 3.9517 1.6860
-4.4342 3.7774 1.6860
-4.5504 3.5999 1.6860
-4.6606 3.4196 1.6860
-4.7645 3.2366 1.6860
-4.8621 3.0510 1.6860
-4.9535 2.8630 1.6860
-5.0386 2.6729 1.6860
-5.1174 2.4808 1.6860
-5.1899 2.2869 1.6860
-5.2561 2.0913 1.6860
-5.3159 1.8942 1.6860
-5.3693 1.6959 1.6860
-5.4164 1.4963 1.6860
-5.4572 1.2959 1.6860
-5.4916 1.0946 1.6860
-5.5197 0.8927 1.6860
-5.5414 0.6903 1.6860
-5.5567 0.4876 1.6860
-5.5658 0.2847 1.6860
-5.5685 0.0818 1.6860
-5.5648 -0.1210 1.6860
-5.5549 -0.3235 1.6860
-5.5387 -0.5254 1.6860
-5.5162 -0.7268 1.6860
-5.4874 -0.9275 1.6860
-5.4525 -1.1272 1.6860
-5.4112 -1.3258 1.6860
-5.3638 -1.5232 1.6860
-5.3102 -1.7192 1.6860
-5.2504 -1.9137 1.6860
-5.1846 -2.1065 1.6860
-5.1126 -2.2974 1.6860
-5.0345 -2.4863 1.6860
-4.9504 -2.6731 1.6860
-4.8603 -2.8575 1.6860
-4.7642 -3.0394 1.6860
-4.6622 -3.2187 1.6860
-4.5543 -3.3951 1.6860
-4.4406 -3.5685 1.6860
-4.3211 -3.7388 1.6860
-4.1958 -3.9057 1.6860
-4.0649 -4.0692 1.6860
-3.9283 -4.2289 1.6860
-3.7862 -4.3849 1.6860
-3.6386 -4.5367 1.6860
-3.4856 -4.6844 1.6860
-3.3273 -4.8276 1.6860
-3.1637 -4.9663 1.6860
-2.8115 -4.7878 1.5827
-2.6484 -4.9089 1.5827
-2.4806 -5.0251 1.5827
-2.3083 -5.1363 1.5827
-2.1315 -5.2423 1.5827
-1.9506 -5.3436 1.5829
-1.7653 -5.4387 1.5829
-1.5760 -5.5281 1.5829
-1.3828 -5.6115 1.5829
-1.1858 -5.6889 1.5829
-0.9852 -5.7600 1.5829
-0.7812 -5.8247 1.5829
-0.5740 -5.8827 1.5829
-0.3637 -5.9340 1.5829
-0.1506 -5.9782 1.5829
0.0652 -6.0153 1.5829
0.2834 -6.0451 1.5829
0.5038 -6.0675 1.5829
0.7261 -6.0822 1.5829
0.9501 -6.0891 1.5829
1.2075 -6.2538 1.6260
1.4402 -6.2444 1.6260
1.6738 -6.2267 1.6260
1.9079 -6.2005 1.6260
2.1365 -6.1490 1.6216
2.3021 -5.9302 1.5750
2.4605 -5.7209 1.5326
2.6337 -5.5648 1.5060
2.8485 -5.4997 1.5060
3.0618 -5.4262 1.5060
3.2734 -5.3443 1.5060
3.0684 -4.6289 1.3268
3.1941 -4.4628 1.3037
3.3169 -4.3005 1.2829
3.4374 -4.1413 1.2643
3.5558 -3.9849 1.2477
0.8443 -0.8807 0.2835
0.8635 -0.8384 0.2782
0.9110 -0.8234 0.2825
3.2120 -2.7010 0.9606
3.3024 -2.5814 0.9548
3.3927 -2.4618 0.9504
3.4831 -2.3422 0.9474
3.5738 -2.2221 0.9458
3.6651 -2.1012 0.9456
3.7572 -1.9793 0.9468
3.8504 -1.8559 0.9494
3.9449 -1.7308 0.9535
4.0410 -1.6035 0.9591
4.1390 -1.4738 0.9662
4.2392 -1.3411 0.9750
4.3420 -1.2050 0.9854
4.4477 -1.0650 0.9977
4.5568 -0.9207 1.0119
4.6696 -0.7713 1.0282
4.7867 -0.6162 1.0466
4.9087 -0.4546 1.0675
5.0363 -0.2858 1.0909
5.1700 -0.1087 1.1172
5.3108 0.0777 1.1467
5.4597 0.2749 1.1796
5.6177 0.4841 1.2164
5.7863 0.7072 1.2576
5.9668 0.9463 1.3037
6.1613 1.2037 1.3554
6.3719 1.4825 1.4135
6.6013 1.7863 1.4791
6.8528 2.1193 1.5534
6.8908 2.4035 1.5829
6.7887 2.6430 1.5829
6.6767 2.8776 1.5829
6.5551 3.1070 1.5829
6.4241 3.3305 1.5829
6.2842 3.5480 1.5829
6.1357 3.7589 1.5829
5.9788 3.9629 1.5829
5.8141 4.1598 1.5829
5.6418 4.3491 1.5829
5.4623 4.5307 1.5829
5.2762 4.7042 1.5829
5.0838 4.8694 1.5829
5.2038 5.3535 1.6860
4.9874 5.5118 1.6862
4.7656 5.6607 1.6864
4.5389 5.8001 1.6865
3.5579 4.8975 1.3931
3.2520 4.8307 1.3470
3.0657 4.9254 1.3489
2.9471 5.1357 1.3841
2.5538 4.8439 1.2870
0.8450 1.7521 0.4597
0.7812 1.7799 0.4620
0.7165 1.8055 0.4643
0.6510 1.8288 0.4667
0.5847 1.8498 0.4692
0.5177 1.8684 0.4717
0.4501 1.8847 0.4743
0.3821 1.8985 0.4769
0.3135 1.9100 0.4795
0.2447 1.9191 0.4822
0.1756 1.9258 0.4850
0.1062 1.9300 0.4877
0.0368 1.9318 0.4905
-0.0326 1.9312 0.4934
-0.1020 1.9282 0.4962
-0.7941 1.5786 0.5286
-2.6999 4.9159 1.6860
-2.8619 4.7917 1.6860
-3.0188 4.6628 1.6860
-3.1708 4.5294 1.6860
-3.3175 4.3916 1.6860
-3.4590 4.2497 1.6860
-3.5951 4.1038 1.6860
-3.7258 3.9542 1.6860
-3.8511 3.8011 1.6860
-3.9707 3.6446 1.6860
-4.0848 3.4849 1.6860
-4.1933 3.3221 1.6860
-4.2960 3.1566 1.6860
-4.3931 2.9884 1.6860
-4.4843 2.8178 1.6860
-4.5698 2.6448 1.6860
-4.6494 2.4698 1.6860
-4.7232 2.2928 1.6860
-4.7911 2.1140 1.6860
-4.8531 1.9335 1.6860
-4.9092 1.7517 1.6860
-4.9594 1.5686 1.6860
-5.0037 1.3843 1.6860
-5.0421 1.1991 1.6860
-5.0745 1.0130 1.6860
-5.1009 0.8263 1.6860
-5.1215 0.6392 1.6860
-5.1361 0.4516 1.6860
-5.1447 0.2639 1.6860
-5.1475 0.0762 1.6860
-5.1443 -0.1114 1.6860
-5.1353 -0.2988 1.6860
-5.1203 -0.4857 1.6860
-5.0995 -0.6721 1.6860
-5.0728 -0.8577 1.6860
-5.0403 -1.0425 1.6860
-5.0019 -1.2262 1.6860
-4.9577 -1.4088 1.6860
-4.9078 -1.5901 1.6860
-4.8521 -1.7699 1.6860
-4.7907 -1.9480 1.6860
-4.7235 -2.1244 1.6860
-4.6507 -2.2988 1.6860
-4.5724 -2.4712 1.6860
-4.4884 -2.6413 1.6860
-4.3988 -2.8091 1.6860
-4.3038 -2.9742 1.6860
-4.2032 -3.1367 1.6860
-4.0973 -3.2963 1.6860
-3.9860 -3.4529 1.6860
-3.8695 -3.6063 1.6860
-3.7476 -3.7563 1.6860
-3.6206 -3.9029 1.6860
-3.4885 -4.0457 1.6860
-3.3514 -4.1847 1.6860
-3.2093 -4.3197 1.6860
-3.0623 -4.4504 1.6860
-2.9106 -4.5769 1.6860
-2.5857 -4.4115 1.5829
-2.4346 -4.5215 1.5829
-2.2792 -4.6270 1.5829
-2.1197 -4.7277 1.5829
-1.9563 -4.8235 1.5829
-1.7890 -4.9143 1.5829
-1.6179 -4.9999 1.5829
-1.4432 -5.0800 1.5829
-1.2651 -5.1546 1.5829
-1.0837 -5.2236 1.5829
-0.8991 -5.2866 1.5829
-0.7115 -5.3436 1.5829
-0.5211 -5.3945 1.5829
-0.3280 -5.4390 1.5829
-0.1326 -5.4771 1.5829
0.0651 -5.5085 1.5829
0.2649 -5.5332 1.5829
0.4664 -5.5510 1.5829
0.6695 -5.5617 1.5829
0.8740 -5.5653 1.5829
1.0795 -5.5617 1.5829
1.2859 -5.5506 1.5829
1.5335 -5.6826 1.6260
1.7463 -5.6558 1.6260
1.9592 -5.6211 1.6260
2.1717 -5.5785 1.6260
2.3837 -5.5279 1.6260
2.5947 -5.4692 1.6260
2.7626 -5.3219 1.6017
2.9038 -5.1353 1.5673
3.0406 -4.9544 1.5360
3.0715 -4.6248 1.4592
3.1970 -4.4589 1.4345
3.3198 -4.2967 1.4123
3.4401 -4.1377 1.3925
3.5584 -3.9814 1.3750
0.8445 -0.8795 0.3124
0.8642 -0.8379 0.3070
0.9127 -0.8237 0.3121
3.2138 -2.6987 1.0605
3.3042 -2.5791 1.0546
3.3944 -2.4597 1.0502
3.4847 -2.3401 1.0473
3.5753 -2.2201 1.0460
3.6666 -2.0993 1.0461
3.7586 -1.9774 1.0478
3.8517 -1.8541 1.0510
3.9462 -1.7291 1.0559
4.0422 -1.6019 1.0624
4.1401 -1.4722 1.0706
4.2403 -1.3396 1.0806
4.3430 -1.2036 1.0924
4.4487 -1.0638 1.1063
4.5577 -0.9195 1.1223
4.6704 -0.7702 1.1405
4.7875 -0.6152 1.1611
4.9094 -0.4537 1.1844
5.0368 -0.2851 1.2106
5.1705 -0.1081 1.2398
5.3112 0.0782 1.2726
5.4599 0.2751 1.3091
5.6178 0.4842 1.3500
5.7862 0.7071 1.3956
5.9665 0.9459 1.4467
6.1608 1.2031 1.5039
6.3711 1.4816 1.5683
6.3671 1.7218 1.5829
6.2944 1.9453 1.5829
6.2125 2.1653 1.5829
6.1216 2.3814 1.5829
6.0218 2.5933 1.5829
5.9135 2.8005 1.5829
5.7969 3.0027 1.5829
5.6722 3.1995 1.5829
5.5397 3.3906 1.5829
5.3998 3.5757 1.5829
5.2528 3.7544 1.5829
5.0990 3.9266 1.5829
4.9388 4.0919 1.5829
4.7724 4.2501 1.5829
4.6003 4.4010 1.5829
4.4229 4.5444 1.5829
4.5167 4.9851 1.6860
4.3179 5.1218 1.6862
4.1143 5.2499 1.6862
3.9066 5.3694 1.6863
3.2963 4.8886 1.5043
3.1033 4.9773 1.5037
3.2628 5.6753 1.6865
0.8339 1.5786 0.4622
0.7764 1.6062 0.4643
0.7179 1.6318 0.4663
0.6586 1.6553 0.4685
0.5985 1.6767 0.4707
0.5377 1.6959 0.4729
0.4763 1.7131 0.4752
0.4144 1.7280 0.4776
0.3520 1.7408 0.4800
0.2892 1.7513 0.4824
0.2261 1.7597 0.4849
0.1627 1.7658 0.4874
0.0991 1.7697 0.4899
0.0355 1.7714 0.4925
-0.0281 1.7708 0.4951
-0.0917 1.7680 0.4977
-0.7306 1.4557 0.5274
-0.7828 1.4284 0.5299
-2.6412 4.4316 1.6860
-2.7874 4.3137 1.6860
-2.9288 4.1916 1.6860
-3.0656 4.0654 1.6860
-3.1975 3.9353 1.6860
-3.3246 3.8013 1.6860
-3.4466 3.6638 1.6860
-3.5636 3.5229 1.6860
-3.6755 3.3787 1.6860
-3.7822 3.2315 1.6860
-3.8837 3.0814 1.6860
-3.9800 2.9285 1.6860
-4.0709 2.7731 1.6860
-4.1564 2.6153 1.6860
-4.2366 2.4554 1.6860
-4.3114 2.2933 1.6860
-4.3806 2.1293 1.6860
-4.4444 1.9636 1.6860
-4.5027 1.7964 1.6860
-4.5555 1.6277 1.6860
-4.6028 1.4578 1.6860
-4.6445 1.2868 1.6860
-4.6807 1.1148 1.6860
-4.7113 0.9420 1.6860
-4.7363 0.7685 1.6860
-4.7557 0.5946 1.6860
-4.7696 0.4203 1.6860
-4.7780 0.2459 1.6860
-4.7807 0.0713 1.6860
-4.7779 -0.1031 1.6860
-4.7696 -0.2773 1.6860
-4.7557 -0.4511 1.6860
-4.7363 -0.6244 1.6860
-4.7114 -0.7969 1.6860
-4.6811 -0.9687 1.6860
-4.6452 -1.1395 1.6860
-4.6039 -1.3092 1.6860
-4.5572 -1.4776 1.6860
-4.5051 -1.6446 1.6860
-4.4477 -1.8100 1.6860
-4.3848 -1.9738 1.6860
-4.3167 -2.1356 1.6860
-4.2434 -2.2955 1.6860
-4.1648 -2.4533 1.6860
-4.0810 -2.6088 1.6860
-3.9921 -2.7618 1.6860
-3.8981 -2.9122 1.6860
-3.7991 -3.0599 1.6860
-3.6951 -3.2046 1.6860
-3.5862 -3.3464 1.6860
-3.4724 -3.4849 1.6860
-3.3538 -3.6201 1.6860
-3.2305 -3.7517 1.6860
-3.1026 -3.8797 1.6860
-2.9700 -4.0039 1.6860
-2.8331 -4.1240 1.6860
-2.6917 -4.2401 1.6860
-2.3903 -4.0857 1.5829
-2.2497 -4.1864 1.5829
-2.1051 -4.2828 1.5829
-1.9569 -4.3747 1.5829
-1.8050 -4.4620 1.5829
-1.6497 -4.5445 1.5829
-1.4909 -4.6221 1.5829
-1.3290 -4.6946 1.5829
-1.1639 -4.7619 1.5829
-0.9959 -4.8238 1.5829
-0.8251 -4.8803 1.5829
-0.6516 -4.9311 1.5829
-0.4757 -4.9761 1.5829
-0.2975 -5.0153 1.5829
-0.1172 -5.0484 1.5829
0.0651 -5.0753 1.5829
0.2491 -5.0960 1.5829
0.4346 -5.1103 1.5829
0.6213 -5.1181 1.5829
0.8092 -5.1193 1.5829
0.9979 -5.1137 1.5829
1.1872 -5.1014 1.5829
1.3768 -5.0822 1.5829
1.5666 -5.0561 1.5829
1.7561 -5.0229 1.5829
1.9982 -5.1183 1.6260
2.1918 -5.0696 1.6260
2.3843 -5.0136 1.6260
2.5755 -4.9503 1.6260
2.7651 -4.8796 1.6260
2.9527 -4.8015 1.6260
3.0746 -4.6207 1.5931
3.2000 -4.4550 1.5668
3.3226 -4.2929 1.5432
3.4429 -4.1341 1.5222
3.5611 -3.9779 1.5037
0.8447 -0.8783 0.3416
0.8649 -0.8373 0.3360
0.9143 -0.8240 0.3421
3.2156 -2.6963 1.1615
3.3059 -2.5768 1.1555
3.3960 -2.4574 1.1511
3.4863 -2.3380 1.1483
3.5769 -2.2180 1.1472
3.6680 -2.0973 1.1477
3.7600 -1.9755 1.1499
3.8531 -1.8523 1.1538
3.9475 -1.7274 1.1594
4.0434 -1.6003 1.1669
4.1413 -1.4707 1.1762
4.2414 -1.3381 1.1874
4.3441 -1.2022 1.2007
4.4497 -1.0624 1.2161
4.5586 -0.9183 1.2339
4.6713 -0.7691 1.2541
4.7882 -0.6142 1.2769
4.9101 -0.4529 1.3027
5.0374 -0.2843 1.3315
5.1709 -0.1075 1.3638
5.3115 0.0787 1.3999
5.4601 0.2754 1.4401
5.6179 0.4843 1.4850
5.7861 0.7070 1.5352
5.9349 0.9406 1.5829
5.8951 1.1506 1.5829
5.8466 1.3588 1.5829
5.7896 1.5647 1.5829
5.7241 1.7678 1.5829
5.6504 1.9679 1.5829
5.5685 2.1646 1.5829
5.4787 2.3575 1.5829
5.3812 2.5463 1.5829
5.2762 2.7306 1.5829
5.1639 2.9101 1.5829
5.0446 3.0846 1.5829
4.9186 3.2537 1.5829
4.7860 3.4172 1.5829
4.6473 3.5749 1.5829
4.5027 3.7264 1.5829
4.3525 3.8717 1.5829
4.1971 4.0104 1.5829
4.0368 4.1424 1.5829
4.1240 4.5455 1.6860
3.9439 4.6716 1.6861
3.7596 4.7901 1.6861
3.5714 4.9010 1.6862
3.3797 5.0040 1.6863
3.1849 5.0992 1.6864
0.8227 1.4284 0.4645
0.7706 1.4558 0.4663
0.7175 1.4813 0.4681
0.6636 1.5049 0.4700
0.6089 1.5267 0.4720
0.5536 1.5464 0.4740
0.4975 1.5642 0.4761
0.4409 1.5800 0.4782
0.3838 1.5938 0.4804
0.3263 1.6056 0.4826
0.2683 1.6154 0.4848
0.2101 1.6231 0.4871
0.1517 1.6288 0.4894
0.0931 1.6324 0.4918
0.0344 1.6339 0.4942
-0.0243 1.6334 0.4966
-0.0830 1.6308 0.4990
-0.6756 1.3493 0.5264
-0.7239 1.3239 0.5287
-0.7713 1.2968 0.5309
-2.5856 4.0095 1.6860
-2.7178 3.8971 1.6860
-2.8458 3.7808 1.6860
-2.9692 3.6607 1.6860
-3.0882 3.5370 1.6860
-3.2026 3.4099 1.6860
-3.3122 3.2796 1.6860
-3.4172 3.1461 1.6860
-3.5173 3.0097 1.6860
-3.6126 2.8705 1.6860
-3.7030 2.7287 1.6860
-3.7885 2.5844 1.6860
-3.8689 2.4378 1.6860
-3.9443 2.2891 1.6860
-4.0147 2.1384 1.6860
-4.0799 1.9859 1.6860
-4.1400 1.8317 1.6860
-4.1950 1.6759 1.6860
-4.2448 1.5188 1.6860
-4.2894 1.3605 1.6860
