ply
format ascii 1.0
element vertex 2157
property float32 x
property float32 y
property float32 z
end_header
2.7016 49.2914 1.5973
0.9343 49.3450 1.5973
-0.5632 33.3438 1.0794
-1.9175 36.3428 1.1778
-3.2638 36.7689 1.1943
-4.6507 37.2053 1.2126
-5.4583 33.7849 1.1061
-6.3295 31.8795 1.0497
-5.9877 25.3647 0.8409
-7.3741 26.8910 0.8987
-12.4154 39.6486 1.3374
-11.4579 32.4647 1.1067
-11.3209 28.7518 0.9917
-12.4254 28.5160 0.9966
-17.0466 35.5840 1.2617
-22.4205 42.7968 1.5418
-16.9276 25.2801 0.9640
-23.7805 32.9012 1.2828
-11.7528 14.0246 0.5749
-31.2210 -8.0496 1.6029
-26.2955 -7.7938 1.3595
-30.4498 -10.2247 1.5875
-27.2110 -10.2353 1.4327
-16.9714 -7.0873 0.9038
-24.6785 -11.3600 1.3312
-23.9076 -12.0606 1.3084
-23.8863 -13.1432 1.3285
-22.6399 -13.5354 1.2819
-21.7271 -14.0696 1.2546
-21.0808 -14.7485 1.2437
-19.9412 -15.0428 1.2044
-18.9188 -15.3645 1.1723
-18.7181 -16.3478 1.1924
-18.8320 -17.6751 1.2363
-12.6888 -12.7942 0.8606
-12.5920 -13.6404 0.8846
-17.3245 -20.1705 1.2644
-16.9706 -21.2529 1.2906
-12.6155 -17.0141 1.0031
-19.1337 -27.8355 1.5967
-18.1631 -28.5628 1.5972
-12.0397 -20.5210 1.1207
-11.2128 -20.7823 1.1106
-10.3971 -21.0400 1.1021
-14.8906 -33.0638 1.7004
-13.7153 -33.6196 1.7004
-12.5178 -34.1301 1.7004
-11.3002 -34.5943 1.7004
-10.0644 -35.0114 1.7004
-7.5453 -30.2938 1.4560
-7.0881 -33.5360 1.5973
-2.8765 -16.5113 0.7805
-4.2681 -31.0341 1.4581
-2.5166 -24.8665 1.1628
-1.6378 -25.1416 1.1719
-0.6614 -22.6100 1.0519
0.1309 -19.9290 0.9267
0.6568 -15.4887 0.7209
1.2202 -15.5750 0.7266
1.6154 -14.1097 0.6607
2.1552 -14.2787 0.6720
2.7141 -14.4538 0.6848
2.6478 -11.7616 0.5617
3.0047 -11.4220 0.5507
3.3629 -11.1452 0.5432
3.7676 -11.0408 0.5449
3.5633 -9.3344 0.4672
3.6478 -8.6164 0.4380
3.8470 -8.2508 0.4267
4.0877 -8.0055 0.4219
4.3620 -7.8366 0.4216
4.6654 -7.7178 0.4246
4.1443 -6.3321 0.3569
4.5906 -6.4939 0.3757
5.0621 -6.6429 0.3953
5.5841 -6.8079 0.4175
4.5484 -5.1570 0.3267
4.5076 -4.7560 0.3120
4.7935 -4.7080 0.3206
5.4062 -4.9421 0.3503
6.0503 -5.1457 0.3808
6.3684 -5.0346 0.3901
6.4606 -4.7417 0.3861
5.1095 -3.4757 0.2985
5.1796 -3.2583 0.2963
6.2091 -3.6024 0.3485
6.7583 -3.6039 0.3729
6.8420 -3.3396 0.3717
6.5033 -2.8907 0.3484
6.1218 -2.4626 0.3239
5.9623 -2.1537 0.3121
5.9200 -1.9017 0.3070
5.8908 -1.6622 0.3031
5.9232 -1.4445 0.3028
5.8867 -1.2140 0.2994
6.0589 -1.0249 0.3070
6.1626 -0.8167 0.3115
6.3631 -0.6123 0.3213
6.6487 -0.4002 0.3358
9.5064 -0.2311 0.4808
8.6289 0.0994 0.4376
7.8510 0.3719 0.3998
7.4645 0.6221 0.3821
7.2335 0.8646 0.3727
7.1063 1.1088 0.3690
7.0164 1.3538 0.3677
6.9739 1.6066 0.3693
6.9818 1.8740 0.3741
6.9762 2.1432 0.3788
7.1866 2.4928 0.3959
7.6242 2.9545 0.4267
8.9615 3.8473 0.5103
8.4723 4.0024 0.4916
8.0186 4.1457 0.4748
7.5968 4.2791 0.4598
7.3024 4.4651 0.4525
8.4594 5.5983 0.5376
8.0249 5.7344 0.5240
7.6977 5.9283 0.5173
8.8052 7.2981 0.6103
8.3159 7.4108 0.5957
9.3457 8.9492 0.6935
9.5793 9.8543 0.7380
3.3343 3.6855 0.2674
14.8614 17.6584 1.2441
14.0384 17.9479 1.2305
17.4239 24.0004 1.6044
16.5262 24.5690 1.6044
15.6219 25.1230 1.6054
14.6907 25.6291 1.6054
13.6752 25.9716 1.5973
12.7199 26.4109 1.5973
11.7519 26.8176 1.5973
10.7720 27.1915 1.5973
10.4126 29.3091 1.7004
2.3004 7.2935 0.4185
2.0414 7.3845 0.4196
1.7811 7.4759 0.4212
1.5188 7.5680 0.4233
1.2539 7.6611 0.4259
3.9056 30.7314 1.7004
2.7889 30.7037 1.6928
1.5918 29.0404 1.5973
0.5506 29.0748 1.5973
-0.4911 29.0748 1.5973
-1.5323 29.0403 1.5973
-2.7056 30.4783 1.6804
-3.7750 30.1972 1.6709
-4.7566 29.4389 1.6367
-5.6156 28.2809 1.5818
-6.5609 27.7906 1.5657
-7.3840 26.9247 1.5298
-8.2006 26.1861 1.5024
-9.6532 27.3488 1.5867
-10.7238 27.2324 1.5997
-12.1184 27.8087 1.6563
-12.9163 26.9594 1.6304
-13.7353 26.2155 1.6122
-12.8455 22.5168 1.4103
-13.5190 21.8407 1.3955
-14.3151 21.3761 1.3956
-9.6158 13.3023 0.8890
-16.9421 21.7518 1.4909
-11.7437 14.0120 0.9869
-10.3001 11.4316 0.8291
-21.3875 -5.5163 1.5973
-21.2188 -6.2912 1.5973
-21.0218 -7.0610 1.5973
-20.7965 -7.8246 1.5973
-16.8527 -7.0395 1.3103
-20.2617 -9.3290 1.5972
-19.5680 -9.8736 1.5664
-18.5324 -10.1994 1.5089
-18.2403 -10.9072 1.5132
-13.7375 -8.8974 1.1632
-18.9456 -13.2569 1.6404
-18.4911 -13.9510 1.6404
-18.0103 -14.6290 1.6404
-17.5040 -15.2897 1.6404
-16.9726 -15.9322 1.6404
-12.7146 -12.8219 1.2705
-12.6062 -13.6576 1.3057
-14.8342 -17.2733 1.5973
-14.2265 -17.8185 1.5973
-12.6147 -17.0152 1.4818
-12.9494 -18.8409 1.5973
-13.0742 -20.5625 1.7004
-12.3439 -21.0417 1.7004
-11.5953 -21.4935 1.7004
-10.7490 -21.7544 1.6878
-10.0475 -22.3121 1.7004
-9.2505 -22.6776 1.7004
-8.4395 -23.0129 1.7004
-7.6159 -23.3176 1.7004
-6.7808 -23.5910 1.7004
-5.9354 -23.8327 1.7004
-4.7730 -22.5848 1.5973
-2.8763 -16.5116 1.1593
-3.1473 -22.8869 1.5973
-2.3266 -22.9915 1.5973
-1.5024 -23.0648 1.5973
-0.5780 -19.7620 1.3661
0.1119 -17.0335 1.1770
0.6527 -15.3951 1.0647
1.0925 -13.9460 0.9667
1.6153 -14.1097 0.9816
2.1550 -14.2787 0.9983
2.7138 -14.4536 1.0171
2.6476 -11.7620 0.8341
3.0045 -11.4222 0.8176
3.4098 -11.3018 0.8176
3.8105 -11.1675 0.8178
3.4873 -9.1363 0.6782
3.7002 -8.7411 0.6588
3.8467 -8.2510 0.6324
4.0874 -8.0058 0.6250
4.4087 -7.9214 0.6310
3.9084 -6.4663 0.5265
4.1608 -6.3580 0.5300
4.5899 -6.4937 0.5554
5.0613 -6.6427 0.5840
5.1780 -6.3136 0.5717
4.3407 -4.9221 0.4602
4.5176 -4.7672 0.4612
4.8534 -4.7675 0.4784
5.4051 -4.9418 0.5158
5.6545 -4.8097 0.5237
5.7388 -4.5376 0.5169
5.8209 -4.2730 0.5111
4.8483 -3.2986 0.4158
5.1183 -3.2204 0.4295
6.2069 -3.6017 0.5106
6.7582 -3.6046 0.5460
6.8418 -3.3402 0.5438
6.3694 -2.8319 0.4988
6.0483 -2.4336 0.4674
5.9624 -2.1544 0.4554
5.9201 -1.9024 0.4476
5.8907 -1.6627 0.4415
5.9232 -1.4450 0.4406
5.9572 -1.2292 0.4405
6.0587 -1.0254 0.4459
6.1624 -0.8172 0.4520
6.3625 -0.6129 0.4657
6.5472 -0.3947 0.4789
7.1427 -0.1743 0.5228
8.6314 0.0986 0.6329
7.8524 0.3712 0.5776
7.3970 0.6158 0.5465
7.1789 0.8574 0.5334
7.0526 1.0997 0.5276
7.0165 1.3531 0.5293
6.9740 1.6059 0.5312
6.9271 1.8587 0.5334
6.9690 2.1403 0.5432
7.1162 2.4676 0.5623
7.5582 2.9281 0.6063
8.9629 3.8469 0.7309
8.4732 4.0020 0.7036
8.0197 4.1453 0.6790
7.5977 4.2788 0.6570
7.2025 4.4032 0.6372
8.4604 5.5981 0.7671
8.0259 5.7342 0.7471
7.5767 5.8342 0.7254
7.3033 6.0524 0.7207
8.3505 7.4405 0.8511
7.9307 7.5932 0.8367
7.6411 7.8595 0.8366
3.3348 3.6855 0.3798
13.5011 16.0401 1.6044
12.9016 16.4925 1.6044
10.2762 14.1532 1.3417
11.6602 17.3328 1.6044
10.9716 17.6424 1.5973
10.3220 18.0056 1.5973
9.6610 18.3459 1.5973
8.9895 18.6633 1.5973
8.3082 18.9573 1.5973
7.7490 19.5587 1.6248
7.3659 20.7313 1.7004
2.3011 7.2948 0.5916
2.0420 7.3858 0.5930
1.7816 7.4773 0.5951
1.5193 7.5695 0.5980
1.2543 7.6626 0.6016
2.7661 21.7630 1.7004
1.9843 21.8430 1.7004
1.2004 21.8964 1.7004
0.4152 21.9232 1.7004
-0.3494 20.6820 1.6041
-1.0853 20.5674 1.5972
-1.8215 20.5177 1.5972
-2.5558 20.4430 1.5972
-3.2873 20.3434 1.5972
-4.0152 20.2192 1.5972
-4.7387 20.0702 1.5972
-5.5668 20.2965 1.6293
-6.3005 20.1169 1.6311
-7.0003 19.8307 1.6262
-7.6337 19.3835 1.6099
-8.2582 18.9484 1.5961
-8.8455 18.4608 1.5795
-9.3525 17.8486 1.5535
-10.1108 17.7211 1.5715
-10.8324 17.4984 1.5836
-11.5463 17.2396 1.5949
-11.9535 16.5343 1.5665
-12.2221 15.6900 1.5253
-12.5952 15.0262 1.5018
-10.2756 11.4029 1.1743
-17.3321 -4.4721 1.7004
-17.1875 -5.0977 1.7004
-17.0200 -5.7186 1.7004
-16.8299 -6.3339 1.7004
-16.1108 -6.7312 1.6486
-15.3892 -7.0872 1.5973
-15.1475 -7.6447 1.5973
-14.8854 -8.1938 1.5973
-14.6029 -8.7337 1.5973
-13.8643 -8.9811 1.5486
-13.9786 -9.7830 1.5973
-13.6370 -10.2904 1.5972
-13.2767 -10.7857 1.5972
-12.8987 -11.2686 1.5972
-12.5027 -11.7379 1.5973
-12.0890 -12.1927 1.5973
-11.6582 -12.6322 1.5973
-11.2704 -13.1252 1.6058
-11.3731 -14.2464 1.6903
-10.9321 -14.7474 1.7004
-10.4073 -15.1440 1.7004
-9.8676 -15.5211 1.7004
-9.3138 -15.8784 1.7004
-8.7466 -16.2149 1.7004
-8.1669 -16.5304 1.7004
-7.5754 -16.8243 1.7004
-6.9730 -17.0962 1.7004
-6.3604 -17.3455 1.7004
-5.7387 -17.5719 1.7004
-5.1086 -17.7750 1.7004
-4.4710 -17.9545 1.7004
-3.5949 -17.0122 1.5973
-2.8760 -16.5120 1.5392
-2.3700 -17.2363 1.5973
-1.7519 -17.3138 1.5973
-1.1312 -17.3682 1.5973
-0.5088 -17.3993 1.5973
0.1119 -17.0336 1.5631
0.6527 -15.3950 1.4140
1.0924 -13.9457 1.2837
1.6152 -14.1095 1.3035
2.1548 -14.2786 1.3256
2.7136 -14.4536 1.3504
2.6474 -11.7623 1.1075
3.0043 -11.4224 1.0853
3.4095 -11.3019 1.0852
3.8102 -11.1676 1.0853
3.4872 -9.1369 0.9000
3.6999 -8.7412 0.8740
3.8464 -8.2513 0.8388
4.0871 -8.0061 0.8288
4.3896 -7.8878 0.8329
3.7956 -6.2803 0.6776
4.1603 -6.3579 0.7023
4.5892 -6.4936 0.7356
4.8112 -6.3151 0.7351
4.9141 -5.9925 0.7183
4.3141 -4.8925 0.6052
4.4037 -4.6476 0.5947
4.8525 -4.7672 0.6326
5.4040 -4.9415 0.6818
5.5131 -4.6901 0.6747
5.5954 -4.4248 0.6658
5.6754 -4.1668 0.6580
4.7659 -3.2430 0.5394
5.2441 -3.3001 0.5806
6.2045 -3.6010 0.6731
6.7582 -3.6053 0.7197
6.8416 -3.3409 0.7164
6.4045 -2.8481 0.6605
6.2472 -2.5143 0.6355
5.9625 -2.1550 0.5992
5.9202 -1.9030 0.5886
5.8404 -1.6491 0.5753
5.8725 -1.4333 0.5739
5.9045 -1.2189 0.5733
6.1506 -1.0416 0.5942
6.1078 -0.8106 0.5878
6.3620 -0.6134 0.6107
6.5461 -0.3953 0.6276
7.2485 -0.1776 0.6950
8.6339 0.0978 0.8289
7.8538 0.3705 0.7560
7.5453 0.6274 0.7292
7.3303 0.8748 0.7121
7.1968 1.1215 0.7037
7.0166 1.3524 0.6914
6.9742 1.6053 0.6935
7.0756 1.8978 0.7110
7.1712 2.2016 0.7292
7.1793 2.4888 0.7397
7.5585 2.9275 0.7902
8.9643 3.8466 0.9524
8.4743 4.0016 0.9163
8.0208 4.1450 0.8840
7.5987 4.2785 0.8550
7.2040 4.4033 0.8289
7.0663 4.6748 0.8329
8.0269 5.7339 0.9710
7.6150 5.8627 0.9471
7.2233 5.9852 0.9256
8.3515 7.4403 1.1050
7.9144 7.5766 1.0836
9.5780 9.8504 1.3604
3.3352 3.6855 0.4927
8.8503 10.5133 1.3635
9.9541 12.7230 1.6044
9.4415 13.0020 1.5973
8.9617 13.3200 1.5973
8.4717 13.6210 1.5973
7.9719 13.9046 1.5973
7.4631 14.1705 1.5973
6.9458 14.4187 1.5973
6.4206 14.6486 1.5973
6.2682 15.8193 1.7004
3.4597 9.7362 1.0331
2.3018 7.2961 0.7653
2.0426 7.3872 0.7671
1.7821 7.4787 0.7697
1.5197 7.5709 0.7734
1.2547 7.6640 0.7780
2.1398 16.8333 1.7004
1.5351 16.8960 1.7004
0.9286 16.9380 1.7004
0.3212 16.9591 1.7004
-0.2865 16.9594 1.7004
-0.8939 16.9388 1.7004
-1.5003 16.8974 1.7004
-1.9771 15.8130 1.5972
-2.5429 15.7351 1.5972
-3.1057 15.6378 1.5972
-3.6650 15.5212 1.5972
-4.2202 15.3854 1.5972
-4.7706 15.2306 1.5972
-5.3156 15.0569 1.5972
-5.8546 14.8645 1.5972
-6.3870 14.6535 1.5972
-6.9243 14.4498 1.6000
-7.3842 14.0906 1.5875
-7.8077 13.6831 1.5710
-8.3260 13.4482 1.5761
-9.0034 13.4413 1.6107
-9.6807 13.3890 1.6436
-10.2333 13.1353 1.6549
-10.6958 12.7586 1.6531
-10.2768 11.4028 1.5227
-13.9800 -3.6085 1.7004
-13.8592 -4.1119 1.7004
-13.7201 -4.6112 1.7004
-13.5629 -5.1058 1.7004
-13.3877 -5.5949 1.7004
-13.1946 -6.0779 1.7004
-12.9839 -6.5541 1.7004
-12.7557 -7.0230 1.7004
-12.5104 -7.4837 1.7004
-12.2482 -7.9356 1.7004
-11.9694 -8.3782 1.7004
-11.6743 -8.8108 1.7004
-11.3633 -9.2327 1.7004
-11.0367 -9.6433 1.7004
-10.6949 -10.0421 1.7004
-10.3385 -10.4285 1.7004
-9.9677 -10.8019 1.7004
-9.5832 -11.1617 1.7004
-9.1854 -11.5074 1.7004
-8.7748 -11.8385 1.7004
-8.3519 -12.1546 1.7004
-7.9174 -12.4550 1.7004
-7.4717 -12.7394 1.7004
-7.0156 -13.0073 1.7004
-6.5496 -13.2584 1.7004
-6.0744 -13.4921 1.7004
-5.5906 -13.7083 1.7004
-5.0989 -13.9065 1.7004
-4.5999 -14.0865 1.7004
-4.0944 -14.2479 1.7004
-3.5831 -14.3905 1.7004
-3.0667 -14.5141 1.7004
-2.3916 -13.7322 1.5973
-1.8990 -13.8121 1.5973
-1.4036 -13.8736 1.5973
-0.9063 -13.9167 1.5973
-0.4076 -13.9414 1.5973
0.0916 -13.9475 1.5973
0.5908 -13.9350 1.5973
1.0891 -13.9041 1.5973
1.5928 -13.9156 1.6044
2.0895 -13.8475 1.6044
2.5833 -13.7610 1.6044
2.4924 -11.0744 1.3010
2.9503 -11.2185 1.3299
3.4092 -11.3020 1.3539
3.8098 -11.1677 1.3538
3.4872 -9.1376 1.1227
3.6999 -8.7421 1.0902
3.8461 -8.2516 1.0460
4.0868 -8.0064 1.0334
3.5367 -6.3560 0.8367
3.7366 -6.1833 0.8316
4.1598 -6.3579 0.8752
4.5697 -6.4667 0.9128
4.6749 -6.1371 0.8900
3.9298 -4.7928 0.7156
4.0643 -4.6099 0.7102
4.3177 -4.5575 0.7261
4.8516 -4.7670 0.7874
5.2824 -4.8310 0.8294
5.3650 -4.5648 0.8170
5.4451 -4.3066 0.8060
5.5230 -4.0555 0.7963
4.7606 -3.2399 0.6700
5.2423 -3.2996 0.7214
6.2015 -3.6000 0.8361
6.7581 -3.6060 0.8942
6.8414 -3.3415 0.8898
6.4040 -2.8486 0.8201
6.2478 -2.5152 0.7890
5.9626 -2.1557 0.7436
5.9203 -1.9036 0.7303
5.8403 -1.6496 0.7135
6.0162 -1.4689 0.7290
6.0571 -1.2510 0.7290
6.1505 -1.0421 0.7362
6.1075 -0.8111 0.7281
6.3614 -0.6140 0.7562
6.5450 -0.3958 0.7768
7.2486 -0.1783 0.8601
8.6365 0.0970 1.0259
7.8552 0.3698 0.9353
7.5446 0.6266 0.9016
7.3288 0.8739 0.8801
7.1543 1.1142 0.8645
7.0167 1.3518 0.8542
6.9743 1.6046 0.8566
7.0451 1.8889 0.8741
7.1709 2.2008 0.9000
7.1802 2.4884 0.9129
7.5589 2.9268 0.9749
8.9657 3.8463 1.1748
8.4755 4.0013 1.1299
8.0218 4.1447 1.0898
7.5997 4.2782 1.0538
7.2049 4.4030 1.0214
6.8340 4.5203 0.9922
8.0160 5.7252 1.1941
7.6159 5.8625 1.1663
7.2238 5.9847 1.1395
8.3525 7.4401 1.3600
7.9153 7.5763 1.3334
9.1828 9.4426 1.6044
3.3356 3.6855 0.6060
8.4316 10.0147 1.5973
8.0609 10.3020 1.5973
7.6808 10.5761 1.5973
7.2917 10.8365 1.5973
6.8940 11.0831 1.5973
6.4883 11.3156 1.5973
6.0750 11.5337 1.5973
5.6547 11.7371 1.5973
5.5651 12.6955 1.7004
3.0066 7.5870 1.0016
2.7020 7.6031 0.9908
2.3024 7.2975 0.9400
2.0432 7.3886 0.9420
1.7827 7.4801 0.9452
1.5202 7.5723 0.9497
1.2550 7.6655 0.9553
1.0441 8.2129 1.0184
1.2507 13.7646 1.7004
0.7567 13.7991 1.7004
0.2618 13.8165 1.7004
-0.2334 13.8168 1.7004
-0.7283 13.7999 1.7004
-1.2223 13.7660 1.7004
-1.7149 13.7149 1.7004
-2.2056 13.6469 1.7004
-2.6432 13.3078 1.6686
-2.9856 12.6427 1.5972
-3.4376 12.5313 1.5972
-3.8857 12.4042 1.5972
-4.3292 12.2617 1.5972
-4.7678 12.1038 1.5972
-5.2008 11.9307 1.5972
-5.6277 11.7427 1.5972
-6.0481 11.5398 1.5972
-6.4613 11.3224 1.5972
-6.8671 11.0905 1.5972
-7.2306 10.7934 1.5897
-7.6107 10.5248 1.5881
-8.0122 10.2831 1.5928
-8.4256 10.0494 1.6011
-8.8353 9.8022 1.6099
-11.7042 -3.0223 1.7004
-11.6007 -3.4430 1.7004
-11.4820 -3.8602 1.7004
-11.3482 -4.2732 1.7004
-11.1994 -4.6815 1.7004
-11.0357 -5.0846 1.7004
-10.8574 -5.4819 1.7004
-10.6646 -5.8728 1.7004
-10.4576 -6.2568 1.7004
-10.2365 -6.6334 1.7004
-10.0017 -7.0021 1.7004
-9.7534 -7.3623 1.7004
-9.4920 -7.7134 1.7004
-9.2176 -8.0552 1.7004
-8.9308 -8.3869 1.7004
-8.6318 -8.7082 1.7004
-8.3210 -9.0185 1.7004
-7.9988 -9.3176 1.7004
-7.6657 -9.6048 1.7004
-7.3221 -9.8798 1.7004
-6.9683 -10.1422 1.7004
-6.6050 -10.3916 1.7004
-6.2325 -10.6276 1.7004
-5.8514 -10.8499 1.7004
-5.4621 -11.0582 1.7004
-5.0653 -11.2521 1.7004
-4.6615 -11.4313 1.7004
-4.2511 -11.5957 1.7004
-3.8348 -11.7448 1.7004
-3.4132 -11.8786 1.7004
-2.9868 -11.9968 1.7004
-2.5562 -12.0992 1.7004
-1.9934 -11.4469 1.5973
-1.5827 -11.5130 1.5973
-1.1698 -11.5640 1.5973
-0.4949 -7.6000 1.0466
-0.2208 -7.5514 1.0380
0.0764 -11.6251 1.5973
0.4924 -11.6148 1.5973
0.9077 -11.5891 1.5973
1.3217 -11.5481 1.5973
1.7339 -11.4919 1.5973
2.1437 -11.4205 1.5973
2.4921 -11.0743 1.5607
2.9501 -11.2184 1.5953
3.3677 -11.1655 1.6044
3.7639 -11.0342 1.6044
3.4871 -9.1382 1.3465
3.6998 -8.7426 1.3074
3.8459 -8.2518 1.2544
3.9689 -7.7761 1.2034
3.4042 -6.1185 0.9657
3.7663 -6.2332 1.0050
4.1593 -6.3577 1.0490
4.4313 -6.2715 1.0609
3.6670 -4.8145 0.8367
3.8342 -4.6767 0.8366
3.9968 -4.5339 0.8367
4.3717 -4.6150 0.8807
4.8507 -4.7667 0.9429
5.1322 -4.6943 0.9651
5.2125 -4.4357 0.9505
5.2903 -4.1848 0.9375
4.5837 -3.3663 0.7911
4.6536 -3.1677 0.7838
5.2405 -3.2990 0.8630
6.1988 -3.5991 0.9998
6.7580 -3.6067 1.0695
6.8413 -3.3421 1.0641
6.4035 -2.8490 0.9805
6.2485 -2.5161 0.9433
5.9627 -2.1563 0.8888
5.9204 -1.9042 0.8727
5.8402 -1.6502 0.8525
5.9899 -1.4631 0.8671
6.0567 -1.2514 0.8706
6.1239 -1.0383 0.8753
6.1072 -0.8117 0.8691
6.3609 -0.6146 0.9025
6.5439 -0.3964 0.9269
7.2487 -0.1790 1.0262
8.6390 0.0962 1.2241
7.8566 0.3691 1.1156
7.5438 0.6258 1.0748
7.3313 0.8735 1.0495
7.1977 1.1203 1.0365
7.0168 1.3511 1.0179
6.9744 1.6039 1.0205
7.0751 1.8963 1.0456
7.1707 2.2000 1.0718
7.1811 2.4879 1.0871
7.5592 2.9262 1.1607
7.6856 3.2963 1.1986
8.4767 4.0009 1.3448
8.0229 4.1444 1.2968
7.6006 4.2778 1.2537
7.2056 4.4026 1.2150
6.8346 4.5199 1.1800
7.7696 5.5483 1.3761
7.6170 5.8624 1.3866
7.2244 5.9842 1.3545
8.0097 7.1337 1.5499
7.9162 7.5761 1.5846
7.6952 7.9118 1.5973
3.3361 3.6854 0.7200
7.0986 8.4303 1.5973
6.7874 8.6734 1.5973
6.4681 8.9052 1.5973
6.1411 9.1256 1.5973
5.8068 9.3342 1.5973
5.4656 9.5310 1.5973
5.1180 9.7156 1.5973
4.7643 9.8880 1.5973
4.6892 10.6962 1.7004
2.9597 7.4680 1.1701
2.6677 7.5058 1.1607
2.3031 7.2988 1.1156
2.0438 7.3899 1.1180
0.7994 3.3539 0.5029
0.6784 3.3790 0.5028
0.5567 3.4001 0.5027
0.4344 3.4170 0.5027
0.3117 3.4297 0.5027
0.1885 3.4382 0.5026
0.0652 3.4426 0.5026
-0.0582 3.4427 0.5026
-0.1815 3.4387 0.5027
-0.3046 3.4305 0.5027
-0.4274 3.4181 0.5028
-0.5498 3.4015 0.5028
-0.6715 3.3807 0.5029
-0.7926 3.3558 0.5030
-3.0848 11.2439 1.7004
-3.4078 10.8777 1.6620
-3.6485 10.3328 1.5972
-4.0179 10.1991 1.5972
-4.3824 10.0525 1.5972
-4.7418 9.8933 1.5972
-5.0956 9.7215 1.5972
-5.4433 9.5374 1.5972
-5.7846 9.3412 1.5972
-6.1190 9.1331 1.5972
-6.4461 8.9133 1.5972
-6.7651 8.6815 1.5971
-7.0769 8.4396 1.5972
-7.3798 8.1863 1.5972
-10.0565 -2.5978 1.7004
-9.9662 -2.9589 1.7004
-9.8628 -3.3168 1.7004
-9.7464 -3.6711 1.7004
-9.6173 -4.0212 1.7004
-9.4754 -4.3668 1.7004
-9.3210 -4.7072 1.7004
-9.1543 -5.0421 1.7004
-8.9754 -5.3710 1.7004
-8.7845 -5.6935 1.7004
-8.5819 -6.0091 1.7004
-8.3678 -6.3174 1.7004
-8.1425 -6.6178 1.7004
-7.9062 -6.9102 1.7004
-7.6593 -7.1939 1.7004
-7.4020 -7.4686 1.7004
-7.1347 -7.7339 1.7004
-6.8578 -7.9895 1.7004
-6.5715 -8.2349 1.7004
-6.2763 -8.4698 1.7004
-5.9725 -8.6939 1.7004
-5.6606 -8.9069 1.7004
-5.3409 -9.1084 1.7004
-5.0139 -9.2982 1.7004
-4.6801 -9.4760 1.7004
-4.3398 -9.6415 1.7004
-3.9935 -9.7944 1.7004
-3.6418 -9.9346 1.7004
-3.2850 -10.0619 1.7004
-2.9237 -10.1760 1.7004
-2.5583 -10.2767 1.7004
-2.1894 -10.3641 1.7004
-1.8175 -10.4378 1.7004
-1.3555 -9.8614 1.5973
-1.0019 -9.9049 1.5973
-0.4928 -7.5694 1.2170
-0.2205 -7.5438 1.2107
0.0654 -9.9569 1.5973
0.4217 -9.9481 1.5973
0.7774 -9.9262 1.5973
1.1320 -9.8912 1.5973
1.4851 -9.8432 1.5973
1.8361 -9.7823 1.5973
2.1846 -9.7086 1.5973
2.5300 -9.6221 1.5973
2.8847 -9.5649 1.6044
3.2242 -9.4529 1.6044
3.4869 -9.1389 1.5718
3.6202 -8.5556 1.4933
3.5362 -7.5881 1.3462
3.7194 -7.2881 1.3163
3.4036 -6.1181 1.1268
3.7659 -6.2332 1.1726
4.1587 -6.3576 1.2238
4.2966 -6.0816 1.2002
3.6864 -4.8405 0.9812
3.7631 -4.5906 0.9579
3.9502 -4.4816 0.9646
4.3710 -4.6149 1.0270
4.8498 -4.7664 1.0994
4.9761 -4.5522 1.0911
5.0539 -4.3014 1.0745
5.1293 -4.0582 1.0597
4.1959 -3.0821 0.8441
4.4000 -2.9955 0.8637
5.2387 -3.2985 1.0053
6.1963 -3.5983 1.1645
6.7580 -3.6074 1.2461
6.8412 -3.3428 1.2396
6.4031 -2.8495 1.1419
6.2491 -2.5170 1.0986
5.9629 -2.1570 1.0350
5.9205 -1.9049 1.0160
5.8401 -1.6508 0.9924
6.0158 -1.4700 1.0135
6.0568 -1.2521 1.0132
6.1501 -1.0433 1.0228
6.1070 -0.8122 1.0111
6.3603 -0.6151 1.0497
6.5428 -0.3970 1.0778
7.2489 -0.1797 1.1934
8.6416 0.0954 1.4236
7.8580 0.3684 1.2971
7.5430 0.6250 1.2492
7.3318 0.8728 1.2197
7.1553 1.1130 1.1974
7.0170 1.3504 1.1826
6.9745 1.6033 1.1855
7.0446 1.8874 1.2092
7.1704 2.1992 1.2447
7.1820 2.4875 1.2625
7.5596 2.9255 1.3476
7.1359 3.0598 1.2919
6.9350 3.2725 1.2770
8.0238 4.1439 1.5052
7.6013 4.2774 1.4550
7.2063 4.4023 1.4098
6.8357 4.5198 1.3692
7.5163 5.3665 1.5442
7.4555 5.7372 1.5742
7.2250 5.9839 1.5709
7.1188 6.3393 1.5973
6.8824 6.5857 1.5973
6.6376 6.8236 1.5973
3.3365 3.6854 0.8347
6.1242 7.2722 1.5973
5.8563 7.4826 1.5973
5.5813 7.6833 1.5973
5.2996 7.8741 1.5973
5.0115 8.0548 1.5973
4.7174 8.2252 1.5973
4.4402 8.4280 1.6055
4.3780 9.0853 1.7004
4.0481 9.2327 1.7004
2.9553 7.4561 1.3533
2.6628 7.4913 1.3420
2.3038 7.3002 1.2925
0.7963 2.8789 0.5045
0.6923 2.9045 0.5044
0.5876 2.9265 0.5043
0.4822 2.9448 0.5043
0.3763 2.9595 0.5042
0.2700 2.9706 0.5042
0.1633 2.9781 0.5042
0.0565 2.9819 0.5042
-0.0504 2.9820 0.5042
-0.1572 2.9785 0.5042
-0.2639 2.9713 0.5043
-0.3702 2.9604 0.5043
-0.4762 2.9460 0.5044
-0.5816 2.9279 0.5044
-0.6864 2.9062 0.5045
-0.7904 2.8809 0.5046
-3.0104 9.6083 1.7004
-3.3537 9.4969 1.7004
-3.6930 9.3736 1.7004
-3.9687 9.1024 1.6754
-4.1280 8.6117 1.6107
-4.4087 8.4102 1.6009
-4.6983 8.2312 1.5972
-4.9926 8.0613 1.5972
-5.2808 7.8810 1.5972
-5.5626 7.6908 1.5972
-5.8378 7.4906 1.5972
-6.1059 7.2808 1.5972
-6.3666 7.0615 1.5972
-8.8075 -2.2761 1.7004
-8.7274 -2.5920 1.7004
-8.6359 -2.9051 1.7004
-8.5331 -3.2150 1.7004
-8.4191 -3.5211 1.7004
-8.2940 -3.8232 1.7004
-8.1580 -4.1208 1.7004
-8.0113 -4.4135 1.7004
-7.8539 -4.7008 1.7004
-7.6861 -4.9825 1.7004
-7.5081 -5.2581 1.7004
-7.3201 -5.5273 1.7004
-7.1224 -5.7896 1.7004
-6.9151 -6.0448 1.7004
-6.6985 -6.2924 1.7004
-6.4730 -6.5321 1.7004
-6.2387 -6.7635 1.7004
-5.9961 -6.9864 1.7004
-5.7453 -7.2005 1.7004
-5.4868 -7.4053 1.7004
-5.2209 -7.6008 1.7004
-4.9479 -7.7864 1.7004
-4.6682 -7.9621 1.7004
-4.3821 -8.1275 1.7004
-4.0901 -8.2824 1.7004
-3.7925 -8.4266 1.7004
-3.4898 -8.5598 1.7004
-3.1822 -8.6819 1.7004
-2.8703 -8.7928 1.7004
-2.5545 -8.8922 1.7004
-2.2352 -8.9799 1.7004
-1.9129 -9.0560 1.7004
-1.5879 -9.1202 1.7004
-1.2188 -8.8678 1.6440
-0.8753 -8.6542 1.5973
-0.4908 -7.5388 1.3872
-0.2203 -7.5361 1.3843
0.0572 -8.6995 1.5973
0.3684 -8.6918 1.5973
0.6791 -8.6727 1.5973
0.9890 -8.6422 1.5973
1.2974 -8.6004 1.5973
1.6041 -8.5474 1.5973
1.9086 -8.4831 1.5973
2.2105 -8.4078 1.5973
2.5094 -8.3215 1.5973
2.8049 -8.2243 1.5973
3.0965 -8.1164 1.5973
3.3988 -8.0332 1.6044
3.5360 -7.5886 1.5404
3.7189 -7.2879 1.5060
3.4030 -6.1177 1.2890
3.7655 -6.2332 1.3415
4.0644 -6.2141 1.3684
4.1656 -5.8969 1.3312
3.6911 -4.8472 1.1239
3.7678 -4.5968 1.0970
3.9493 -4.4811 1.1030
4.3703 -4.6148 1.1743
4.7462 -4.6653 1.2304
4.8242 -4.4138 1.2096
4.8996 -4.1707 1.1910
4.9728 -3.9349 1.1745
4.2307 -3.1081 0.9730
4.5080 -3.0696 1.0115
5.2368 -3.2979 1.1486
6.1938 -3.5975 1.3303
6.7579 -3.6081 1.4239
6.8412 -3.3436 1.4163
6.4026 -2.8500 1.3045
6.2498 -2.5179 1.2552
5.9630 -2.1576 1.1822
5.9206 -1.9055 1.1605
5.8401 -1.6513 1.1332
6.0156 -1.4706 1.1573
6.0566 -1.2526 1.1567
6.1390 -1.0420 1.1655
6.1067 -0.8128 1.1541
6.3598 -0.6157 1.1980
6.5418 -0.3975 1.2298
7.2490 -0.1804 1.3618
8.5354 0.0933 1.6044
7.8594 0.3677 1.4801
7.5422 0.6242 1.4248
7.3323 0.8722 1.3913
7.1987 1.1190 1.3738
7.0171 1.3498 1.3486
6.9746 1.6026 1.3517
7.0746 1.8947 1.3845
7.1702 2.1984 1.4188
7.1828 2.4871 1.4392
7.5599 2.9249 1.5359
7.1369 3.0594 1.4725
6.9347 3.2716 1.4551
7.5064 3.8759 1.6044
7.3574 4.1393 1.6044
7.1677 4.3778 1.5973
6.8368 4.5198 1.5598
6.8264 4.8731 1.5973
6.6431 5.1111 1.5973
6.4515 5.3424 1.5973
6.2520 5.5666 1.5973
6.0449 5.7835 1.5973
5.8304 5.9929 1.5973
3.3369 3.6854 0.9504
5.3802 6.3879 1.5973
5.1452 6.5732 1.5973
4.9039 6.7499 1.5973
4.6567 6.9180 1.5973
4.4038 7.0773 1.5973
4.1456 7.2274 1.5973
3.9128 7.4261 1.6099
3.8478 7.9840 1.7004
3.5579 8.1139 1.7004
3.0065 7.5843 1.5664
2.6919 7.5721 1.5434
0.7924 2.5106 0.5057
0.7016 2.5364 0.5057
0.6100 2.5590 0.5056
0.5178 2.5784 0.5055
0.4250 2.5947 0.5055
0.3316 2.6078 0.5054
0.2379 2.6176 0.5054
0.1439 2.6242 0.5054
0.0498 2.6275 0.5054
-0.0444 2.6276 0.5054
-0.1385 2.6245 0.5054
-0.2325 2.6181 0.5055
-0.3263 2.6085 0.5055
-0.4196 2.5957 0.5056
-0.5125 2.5797 0.5056
-0.6048 2.5604 0.5057
-0.6964 2.5380 0.5058
-0.7873 2.5125 0.5059
-2.9480 8.3471 1.7004
-3.2461 8.2384 1.7004
-3.5403 8.1192 1.7004
-3.8303 7.9897 1.7004
-4.1156 7.8501 1.7004
-4.3959 7.7006 1.7004
-4.5325 7.3176 1.6500
-4.6578 6.9506 1.6032
-4.8877 6.7569 1.5972
-5.1292 6.5805 1.5972
-5.3644 6.3958 1.5972
-5.5931 6.2027 1.5972
-7.8270 -2.0235 1.7004
-7.7552 -2.3041 1.7004
-7.6732 -2.5821 1.7004
-7.5812 -2.8571 1.7004
-7.4793 -3.1289 1.7004
-7.3676 -3.3970 1.7004
-7.2462 -3.6610 1.7004
-7.1153 -3.9207 1.7004
-6.9750 -4.1756 1.7004
-6.8254 -4.4254 1.7004
-6.6669 -4.6698 1.7004
-6.4994 -4.9084 1.7004
-6.3234 -5.1410 1.7004
-6.1389 -5.3671 1.7004
-5.9463 -5.5865 1.7004
-5.7457 -5.7989 1.7004
-5.5374 -6.0040 1.7004
-5.3217 -6.2015 1.7004
-5.0988 -6.3911 1.7004
-4.8692 -6.5725 1.7004
-4.6329 -6.7455 1.7004
-4.3904 -6.9099 1.7004
-4.1420 -7.0655 1.7004
-3.8880 -7.2119 1.7004
-3.6288 -7.3490 1.7004
-3.3646 -7.4766 1.7004
-3.0959 -7.5946 1.7004
-2.8230 -7.7026 1.7004
-2.5462 -7.8007 1.7004
-2.2660 -7.8887 1.7004
-1.9827 -7.9663 1.7004
-1.6967 -8.0336 1.7004
-1.4084 -8.0904 1.7004
-1.1182 -8.1366 1.7004
-0.7764 -7.6768 1.5973
-0.4887 -7.5081 1.5575
-0.2200 -7.5284 1.5590
0.0507 -7.7168 1.5973
0.3268 -7.7100 1.5973
0.6024 -7.6931 1.5973
0.8772 -7.6661 1.5973
1.1508 -7.6292 1.5973
1.4229 -7.5822 1.5973
1.6930 -7.5254 1.5973
1.9608 -7.4587 1.5973
2.2260 -7.3823 1.5973
2.4881 -7.2963 1.5973
2.7469 -7.2008 1.5973
3.0020 -7.0960 1.5973
3.2530 -6.9820 1.5973
3.4996 -6.8589 1.5973
3.4024 -6.1173 1.4526
3.7650 -6.2332 1.5117
3.9329 -6.0139 1.4923
4.0309 -5.7069 1.4516
3.6958 -4.8541 1.2681
3.7725 -4.6031 1.2376
3.9483 -4.4806 1.2425
4.3696 -4.6147 1.3229
4.6009 -4.5231 1.3437
4.6765 -4.2793 1.3209
4.7496 -4.0436 1.3005
4.8205 -3.8150 1.2824
4.2353 -3.1120 1.0971
4.5063 -3.0690 1.1387
5.2345 -3.2970 1.2929
6.1911 -3.5967 1.4974
6.7579 -3.6088 1.6032
6.8411 -3.3443 1.5946
6.4022 -2.8505 1.4685
6.2504 -2.5189 1.4131
5.9627 -2.1582 1.3306
5.9207 -1.9062 1.3061
5.8400 -1.6519 1.2753
6.0155 -1.4711 1.3022
6.0564 -1.2532 1.3015
6.1497 -1.0444 1.3136
6.1064 -0.8134 1.2983
5.7305 -0.5553 1.2142
5.7942 -0.3527 1.2252
7.1212 -0.1779 1.5046
7.5898 0.0822 1.6044
7.5763 0.3537 1.6044
7.4011 0.6118 1.5721
7.1810 0.8534 1.5320
7.0546 1.0959 1.5135
7.0172 1.3491 1.5160
6.9747 1.6019 1.5194
6.9265 1.8543 1.5235
6.9684 2.1358 1.5496
7.1257 2.4665 1.6044
7.0279 2.7183 1.6044
6.9212 2.9662 1.6044
6.7761 3.1960 1.5973
6.6528 3.4344 1.5973
6.5213 3.6682 1.5973
6.3816 3.8969 1.5973
6.2340 4.1205 1.5973
6.0786 4.3385 1.5973
5.9157 4.5508 1.5973
5.7456 4.7571 1.5973
5.5683 4.9571 1.5973
5.3841 5.1506 1.5973
5.1934 5.3374 1.5973
3.3374 3.6854 1.0670
4.7930 5.6900 1.5973
4.5839 5.8553 1.5973
4.3691 6.0131 1.5973
4.1491 6.1632 1.5973
3.9240 6.3053 1.5973
3.6940 6.4395 1.5973
3.6829 6.9890 1.7004
3.4289 7.1141 1.7004
3.1708 7.2302 1.7004
2.9088 7.3370 1.7004
0.7877 2.2155 0.5067
0.7075 2.2414 0.5067
0.6265 2.2646 0.5066
0.5448 2.2848 0.5065
0.4624 2.3023 0.5065
0.3795 2.3169 0.5064
0.2962 2.3286 0.5064
0.2125 2.3374 0.5064
0.1285 2.3433 0.5064
0.0445 2.3463 0.5064
-0.0396 2.3464 0.5064
-0.1237 2.3436 0.5064
-0.2076 2.3379 0.5064
-0.2914 2.3292 0.5065
-0.3747 2.3177 0.5065
-0.4577 2.3034 0.5066
-0.5401 2.2861 0.5066
-0.6219 2.2660 0.5067
-0.7029 2.2431 0.5068
-0.7832 2.2174 0.5069
-2.8930 7.3415 1.7004
-3.1552 7.2351 1.7004
-3.4134 7.1195 1.7004
-3.6676 6.9948 1.7004
-3.9172 6.8612 1.7004
-4.1621 6.7189 1.7004
-4.4019 6.5680 1.7004
-4.6364 6.4086 1.7004
-4.8652 6.2411 1.7004
-4.9771 5.9332 1.6634
-5.0775 5.6302 1.6276
-7.0363 -1.8198 1.7004
-6.9712 -2.0719 1.7004
-6.8970 -2.3216 1.7004
-6.8139 -2.5687 1.7004
-6.7218 -2.8127 1.7004
-6.6210 -3.0535 1.7004
-6.5115 -3.2905 1.7004
-6.3934 -3.5236 1.7004
-6.2669 -3.7524 1.7004
-6.1322 -3.9766 1.7004
-5.9893 -4.1960 1.7004
-5.8386 -4.4101 1.7004
-5.6801 -4.6187 1.7004
-5.5141 -4.8216 1.7004
-5.3407 -5.0184 1.7004
-5.1603 -5.2089 1.7004
-4.9730 -5.3928 1.7004
-4.7790 -5.5699 1.7004
-4.5787 -5.7398 1.7004
-4.3722 -5.9025 1.7004
-4.1599 -6.0576 1.7004
-3.9420 -6.2050 1.7004
-3.7188 -6.3444 1.7004
-3.4907 -6.4756 1.7004
-3.2578 -6.5985 1.7004
-3.0205 -6.7128 1.7004
-2.7792 -6.8185 1.7004
-2.5342 -6.9153 1.7004
-2.2857 -7.0032 1.7004
-2.0341 -7.0820 1.7004
-1.7797 -7.1515 1.7004
-1.5230 -7.2118 1.7004
-1.2642 -7.2627 1.7004
-1.0037 -7.3041 1.7004
-0.7418 -7.3360 1.7004
-0.4499 -6.9122 1.5973
-0.2023 -6.9242 1.5973
0.0455 -6.9271 1.5973
0.2933 -6.9210 1.5973
0.5407 -6.9058 1.5973
0.7874 -6.8817 1.5973
1.0330 -6.8485 1.5973
1.2772 -6.8065 1.5973
1.5196 -6.7555 1.5973
1.7601 -6.6958 1.5973
1.9982 -6.6274 1.5973
2.2335 -6.5503 1.5973
2.4659 -6.4648 1.5973
2.6949 -6.3708 1.5973
2.9203 -6.2686 1.5973
3.1418 -6.1583 1.5973
3.3591 -6.0401 1.5973
3.5718 -5.9140 1.5973
3.7798 -5.7804 1.5973
3.9075 -5.5327 1.5672
4.0569 -5.3290 1.5502
3.7772 -4.6095 1.3800
3.9474 -4.4801 1.3832
4.3689 -4.6146 1.4728
4.4514 -4.3768 1.4475
4.5246 -4.1409 1.4229
4.6293 -3.9418 1.4112
4.7647 -3.7715 1.4112
4.2401 -3.1160 1.2226
4.5045 -3.0683 1.2671
5.2322 -3.2962 1.4385
5.9601 -3.4632 1.6044
6.0766 -3.2457 1.6044
6.1852 -3.0243 1.6044
6.2856 -2.7993 1.6044
6.0512 -2.4392 1.5222
5.9620 -2.1585 1.4803
5.9208 -1.9068 1.4531
5.8399 -1.6525 1.4188
6.0153 -1.4717 1.4486
6.0562 -1.2538 1.4476
6.1496 -1.0450 1.4610
6.1061 -0.8139 1.4438
5.7303 -0.5559 1.3503
5.7941 -0.3532 1.3624
6.8291 -0.1713 1.6044
6.8262 0.0733 1.6044
6.8146 0.3175 1.6044
6.7943 0.5609 1.6044
6.7653 0.8033 1.6044
6.7277 1.0444 1.6044
6.6815 1.2838 1.6044
6.6269 1.5213 1.6044
6.5638 1.7565 1.6044
6.4925 1.9892 1.6044
6.3848 2.2094 1.5973
6.2976 2.4351 1.5973
6.2024 2.6575 1.5973
6.0995 2.8762 1.5973
5.9889 3.0910 1.5973
5.8708 3.3016 1.5973
5.7454 3.5078 1.5973
5.6129 3.7093 1.5973
5.4733 3.9058 1.5973
5.3270 4.0972 1.5973
5.1740 4.2832 1.5973
5.0146 4.4635 1.5973
4.8491 4.6381 1.5973
4.6775 4.8065 1.5973
3.3378 3.6854 1.1848
4.3173 5.1245 1.5973
4.1291 5.2737 1.5973
3.9358 5.4161 1.5973
3.7378 5.5515 1.5973
3.5351 5.6798 1.5973
3.4833 6.0714 1.6718
3.3182 6.2961 1.7004
3.0894 6.4090 1.7004
2.8569 6.5138 1.7004
0.7823 1.9731 0.5076
0.7108 1.9990 0.5075
0.6385 2.0225 0.5074
0.5654 2.0434 0.5073
0.4916 2.0618 0.5073
0.4173 2.0776 0.5072
0.3425 2.0908 0.5072
0.2673 2.1014 0.5072
0.1918 2.1094 0.5072
0.1160 2.1147 0.5071
0.0402 2.1174 0.5071
-0.0358 2.1175 0.5071
-0.1117 2.1150 0.5072
-0.1874 2.1098 0.5072
-0.2629 2.1020 0.5072
-0.3382 2.0916 0.5073
-0.4130 2.0785 0.5073
-0.4874 2.0629 0.5074
-0.5612 2.0447 0.5074
-0.6343 2.0240 0.5075
-0.7067 2.0007 0.5076
-0.7783 1.9749 0.5077
-2.8429 6.5183 1.7004
-3.0755 6.4140 1.7004
-3.3044 6.3015 1.7004
-3.5292 6.1809 1.7004
-3.7497 6.0525 1.7004
-3.9656 5.9163 1.7004
-4.1767 5.7725 1.7004
-4.3826 5.6214 1.7004
-4.5831 5.4629 1.7004
-4.7780 5.2975 1.7004
-6.3844 -1.6519 1.7004
-6.3250 -1.8805 1.7004
-6.2573 -2.1070 1.7004
-6.1816 -2.3310 1.7004
-6.0977 -2.5522 1.7004
-6.0059 -2.7705 1.7004
-5.9062 -2.9853 1.7004
-5.7988 -3.1966 1.7004
-5.6838 -3.4039 1.7004
-5.5613 -3.6071 1.7004
-5.4315 -3.8058 1.7004
-5.2945 -3.9998 1.7004
-5.1506 -4.1888 1.7004
-4.9998 -4.3725 1.7004
-4.8424 -4.5508 1.7004
-4.6786 -4.7233 1.7004
-4.5086 -4.8898 1.7004
-4.3325 -5.0502 1.7004
-4.1507 -5.2041 1.7004
-3.9634 -5.3513 1.7004
-3.7708 -5.4917 1.7004
-3.5732 -5.6251 1.7004
-3.3708 -5.7513 1.7004
-3.1639 -5.8700 1.7004
-2.9527 -5.9812 1.7004
-2.7376 -6.0847 1.7004
-2.5188 -6.1803 1.7004
-2.2967 -6.2680 1.7004
-2.0714 -6.3475 1.7004
-1.8434 -6.4187 1.7004
-1.6129 -6.4817 1.7004
-1.3802 -6.5362 1.7004
-1.1456 -6.5822 1.7004
-0.9095 -6.6197 1.7004
-0.6722 -6.6485 1.7004
-0.4108 -6.3127 1.6096
-0.1836 -6.2829 1.5993
0.0413 -6.2779 1.5973
0.2658 -6.2723 1.5973
0.4900 -6.2586 1.5973
0.7135 -6.2368 1.5973
0.9361 -6.2068 1.5973
1.1574 -6.1687 1.5973
1.3772 -6.1226 1.5973
1.5951 -6.0686 1.5973
1.8108 -6.0067 1.5973
2.0242 -5.9370 1.5973
2.2348 -5.8595 1.5973
2.4424 -5.7745 1.5973
2.6468 -5.6820 1.5973
2.8476 -5.5822 1.5973
3.0446 -5.4752 1.5973
3.2375 -5.3611 1.5973
3.4261 -5.2401 1.5973
3.6102 -5.1124 1.5973
3.7894 -4.9782 1.5973
3.7820 -4.6160 1.5242
3.9466 -4.4797 1.5255
4.2409 -4.4799 1.5769
4.3221 -4.2503 1.5502
4.4692 -4.0908 1.5501
4.5952 -3.9133 1.5450
4.6638 -3.6922 1.5233
4.2449 -3.1201 1.3498
4.5034 -3.0681 1.3969
5.2299 -3.2953 1.5854
5.4054 -3.1415 1.6044
5.5114 -2.9445 1.6044
5.6102 -2.7438 1.6044
5.7016 -2.5398 1.6044
5.7855 -2.3328 1.6044
5.8619 -2.1229 1.6044
5.9210 -1.9075 1.6018
5.8398 -1.6531 1.5637
5.8719 -1.4372 1.5585
5.9038 -1.2228 1.5552
6.0031 -1.0208 1.5717
6.1574 -0.8214 1.6044
5.7301 -0.5564 1.4878
5.7939 -0.3538 1.5010
6.1985 -0.1561 1.6044
6.1963 0.0659 1.6044
6.1861 0.2876 1.6044
6.1680 0.5086 1.6044
6.1420 0.7287 1.6044
6.0815 0.9435 1.5973
6.0401 1.1600 1.5973
5.9910 1.3748 1.5973
5.9344 1.5875 1.5973
5.8702 1.7980 1.5973
5.7986 2.0059 1.5973
5.7197 2.2111 1.5973
5.6336 2.4132 1.5973
5.5404 2.6120 1.5973
5.4402 2.8072 1.5973
5.3332 2.9987 1.5973
5.2196 3.1861 1.5973
5.0994 3.3693 1.5973
4.9728 3.5481 1.5973
4.8401 3.7221 1.5973
4.7013 3.8913 1.5973
4.5567 4.0553 1.5973
4.4064 4.2141 1.5973
4.2507 4.3674 1.5973
3.3383 3.6854 1.3038
3.9237 4.6567 1.5973
3.7528 4.7925 1.5973
3.5773 4.9221 1.5973
3.3973 5.0453 1.5973
3.2132 5.1621 1.5973
3.2204 5.6125 1.7004
3.0163 5.7226 1.7004
2.8084 5.8254 1.7004
0.7763 1.7697 0.5082
0.7120 1.7956 0.5082
0.6470 1.8193 0.5081
0.5812 1.8407 0.5080
0.5146 1.8598 0.5080
0.4475 1.8766 0.5079
0.3799 1.8910 0.5079
0.3118 1.9031 0.5078
0.2433 1.9127 0.5078
0.1746 1.9200 0.5078
0.1056 1.9249 0.5078
0.0366 1.9274 0.5078
-0.0326 1.9275 0.5078
-0.1016 1.9252 0.5078
-0.1706 1.9204 0.5078
-0.2394 1.9133 0.5079
-0.3079 1.9038 0.5079
-0.3760 1.8919 0.5079
-0.4437 1.8776 0.5080
-0.5108 1.8610 0.5081
-0.5774 1.8421 0.5081
-0.6433 1.8208 0.5082
-0.7084 1.7973 0.5083
-0.7727 1.7714 0.5084
-2.7958 5.8300 1.7004
-3.0038 5.7276 1.7004
-3.2081 5.6178 1.7004
-3.4084 5.5009 1.7004
-3.6046 5.3770 1.7004
-3.7963 5.2461 1.7004
-3.9833 5.1085 1.7004
-4.1654 4.9644 1.7004
-4.3424 4.8138 1.7004
-5.8373 -1.5109 1.7004
-5.7827 -1.7199 1.7004
-5.7205 -1.9268 1.7004
-5.6510 -2.1315 1.7004
-5.5741 -2.3337 1.7004
-5.4899 -2.5330 1.7004
-5.3985 -2.7293 1.7004
-5.3001 -2.9223 1.7004
-5.1948 -3.1117 1.7004
-5.0826 -3.2972 1.7004
-4.9638 -3.4787 1.7004
-4.8384 -3.6558 1.7004
-4.7066 -3.8284 1.7004
-4.5687 -3.9961 1.7004
-4.4247 -4.1589 1.7004
-4.2748 -4.3163 1.7004
-4.1193 -4.4683 1.7004
-3.9584 -4.6146 1.7004
-3.7922 -4.7551 1.7004
-3.6209 -4.8895 1.7004
-3.4449 -5.0176 1.7004
-3.2642 -5.1393 1.7004
-3.0792 -5.2544 1.7004
-2.8901 -5.3628 1.7004
-2.6972 -5.4642 1.7004
-2.5006 -5.5586 1.7004
-2.3007 -5.6459 1.7004
-2.0978 -5.7258 1.7004
-1.8920 -5.7983 1.7004
-1.6837 -5.8633 1.7004
-1.4731 -5.9207 1.7004
-1.2606 -5.9704 1.7004
-1.0463 -6.0124 1.7004
-0.8307 -6.0466 1.7004
-0.6139 -6.0729 1.7004
-0.3963 -6.0913 1.7004
-0.1674 -5.7319 1.5973
0.0377 -5.7343 1.5973
0.2428 -5.7292 1.5973
0.4475 -5.7167 1.5973
0.6517 -5.6967 1.5973
0.8550 -5.6694 1.5973
1.0571 -5.6347 1.5973
1.2578 -5.5927 1.5973
1.4569 -5.5434 1.5973
1.6540 -5.4869 1.5973
1.8488 -5.4233 1.5973
2.0413 -5.3527 1.5973
2.2310 -5.2751 1.5973
2.4177 -5.1907 1.5973
2.6011 -5.0997 1.5973
2.7812 -5.0020 1.5973
2.9575 -4.8979 1.5973
3.1299 -4.7875 1.5973
3.2981 -4.6710 1.5973
3.4619 -4.5485 1.5973
3.6211 -4.4202 1.5973
3.7755 -4.2862 1.5973
3.9250 -4.1468 1.5973
4.0692 -4.0021 1.5973
4.2080 -3.8523 1.5973
4.3413 -3.6977 1.5973
4.4688 -3.5384 1.5973
4.2497 -3.1242 1.4788
4.5025 -3.0680 1.5282
4.8155 -3.0349 1.5973
4.9403 -2.8718 1.6044
5.0374 -2.6918 1.6044
5.1279 -2.5085 1.6044
5.2116 -2.3221 1.6044
5.2886 -2.1330 1.6044
5.3587 -1.9413 1.6044
5.4218 -1.7473 1.6044
5.4778 -1.5512 1.6044
5.5268 -1.3534 1.6044
5.5686 -1.1540 1.6044
5.6031 -0.9534 1.6044
5.6305 -0.7517 1.6044
5.6258 -0.5469 1.5973
5.6386 -0.3449 1.5973
5.6441 -0.1427 1.5973
5.6423 0.0595 1.5973
5.6333 0.2613 1.5973
5.6171 0.4626 1.5973
5.5938 0.6631 1.5973
5.5633 0.8625 1.5973
5.5257 1.0606 1.5973
5.4810 1.2572 1.5973
5.4295 1.4519 1.5973
5.3710 1.6445 1.5973
5.3058 1.8349 1.5973
5.2338 2.0227 1.5973
5.1552 2.2077 1.5973
5.0702 2.3897 1.5973
4.9787 2.5685 1.5973
4.8810 2.7438 1.5973
4.7772 2.9155 1.5973
4.6674 3.0833 1.5973
4.5518 3.2471 1.5973
4.4304 3.4065 1.5973
4.3036 3.5615 1.5973
4.1714 3.7118 1.5973
4.0339 3.8573 1.5973
3.8915 3.9977 1.5973
3.3388 3.6854 1.4243
3.5924 4.2629 1.5973
3.4360 4.3873 1.5973
3.2754 4.5061 1.5973
3.1107 4.6191 1.5973
3.1321 5.0312 1.7004
2.9489 5.1387 1.7004
0.8267 1.5682 0.5089
0.7696 1.5961 0.5088
0.7116 1.6220 0.5088
0.6527 1.6459 0.5087
0.5931 1.6676 0.5086
0.5328 1.6873 0.5086
0.4718 1.7049 0.5085
0.4103 1.7203 0.5085
0.3483 1.7335 0.5084
0.2859 1.7446 0.5084
0.2231 1.7535 0.5084
0.1601 1.7602 0.5083
0.0968 1.7646 0.5083
0.0335 1.7669 0.5083
-0.0299 1.7670 0.5083
-0.0932 1.7649 0.5083
-0.1564 1.7605 0.5084
-0.2195 1.7540 0.5084
-0.2822 1.7452 0.5084
-0.3447 1.7343 0.5085
-0.4067 1.7212 0.5085
-0.4683 1.7059 0.5086
-0.5293 1.6885 0.5086
-0.5897 1.6690 0.5087
-0.6493 1.6473 0.5088
-0.7083 1.6236 0.5089
-0.7663 1.5978 0.5090
-0.8235 1.5700 0.5091
-2.9376 5.1437 1.7004
-3.1210 5.0365 1.7004
-3.3005 4.9228 1.7004
-3.4760 4.8029 1.7004
-3.6471 4.6768 1.7004
-3.8137 4.5447 1.7004
-3.9757 4.4067 1.7004
-5.3710 -1.3908 1.7004
-5.3206 -1.5830 1.7004
-5.2632 -1.7734 1.7004
-5.1990 -1.9616 1.7004
-5.1281 -2.1475 1.7004
-5.0504 -2.3308 1.7004
-4.9662 -2.5113 1.7004
-4.8755 -2.6887 1.7004
-4.7784 -2.8628 1.7004
-4.6750 -3.0334 1.7004
-4.5655 -3.2002 1.7004
-4.4501 -3.3630 1.7004
-4.3287 -3.5216 1.7004
-4.2017 -3.6757 1.7004
-4.0691 -3.8253 1.7004
-3.9312 -3.9700 1.7004
-3.7881 -4.1096 1.7004
-3.6400 -4.2441 1.7004
-3.4870 -4.3731 1.7004
-3.3295 -4.4965 1.7004
-3.1675 -4.6142 1.7004
-3.0014 -4.7260 1.7004
-2.8312 -4.8318 1.7004
-2.6573 -4.9313 1.7004
-2.4798 -5.0244 1.7004
-2.2991 -5.1111 1.7004
-2.1153 -5.1912 1.7004
-1.9286 -5.2646 1.7004
-1.7394 -5.3312 1.7004
-1.5479 -5.3909 1.7004
-1.3543 -5.4436 1.7004
-1.1589 -5.4893 1.7004
-0.9619 -5.5278 1.7004
-0.7636 -5.5592 1.7004
-0.5644 -5.5834 1.7004
-0.3644 -5.6003 1.7004
-0.1609 -5.5075 1.6694
0.0346 -5.2720 1.5973
0.2232 -5.2673 1.5973
0.4114 -5.2558 1.5973
0.5991 -5.2375 1.5973
0.7860 -5.2124 1.5973
0.9718 -5.1805 1.5973
1.1563 -5.1419 1.5973
1.3393 -5.0967 1.5973
1.5206 -5.0448 1.5973
1.6997 -4.9864 1.5973
1.8766 -4.9215 1.5973
2.0511 -4.8503 1.5973
2.2228 -4.7728 1.5973
2.3915 -4.6892 1.5973
2.5571 -4.5995 1.5973
2.7192 -4.5039 1.5973
2.8778 -4.4025 1.5973
3.0325 -4.2955 1.5973
3.1832 -4.1829 1.5973
3.3297 -4.0650 1.5973
3.4718 -3.9420 1.5973
3.6093 -3.8139 1.5973
3.7421 -3.6809 1.5973
3.8699 -3.5433 1.5973
3.9926 -3.4012 1.5973
4.1100 -3.2548 1.5973
4.2220 -3.1044 1.5973
4.3285 -2.9500 1.5973
4.4293 -2.7920 1.5973
4.5243 -2.6305 1.5973
4.6134 -2.4657 1.5973
4.6965 -2.2980 1.5973
4.7734 -2.1274 1.5973
4.8441 -1.9542 1.5973
4.9085 -1.7787 1.5973
4.9664 -1.6010 1.5973
5.0180 -1.4215 1.5973
5.0631 -1.2403 1.5973
5.1015 -1.0577 1.5973
5.1334 -0.8739 1.5973
5.1587 -0.6892 1.5973
5.1773 -0.5038 1.5973
5.1893 -0.3180 1.5973
5.1945 -0.1319 1.5973
5.1931 0.0542 1.5973
5.1851 0.2400 1.5973
5.1704 0.4253 1.5973
5.1491 0.6099 1.5973
5.1212 0.7935 1.5973
5.0868 0.9759 1.5973
5.0460 1.1568 1.5973
4.9987 1.3361 1.5973
4.9451 1.5136 1.5973
4.8852 1.6889 1.5973
4.8191 1.8619 1.5973
4.7470 2.0323 1.5973
4.6688 2.2000 1.5973
4.5848 2.3647 1.5973
4.4950 2.5263 1.5973
4.3995 2.6845 1.5973
4.2986 2.8392 1.5973
4.1922 2.9900 1.5973
4.0806 3.1370 1.5973
3.9639 3.2799 1.5973
3.8422 3.4184 1.5973
3.7158 3.5525 1.5973
3.5847 3.6820 1.5973
3.3392 3.6854 1.5465
3.3093 3.9265 1.5973
3.1654 4.0412 1.5973
3.0175 4.1508 1.5973
2.9559 4.3886 1.6475
2.8856 4.6346 1.7004
0.8140 1.4182 0.5094
0.7623 1.4458 0.5093
0.7096 1.4716 0.5093
0.6562 1.4956 0.5092
0.6019 1.5176 0.5091
0.5470 1.5377 0.5091
0.4913 1.5559 0.5090
0.4351 1.5721 0.5090
0.3784 1.5864 0.5089
0.3212 1.5986 0.5089
0.2636 1.6088 0.5088
0.2058 1.6170 0.5088
0.1476 1.6232 0.5088
0.0893 1.6274 0.5088
0.0309 1.6295 0.5088
-0.0275 1.6296 0.5088
-0.0860 1.6276 0.5088
-0.1443 1.6236 0.5088
-0.2024 1.6175 0.5089
-0.2603 1.6094 0.5089
-0.3179 1.5993 0.5089
-0.3751 1.5872 0.5090
-0.4319 1.5731 0.5090
-0.4881 1.5570 0.5091
-0.5438 1.5390 0.5092
-0.5988 1.5190 0.5092
-0.6531 1.4970 0.5093
-0.7067 1.4732 0.5094
-0.7593 1.4475 0.5095
-0.8111 1.4200 0.5096
-2.8754 4.6396 1.7004
-3.0408 4.5348 1.7004
-3.2023 4.4242 1.7004
-3.3599 4.3079 1.7004
-3.5133 4.1861 1.7004
-3.6624 4.0589 1.7004
-4.9687 -1.2872 1.7004
-4.9218 -1.4649 1.7004
-4.8686 -1.6409 1.7004
-4.8090 -1.8150 1.7004
-4.7432 -1.9869 1.7004
-4.6712 -2.1564 1.7004
-4.5932 -2.3232 1.7004
-4.5091 -2.4873 1.7004
-4.4192 -2.6482 1.7004
-4.3235 -2.8058 1.7004
-4.2221 -2.9600 1.7004
-4.1152 -3.1105 1.7004
-4.0029 -3.2570 1.7004
-3.8853 -3.3995 1.7004
-3.7626 -3.5376 1.7004
-3.6350 -3.6713 1.7004
-3.5026 -3.8004 1.7004
-3.3655 -3.9246 1.7004
-3.2240 -4.0438 1.7004
-3.0783 -4.1578 1.7004
-2.9285 -4.2665 1.7004
-2.7748 -4.3698 1.7004
-2.6174 -4.4675 1.7004
-2.4566 -4.5594 1.7004
-2.2925 -4.6454 1.7004
-2.1254 -4.7255 1.7004
-1.9554 -4.7995 1.7004
-1.7828 -4.8673 1.7004
-1.6079 -4.9288 1.7004
-1.4308 -4.9839 1.7004
-1.2519 -5.0326 1.7004
-1.0712 -5.0747 1.7004
-0.8891 -5.1103 1.7004
-0.7059 -5.1393 1.7004
-0.5217 -5.1616 1.7004
-0.3368 -5.1772 1.7004
-0.1514 -5.1861 1.7004
0.0323 -4.9125 1.6101
0.2063 -4.8694 1.5973
0.3803 -4.8588 1.5973
0.5538 -4.8419 1.5973
0.7265 -4.8187 1.5973
0.8983 -4.7892 1.5973
1.0689 -4.7536 1.5973
1.2381 -4.7118 1.5973
1.4056 -4.6639 1.5973
1.5712 -4.6100 1.5973
1.7348 -4.5501 1.5973
1.8961 -4.4843 1.5973
2.0548 -4.4127 1.5973
2.2109 -4.3355 1.5973
2.3639 -4.2526 1.5973
2.5139 -4.1643 1.5973
2.6605 -4.0707 1.5973
2.8037 -3.9718 1.5973
2.9430 -3.8678 1.5973
3.0786 -3.7589 1.5973
3.2100 -3.6452 1.5973
3.3372 -3.5268 1.5973
3.4601 -3.4040 1.5973
3.5783 -3.2768 1.5973
3.6919 -3.1455 1.5973
3.8006 -3.0103 1.5973
3.9043 -2.8712 1.5973
4.0029 -2.7286 1.5973
4.0962 -2.5825 1.5973
4.1842 -2.4332 1.5973
4.2667 -2.2810 1.5973
4.3437 -2.1258 1.5973
4.4150 -1.9681 1.5973
4.4805 -1.8080 1.5973
4.5402 -1.6457 1.5973
4.5940 -1.4815 1.5973
4.6419 -1.3155 1.5973
4.6837 -1.1479 1.5973
4.7195 -0.9790 1.5973
4.7492 -0.8090 1.5973
4.7727 -0.6382 1.5973
4.7901 -0.4666 1.5973
4.8013 -0.2947 1.5973
4.8064 -0.1225 1.5973
4.8053 0.0496 1.5973
4.7980 0.2216 1.5973
4.7846 0.3931 1.5973
4.7650 0.5639 1.5973
4.7394 0.7338 1.5973
4.7078 0.9026 1.5973
4.6701 1.0702 1.5973
4.6265 1.2362 1.5973
4.5770 1.4004 1.5973
4.5218 1.5627 1.5973
4.4608 1.7229 1.5973
4.3941 1.8808 1.5973
4.3220 2.0361 1.5973
4.2443 2.1886 1.5973
4.1613 2.3383 1.5973
4.0731 2.4848 1.5973
3.9797 2.6280 1.5973
3.8814 2.7678 1.5973
3.7781 2.9040 1.5973
3.6702 3.0363 1.5973
3.5577 3.1647 1.5973
3.4406 3.2890 1.5973
3.3194 3.4089 1.5973
3.1939 3.5245 1.5973
3.0645 3.6355 1.5973
2.9313 3.7419 1.5973
2.7986 3.8491 1.5997
2.8253 4.1942 1.7004
0.8013 1.2869 0.5099
0.7543 1.3142 0.5098
0.7065 1.3398 0.5097
0.6577 1.3638 0.5096
0.6082 1.3860 0.5096
0.5579 1.4065 0.5095
0.5070 1.4252 0.5094
0.4554 1.4420 0.5094
0.4033 1.4571 0.5093
0.3507 1.4703 0.5093
0.2977 1.4817 0.5093
0.2444 1.4912 0.5092
0.1907 1.4988 0.5092
0.1369 1.5045 0.5092
0.0828 1.5084 0.5092
0.0287 1.5104 0.5092
-0.0255 1.5104 0.5092
-0.0797 1.5086 0.5092
-0.1337 1.5048 0.5092
-0.1876 1.4992 0.5093
-0.2413 1.4917 0.5093
-0.2947 1.4823 0.5093
-0.3477 1.4711 0.5094
-0.4003 1.4580 0.5094
-0.4524 1.4430 0.5095
-0.5040 1.4263 0.5095
-0.5550 1.4077 0.5096
-0.6053 1.3874 0.5097
-0.6549 1.3653 0.5098
-0.7037 1.3414 0.5098
-0.7517 1.3159 0.5099
-0.7987 1.2886 0.5100
-2.8160 4.1991 1.7004
-2.9656 4.0966 1.7004
-3.1115 3.9889 1.7004
-3.2535 3.8760 1.7004
-3.3914 3.7580 1.7004
-4.6175 -1.1967 1.7004
-4.5739 -1.3618 1.7004
-4.5242 -1.5254 1.7004
-4.4688 -1.6871 1.7004
-4.4075 -1.8468 1.7004
-4.3405 -2.0042 1.7004
-4.2678 -2.1592 1.7004
-4.1896 -2.3115 1.7004
-4.1059 -2.4610 1.7004
-4.0168 -2.6074 1.7004
-3.9225 -2.7505 1.7004
-3.8231 -2.8902 1.7004
-3.7187 -3.0263 1.7004
-3.6094 -3.1586 1.7004
-3.4953 -3.2868 1.7004
-3.3767 -3.4110 1.7004
-3.2536 -3.5307 1.7004
-3.1262 -3.6460 1.7004
-2.9947 -3.7567 1.7004
-2.8593 -3.8625 1.7004
-2.7201 -3.9635 1.7004
-2.5773 -4.0593 1.7004
-2.4311 -4.1499 1.7004
-2.2817 -4.2352 1.7004
-2.1292 -4.3151 1.7004
-1.9740 -4.3894 1.7004
-1.8161 -4.4581 1.7004
-1.6558 -4.5210 1.7004
-1.4933 -4.5780 1.7004
-1.3288 -4.6292 1.7004
-1.1626 -4.6743 1.7004
-0.9948 -4.7134 1.7004
-0.8257 -4.7465 1.7004
-0.6555 -4.7733 1.7004
-0.4845 -4.7940 1.7004
-0.3128 -4.8085 1.7004
-0.1406 -4.8167 1.7004
0.0317 -4.8188 1.7004
0.1916 -4.5226 1.5973
0.3562 -4.5518 1.6112
0.5143 -4.4971 1.5973
0.6747 -4.4756 1.5973
0.8343 -4.4483 1.5973
0.9927 -4.4152 1.5973
1.1498 -4.3764 1.5973
1.3054 -4.3319 1.5973
1.4593 -4.2819 1.5973
1.6112 -4.2263 1.5973
1.7610 -4.1653 1.5973
1.9085 -4.0988 1.5973
2.0534 -4.0272 1.5973
2.1956 -3.9503 1.5973
2.3349 -3.8683 1.5973
2.4712 -3.7814 1.5973
2.6042 -3.6896 1.5973
2.7337 -3.5931 1.5973
2.8596 -3.4920 1.5973
2.9818 -3.3865 1.5973
3.1000 -3.2766 1.5973
3.2142 -3.1626 1.5973
3.3241 -3.0445 1.5973
3.4297 -2.9226 1.5973
3.5308 -2.7970 1.5973
3.6272 -2.6679 1.5973
3.7189 -2.5355 1.5973
3.8057 -2.3998 1.5973
3.8875 -2.2612 1.5973
3.9643 -2.1198 1.5973
4.0359 -1.9757 1.5973
4.1023 -1.8292 1.5973
4.1633 -1.6805 1.5973
4.2189 -1.5298 1.5973
4.2691 -1.3772 1.5973
4.3137 -1.2229 1.5973
4.3527 -1.0672 1.5973
4.3861 -0.9103 1.5973
4.4138 -0.7524 1.5973
4.4358 -0.5936 1.5973
4.4521 -0.4342 1.5973
4.4627 -0.2744 1.5973
4.4675 -0.1144 1.5973
4.4666 0.0457 1.5973
4.4600 0.2055 1.5973
4.4477 0.3649 1.5973
4.4297 0.5237 1.5973
4.4060 0.6817 1.5973
4.3767 0.8387 1.5973
4.3418 0.9945 1.5973
4.3014 1.1488 1.5973
4.2556 1.3016 1.5973
4.2043 1.4525 1.5973
4.1477 1.6015 1.5973
4.0859 1.7483 1.5973
4.0189 1.8928 1.5973
3.9468 2.0347 1.5973
3.8697 2.1739 1.5973
3.7878 2.3103 1.5973
3.7010 2.4435 1.5973
3.6097 2.5736 1.5973
3.5137 2.7003 1.5973
3.4134 2.8234 1.5973
3.3088 2.9429 1.5973
3.2001 3.0586 1.5973
3.0874 3.1702 1.5973
2.9707 3.2778 1.5973
2.8638 3.3970 1.6048
2.7266 3.4801 1.5973
0.8305 1.1421 0.5104
0.7887 1.1706 0.5103
0.7459 1.1976 0.5102
0.7022 1.2231 0.5101
0.6576 1.2470 0.5100
0.6122 1.2693 0.5100
0.5661 1.2901 0.5099
0.5194 1.3091 0.5098
0.4719 1.3265 0.5098
0.4240 1.3423 0.5097
0.3755 1.3563 0.5097
0.3265 1.3686 0.5097
0.2772 1.3792 0.5096
0.2275 1.3881 0.5096
0.1776 1.3952 0.5096
0.1274 1.4006 0.5096
0.0771 1.4042 0.5096
0.0267 1.4060 0.5096
-0.0237 1.4060 0.5096
-0.0742 1.4043 0.5096
-0.1245 1.4008 0.5096
-0.1747 1.3956 0.5096
-0.2246 1.3886 0.5096
-0.2743 1.3798 0.5097
-0.3237 1.3694 0.5097
-0.3727 1.3571 0.5098
-0.4212 1.3432 0.5098
-0.4692 1.3276 0.5099
-0.5167 1.3103 0.5099
-0.5635 1.2913 0.5100
-0.6096 1.2707 0.5101
-0.6551 1.2485 0.5102
-0.6997 1.2247 0.5102
-0.7434 1.1993 0.5103
-0.7863 1.1724 0.5104
-0.8282 1.1439 0.5105
-2.8942 3.7099 1.7004
-3.0262 3.6048 1.7004
-3.1545 3.4950 1.7004
-4.3081 -1.1170 1.7004
-4.2672 -1.2710 1.7004
-4.2209 -1.4236 1.7004
-4.1690 -1.5744 1.7004
-4.1117 -1.7233 1.7004
-4.0491 -1.8701 1.7004
-3.9812 -2.0147 1.7004
-3.9081 -2.1567 1.7004
-3.8300 -2.2961 1.7004
-3.7468 -2.4326 1.7004
-3.6588 -2.5660 1.7004
-3.5659 -2.6963 1.7004
-3.4685 -2.8231 1.7004
-3.3664 -2.9464 1.7004
-3.2600 -3.0660 1.7004
-3.1492 -3.1817 1.7004
-3.0344 -3.2934 1.7004
-2.9155 -3.4008 1.7004
-2.7929 -3.5040 1.7004
-2.6665 -3.6026 1.7004
-2.5367 -3.6967 1.7004
-2.4034 -3.7860 1.7004
-2.2671 -3.8705 1.7004
-2.1277 -3.9499 1.7004
-1.9855 -4.0244 1.7004
-1.8407 -4.0936 1.7004
-1.6935 -4.1576 1.7004
-1.5440 -4.2162 1.7004
-1.3924 -4.2693 1.7004
-1.2391 -4.3170 1.7004
-1.0841 -4.3591 1.7004
-0.9276 -4.3955 1.7004
-0.7700 -4.4263 1.7004
-0.6112 -4.4513 1.7004
-0.4517 -4.4706 1.7004
-0.2916 -4.4841 1.7004
-0.1311 -4.4918 1.7004
0.0296 -4.4936 1.7004
0.1868 -4.4097 1.6702
0.3293 -4.2083 1.5973
0.4795 -4.1937 1.5973
0.6291 -4.1736 1.5973
0.7779 -4.1482 1.5973
0.9256 -4.1174 1.5973
1.0722 -4.0812 1.5973
1.2172 -4.0398 1.5973
1.3607 -3.9932 1.5973
1.5024 -3.9414 1.5973
1.6421 -3.8845 1.5973
1.7796 -3.8226 1.5973
1.9148 -3.7558 1.5973
2.0475 -3.6841 1.5973
2.1774 -3.6078 1.5973
2.3045 -3.5268 1.5973
2.4285 -3.4412 1.5973
2.5494 -3.3513 1.5973
2.6669 -3.2571 1.5973
2.7808 -3.1587 1.5973
2.8912 -3.0563 1.5973
2.9977 -2.9500 1.5973
3.1003 -2.8400 1.5973
3.1988 -2.7263 1.5973
3.2932 -2.6093 1.5973
3.3832 -2.4889 1.5973
3.4688 -2.3654 1.5973
3.5499 -2.2389 1.5973
3.6263 -2.1097 1.5973
3.6980 -1.9778 1.5973
3.7649 -1.8435 1.5973
3.8269 -1.7069 1.5973
3.8839 -1.5682 1.5973
3.9359 -1.4276 1.5973
3.9828 -1.2853 1.5973
4.0245 -1.1414 1.5973
4.0610 -0.9962 1.5973
4.0922 -0.8498 1.5973
4.1182 -0.7024 1.5973
4.1389 -0.5543 1.5973
4.1542 -0.4056 1.5973
4.1642 -0.2565 1.5973
4.1688 -0.1072 1.5973
4.1681 0.0422 1.5973
4.1621 0.1913 1.5973
4.1507 0.3401 1.5973
4.1340 0.4883 1.5973
4.1120 0.6358 1.5973
4.0848 0.7823 1.5973
4.0523 0.9277 1.5973
4.0147 1.0718 1.5973
3.9721 1.2144 1.5973
3.9243 1.3554 1.5973
3.8716 1.4945 1.5973
3.8139 1.6315 1.5973
3.7515 1.7664 1.5973
