ply
format ascii 1.0
element vertex 2176
property float32 x
property float32 y
property float32 z
end_header
8.0734 1.9774 0.4248
8.1279 2.3024 0.4322
8.2416 2.6572 0.4435
8.2997 3.0084 0.4527
8.3608 3.3742 0.4628
8.4248 3.7566 0.4740
8.4920 4.1575 0.4864
8.5627 4.5796 0.5000
8.6374 5.0258 0.5151
8.7167 5.4993 0.5318
8.8013 6.0041 0.5503
8.8918 6.5449 0.5708
8.9967 7.1330 0.5941
8.7557 7.4684 0.5960
8.2397 7.5548 0.5795
7.7518 7.6365 0.5645
7.2885 7.7141 0.5510
7.0238 7.9891 0.5527
7.1382 8.7314 0.5864
7.2818 9.5888 0.6265
7.4465 10.5720 0.6734
7.6378 11.7139 0.7286
7.7912 12.9405 0.7875
8.1561 14.7156 0.8777
8.4653 16.6548 0.9751
8.8918 19.1650 1.1033
12.1956 28.9621 1.6418
11.1450 29.3680 1.6418
10.0813 29.7370 1.6418
9.0059 30.0687 1.6418
7.9200 30.3628 1.6418
6.6249 29.7221 1.5937
5.5540 29.9334 1.5937
4.4768 30.1075 1.5937
3.3943 30.2442 1.5937
2.4571 32.3058 1.6968
1.2976 32.3710 1.6968
0.1365 32.3957 1.6968
-1.0247 32.3802 1.6968
-2.1847 32.3244 1.6968
-3.3421 32.2284 1.6968
-4.4957 32.0923 1.6968
-5.3086 30.0191 1.5960
-6.3729 29.7713 1.5936
-7.4377 29.5312 1.5936
-8.4939 29.2543 1.5936
-8.7098 26.4219 1.4549
-8.6846 23.4793 1.3087
-8.6639 21.0698 1.1904
-8.6466 19.0557 1.0929
-8.6319 17.3429 1.0113
-8.6380 15.8996 0.9441
-8.8710 15.0190 0.9096
-8.5984 13.4333 0.8312
-17.7510 25.6583 1.6250
-18.6398 24.9796 1.6223
-19.6321 24.4312 1.6302
-19.2100 22.2250 1.5268
-8.5622 9.2165 0.6533
-8.6748 8.6911 0.6372
-22.9861 21.4349 1.6297
-8.5467 7.4154 0.5862
-8.6380 6.9680 0.5745
-18.1014 13.5604 1.1696
-24.9351 17.3202 1.5686
-8.5301 5.4826 0.5234
-8.5294 5.0597 0.5114
-27.3821 14.9432 1.6070
-28.2030 14.1037 1.6227
-8.6473 3.9435 0.4886
-29.9481 12.3809 1.6642
-8.5103 3.1661 0.4658
-31.0590 10.3037 1.6768
-31.4431 9.1942 1.6768
-31.7881 8.0704 1.6768
-32.0933 6.9339 1.6768
-23.5912 4.2182 1.2225
-8.4935 1.2063 0.4371
-24.6499 2.6038 1.2615
-29.0669 2.0204 1.4811
-8.5928 0.2884 0.4365
-31.9287 -0.0733 1.6193
-32.1387 -1.2264 1.6292
-8.4777 -0.6284 0.4301
-8.4751 -0.9346 0.4309
-32.0610 -4.7039 1.6357
-13.4451 -2.4678 0.6892
-26.3554 -5.8208 1.3592
-26.4387 -6.8415 1.3737
-8.4620 -2.5165 0.4436
-8.4587 -2.8492 0.4480
-28.4953 -10.7501 1.5268
-23.4974 -9.8404 1.2757
-12.3567 -5.7035 0.6808
-11.9458 -6.0423 0.6689
-8.4432 -4.6579 0.4813
-11.1607 -6.6897 0.6488
-10.7835 -7.0007 0.6404
-10.7696 -7.5538 0.6546
-8.5649 -6.4774 0.5339
-8.4243 -6.8592 0.5396
-10.4844 -9.1806 0.6915
-8.5306 -8.0278 0.5807
-8.4177 -8.5105 0.5929
-14.8911 -16.1758 1.0882
-8.5109 -9.9374 0.6470
-8.3927 -10.5417 0.6659
-19.1848 -25.9543 1.5937
-8.5491 -12.4775 0.7464
-8.4681 -13.3623 0.7801
7.9693 1.3554 0.5949
8.0206 1.6619 0.6033
8.0734 1.9771 0.6127
8.1278 2.3021 0.6232
8.2488 2.6592 0.6399
8.2996 3.0080 0.6523
8.3607 3.3739 0.6667
8.4247 3.7562 0.6826
8.4919 4.1571 0.7002
8.5626 4.5792 0.7196
8.6373 5.0254 0.7410
8.7166 5.4988 0.7648
8.8012 6.0036 0.7911
8.8918 6.5444 0.8204
8.9966 7.1325 0.8537
8.7562 7.4683 0.8563
8.2401 7.5547 0.8322
7.7521 7.6365 0.8106
7.2889 7.7141 0.7910
7.0237 7.9886 0.7932
7.1381 8.7308 0.8414
7.2817 9.5883 0.8988
7.4464 10.5714 0.9657
7.6376 11.7132 1.0448
7.7147 12.8128 1.1179
7.4184 13.3841 1.1443
8.4652 16.6538 1.3975
8.8915 19.1636 1.5809
8.5119 20.2133 1.6418
7.7797 20.4993 1.6418
6.8319 20.1513 1.5937
6.1037 20.3782 1.5937
5.3682 20.5794 1.5937
4.6263 20.7547 1.5937
3.8788 20.9038 1.5937
3.1266 21.0266 1.5937
2.5241 22.4893 1.6968
1.7162 22.5635 1.6968
0.9063 22.6095 1.6968
0.0954 22.6270 1.6968
-0.7157 22.6161 1.6968
-1.5259 22.5767 1.6968
-2.3343 22.5091 1.6968
-3.1399 22.4130 1.6968
-3.9417 22.2888 1.6968
-4.7388 22.1366 1.6968
-5.1936 20.6204 1.5936
-5.9306 20.4252 1.5936
-6.6605 20.2043 1.5936
-7.3823 19.9578 1.5936
-5.6180 13.6619 1.1059
-8.6466 19.0549 1.5661
-8.6319 17.3422 1.4493
-8.6192 15.8645 1.3503
-8.6081 14.5733 1.2654
-8.5984 13.4328 1.1918
-8.5896 12.4154 1.1277
-8.5818 11.5001 1.0713
-8.5747 10.6702 1.0215
-8.5682 9.9125 0.9773
-8.5622 9.2161 0.9378
-8.6639 8.6797 0.9137
-16.2575 15.1595 1.6552
-8.5467 7.4150 0.8420
-8.6382 6.9677 0.8254
-17.5035 13.1117 1.6255
-17.9077 12.4381 1.6195
-8.5301 5.4823 0.7527
-8.5297 5.0594 0.7356
-19.3075 10.5358 1.6304
-19.6511 9.8262 1.6274
-8.6481 3.9435 0.7035
-20.3612 8.4168 1.6296
-8.5103 3.1658 0.6711
-8.6184 2.8588 0.6706
-8.6114 2.5177 0.6621
-8.6089 2.1853 0.6549
-8.6115 1.8602 0.6491
-8.6136 1.5398 0.6442
-8.4935 1.2060 0.6310
-8.6078 0.9089 0.6362
-21.8455 1.5176 1.6082
-8.5930 0.2881 0.6309
-21.9886 -0.0513 1.6123
-18.7000 -0.7143 1.3710
-8.4777 -0.6287 0.6223
-8.4751 -0.9349 0.6237
-17.5469 -2.5751 1.2961
-8.5876 -1.5766 0.6376
-8.5836 -1.8961 0.6414
-8.5790 -2.2203 0.6461
-8.4617 -2.5168 0.6431
-8.4587 -2.8496 0.6497
-8.5631 -3.2309 0.6657
-8.5697 -3.5892 0.6753
-12.3563 -5.7039 0.9884
-11.9454 -6.0426 0.9715
-8.4431 -4.6582 0.6993
-11.1604 -6.6900 0.9429
-10.7832 -7.0010 0.9310
-10.7706 -7.5549 0.9521
-8.5643 -6.4774 0.7766
-8.4243 -6.8596 0.7852
-10.4397 -9.1420 1.0023
-8.5303 -8.0280 0.8455
-8.4174 -8.5107 0.8635
-8.5832 -9.3241 0.9137
-8.4276 -9.8407 0.9336
-8.3927 -10.5422 0.9705
-8.3858 -11.3453 1.0155
-8.3782 -12.2287 1.0665
-8.3698 -13.2078 1.1245
7.9692 1.3551 0.7783
8.0205 1.6616 0.7891
8.0733 1.9767 0.8013
8.1278 2.3018 0.8148
8.2561 2.6613 0.8372
8.2996 3.0077 0.8525
8.3606 3.3735 0.8712
8.4247 3.7558 0.8918
8.4918 4.1568 0.9146
8.5625 4.5788 0.9398
8.6373 5.0249 0.9677
8.7166 5.4984 0.9986
8.8011 6.0032 1.0328
8.8917 6.5440 1.0708
8.9965 7.1320 1.1141
8.7566 7.4682 1.1174
8.2405 7.5547 1.0859
7.7525 7.6364 1.0575
7.2892 7.7140 1.0318
7.0237 7.9881 1.0345
7.1380 8.7303 1.0972
7.4104 9.7572 1.1926
7.4463 10.5708 1.2590
7.7726 11.9196 1.3861
7.6010 12.6234 1.4357
7.2367 13.0556 1.4549
7.2120 14.1879 1.5517
6.8784 14.8241 1.5937
6.3410 15.0574 1.5937
5.7959 15.2715 1.5937
5.2437 15.4662 1.5937
4.6851 15.6413 1.5937
4.1207 15.7965 1.5937
3.5514 15.9317 1.5937
3.0669 16.5277 1.6415
2.5556 17.1856 1.6968
1.9378 17.2648 1.6968
1.3176 17.3222 1.6968
0.6958 17.3576 1.6968
0.0732 17.3711 1.6968
-0.5495 17.3627 1.6968
-1.1715 17.3324 1.6968
-1.7921 17.2801 1.6968
-2.4105 17.2060 1.6968
-3.0260 17.1102 1.6968
-3.6378 16.9927 1.6968
-4.2451 16.8537 1.6968
-4.8472 16.6934 1.6968
-5.1122 15.5072 1.5936
-5.6659 15.3170 1.5936
-5.6124 13.6478 1.4396
-6.7518 14.8787 1.5936
-7.2827 14.6310 1.5936
-7.8047 14.3646 1.5936
-8.3170 14.0799 1.5936
-8.5984 13.4321 1.5536
-8.5896 12.4148 1.4702
-8.5818 11.4996 1.3968
-8.5746 10.6697 1.3320
-8.5681 9.9120 1.2745
-8.5622 9.2156 1.2231
-8.5567 8.5719 1.1772
-8.5515 7.9735 1.1359
-8.5467 7.4146 1.0987
-8.5422 6.8899 1.0652
-8.5380 6.3953 1.0349
-8.5340 5.9270 1.0075
-8.5301 5.4819 0.9827
-8.5265 5.0572 0.9602
-8.5435 4.6617 0.9422
-8.5567 4.2783 0.9256
-8.5972 3.9199 0.9137
-8.7371 3.6113 0.9137
-8.5103 3.1654 0.8770
-15.9774 5.2992 1.6250
-15.7179 4.5948 1.5799
-15.7220 3.9903 1.5640
-15.8201 3.4168 1.5596
-15.9422 2.8493 1.5596
-8.4935 1.2057 0.8256
-16.1955 1.7096 1.5664
-16.2646 1.1293 1.5672
-8.5931 0.2878 0.8260
-16.1231 -0.0382 1.5479
-15.9490 -0.6098 1.5314
-8.4777 -0.6290 0.8151
-8.4751 -0.9353 0.8171
-15.8723 -2.3299 1.5363
-13.4495 -2.4697 1.3087
-16.1270 -3.5630 1.5797
-16.3665 -4.2364 1.6160
-8.4615 -2.5171 0.8433
-8.4587 -2.8499 0.8522
-15.8663 -5.9870 1.6181
-15.5887 -6.5296 1.6117
-8.7043 -4.0184 0.9137
-8.5595 -4.3302 0.9137
-8.4431 -4.6586 0.9180
-8.4633 -5.0736 0.9389
-8.4415 -5.4811 0.9571
-8.4324 -5.9152 0.9790
-8.4284 -6.3750 1.0039
-8.4243 -6.8600 1.0316
-8.4199 -7.3736 1.0622
-8.4152 -7.9200 1.0962
-8.4102 -8.5038 1.1340
-8.4048 -9.1308 1.1762
-8.3990 -9.8077 1.2233
-8.3927 -10.5427 1.2761
-8.3858 -11.3458 1.3355
-8.3782 -12.2292 1.4027
-8.3698 -13.2084 1.4791
7.9692 1.3548 0.9625
8.0641 1.6703 0.9810
8.0172 1.9627 0.9837
8.0713 2.2855 1.0003
8.2577 2.6614 1.0350
8.2995 3.0073 1.0536
8.3606 3.3731 1.0765
8.4246 3.7554 1.1019
8.4918 4.1564 1.1300
8.5625 4.5784 1.1610
8.6372 5.0245 1.1954
8.8287 5.5688 1.2493
8.9144 6.0800 1.2919
8.8916 6.5435 1.3224
8.9964 7.1315 1.3756
8.0467 6.8624 1.2677
7.5724 6.9418 1.2319
7.3905 7.2795 1.2445
7.2895 7.7139 1.2737
7.0236 7.9877 1.2769
7.1379 8.7298 1.3541
7.4103 9.7567 1.4717
7.4462 10.5701 1.5536
7.4614 11.4419 1.6418
6.8383 11.3562 1.5937
6.4252 11.5911 1.5937
6.0042 11.8112 1.5937
5.5757 12.0162 1.5937
5.1404 12.2058 1.5937
4.6987 12.3799 1.5937
4.2512 12.5382 1.5937
3.7984 12.6806 1.5937
3.3410 12.8069 1.5937
3.0657 13.7524 1.6968
2.5705 13.8520 1.6968
2.0721 13.9341 1.6968
1.5712 13.9985 1.6968
1.0684 14.0452 1.6968
0.5642 14.0740 1.6968
0.0594 14.0850 1.6968
-0.4455 14.0782 1.6968
-0.9499 14.0535 1.6968
-1.4531 14.0110 1.6968
-1.9545 13.9507 1.6968
-2.4535 13.8728 1.6968
-2.9495 13.7772 1.6968
-3.4419 13.6642 1.6968
-3.9299 13.5337 1.6968
-4.4132 13.3862 1.6968
-4.8910 13.2215 1.6968
-5.0364 12.2466 1.5936
-5.4732 12.0606 1.5936
-5.9033 11.8592 1.5936
-6.3260 11.6427 1.5936
-6.7410 11.4112 1.5936
-7.1475 11.1652 1.5936
-7.5452 10.9048 1.5936
-7.9336 10.6305 1.5936
-8.3121 10.3425 1.5936
-8.5681 9.9115 1.5730
-8.5622 9.2151 1.5097
-8.5566 8.5714 1.4531
-8.5515 7.9731 1.4023
-8.5467 7.4141 1.3565
-8.5422 6.8895 1.3152
-8.5380 6.3949 1.2779
-8.5340 5.9266 1.2442
-8.5301 5.4815 1.2137
-8.5265 5.0568 1.1861
-8.5230 4.6501 1.1612
-8.5197 4.2594 1.1386
-8.5164 3.8827 1.1184
-8.5133 3.5184 1.1002
-8.5103 3.1651 1.0839
-8.5073 2.8212 1.0694
-8.5044 2.4857 1.0567
-8.5016 2.1574 1.0455
-8.4989 1.8352 1.0359
-8.4961 1.5182 1.0278
-8.4934 1.2054 1.0211
-8.4908 0.8959 1.0157
-8.4882 0.5890 1.0117
-8.4855 0.2838 1.0090
-8.4829 -0.0204 1.0077
-8.4803 -0.3246 1.0076
-8.4777 -0.6294 1.0088
-8.4751 -0.9356 1.0113
-8.4724 -1.2440 1.0151
-8.4698 -1.5556 1.0203
-8.4671 -1.8710 1.0269
-8.4643 -2.1913 1.0349
-8.4615 -2.5174 1.0444
-8.4587 -2.8502 1.0555
-8.4557 -3.1910 1.0682
-8.4527 -3.5409 1.0827
-8.4496 -3.9012 1.0990
-8.4465 -4.2734 1.1173
-8.4431 -4.6590 1.1377
-8.4397 -5.0598 1.1604
-8.4361 -5.4779 1.1856
-8.4324 -5.9156 1.2136
-8.4284 -6.3754 1.2446
-8.4243 -6.8604 1.2790
-8.4198 -7.3741 1.3171
-8.4152 -7.9204 1.3594
-8.4101 -8.5043 1.4065
-8.4048 -9.1313 1.4589
-8.3990 -9.8082 1.5174
-8.3926 -10.5432 1.5830
-8.0661 -10.9138 1.5937
-7.6721 -11.1991 1.5937
-7.2680 -11.4701 1.5937
7.7897 1.3240 1.1218
7.7340 1.6017 1.1218
7.6685 1.8770 1.1218
7.6598 2.1687 1.1316
7.7129 2.4855 1.1524
8.2995 3.0070 1.2558
8.4682 3.4162 1.2996
8.5330 3.8034 1.3301
8.4917 4.1560 1.3466
8.5624 4.5780 1.3834
8.6371 5.0241 1.4242
8.8286 5.5683 1.4883
8.9143 6.0796 1.5391
8.8915 6.5430 1.5752
8.9962 7.1309 1.6386
8.0471 6.8623 1.5101
7.5728 6.9418 1.4673
7.3904 7.2790 1.4821
7.2898 7.7139 1.5168
7.0236 7.9872 1.5205
7.0550 8.6279 1.5937
6.7394 8.8729 1.5937
6.4154 9.1065 1.5937
6.0834 9.3284 1.5937
5.7439 9.5383 1.5937
5.3971 9.7360 1.5937
5.0436 9.9212 1.5937
4.6839 10.0938 1.5937
4.3183 10.2534 1.5937
3.9474 10.4000 1.5937
3.5715 10.5333 1.5937
3.1912 10.6531 1.5937
2.9885 11.4554 1.6968
0.7503 3.3659 0.4943
0.6290 3.3894 0.4942
0.5069 3.4088 0.4941
0.3843 3.4240 0.4940
0.2613 3.4350 0.4939
0.1380 3.4418 0.4939
0.0145 3.4444 0.4939
-0.1090 3.4429 0.4939
-0.2323 3.4371 0.4939
-0.3555 3.4271 0.4940
-0.4782 3.4130 0.4941
-0.6004 3.3946 0.4942
-0.7220 3.3722 0.4943
-2.8917 11.4798 1.6968
-3.3017 11.3700 1.6968
-3.7077 11.2457 1.6968
-4.1090 11.1071 1.6968
-4.5052 10.9544 1.6968
-4.8958 10.7877 1.6968
-4.9590 9.9617 1.5936
-5.3139 9.7794 1.5936
-5.6622 9.5847 1.5936
-6.0035 9.3776 1.5936
-6.3372 9.1586 1.5936
-6.6631 8.9277 1.5936
-6.9806 8.6854 1.5936
-7.2895 8.4319 1.5936
-7.5892 8.1675 1.5936
-7.8793 7.8925 1.5936
-8.1597 7.6073 1.5936
-8.4298 7.3123 1.5936
-8.5422 6.8891 1.5666
-8.5380 6.3945 1.5223
-8.5340 5.9262 1.4822
-8.5301 5.4811 1.4459
-8.5265 5.0564 1.4132
-8.5230 4.6498 1.3835
-8.5196 4.2590 1.3568
-8.5164 3.8824 1.3328
-8.5133 3.5181 1.3112
-8.5103 3.1647 1.2919
-8.5073 2.8209 1.2747
-8.5044 2.4854 1.2596
-8.5016 2.1571 1.2464
-8.4989 1.8349 1.2351
-8.4961 1.5178 1.2255
-8.4934 1.2050 1.2176
-8.4908 0.8956 1.2113
-8.4882 0.5887 1.2066
-8.4855 0.2835 1.2035
-8.4829 -0.0208 1.2019
-8.4803 -0.3249 1.2019
-8.4777 -0.6297 1.2035
-8.4751 -0.9359 1.2066
-8.4724 -1.2444 1.2113
-8.4698 -1.5559 1.2176
-8.4671 -1.8714 1.2255
-8.4643 -2.1916 1.2352
-8.4615 -2.5177 1.2466
-8.4587 -2.8506 1.2599
-8.4557 -3.1914 1.2752
-8.4527 -3.5413 1.2926
-8.4496 -3.9016 1.3121
-8.4464 -4.2737 1.3340
-8.4431 -4.6593 1.3585
-8.4397 -5.0602 1.3858
-8.4361 -5.4783 1.4160
-8.4324 -5.9160 1.4495
-8.4284 -6.3758 1.4867
-8.4243 -6.8608 1.5278
-8.4198 -7.3745 1.5734
-8.2570 -7.7720 1.5936
-7.9757 -8.0654 1.5936
-7.6839 -8.3485 1.5936
-7.3819 -8.6209 1.5936
-7.0702 -8.8823 1.5936
-6.7492 -9.1324 1.5936
-6.4192 -9.3707 1.5936
-6.0808 -9.5970 1.5936
7.5576 1.2842 1.2650
7.6063 1.5749 1.2823
7.6563 1.8738 1.3017
7.7079 2.1820 1.3234
7.6536 2.4661 1.3289
8.2994 3.0066 1.4593
8.4681 3.4158 1.5100
8.5330 3.8030 1.5455
8.4916 4.1556 1.5645
8.5623 4.5776 1.6072
8.5705 4.9850 1.6418
8.3836 5.2873 1.6418
8.1862 5.5827 1.6418
7.9784 5.8707 1.6418
7.7606 6.1511 1.6418
7.5330 6.4235 1.6418
7.0822 6.4917 1.5937
6.8431 6.7395 1.5937
6.5954 6.9787 1.5937
6.3394 7.2088 1.5937
6.0755 7.4297 1.5937
5.8039 7.6409 1.5937
5.5251 7.8424 1.5937
5.2394 8.0337 1.5937
4.9470 8.2148 1.5937
4.6485 8.3853 1.5937
4.3442 8.5450 1.5937
4.0345 8.6939 1.5937
3.7196 8.8316 1.5937
3.4002 8.9580 1.5937
3.1336 9.2414 1.6233
2.9268 9.7700 1.6968
0.7542 2.8910 0.4971
0.6499 2.9151 0.4970
0.5448 2.9356 0.4969
0.4391 2.9525 0.4968
0.3329 2.9658 0.4967
0.2263 2.9754 0.4966
0.1195 2.9813 0.4966
0.0126 2.9836 0.4966
-0.0944 2.9822 0.4966
-0.2013 2.9772 0.4967
-0.3079 2.9685 0.4967
-0.4142 2.9562 0.4968
-0.5200 2.9402 0.4969
-0.6253 2.9206 0.4970
-0.7299 2.8973 0.4972
-2.8442 9.7940 1.6968
-3.1938 9.6868 1.6968
-3.5394 9.5672 1.6968
-3.8806 9.4354 1.6968
-4.2170 9.2916 1.6968
-4.5481 9.1359 1.6968
-4.8735 8.9685 1.6968
-4.9188 8.3259 1.6073
-5.1706 8.0762 1.5936
-5.4578 7.8873 1.5936
-5.7383 7.6882 1.5936
-6.0115 7.4793 1.5936
-6.2772 7.2607 1.5936
-6.5351 7.0327 1.5936
-6.7847 6.7957 1.5936
-7.0258 6.5498 1.5936
-7.2580 6.2955 1.5936
-7.4811 6.0330 1.5936
-7.6948 5.7626 1.5936
-7.8988 5.4848 1.5936
-8.0928 5.1997 1.5936
-8.2765 4.9078 1.5936
-8.4498 4.6095 1.5936
-8.5196 4.2587 1.5764
-8.5164 3.8820 1.5485
-8.5133 3.5178 1.5235
-8.5103 3.1644 1.5012
-8.5073 2.8206 1.4813
-8.5044 2.4851 1.4639
-8.5016 2.1567 1.4486
-8.4988 1.8345 1.4355
-8.4961 1.5175 1.4244
-8.4934 1.2047 1.4153
-8.4908 0.8953 1.4081
-8.4882 0.5884 1.4027
-8.4855 0.2832 1.3992
-8.4829 -0.0211 1.3975
-8.4803 -0.3252 1.3975
-8.4777 -0.6300 1.3994
-8.4751 -0.9362 1.4031
-8.4724 -1.2447 1.4086
-8.4698 -1.5562 1.4160
-8.4671 -1.8717 1.4254
-8.4643 -2.1920 1.4367
-8.4615 -2.5180 1.4501
-8.4587 -2.8509 1.4657
-8.4557 -3.1917 1.4835
-8.4527 -3.5416 1.5038
-8.4496 -3.9019 1.5266
-8.4464 -4.2741 1.5522
-8.4431 -4.6597 1.5808
-8.3403 -5.0010 1.5936
-8.1583 -5.2983 1.5936
-7.9657 -5.5889 1.5936
-7.7627 -5.8726 1.5936
-7.5495 -6.1488 1.5936
-7.3264 -6.4171 1.5936
-7.0937 -6.6774 1.5936
-6.8517 -6.9291 1.5936
-6.6007 -7.1721 1.5936
-6.3411 -7.4058 1.5936
-6.0731 -7.6301 1.5936
-5.7972 -7.8446 1.5936
-5.5136 -8.0490 1.5936
-5.2227 -8.2431 1.5936
7.3798 1.2537 1.4091
7.4273 1.5376 1.4283
7.4762 1.8294 1.4498
7.5266 2.1303 1.4739
7.5788 2.4417 1.5008
8.1873 2.9657 1.6418
8.0733 3.2562 1.6418
7.9490 3.5424 1.6418
7.8146 3.8240 1.6418
7.6703 4.1004 1.6418
7.5163 4.3715 1.6418
7.1373 4.5009 1.5937
6.9695 4.7526 1.5937
6.7929 4.9980 1.5937
6.6076 5.2369 1.5937
6.4141 5.4690 1.5937
6.2124 5.6941 1.5937
6.0029 5.9117 1.5937
5.7858 6.1217 1.5937
5.5614 6.3238 1.5937
5.3300 6.5177 1.5937
5.0369 6.6308 1.5765
4.7950 6.8058 1.5765
4.5968 7.0481 1.5937
4.3404 7.2071 1.5937
4.0786 7.3569 1.5937
3.8117 7.4972 1.5937
3.5400 7.6280 1.5937
3.2638 7.7490 1.5937
3.1373 8.2650 1.6758
2.8742 8.4760 1.6968
0.7557 2.5227 0.4993
0.6646 2.5472 0.4992
0.5727 2.5686 0.4991
0.4801 2.5867 0.4989
0.3869 2.6017 0.4989
0.2934 2.6134 0.4988
0.1995 2.6219 0.4987
0.1053 2.6272 0.4987
0.0111 2.6292 0.4987
-0.0832 2.6280 0.4987
-0.1774 2.6236 0.4988
-0.2713 2.6158 0.4988
-0.3650 2.6049 0.4989
-0.4582 2.5907 0.4990
-0.5510 2.5733 0.4991
-0.6431 2.5528 0.4992
-0.7345 2.5290 0.4993
-0.8250 2.5021 0.4995
-3.1057 8.3946 1.6968
-3.4051 8.2788 1.6968
-3.7002 8.1525 1.6968
-3.9906 8.0157 1.6968
-4.2760 7.8687 1.6968
-4.5561 7.7116 1.6968
-4.8304 7.5446 1.6968
-4.9019 7.0836 1.6313
-5.0343 6.7447 1.5936
-5.2739 6.5612 1.5936
-5.5069 6.3693 1.5936
-5.7329 6.1691 1.5936
-5.9517 5.9610 1.5936
-6.1630 5.7452 1.5936
-6.3665 5.5219 1.5936
-6.5620 5.2914 1.5936
-6.7492 5.0541 1.5936
-6.9278 4.8102 1.5936
-7.0977 4.5600 1.5936
-7.2586 4.3039 1.5936
-7.4103 4.0421 1.5936
-7.5526 3.7750 1.5936
-7.6853 3.5029 1.5936
-7.8083 3.2261 1.5936
-7.9213 2.9451 1.5936
-8.0242 2.6601 1.5936
-8.1170 2.3715 1.5936
-8.1993 2.0797 1.5936
-8.2712 1.7851 1.5936
-8.3326 1.4880 1.5936
-8.3832 1.1888 1.5936
-8.4232 0.8878 1.5936
-8.4524 0.5856 1.5936
-8.4707 0.2824 1.5936
-8.4781 -0.0214 1.5936
-8.4747 -0.3253 1.5936
-8.4604 -0.6290 1.5936
-8.4351 -0.9321 1.5936
-8.3990 -1.2342 1.5936
-8.3521 -1.5349 1.5936
-8.2944 -1.8338 1.5936
-8.2260 -2.1306 1.5936
-8.1469 -2.4248 1.5936
-8.0573 -2.7160 1.5936
-7.9573 -3.0039 1.5936
-7.8469 -3.2881 1.5936
-7.7264 -3.5683 1.5936
-7.5958 -3.8440 1.5936
-7.4554 -4.1149 1.5936
-7.3052 -4.3807 1.5936
-7.1456 -4.6409 1.5936
-6.9766 -4.8953 1.5936
-6.7985 -5.1435 1.5936
-6.6116 -5.3852 1.5936
-6.4160 -5.6201 1.5936
-6.2120 -5.8478 1.5936
-5.9999 -6.0680 1.5936
-5.7799 -6.2805 1.5936
-5.5524 -6.4850 1.5936
-5.3176 -6.6812 1.5936
-5.0758 -6.8688 1.5936
-4.8274 -7.0476 1.5936
-4.7734 -7.5342 1.6635
7.1592 1.2160 1.5371
7.2053 1.4913 1.5579
7.3006 1.7861 1.5918
7.3498 2.0800 1.6182
7.1586 2.3060 1.5937
7.0693 2.5604 1.5937
6.9711 2.8114 1.5937
6.8640 3.0586 1.5937
6.7482 3.3018 1.5937
6.6238 3.5406 1.5937
6.4909 3.7748 1.5937
6.3499 4.0041 1.5937
6.2007 4.2281 1.5937
6.0438 4.4466 1.5937
5.8791 4.6592 1.5937
5.7070 4.8659 1.5937
5.5277 5.0662 1.5937
5.3414 5.2600 1.5937
5.1484 5.4470 1.5937
4.9488 5.6269 1.5937
4.7430 5.7996 1.5937
4.5313 5.9648 1.5937
4.3138 6.1224 1.5937
4.0908 6.2721 1.5937
3.8628 6.4137 1.5937
3.6298 6.5471 1.5937
3.3923 6.6721 1.5937
3.1602 6.8094 1.5986
3.0927 7.3424 1.6968
0.8351 2.2000 0.5012
0.7554 2.2276 0.5011
0.6748 2.2524 0.5009
0.5934 2.2744 0.5008
0.5114 2.2936 0.5007
0.4287 2.3098 0.5006
0.3455 2.3233 0.5005
0.2620 2.3338 0.5005
0.1781 2.3414 0.5004
0.0941 2.3461 0.5004
0.0099 2.3480 0.5004
-0.0743 2.3469 0.5004
-0.1584 2.3428 0.5004
-0.2423 2.3359 0.5005
-0.3259 2.3261 0.5005
-0.4092 2.3134 0.5006
-0.4920 2.2978 0.5007
-0.5742 2.2794 0.5008
-0.6558 2.2581 0.5009
-0.7366 2.2340 0.5011
-0.8166 2.2070 0.5013
-3.0305 7.3679 1.6968
-3.2931 7.2554 1.6968
-3.5515 7.1335 1.6968
-3.8055 7.0026 1.6968
-4.0547 6.8626 1.6968
-4.2988 6.7139 1.6968
-4.5374 6.5565 1.6968
-4.7703 6.3907 1.6968
-4.8902 6.0836 1.6605
-4.9004 5.6675 1.5936
-5.1014 5.4893 1.5936
-5.2959 5.3039 1.5936
-5.4838 5.1117 1.5936
-5.6648 4.9130 1.5936
-5.8385 4.7078 1.5936
-6.0049 4.4965 1.5936
-6.1637 4.2794 1.5936
-6.3147 4.0567 1.5936
-6.4576 3.8287 1.5936
-6.5924 3.5957 1.5936
-6.7188 3.3579 1.5936
-6.8366 3.1158 1.5936
-6.9458 2.8695 1.5936
-7.0461 2.6194 1.5936
-7.1374 2.3658 1.5936
-7.2197 2.1091 1.5936
-7.2927 1.8495 1.5936
-7.3564 1.5873 1.5936
-7.4107 1.3231 1.5936
-7.4555 1.0569 1.5936
-7.4908 0.7893 1.5936
-7.5164 0.5204 1.5936
-7.5325 0.2508 1.5936
-7.5388 -0.0193 1.5936
-7.5355 -0.2896 1.5936
-7.5225 -0.5596 1.5936
-7.4998 -0.8291 1.5936
-7.4675 -1.0976 1.5936
-7.4255 -1.3649 1.5936
-7.3739 -1.6306 1.5936
-7.3128 -1.8944 1.5936
-7.2423 -2.1558 1.5936
-7.1624 -2.4146 1.5936
-7.0733 -2.6705 1.5936
-6.9749 -2.9230 1.5936
-6.8676 -3.1719 1.5936
-6.7513 -3.4169 1.5936
-6.6263 -3.6576 1.5936
-6.4926 -3.8936 1.5936
-6.3505 -4.1248 1.5936
-6.2002 -4.3508 1.5936
-6.0417 -4.5712 1.5936
-5.8754 -4.7859 1.5936
-5.7015 -4.9945 1.5936
-5.5200 -5.1967 1.5936
-5.3314 -5.3923 1.5936
-5.1359 -5.5810 1.5936
-4.9336 -5.7625 1.5936
-4.7932 -6.0227 1.6166
-4.7825 -6.4722 1.6899
-4.5670 -6.6678 1.6968
-4.3259 -6.8282 1.6968
6.6772 1.1338 1.5937
6.6305 1.3721 1.5937
6.5754 1.6084 1.5937
6.5118 1.8426 1.5937
6.4400 2.0743 1.5937
6.3599 2.3032 1.5937
6.2717 2.5290 1.5937
6.1755 2.7515 1.5937
6.0714 2.9704 1.5937
5.9596 3.1854 1.5937
5.8403 3.3962 1.5937
5.7135 3.6025 1.5937
5.5794 3.8041 1.5937
5.4383 4.0008 1.5937
5.2903 4.1923 1.5937
5.1355 4.3783 1.5937
4.9743 4.5587 1.5937
4.8067 4.7332 1.5937
4.6331 4.9016 1.5937
4.4536 5.0636 1.5937
4.2685 5.2191 1.5937
4.0780 5.3679 1.5937
3.8823 5.5097 1.5937
3.6817 5.6445 1.5937
3.4765 5.7721 1.5937
3.2669 5.8922 1.5937
3.1549 6.2050 1.6468
3.0190 6.5049 1.6968
0.8246 1.9576 0.5027
0.7536 1.9851 0.5025
0.6817 2.0101 0.5024
0.6090 2.0325 0.5022
0.5355 2.0525 0.5021
0.4615 2.0698 0.5020
0.3869 2.0845 0.5019
0.3119 2.0967 0.5019
0.2365 2.1062 0.5018
0.1608 2.1132 0.5018
0.0849 2.1174 0.5018
0.0089 2.1191 0.5017
-0.0670 2.1181 0.5018
-0.1429 2.1144 0.5018
-0.2187 2.1082 0.5018
-0.2942 2.0993 0.5019
-0.3693 2.0878 0.5019
-0.4440 2.0736 0.5020
-0.5182 2.0569 0.5021
-0.5918 2.0377 0.5023
-0.6647 2.0158 0.5024
-0.7368 1.9915 0.5025
-0.8081 1.9646 0.5027
-2.9639 6.5299 1.6968
-3.1965 6.4201 1.6968
-3.4250 6.3022 1.6968
-3.6492 6.1761 1.6968
-3.8689 6.0422 1.6968
-4.0836 5.9005 1.6968
-4.2931 5.7512 1.6968
-4.4973 5.5945 1.6968
-4.6958 5.4306 1.6968
-4.8831 5.2541 1.6950
-4.8828 4.8899 1.6327
-4.9348 4.5997 1.5936
-5.0975 4.4207 1.5936
-5.2538 4.2360 1.5936
-5.4034 4.0458 1.5936
-5.5461 3.8503 1.5936
-5.6819 3.6499 1.5936
-5.8103 3.4446 1.5936
-5.9315 3.2349 1.5936
-6.0450 3.0209 1.5936
-6.1509 2.8030 1.5936
-6.2489 2.5813 1.5936
-6.3390 2.3563 1.5936
-6.4210 2.1281 1.5936
-6.4948 1.8971 1.5936
-6.5603 1.6635 1.5936
-6.6174 1.4276 1.5936
-6.6661 1.1899 1.5936
-6.7062 0.9504 1.5936
-6.7378 0.7097 1.5936
-6.7607 0.4678 1.5936
-6.7749 0.2253 1.5936
-6.7804 -0.0177 1.5936
-6.7772 -0.2607 1.5936
-6.7653 -0.5036 1.5936
-6.7448 -0.7459 1.5936
-6.7155 -0.9874 1.5936
-6.6775 -1.2277 1.5936
-6.6310 -1.4666 1.5936
-6.5759 -1.7037 1.5936
-6.5123 -1.9388 1.5936
-6.4403 -2.1714 1.5936
-6.3599 -2.4014 1.5936
-6.2714 -2.6284 1.5936
-6.1747 -2.8522 1.5936
-6.0700 -3.0723 1.5936
-5.9574 -3.2886 1.5936
-5.8371 -3.5008 1.5936
-5.7092 -3.7085 1.5936
-5.5739 -3.9116 1.5936
-5.4313 -4.1097 1.5936
-5.2817 -4.3025 1.5936
-5.1252 -4.4900 1.5936
-4.9620 -4.6716 1.5936
-4.8078 -4.8629 1.5987
-4.7933 -5.2090 1.6546
-4.7219 -5.5156 1.6968
-4.5220 -5.6822 1.6968
-4.3163 -5.8415 1.6968
-4.1049 -5.9934 1.6968
-3.8881 -6.1375 1.6968
6.0616 1.0291 1.5937
6.0194 1.2454 1.5937
5.9695 1.4600 1.5937
5.9119 1.6726 1.5937
5.8468 1.8830 1.5937
5.7742 2.0909 1.5937
5.6943 2.2959 1.5937
5.6070 2.4980 1.5937
5.5127 2.6968 1.5937
5.4113 2.8920 1.5937
5.3030 3.0835 1.5937
5.1880 3.2709 1.5937
5.0664 3.4541 1.5937
4.9383 3.6327 1.5937
4.8040 3.8067 1.5937
4.6635 3.9757 1.5937
4.5172 4.1396 1.5937
4.3651 4.2981 1.5937
4.2075 4.4511 1.5937
4.0446 4.5983 1.5937
3.8765 4.7396 1.5937
3.7035 4.8748 1.5937
3.5259 5.0037 1.5937
3.3557 5.1444 1.5994
3.1728 5.2675 1.6015
3.1590 5.6974 1.6968
2.9524 5.8063 1.6968
0.8143 1.7544 0.5039
0.7505 1.7817 0.5037
0.6859 1.8068 0.5036
0.6205 1.8296 0.5034
0.5543 1.8500 0.5033
0.4875 1.8682 0.5032
0.4201 1.8840 0.5031
0.3522 1.8975 0.5030
0.2839 1.9086 0.5030
0.2153 1.9173 0.5029
0.1464 1.9236 0.5029
0.0773 1.9275 0.5029
0.0081 1.9290 0.5029
-0.0610 1.9281 0.5029
-0.1301 1.9248 0.5029
-0.1991 1.9191 0.5029
-0.2678 1.9109 0.5030
-0.3362 1.9004 0.5031
-0.4042 1.8875 0.5031
-0.4717 1.8723 0.5032
-0.5387 1.8547 0.5033
-0.6050 1.8347 0.5035
-0.6707 1.8125 0.5036
-0.7355 1.7880 0.5037
-0.7995 1.7612 0.5039
-2.9032 5.8308 1.6968
-3.1107 5.7236 1.6968
-3.3143 5.6090 1.6968
-3.5137 5.4873 1.6968
-3.7087 5.3585 1.6968
-3.8990 5.2229 1.6968
-4.0843 5.0805 1.6968
-4.2645 4.9316 1.6968
-4.4393 4.7763 1.6968
-4.6084 4.6149 1.6968
-4.7717 4.4475 1.6968
-4.8743 4.2269 1.6780
-4.8756 3.9308 1.6285
-4.9066 3.6736 1.5936
-5.0362 3.4961 1.5936
-5.1593 3.3140 1.5936
-5.2759 3.1275 1.5936
-5.3857 2.9370 1.5936
-5.4887 2.7427 1.5936
-5.5848 2.5447 1.5936
-5.6737 2.3434 1.5936
-5.7553 2.1391 1.5936
-5.8296 1.9318 1.5936
-5.8965 1.7220 1.5936
-5.9558 1.5099 1.5936
-6.0076 1.2958 1.5936
-6.0516 1.0799 1.5936
-6.0879 0.8626 1.5936
-6.1164 0.6440 1.5936
-6.1370 0.4244 1.5936
-6.1498 0.2043 1.5936
-6.1547 -0.0163 1.5936
-6.1516 -0.2369 1.5936
-6.1407 -0.4573 1.5936
-6.1219 -0.6772 1.5936
-6.0952 -0.8964 1.5936
-6.0606 -1.1145 1.5936
-6.0182 -1.3313 1.5936
-5.9680 -1.5465 1.5936
-5.9102 -1.7598 1.5936
-5.8447 -1.9709 1.5936
-5.7717 -2.1795 1.5936
-5.6912 -2.3855 1.5936
-5.6033 -2.5885 1.5936
-5.5082 -2.7882 1.5936
-5.4059 -2.9844 1.5936
-5.2966 -3.1769 1.5936
-5.1805 -3.3653 1.5936
-5.0576 -3.5495 1.5936
-4.9282 -3.7292 1.5936
-4.8152 -3.9228 1.6012
-4.8019 -4.2070 1.6455
-4.7938 -4.5135 1.6968
-4.6298 -4.6832 1.6968
-4.4598 -4.8469 1.6968
-4.2840 -5.0043 1.6968
-4.1026 -5.1554 1.6968
-3.9159 -5.2999 1.6968
-3.7240 -5.4376 1.6968
-3.5273 -5.5682 1.6968
5.5445 0.9410 1.5937
5.5060 1.1389 1.5937
5.4604 1.3352 1.5937
5.4079 1.5298 1.5937
5.3484 1.7222 1.5937
5.2821 1.9124 1.5937
5.2090 2.1001 1.5937
5.1294 2.2850 1.5937
5.0431 2.4669 1.5937
4.9504 2.6455 1.5937
4.8515 2.8207 1.5937
4.7463 2.9922 1.5937
4.6351 3.1598 1.5937
4.5180 3.3234 1.5937
4.3952 3.4826 1.5937
4.2668 3.6373 1.5937
4.1329 3.7872 1.5937
3.9939 3.9323 1.5937
3.8497 4.0723 1.5937
3.7007 4.2071 1.5937
3.5469 4.3364 1.5937
3.3887 4.4602 1.5937
3.2262 4.5782 1.5937
3.1665 4.8542 1.6494
3.0760 5.1067 1.6968
2.8906 5.2131 1.6968
0.8039 1.5809 0.5049
0.7464 1.6080 0.5047
0.6880 1.6331 0.5046
0.6288 1.6562 0.5045
0.5688 1.6771 0.5043
0.5082 1.6959 0.5042
0.4469 1.7126 0.5041
0.3851 1.7272 0.5041
0.3229 1.7396 0.5040
0.2603 1.7498 0.5039
0.1973 1.7578 0.5039
0.1342 1.7636 0.5039
0.0709 1.7671 0.5038
0.0075 1.7685 0.5038
-0.0560 1.7677 0.5038
-0.1193 1.7646 0.5039
-0.1825 1.7594 0.5039
-0.2455 1.7519 0.5039
-0.3082 1.7422 0.5040
-0.3706 1.7304 0.5041
-0.4325 1.7164 0.5042
-0.4938 1.7002 0.5043
-0.5546 1.6819 0.5044
-0.6148 1.6614 0.5045
-0.6742 1.6389 0.5046
-0.7328 1.6143 0.5048
-0.7905 1.5877 0.5049
-2.8464 5.2371 1.6968
-3.0327 5.1322 1.6968
-3.2151 5.0208 1.6968
-3.3935 4.9029 1.6968
-3.5676 4.7787 1.6968
-3.7371 4.6484 1.6968
-3.9019 4.5121 1.6968
-4.0618 4.3699 1.6968
-4.2165 4.2222 1.6968
-4.3659 4.0689 1.6968
-4.5097 3.9105 1.6968
-4.6478 3.7469 1.6968
-4.7800 3.5786 1.6968
-4.8670 3.3784 1.6833
-4.8651 3.1248 1.6425
-4.8718 2.8878 1.6085
-4.9271 2.6867 1.5936
-5.0213 2.5088 1.5936
-5.1090 2.3277 1.5936
-5.1902 2.1436 1.5936
-5.2648 1.9565 1.5936
-5.3327 1.7669 1.5936
-5.3938 1.5750 1.5936
-5.4480 1.3810 1.5936
-5.4952 1.1851 1.5936
-5.5354 0.9876 1.5936
-5.5684 0.7887 1.5936
-5.5944 0.5888 1.5936
-5.6132 0.3880 1.5936
-5.6247 0.1866 1.5936
-5.6291 -0.0151 1.5936
-5.6262 -0.2169 1.5936
-5.6161 -0.4185 1.5936
-5.5988 -0.6196 1.5936
-5.5742 -0.8200 1.5936
-5.5425 -1.0195 1.5936
-5.5036 -1.2177 1.5936
-5.4577 -1.4145 1.5936
-5.4046 -1.6095 1.5936
-5.3447 -1.8025 1.5936
-5.2778 -1.9933 1.5936
-5.2041 -2.1816 1.5936
-5.1236 -2.3671 1.5936
-5.0365 -2.5497 1.5936
-4.9429 -2.7291 1.5936
-4.8429 -2.9050 1.5936
-4.8170 -3.1295 1.6206
-4.8091 -3.3753 1.6572
-4.7978 -3.6308 1.6968
-4.6654 -3.8010 1.6968
-4.5270 -3.9664 1.6968
-4.3828 -4.1267 1.6968
-4.2328 -4.2818 1.6968
-4.0773 -4.4314 1.6968
-3.9166 -4.5753 1.6968
-3.7507 -4.7134 1.6968
-3.5799 -4.8454 1.6968
-3.4045 -4.9712 1.6968
-3.2246 -5.0906 1.6968
5.1035 0.8660 1.5937
5.0681 1.0481 1.5937
5.0263 1.2289 1.5937
4.9780 1.4079 1.5937
4.9233 1.5852 1.5937
4.8624 1.7602 1.5937
4.7952 1.9330 1.5937
4.7219 2.1032 1.5937
4.6426 2.2707 1.5937
4.5573 2.4352 1.5937
4.4663 2.5966 1.5937
4.3696 2.7545 1.5937
4.2672 2.9089 1.5937
4.1595 3.0594 1.5937
4.0465 3.2060 1.5937
3.9283 3.3485 1.5937
3.8051 3.4866 1.5937
3.6771 3.6203 1.5937
3.5444 3.7492 1.5937
3.4073 3.8733 1.5937
3.2658 3.9924 1.5937
3.1771 4.1815 1.6229
3.1627 4.4878 1.6968
2.9994 4.5977 1.6968
2.8323 4.7018 1.6968
0.7934 1.4308 0.5058
0.7413 1.4577 0.5056
0.6883 1.4828 0.5055
0.6344 1.5060 0.5054
0.5798 1.5272 0.5052
0.5246 1.5466 0.5051
0.4686 1.5640 0.5050
0.4122 1.5794 0.5049
0.3552 1.5929 0.5049
0.2978 1.6043 0.5048
0.2401 1.6137 0.5047
0.1820 1.6211 0.5047
0.1238 1.6265 0.5047
0.0654 1.6298 0.5046
0.0069 1.6311 0.5046
-0.0516 1.6303 0.5047
-0.1100 1.6275 0.5047
-0.1683 1.6226 0.5047
-0.2264 1.6157 0.5047
-0.2843 1.6068 0.5048
-0.3418 1.5958 0.5049
-0.3988 1.5829 0.5049
-0.4554 1.5679 0.5050
-0.5115 1.5510 0.5051
-0.5670 1.5321 0.5053
-0.6217 1.5113 0.5054
-0.6758 1.4886 0.5055
-0.7290 1.4639 0.5057
-0.7813 1.4375 0.5058
-0.8327 1.4091 0.5060
-2.9604 4.6227 1.6968
-3.1246 4.5141 1.6968
-3.2848 4.3997 1.6968
-3.4409 4.2797 1.6968
-3.5926 4.1541 1.6968
-3.7397 4.0232 1.6968
-3.8821 3.8871 1.6968
-4.0196 3.7460 1.6968
-4.1519 3.6000 1.6968
-4.2790 3.4494 1.6968
-4.4007 3.2944 1.6968
-4.5167 3.1350 1.6968
-4.6270 2.9716 1.6968
-4.7314 2.8043 1.6968
-4.8298 2.6334 1.6968
-4.8589 2.4275 1.6750
-4.8570 2.2127 1.6457
-4.8610 2.0073 1.6213
-4.8648 1.8077 1.5996
-4.9089 1.6263 1.5936
-4.9651 1.4496 1.5936
-5.0149 1.2710 1.5936
-5.0608 1.0912 1.5944
-5.0951 0.9088 1.5936
-5.1255 0.7258 1.5936
-5.1493 0.5417 1.5936
-5.1665 0.3569 1.5936
-5.1771 0.1715 1.5936
-5.1810 -0.0141 1.5936
-5.1782 -0.1998 1.5936
-5.1688 -0.3853 1.5936
-5.1528 -0.5704 1.5936
-5.1301 -0.7549 1.5936
-5.1008 -0.9385 1.5936
-5.0650 -1.1209 1.5936
-5.0390 -1.3062 1.5988
-4.9737 -1.4814 1.5936
-4.9185 -1.6590 1.5936
-4.8568 -1.8345 1.5936
-4.8300 -2.0249 1.6072
-4.8224 -2.2282 1.6299
-4.8171 -2.4388 1.6563
-4.8152 -2.6588 1.6870
-4.7451 -2.8465 1.6968
-4.6409 -3.0153 1.6968
-4.5307 -3.1802 1.6968
-4.4146 -3.3410 1.6968
-4.2928 -3.4976 1.6968
-4.1654 -3.6498 1.6968
-4.0326 -3.7972 1.6968
-3.8946 -3.9399 1.6968
-3.7515 -4.0775 1.6968
-3.6035 -4.2098 1.6968
-3.4508 -4.3368 1.6968
-3.2937 -4.4582 1.6968
-3.1322 -4.5739 1.6968
-2.9667 -4.6837 1.6968
4.7226 0.8012 1.5937
4.6900 0.9697 1.5937
4.6513 1.1370 1.5937
4.6067 1.3027 1.5937
4.5562 1.4667 1.5937
4.4998 1.6288 1.5937
4.4377 1.7887 1.5937
4.3699 1.9463 1.5937
4.2966 2.1013 1.5937
4.2178 2.2536 1.5937
4.1335 2.4029 1.5937
4.0441 2.5491 1.5937
3.9494 2.6920 1.5937
3.8498 2.8314 1.5937
3.7452 2.9671 1.5937
3.6358 3.0990 1.5937
3.5219 3.2269 1.5937
3.4034 3.3506 1.5937
3.2807 3.4700 1.5937
3.1850 3.6205 1.6095
3.1749 3.8811 1.6739
3.0748 4.0466 1.6968
2.9274 4.1537 1.6968
0.8291 1.2709 0.5067
0.7827 1.2993 0.5066
0.7353 1.3259 0.5064
0.6870 1.3509 0.5063
0.6379 1.3742 0.5061
0.5880 1.3957 0.5060
0.5374 1.4155 0.5059
0.4862 1.4335 0.5058
0.4344 1.4496 0.5057
0.3820 1.4640 0.5056
0.3292 1.4764 0.5055
0.2761 1.4871 0.5055
0.2225 1.4958 0.5054
0.1687 1.5027 0.5054
0.1147 1.5076 0.5054
0.0606 1.5107 0.5054
0.0064 1.5119 0.5054
-0.0478 1.5112 0.5054
-0.1020 1.5086 0.5054
-0.1560 1.5040 0.5054
-0.2099 1.4976 0.5054
-0.2635 1.4893 0.5055
-0.3168 1.4792 0.5056
-0.3697 1.4671 0.5056
-0.4222 1.4533 0.5057
-0.4741 1.4375 0.5058
-0.5255 1.4200 0.5059
-0.5762 1.4007 0.5060
-0.6263 1.3796 0.5062
-0.6756 1.3567 0.5063
-0.7241 1.3321 0.5065
-0.7717 1.3058 0.5066
-0.8184 1.2779 0.5068
-2.8921 4.1781 1.6968
-3.0404 4.0722 1.6968
-3.1849 3.9610 1.6968
-3.3253 3.8448 1.6968
-3.4614 3.7236 1.6968
-3.5932 3.5976 1.6968
-3.7204 3.4670 1.6968
-3.8429 3.3318 1.6968
-3.9604 3.1924 1.6968
-4.0730 3.0488 1.6968
-4.1803 2.9013 1.6968
-4.2824 2.7501 1.6968
-4.3789 2.5952 1.6968
-4.4699 2.4370 1.6968
-4.5552 2.2756 1.6968
-4.6347 2.1112 1.6968
-4.7082 1.9441 1.6968
-4.7758 1.7744 1.6968
-4.8372 1.6023 1.6968
-4.8502 1.4159 1.6821
-4.8486 1.2286 1.6649
-4.8470 1.0449 1.6501
-4.8468 0.8643 1.6381
-4.8477 0.6862 1.6288
-4.8481 0.5098 1.6214
-4.8480 0.3347 1.6160
-4.8474 0.1604 1.6125
-4.8463 -0.0134 1.6109
-4.8447 -0.1871 1.6113
-4.8426 -0.3612 1.6135
-4.8400 -0.5360 1.6177
-4.8370 -0.7120 1.6239
-4.8334 -0.8894 1.6320
-4.8292 -1.0689 1.6422
-4.8273 -1.2515 1.6554
-4.8257 -1.4375 1.6711
-4.8241 -1.6273 1.6894
-4.7846 -1.8074 1.6968
-4.7176 -1.9781 1.6968
-4.6446 -2.1462 1.6968
-4.5655 -2.3117 1.6968
-4.4805 -2.4742 1.6968
-4.3898 -2.6336 1.6968
-4.2933 -2.7897 1.6968
-4.1913 -2.9422 1.6968
-4.0839 -3.0909 1.6968
-3.9711 -3.2358 1.6968
-3.8532 -3.3765 1.6968
-3.7304 -3.5129 1.6968
-3.6026 -3.6448 1.6968
-3.4702 -3.7720 1.6968
-3.3333 -3.8944 1.6968
-3.1921 -4.0119 1.6968
-3.0467 -4.1241 1.6968
-2.8973 -4.2311 1.6968
-2.7442 -4.3327 1.6968
4.3901 0.7446 1.5937
4.3598 0.9013 1.5937
4.3239 1.0568 1.5937
4.2824 1.2109 1.5937
4.2355 1.3633 1.5937
4.1832 1.5140 1.5937
4.1255 1.6627 1.5937
4.0626 1.8092 1.5937
3.9944 1.9533 1.5937
3.9212 2.0949 1.5937
3.8429 2.2338 1.5937
3.7598 2.3697 1.5937
3.6718 2.5026 1.5937
3.5792 2.6322 1.5937
3.4820 2.7584 1.5937
3.3804 2.8811 1.5937
3.2745 3.0000 1.5937
3.1898 3.1401 1.6066
3.1793 3.3626 1.6612
3.1219 3.5485 1.6968
2.9923 3.6577 1.6968
2.8589 3.7622 1.6968
0.8140 1.1549 0.5074
0.7717 1.1829 0.5073
0.7285 1.2093 0.5071
0.6844 1.2341 0.5070
0.6395 1.2574 0.5068
0.5938 1.2791 0.5067
0.5474 1.2992 0.5066
0.5003 1.3176 0.5065
0.4526 1.3344 0.5064
0.4044 1.3495 0.5063
0.3557 1.3628 0.5062
0.3065 1.3744 0.5062
0.2570 1.3843 0.5061
0.2072 1.3925 0.5061
0.1571 1.3989 0.5060
0.1068 1.4035 0.5060
0.0564 1.4064 0.5060
0.0059 1.4075 0.5060
-0.0445 1.4068 0.5060
-0.0950 1.4044 0.5060
-0.1453 1.4002 0.5060
-0.1954 1.3942 0.5061
-0.2453 1.3865 0.5061
-0.2949 1.3770 0.5062
-0.3442 1.3658 0.5062
-0.3930 1.3528 0.5063
-0.4414 1.3382 0.5064
-0.4892 1.3218 0.5065
-0.5364 1.3038 0.5066
-0.5830 1.2841 0.5067
-0.6289 1.2628 0.5069
-0.6740 1.2399 0.5070
-0.7183 1.2154 0.5071
-0.7617 1.1893 0.5073
-0.8042 1.1618 0.5075
-2.8270 3.7861 1.6968
-2.9612 3.6827 1.6968
-3.0917 3.5746 1.6968
-3.2183 3.4619 1.6968
-3.3408 3.3447 1.6968
-3.4590 3.2232 1.6968
-3.5729 3.0975 1.6968
-3.6821 2.9679 1.6968
-3.7867 2.8344 1.6968
-3.8865 2.6972 1.6968
-3.9813 2.5565 1.6968
-4.0711 2.4125 1.6968
-4.1556 2.2654 1.6968
-4.2349 2.1153 1.6968
-4.3087 1.9625 1.6968
-4.3770 1.8071 1.6968
-4.4398 1.6493 1.6968
-4.4968 1.4894 1.6968
-4.5481 1.3275 1.6968
-4.5936 1.1638 1.6968
-4.6332 0.9986 1.6968
-4.6669 0.8321 1.6968
-4.6946 0.6644 1.6968
-4.7163 0.4958 1.6968
-4.7319 0.3265 1.6968
-4.7414 0.1567 1.6968
-4.7449 -0.0133 1.6968
-4.7423 -0.1834 1.6968
-4.7335 -0.3533 1.6968
-4.7187 -0.5228 1.6968
-4.6978 -0.6917 1.6968
-4.6709 -0.8597 1.6968
-4.6379 -1.0267 1.6968
-4.5990 -1.1925 1.6968
-4.5541 -1.3568 1.6968
-4.5034 -1.5194 1.6968
-4.4468 -1.6800 1.6968
-4.3846 -1.8386 1.6968
-4.3166 -1.9949 1.6968
-4.2431 -2.1486 1.6968
-4.1641 -2.2996 1.6968
-4.0797 -2.4478 1.6968
-3.9900 -2.5928 1.6968
-3.8951 -2.7345 1.6968
-3.7953 -2.8727 1.6968
-3.6905 -3.0073 1.6968
-3.5809 -3.1380 1.6968
-3.4666 -3.2647 1.6968
-3.3479 -3.3873 1.6968
-3.2248 -3.5055 1.6968
-3.0976 -3.6192 1.6968
-2.9663 -3.7283 1.6968
-2.8312 -3.8326 1.6968
-2.6924 -3.9320 1.6968
-2.5501 -4.0263 1.6968
4.0969 0.6947 1.5937
4.0687 0.8409 1.5937
4.0352 0.9860 1.5937
3.9966 1.1298 1.5937
3.9528 1.2722 1.5937
3.9040 1.4128 1.5937
3.8502 1.5516 1.5937
3.7915 1.6883 1.5937
3.7280 1.8229 1.5937
3.6596 1.9550 1.5937
3.5866 2.0846 1.5937
3.5091 2.2115 1.5937
3.4270 2.3356 1.5937
3.3406 2.4566 1.5937
3.2499 2.5744 1.5937
3.1921 2.7204 1.6124
3.1832 2.9162 1.6599
3.1446 3.0954 1.6968
3.0312 3.2057 1.6968
2.9139 3.3120 1.6968
2.7930 3.4139 1.6968
0.7990 1.0514 0.5081
0.7605 1.0789 0.5079
0.7210 1.1050 0.5077
0.6806 1.1297 0.5076
0.6395 1.1530 0.5075
0.5975 1.1748 0.5073
0.5548 1.1951 0.5072
0.5115 1.2139 0.5071
0.4675 1.2311 0.5070
0.4229 1.2468 0.5069
0.3779 1.2609 0.5068
0.3323 1.2734 0.5068
0.2864 1.2843 0.5067
0.2401 1.2935 0.5066
0.1936 1.3012 0.5066
0.1468 1.3072 0.5066
0.0998 1.3115 0.5065
0.0527 1.3142 0.5065
0.0055 1.3152 0.5065
-0.0416 1.3146 0.5065
-0.0887 1.3123 0.5065
-0.1358 1.3084 0.5066
-0.1826 1.3028 0.5066
-0.2292 1.2955 0.5066
-0.2756 1.2867 0.5067
-0.3216 1.2762 0.5068
-0.3672 1.2640 0.5068
-0.4124 1.2503 0.5069
-0.4571 1.2350 0.5070
-0.5012 1.2182 0.5071
-0.5447 1.1998 0.5072
-0.5876 1.1798 0.5074
-0.6297 1.1584 0.5075
-0.6711 1.1355 0.5076
-0.7117 1.1111 0.5078
-0.7513 1.0853 0.5079
-0.7901 1.0581 0.5081
-0.8279 1.0296 0.5083
-2.8858 3.3363 1.6968
-3.0039 3.2311 1.6968
-3.1182 3.1217 1.6968
-3.2285 3.0082 1.6968
-3.3348 2.8909 1.6968
-3.4367 2.7699 1.6968
-3.5343 2.6453 1.6968
-3.6274 2.5172 1.6968
-3.7159 2.3859 1.6968
-3.7996 2.2515 1.6968
-3.8785 2.1141 1.6968
-3.9524 1.9740 1.6968
-4.0212 1.8314 1.6968
-4.0850 1.6863 1.6968
-4.1435 1.5391 1.6968
-4.1967 1.3898 1.6968
-4.2445 1.2387 1.6968
-4.2869 1.0859 1.6968
-4.3239 0.9317 1.6968
-4.3552 0.7763 1.6968
-4.3810 0.6198 1.6968
-4.4012 0.4625 1.6968
-4.4157 0.3045 1.6968
-4.4246 0.1461 1.6968
-4.4278 -0.0126 1.6968
-4.4253 -0.1713 1.6968
-4.4171 -0.3298 1.6968
-4.4032 -0.4880 1.6968
-4.3837 -0.6456 1.6968
-4.3585 -0.8024 1.6968
-4.3277 -0.9583 1.6968
-4.2913 -1.1129 1.6968
-4.2494 -1.2662 1.6968
-4.2020 -1.4179 1.6968
-4.1492 -1.5678 1.6968
-4.0910 -1.7157 1.6968
-4.0276 -1.8615 1.6968
-3.9590 -2.0049 1.6968
-3.8852 -2.1458 1.6968
-3.8064 -2.2840 1.6968
-3.7227 -2.4193 1.6968
-3.6342 -2.5515 1.6968
-3.5410 -2.6804 1.6968
-3.4431 -2.8059 1.6968
-3.3409 -2.9279 1.6968
-3.2343 -3.0461 1.6968
-3.1235 -3.1604 1.6968
-3.0086 -3.2706 1.6968
-2.8899 -3.3767 1.6968
-2.7674 -3.4785 1.6968
-2.6413 -3.5757 1.6968
-2.5118 -3.6684 1.6968
-2.3790 -3.7564 1.6968
3.8362 0.6503 1.5937
3.8098 0.7873 1.5937
3.7785 0.9232 1.5937
3.7424 1.0578 1.5937
3.7015 1.1911 1.5937
3.6558 1.3228 1.5937
3.6055 1.4528 1.5937
3.5505 1.5808 1.5937
3.4910 1.7069 1.5937
3.4271 1.8306 1.5937
3.3588 1.9520 1.5937
3.2861 2.0709 1.5937
3.2093 2.1871 1.5937
3.1921 2.3472 1.6262
3.1865 2.5240 1.6686
3.1459 2.6809 1.6968
3.0473 2.7916 1.6968
2.9449 2.8987 1.6968
2.8388 3.0021 1.6968
0.8183 0.9300 0.5088
0.7840 0.9583 0.5086
0.7489 0.9854 0.5084
0.7128 1.0112 0.5083
0.6758 1.0357 0.5082
0.6380 1.0589 0.5080
0.5994 1.0807 0.5079
0.5601 1.1012 0.5078
0.5201 1.1202 0.5077
0.4795 1.1379 0.5076
0.4382 1.1540 0.5075
0.3965 1.1687 0.5074
0.3542 1.1820 0.5073
0.3116 1.1937 0.5072
0.2685 1.2039 0.5072
0.2251 1.2126 0.5071
0.1815 1.2198 0.5071
0.1376 1.2254 0.5070
0.0936 1.2295 0.5070
0.0494 1.2320 0.5070
0.0052 1.2330 0.5070
-0.0390 1.2324 0.5070
-0.0832 1.2302 0.5070
-0.1273 1.2265 0.5071
-0.1712 1.2213 0.5071
-0.2149 1.2145 0.5071
-0.2583 1.2061 0.5072
-0.3015 1.1963 0.5072
-0.3443 1.1849 0.5073
-0.3866 1.1721 0.5074
-0.4285 1.1577 0.5075
-0.4698 1.1419 0.5076
-0.5106 1.1246 0.5077
-0.5508 1.1059 0.5078
-0.5903 1.0858 0.5079
-0.6290 1.0643 0.5080
-0.6670 1.0414 0.5082
-0.7042 1.0172 0.5083
-0.7405 0.9917 0.5085
-0.7760 0.9649 0.5086
-0.8104 0.9369 0.5088
-2.8132 3.0258 1.6968
-2.9203 2.9233 1.6968
-3.0236 2.8171 1.6968
-3.1230 2.7072 1.6968
-3.2185 2.5938 1.6968
-3.3099 2.4771 1.6968
-3.3970 2.3571 1.6968
-3.4798 2.2341 1.6968
-3.5582 2.1083 1.6968
-3.6320 1.9796 1.6968
-3.7012 1.8484 1.6968
-3.7657 1.7148 1.6968
-3.8253 1.5790 1.6968
-3.8801 1.4411 1.6968
-3.9299 1.3012 1.6968
-3.9746 1.1597 1.6968
-4.0143 1.0167 1.6968
-4.0488 0.8723 1.6968
-4.0782 0.7267 1.6968
-4.1023 0.5802 1.6968
-4.1211 0.4329 1.6968
-4.1347 0.2849 1.6968
-4.1429 0.1366 1.6968
-4.1459 -0.0120 1.6968
-4.1435 -0.1606 1.6968
-4.1358 -0.3090 1.6968
-4.1227 -0.4571 1.6968
-4.1044 -0.6047 1.6968
-4.0808 -0.7515 1.6968
-4.0519 -0.8974 1.6968
-4.0178 -1.0421 1.6968
-3.9785 -1.1856 1.6968
-3.9341 -1.3277 1.6968
-3.8847 -1.4680 1.6968
-3.8302 -1.6065 1.6968
-3.7707 -1.7430 1.6968
-3.7064 -1.8772 1.6968
-3.6374 -2.0091 1.6968
-3.5636 -2.1385 1.6968
-3.4852 -2.2651 1.6968
-3.4023 -2.3888 1.6968
-3.3150 -2.5095 1.6968
-3.2234 -2.6270 1.6968
-3.1276 -2.7411 1.6968
-3.0278 -2.8518 1.6968
-2.9240 -2.9588 1.6968
-2.8165 -3.0620 1.6968
-2.7053 -3.1613 1.6968
-2.5906 -3.2565 1.6968
-2.4726 -3.3475 1.6968
-2.3513 -3.4343 1.6968
-2.2270 -3.5166 1.6968
3.6028 0.6106 1.5937
3.5780 0.7392 1.5937
3.5486 0.8668 1.5937
3.5147 0.9933 1.5937
3.4763 1.1185 1.5937
3.4335 1.2422 1.5937
3.3891 1.3654 1.5951
3.3346 1.4845 1.5937
3.2788 1.6029 1.5937
3.2188 1.7192 1.5937
3.1987 1.8588 1.6160
3.1909 2.0107 1.6477
3.1895 2.1734 1.6864
3.1284 2.3002 1.6968
3.0435 2.4106 1.6968
2.9548 2.5178 1.6968
2.8622 2.6218 1.6968
0.8305 0.8174 0.5094
0.8003 0.8463 0.5093
0.7691 0.8740 0.5091
0.7369 0.9007 0.5090
0.7039 0.9262 0.5088
0.6700 0.9504 0.5087
0.6352 0.9735 0.5085
0.5997 0.9953 0.5084
0.5635 1.0159 0.5083
0.5265 1.0351 0.5082
0.4889 1.0530 0.5081
0.4507 1.0696 0.5080
0.4120 1.0848 0.5079
0.3727 1.0987 0.5078
0.3330 1.1111 0.5077
0.2929 1.1222 0.5077
0.2524 1.1318 0.5076
0.2117 1.1400 0.5076
0.1706 1.1467 0.5075
0.1294 1.1520 0.5075
0.0880 1.1558 0.5075
0.0465 1.1582 0.5075
0.0049 1.1591 0.5074
-0.0367 1.1585 0.5075
-0.0782 1.1565 0.5075
-0.1196 1.1530 0.5075
-0.1609 1.1481 0.5075
-0.2020 1.1417 0.5076
-0.2429 1.1339 0.5076
-0.2834 1.1246 0.5077
-0.3236 1.1139 0.5077
-0.3634 1.1018 0.5078
-0.4028 1.0883 0.5079
-0.4417 1.0734 0.5080
-0.4800 1.0571 0.5081
-0.5178 1.0395 0.5082
-0.5549 1.0206 0.5083
-0.5913 1.0004 0.5084
-0.6270 0.9788 0.5085
-0.6619 0.9561 0.5087
-0.6961 0.9321 0.5088
-0.7293 0.9069 0.5090
-0.7617 0.8805 0.5091
-0.7931 0.8530 0.5093
-0.8236 0.8244 0.5095
-2.8399 2.6458 1.6968
-2.9333 2.5425 1.6968
-3.0229 2.4360 1.6968
-3.1087 2.3264 1.6968
-3.1906 2.2137 1.6968
-3.2683 2.0982 1.6968
-3.3419 1.9799 1.6968
-3.4112 1.8591 1.6968
-3.4762 1.7359 1.6968
-3.5367 1.6104 1.6968
-3.5927 1.4828 1.6968
-3.6441 1.3532 1.6968
-3.6908 1.2219 1.6968
-3.7328 1.0890 1.6968
-3.7700 0.9547 1.6968
-3.8024 0.8190 1.6968
-3.8300 0.6823 1.6968
-3.8526 0.5447 1.6968
-3.8702 0.4063 1.6968
-3.8829 0.2674 1.6968
-3.8907 0.1281 1.6968
-3.8934 -0.0114 1.6968
-3.8911 -0.1510 1.6968
-3.8838 -0.2904 1.6968
-3.8716 -0.4294 1.6968
-3.8543 -0.5680 1.6968
-3.8321 -0.7059 1.6968
-3.8049 -0.8429 1.6968
-3.7729 -0.9788 1.6968
-3.7360 -1.1135 1.6968
-3.6943 -1.2469 1.6968
-3.6478 -1.3787 1.6968
-3.5966 -1.5087 1.6968
-3.5407 -1.6368 1.6968
-3.4803 -1.7629 1.6968
-3.4154 -1.8867 1.6968
-3.3461 -2.0081 1.6968
-3.2725 -2.1270 1.6968
-3.1946 -2.2432 1.6968
-3.1126 -2.3565 1.6968
-3.0266 -2.4668 1.6968
-2.9366 -2.5740 1.6968
-2.8429 -2.6778 1.6968
-2.7455 -2.7783 1.6968
-2.6445 -2.8751 1.6968
-2.5401 -2.9683 1.6968
-2.4324 -3.0577 1.6968
-2.3215 -3.1432 1.6968
-2.2077 -3.2246 1.6968
-2.0910 -3.3019 1.6968
3.3958 0.5753 1.5954
3.3689 0.6958 1.5937
3.3413 0.8160 1.5937
3.3094 0.9351 1.5937
3.2733 1.0530 1.5937
3.2329 1.1695 1.5937
3.2066 1.2917 1.6028
3.2004 1.4246 1.6244
3.1948 1.5617 1.6492
3.1936 1.7056 1.6793
3.1626 1.8377 1.6968
3.0943 1.9496 1.6968
3.0220 2.0591 1.6968
2.9458 2.1658 1.6968
2.8659 2.2698 1.6968
2.7824 2.3708 1.6968
0.8099 0.7419 0.5099
0.7825 0.7701 0.5097
0.7540 0.7973 0.5096
0.7247 0.8235 0.5094
0.6944 0.8486 0.5093
0.6633 0.8726 0.5091
0.6313 0.8955 0.5090
0.5986 0.9173 0.5089
0.5651 0.9379 0.5087
0.5310 0.9572 0.5086
0.4962 0.9754 0.5085
0.4607 0.9923 0.5084
0.4248 1.0079 0.5083
0.3882 1.0223 0.5082
0.3513 1.0354 0.5082
0.3138 1.0471 0.5081
0.2760 1.0575 0.5080
0.2379 1.0666 0.5080
0.1995 1.0743 0.5079
0.1608 1.0807 0.5079
0.1219 1.0857 0.5079
0.0829 1.0893 0.5079
0.0438 1.0915 0.5078
0.0046 1.0924 0.5078
-0.0346 1.0918 0.5079
-0.0737 1.0899 0.5079
-0.1128 1.0867 0.5079
-0.1517 1.0820 0.5079
-0.1904 1.0760 0.5080
-0.2289 1.0686 0.5080
-0.2671 1.0598 0.5081
-0.3050 1.0497 0.5081
-0.3425 1.0383 0.5082
-0.3796 1.0256 0.5083
-0.4162 1.0115 0.5083
-0.4524 0.9962 0.5084
-0.4879 0.9796 0.5085
-0.5229 0.9617 0.5086
-0.5572 0.9426 0.5088
-0.5908 0.9223 0.5089
-0.6237 0.9009 0.5090
-0.6559 0.8782 0.5091
-0.6872 0.8545 0.5093
-0.7177 0.8296 0.5094
-0.7473 0.8037 0.5096
-0.7760 0.7767 0.5098
-0.8037 0.7487 0.5099
-0.8304 0.7197 0.5101
-2.8466 2.2937 1.6968
-2.9273 2.1905 1.6968
-3.0044 2.0844 1.6968
-3.0776 1.9756 1.6968
-3.1468 1.8642 1.6968
-3.2121 1.7504 1.6968
-3.2732 1.6344 1.6968
-3.3302 1.5162 1.6968
-3.3829 1.3960 1.6968
-3.4312 1.2740 1.6968
-3.4752 1.1504 1.6968
-3.5148 1.0252 1.6968
-3.5498 0.8987 1.6968
-3.5803 0.7710 1.6968
-3.6061 0.6423 1.6968
-3.6274 0.5127 1.6968
-3.6440 0.3824 1.6968
-3.6559 0.2516 1.6968
-3.6632 0.1204 1.6968
-3.6657 -0.0109 1.6968
-3.6635 -0.1423 1.6968
-3.6567 -0.2736 1.6968
-3.6451 -0.4045 1.6968
-3.6288 -0.5349 1.6968
-3.6079 -0.6647 1.6968
-3.5823 -0.7937 1.6968
-3.5521 -0.9217 1.6968
-3.5173 -1.0485 1.6968
-3.4780 -1.1740 1.6968
-3.4342 -1.2981 1.6968
-3.3860 -1.4205 1.6968
-3.3334 -1.5411 1.6968
-3.2765 -1.6598 1.6968
-3.2154 -1.7763 1.6968
-3.1501 -1.8907 1.6968
-3.0807 -2.0026 1.6968
-3.0074 -2.1119 1.6968
-2.9302 -2.2186 1.6968
-2.8492 -2.3224 1.6968
-2.7645 -2.4232 1.6968
-2.6763 -2.5210 1.6968
-2.5845 -2.6156 1.6968
-2.4895 -2.7067 1.6968
-2.3912 -2.7944 1.6968
-2.2898 -2.8786 1.6968
-2.1854 -2.9590 1.6968
-2.0782 -3.0357 1.6968
-1.9683 -3.1084 1.6968
3.2137 0.5443 1.5999
3.2104 0.6630 1.6094
3.2068 0.7830 1.6208
3.2026 0.9048 1.6343
3.1994 1.0291 1.6507
3.1983 1.1568 1.6707
3.1971 1.2878 1.6933
3.1549 1.4042 1.6968
3.1021 1.5162 1.6968
3.0454 1.6262 1.6968
2.9847 1.7342 1.6968
2.9202 1.8398 1.6968
2.8520 1.9431 1.6968
2.7802 2.0439 1.6968
0.8137 0.6444 0.5105
0.7897 0.6729 0.5103
0.7648 0.7004 0.5101
0.7389 0.7271 0.5100
0.7120 0.7528 0.5098
0.6843 0.7776 0.5097
0.6557 0.8013 0.5095
0.6263 0.8240 0.5094
0.5962 0.8457 0.5093
0.5653 0.8662 0.5092
0.5337 0.8857 0.5090
0.5015 0.9040 0.5089
0.4686 0.9211 0.5088
0.4351 0.9371 0.5087
0.4012 0.9519 0.5087
0.3667 0.9655 0.5086
0.3318 0.9778 0.5085
0.2964 0.9889 0.5084
0.2607 0.9988 0.5084
0.2247 1.0073 0.5083
0.1884 1.0146 0.5083
0.1519 1.0206 0.5083
0.1152 1.0254 0.5082
0.0783 1.0288 0.5082
0.0414 1.0309 0.5082
0.0044 1.0317 0.5082
-0.0327 1.0312 0.5082
-0.0696 1.0294 0.5082
-0.1065 1.0263 0.5082
-0.1433 1.0219 0.5083
-0.1798 1.0162 0.5083
-0.2162 1.0092 0.5083
-0.2523 1.0009 0.5084
-0.2881 0.9914 0.5085
-0.3235 0.9806 0.5085
-0.3585 0.9685 0.5086
-0.3931 0.9553 0.5087
-0.4272 0.9408 0.5088
-0.4608 0.9251 0.5089
-0.4938 0.9082 0.5090
-0.5262 0.8902 0.5091
-0.5580 0.8710 0.5092
-0.5890 0.8507 0.5093
-0.6194 0.8293 0.5094
-0.6490 0.8068 0.5096
-0.6777 0.7833 0.5097
-0.7057 0.7588 0.5099
-0.7327 0.7333 0.5100
-0.7588 0.7069 0.5102
-0.7840 0.6795 0.5103
-0.8083 0.6513 0.5105
-0.8315 0.6221 0.5107
-2.8354 1.9670 1.6968
-2.9045 1.8643 1.6968
-2.9698 1.7592 1.6968
-3.0314 1.6518 1.6968
-3.0891 1.5423 1.6968
-3.1428 1.4307 1.6968
-3.1925 1.3173 1.6968
-3.2381 1.2022 1.6968
-3.2796 1.0855 1.6968
-3.3169 0.9674 1.6968
-3.3499 0.8480 1.6968
-3.3787 0.7274 1.6968
-3.4031 0.6060 1.6968
-3.4231 0.4837 1.6968
-3.4388 0.3607 1.6968
-3.4500 0.2373 1.6968
-3.4568 0.1135 1.6968
-3.4592 -0.0105 1.6968
-3.4571 -0.1345 1.6968
-3.4506 -0.2583 1.6968
-3.4396 -0.3818 1.6968
-3.4242 -0.5049 1.6968
-3.4044 -0.6274 1.6968
-3.3803 -0.7491 1.6968
-3.3518 -0.8699 1.6968
-3.3189 -0.9895 1.6968
-3.2818 -1.1080 1.6968
-3.2405 -1.2250 1.6968
-3.1949 -1.3405 1.6968
-3.1453 -1.4543 1.6968
-3.0916 -1.5663 1.6968
-3.0339 -1.6763 1.6968
-2.9723 -1.7841 1.6968
-2.9068 -1.8897 1.6968
-2.8376 -1.9928 1.6968
-2.7648 -2.0935 1.6968
-2.6883 -2.1914 1.6968
-2.6084 -2.2866 1.6968
-2.5251 -2.3788 1.6968
-2.4386 -2.4680 1.6968
-2.3488 -2.5540 1.6968
-2.2561 -2.6368 1.6968
-2.1604 -2.7161 1.6968
-2.0619 -2.7920 1.6968
-1.9608 -2.8643 1.6968
-1.8571 -2.9330 1.6968
3.2035 0.5424 1.6867
3.2006 0.6608 1.6968
3.1744 0.7750 1.6968
3.1442 0.8881 1.6968
3.1099 1.0001 1.6968
3.0716 1.1108 1.6968
3.0294 1.2201 1.6968
2.9833 1.3277 1.6968
2.9334 1.4336 1.6968
2.8797 1.5377 1.6968
2.8224 1.6397 1.6968
0.8319 0.5241 0.5112
0.8122 0.5533 0.5110
0.7915 0.5818 0.5108
0.7698 0.6096 0.5107
0.7471 0.6365 0.5105
0.7235 0.6626 0.5104
0.6990 0.6879 0.5102
0.6736 0.7122 0.5101
0.6474 0.7356 0.5099
0.6204 0.7581 0.5098
0.5926 0.7796 0.5097
0.5641 0.8001 0.5096
0.5349 0.8196 0.5094
0.5050 0.8380 0.5093
0.4745 0.8553 0.5092
0.4434 0.8716 0.5091
0.4118 0.8867 0.5090
0.3796 0.9007 0.5090
0.3470 0.9136 0.5089
0.3139 0.9252 0.5088
0.2805 0.9358 0.5088
0.2467 0.9451 0.5087
0.2126 0.9532 0.5087
0.1783 0.9601 0.5086
0.1437 0.9658 0.5086
0.1090 0.9703 0.5086
0.0741 0.9735 0.5085
0.0391 0.9755 0.5085
0.0041 0.9763 0.5085
-0.0309 0.9758 0.5085
-0.0659 0.9741 0.5086
-0.1008 0.9712 0.5086
-0.1356 0.9670 0.5086
-0.1702 0.9616 0.5086
-0.2046 0.9550 0.5087
-0.2387 0.9471 0.5087
-0.2726 0.9381 0.5088
-0.3061 0.9279 0.5088
-0.3393 0.9165 0.5089
