ply
format ascii 1.0
element vertex 2143
property float32 x
property float32 y
property float32 z
end_header
-4.3620 14.1971 1.6868
-4.8661 14.0241 1.6868
-5.3631 13.8323 1.6868
-5.8523 13.6222 1.6868
-5.9877 12.6637 1.5949
-6.3886 12.3446 1.5837
-6.8220 12.0976 1.5837
-7.2455 11.8348 1.5837
-7.6586 11.5566 1.5837
-8.0606 11.2634 1.5837
-8.4511 10.9557 1.5837
-8.8295 10.6341 1.5837
-9.1953 10.2989 1.5837
-9.5480 9.9508 1.5837
-9.9310 9.6328 1.5908
-10.2577 9.2587 1.5908
-10.3193 8.6628 1.5531
-10.5160 8.2030 1.5393
-10.7563 7.7859 1.5347
-11.1721 7.4908 1.5567
-11.6671 7.2296 1.5908
-10.2112 5.8308 1.3648
-10.2734 5.3869 1.3484
-10.2262 4.9024 1.3202
-10.3935 4.5313 1.3219
-10.7794 4.2458 1.3528
-8.9881 3.1725 1.1147
-9.5776 2.9985 1.1756
-9.9158 2.7176 1.2063
-9.8990 2.3344 1.1952
-9.8826 1.9589 1.1859
-8.9027 1.4346 1.0631
-9.8485 1.2261 1.1720
-9.8299 0.8667 1.1672
-9.8114 0.5109 1.1640
-9.7930 0.1578 1.1624
-8.8248 -0.1748 1.0492
-11.3629 -0.6338 1.3551
-11.2537 -1.0341 1.3478
-9.8865 -1.2679 1.1907
-10.0759 -1.6619 1.2219
-9.8375 -1.9879 1.2028
-9.9281 -2.3803 1.2255
-9.9102 -2.7559 1.2367
-9.9601 -3.1592 1.2582
-10.6830 -3.8160 1.3681
-12.1362 -4.8332 1.5778
-10.9304 -4.8148 1.4448
-10.4677 -5.0674 1.4088
-9.4581 -5.0057 1.2982
-8.6987 -5.0118 1.2196
-9.7505 -6.0944 1.3989
-9.6951 -6.5556 1.4257
-9.9113 -7.2338 1.4968
-10.2377 -8.0512 1.5908
-5.6543 -4.7852 0.9059
-9.2033 -8.3743 1.5235
-8.5330 -8.3440 1.4630
-8.8066 -9.2534 1.5676
-8.5461 -9.6516 1.5837
-8.1854 -9.9420 1.5837
-7.8151 -10.2195 1.5837
-7.4359 -10.4837 1.5837
-7.0481 -10.7344 1.5837
-6.6522 -10.9713 1.5837
-6.2487 -11.1943 1.5837
-5.8381 -11.4029 1.5837
-5.4208 -11.5972 1.5837
-5.0031 -11.7904 1.5856
-4.7593 -12.4411 1.6500
-4.4031 -12.8785 1.6868
-3.9356 -13.0220 1.6868
-3.4637 -13.1493 1.6868
-2.9878 -13.2602 1.6868
-2.5086 -13.3546 1.6868
-2.0266 -13.4325 1.6868
-1.5423 -13.4938 1.6868
-1.0563 -13.5383 1.6868
-0.5691 -13.5662 1.6868
-0.0813 -13.5773 1.6868
0.4066 -13.5716 1.6868
0.8940 -13.5491 1.6868
1.3805 -13.5100 1.6868
1.8654 -13.4541 1.6868
2.3481 -13.3816 1.6868
2.8283 -13.2925 1.6868
3.3052 -13.1869 1.6868
3.5475 -12.2664 1.5837
3.9877 -12.1365 1.5837
4.4234 -11.9914 1.5837
4.8541 -11.8313 1.5837
5.2793 -11.6563 1.5837
5.6984 -11.4667 1.5836
6.1111 -11.2626 1.5836
6.5168 -11.0442 1.5836
6.4211 -10.0395 1.4705
6.3386 -9.1674 1.3740
6.3044 -8.4518 1.2987
6.3827 -7.9445 1.2540
6.4930 -7.5123 1.2206
6.9392 -7.4683 1.2518
7.4319 -7.4434 1.2902
7.9575 -7.4168 1.3328
8.3681 -7.2556 1.3554
8.3277 -6.7121 1.3073
8.5604 -6.4063 1.3052
8.6173 -5.9783 1.2786
3.1651 11.1677 1.5836
0.8216 3.3534 0.4709
0.7005 3.3794 0.4705
0.5786 3.4013 0.4702
0.4561 3.4190 0.4700
0.3330 3.4324 0.4698
0.2096 3.4417 0.4697
0.0860 3.4468 0.4697
-0.0377 3.4477 0.4696
-0.1614 3.4443 0.4697
-0.2849 3.4367 0.4698
-0.4081 3.4249 0.4699
-0.5309 3.4090 0.4702
-0.6531 3.3888 0.4704
-0.7746 3.3645 0.4707
-3.2053 11.9447 1.6868
-3.6304 11.8174 1.6868
-4.0503 11.6743 1.6868
-4.4644 11.5158 1.6868
-4.8721 11.3421 1.6868
-5.2729 11.1534 1.6868
-5.6661 10.9501 1.6868
-5.8710 10.4126 1.6366
-6.0377 9.8634 1.5844
-6.3801 9.6288 1.5837
-6.7161 9.3860 1.5837
-7.0426 9.1312 1.5837
-7.3592 8.8647 1.5837
-7.6655 8.5870 1.5837
-7.9611 8.2983 1.5837
-8.2455 7.9992 1.5837
-8.5184 7.6902 1.5837
-8.7795 7.3716 1.5837
-9.0285 7.0440 1.5837
-9.2650 6.7078 1.5837
-9.4887 6.3635 1.5837
-9.7425 6.0384 1.5908
-9.9409 5.6780 1.5908
-10.1258 5.3109 1.5908
-10.2257 4.9036 1.5798
-10.3930 4.5324 1.5815
-10.5973 4.1755 1.5908
-8.9983 3.1773 1.3345
-9.5606 2.9944 1.4029
-9.6123 2.6356 1.3976
-9.6881 2.2859 1.3977
-9.7000 1.9239 1.3904
-8.9122 1.4372 1.2710
-9.6662 1.2046 1.3734
-9.6479 0.8518 1.3675
-9.6298 0.5027 1.3633
-9.6118 0.1561 1.3610
-8.8341 -0.1739 1.2527
-11.1874 -0.6226 1.5908
-11.1424 -1.0225 1.5908
-8.8841 -1.1383 1.2751
-10.0765 -1.6608 1.4559
-9.8378 -1.9867 1.4327
-9.9282 -2.3790 1.4594
-9.8299 -2.7323 1.4604
-9.9594 -3.1577 1.4975
-10.2723 -3.6679 1.5654
-10.2852 -4.0947 1.5908
-10.1186 -4.4558 1.5908
-9.9397 -4.8104 1.5908
-9.4608 -5.0058 1.5438
-8.6988 -5.0106 1.4497
-9.3309 -5.8308 1.5908
-9.0648 -6.1280 1.5837
-8.8290 -6.4425 1.5837
-8.5825 -6.7482 1.5837
-5.5443 -4.6912 1.0546
-5.4288 -4.9389 1.0669
-7.7827 -7.6091 1.5837
-7.4971 -7.8762 1.5837
-7.2027 -8.1330 1.5837
-6.8998 -8.3792 1.5837
-6.5887 -8.6144 1.5837
-6.2699 -8.8384 1.5837
-5.9437 -9.0511 1.5837
-5.6106 -9.2521 1.5837
-5.2709 -9.4413 1.5837
-4.9251 -9.6184 1.5837
-4.8573 -10.3903 1.6820
-4.4913 -10.5827 1.6868
-4.1060 -10.7318 1.6868
-3.7160 -10.8674 1.6868
-3.3217 -10.9893 1.6868
-2.9236 -11.0974 1.6868
-2.5221 -11.1917 1.6868
-2.1177 -11.2720 1.6868
-1.7109 -11.3382 1.6868
-1.3021 -11.3903 1.6868
-0.8918 -11.4282 1.6868
-0.4805 -11.4519 1.6868
-0.0687 -11.4613 1.6868
0.3433 -11.4565 1.6868
0.7548 -11.4375 1.6868
1.1654 -11.4042 1.6868
1.5747 -11.3567 1.6868
1.9822 -11.2950 1.6868
2.3874 -11.2193 1.6868
2.7899 -11.1296 1.6868
3.1891 -11.0259 1.6868
3.3853 -10.3019 1.5930
3.7331 -10.1185 1.5837
4.0962 -9.9826 1.5837
4.4545 -9.8340 1.5837
4.8077 -9.6730 1.5837
5.1553 -9.4998 1.5837
5.4969 -9.3145 1.5836
5.8321 -9.1172 1.5836
6.1604 -8.9083 1.5836
6.3043 -8.4504 1.5403
6.3830 -7.9436 1.4876
6.4929 -7.5109 1.4481
6.9389 -7.4667 1.4854
7.4316 -7.4419 1.5312
7.9577 -7.4157 1.5821
8.0142 -6.9474 1.5411
8.3166 -6.7018 1.5503
8.3183 -6.2239 1.5063
8.2774 -5.7413 1.4590
0.8157 2.8784 0.4770
0.7116 2.9047 0.4767
0.6067 2.9274 0.4764
0.5012 2.9465 0.4761
0.3951 2.9619 0.4759
0.2885 2.9736 0.4758
0.1816 2.9817 0.4757
0.0745 2.9862 0.4756
-0.0327 2.9869 0.4756
-0.1398 2.9840 0.4757
-0.2468 2.9774 0.4758
-0.3535 2.9671 0.4759
-0.4599 2.9531 0.4761
-0.5657 2.9355 0.4763
-0.6709 2.9143 0.4766
-0.7753 2.8895 0.4769
-3.1061 10.1119 1.6868
-3.4656 9.9902 1.6868
-3.8201 9.8553 1.6868
-4.1693 9.7074 1.6868
-4.5127 9.5467 1.6868
-4.8496 9.3735 1.6868
-5.1798 9.1881 1.6868
-5.5027 8.9908 1.6868
-5.7910 8.7410 1.6790
-5.7690 8.0637 1.5888
-6.0310 7.8209 1.5837
-6.3030 7.5936 1.5837
-6.5661 7.3566 1.5837
-6.8202 7.1103 1.5837
-7.0649 6.8551 1.5837
-7.2998 6.5913 1.5837
-7.5247 6.3192 1.5837
-7.7393 6.0394 1.5837
-7.9432 5.7521 1.5837
-8.1364 5.4578 1.5837
-8.3185 5.1570 1.5837
-8.4893 4.8500 1.5837
-8.6487 4.5374 1.5837
-8.7964 4.2194 1.5837
-8.9323 3.8966 1.5837
-9.0562 3.5695 1.5837
-9.0086 3.1821 1.5562
-9.2678 2.9039 1.5837
-9.3551 2.5663 1.5837
-9.3555 2.2086 1.5712
-9.3399 1.8536 1.5582
-8.9219 1.4399 1.4807
-9.3069 1.1609 1.5385
-9.3196 0.8240 1.5366
-9.3309 0.4882 1.5364
-9.3301 0.1527 1.5362
-8.8435 -0.1730 1.4579
-9.6248 -0.5344 1.5908
-9.5879 -0.8786 1.5908
-8.8841 -1.1372 1.4816
-9.4775 -1.5608 1.5908
-9.4043 -1.8980 1.5908
-9.2780 -2.2220 1.5837
-9.1816 -2.5509 1.5837
-9.0736 -2.8757 1.5837
-8.9544 -3.1961 1.5837
-8.8240 -3.5118 1.5837
-8.6826 -3.8223 1.5837
-8.5304 -4.1272 1.5837
-8.3678 -4.4263 1.5837
-8.1949 -4.7191 1.5837
-8.0119 -5.0054 1.5837
-7.8191 -5.2847 1.5837
-7.6168 -5.5568 1.5837
-7.4053 -5.8214 1.5837
-5.5366 -4.6838 1.2204
-5.4220 -4.9318 1.2346
-6.7180 -6.5669 1.5837
-6.4723 -6.7984 1.5837
-6.2189 -7.0209 1.5837
-5.9580 -7.2343 1.5837
-5.6900 -7.4383 1.5837
-5.4153 -7.6326 1.5837
-5.1341 -7.8171 1.5837
-4.9813 -8.2131 1.6277
-4.8502 -8.6865 1.6868
-4.5324 -8.8503 1.6868
-4.2093 -9.0028 1.6868
-3.8812 -9.1438 1.6868
-3.5485 -9.2733 1.6868
-3.2116 -9.3910 1.6868
-2.8710 -9.4970 1.6868
-2.5270 -9.5909 1.6868
-2.1801 -9.6728 1.6868
-1.8306 -9.7426 1.6868
-1.4790 -9.8001 1.6868
-1.1256 -9.8454 1.6868
-0.7710 -9.8783 1.6868
-0.4154 -9.8989 1.6868
-0.0594 -9.9071 1.6868
0.2968 -9.9029 1.6868
0.6525 -9.8864 1.6868
1.0075 -9.8574 1.6868
1.3613 -9.8162 1.6868
1.7135 -9.7626 1.6868
2.0637 -9.6969 1.6868
2.4115 -9.6189 1.6868
2.7565 -9.5289 1.6868
3.0982 -9.4269 1.6868
3.2263 -8.7438 1.5837
3.5399 -8.6258 1.5837
3.8493 -8.4968 1.5837
4.1542 -8.3571 1.5837
4.4542 -8.2067 1.5837
4.7489 -8.0459 1.5837
5.0377 -7.8743 1.5836
5.3209 -7.6932 1.5836
5.5977 -7.5021 1.5836
5.8679 -7.3013 1.5836
6.1310 -7.0911 1.5836
6.3868 -6.8716 1.5836
6.6350 -6.6430 1.5836
6.8752 -6.4058 1.5836
7.3012 -6.3282 1.6268
7.5307 -6.0673 1.6268
7.7510 -5.7982 1.6268
7.9354 -5.5029 1.6214
0.7187 2.5365 0.4815
0.6270 2.5598 0.4812
0.5346 2.5799 0.4809
0.4416 2.5967 0.4807
0.3481 2.6104 0.4805
0.2542 2.6208 0.4804
0.1600 2.6280 0.4803
0.0656 2.6319 0.4802
-0.0288 2.6326 0.4802
-0.1232 2.6300 0.4803
-0.2175 2.6241 0.4803
-0.3116 2.6150 0.4805
-0.4052 2.6026 0.4806
-0.4985 2.5870 0.4808
-0.5911 2.5682 0.4811
-0.6831 2.5462 0.4814
-0.7743 2.5211 0.4817
-3.0255 8.7228 1.6868
-3.3352 8.6055 1.6868
-3.6403 8.4768 1.6868
-3.9403 8.3370 1.6868
-4.2349 8.1864 1.6868
-4.5235 8.0251 1.6868
-4.8059 7.8533 1.6868
-5.0816 7.6714 1.6868
-5.3503 7.4795 1.6868
-5.6116 7.2781 1.6868
-5.7015 6.8701 1.6398
-5.7372 6.4290 1.5837
-5.9598 6.2144 1.5837
-6.1742 5.9920 1.5837
-6.3803 5.7620 1.5837
-6.5776 5.5249 1.5837
-6.7659 5.2809 1.5837
-6.9451 5.0303 1.5837
-7.1148 4.7736 1.5837
-7.2750 4.5111 1.5837
-7.4253 4.2432 1.5837
-7.5657 3.9703 1.5837
-7.6960 3.6926 1.5837
-7.8159 3.4107 1.5837
-7.9254 3.1248 1.5837
-8.0244 2.8355 1.5837
-8.1128 2.5430 1.5837
-8.1905 2.2479 1.5837
-8.2573 1.9504 1.5837
-8.3133 1.6510 1.5837
-8.3585 1.3500 1.5837
-8.3927 1.0480 1.5837
-8.4160 0.7452 1.5837
-8.4284 0.4420 1.5837
-8.4298 0.1390 1.5837
-8.4204 -0.1636 1.5837
-8.4002 -0.4654 1.5837
-8.3692 -0.7659 1.5837
-8.3275 -1.0649 1.5837
-8.2752 -1.3618 1.5837
-8.2124 -1.6564 1.5837
-8.1392 -1.9483 1.5837
-8.0558 -2.2371 1.5837
-7.9621 -2.5224 1.5837
-7.8585 -2.8040 1.5837
-7.7451 -3.0814 1.5837
-7.6220 -3.3544 1.5837
-7.4894 -3.6225 1.5837
-7.3476 -3.8856 1.5837
-7.1966 -4.1432 1.5837
-7.0368 -4.3951 1.5837
-6.8682 -4.6410 1.5837
-6.6913 -4.8806 1.5837
-6.5062 -5.1136 1.5837
-5.5288 -4.6763 1.3870
-5.4152 -4.9247 1.4031
-5.9042 -5.7704 1.5837
-5.6888 -5.9744 1.5837
-5.4666 -6.1706 1.5837
-5.2378 -6.3587 1.5837
-5.0633 -6.6179 1.6030
-5.0334 -7.0933 1.6742
-4.8084 -7.3201 1.6868
-4.5397 -7.4840 1.6868
-4.2656 -7.6383 1.6868
-3.9863 -7.7828 1.6868
-3.7023 -7.9174 1.6868
-3.4139 -8.0420 1.6868
-3.1214 -8.1563 1.6868
-2.8253 -8.2602 1.6868
-2.5257 -8.3538 1.6868
-2.2232 -8.4367 1.6868
-1.9180 -8.5091 1.6868
-1.6106 -8.5707 1.6868
-1.3013 -8.6215 1.6868
-0.9904 -8.6615 1.6868
-0.6784 -8.6906 1.6868
-0.3655 -8.7088 1.6868
-0.0522 -8.7161 1.6868
0.2611 -8.7124 1.6868
0.5741 -8.6977 1.6868
0.8865 -8.6722 1.6868
1.1978 -8.6358 1.6868
1.5076 -8.5885 1.6868
1.8157 -8.5304 1.6868
2.1216 -8.4615 1.6868
2.4250 -8.3820 1.6868
2.7256 -8.2920 1.6868
3.0229 -8.1914 1.6868
3.1135 -7.5859 1.5836
3.3856 -7.4721 1.5836
3.6535 -7.3488 1.5836
3.9172 -7.2162 1.5836
4.1761 -7.0743 1.5836
4.4300 -6.9234 1.5836
4.6787 -6.7636 1.5836
4.9217 -6.5951 1.5836
5.1588 -6.4180 1.5836
5.3897 -6.2326 1.5836
5.6140 -6.0391 1.5836
5.8316 -5.8376 1.5836
6.0421 -5.6285 1.5836
6.2453 -5.4120 1.5836
6.4408 -5.1882 1.5836
6.6285 -4.9575 1.5836
6.8082 -4.7201 1.5836
0.6417 2.2652 0.4850
0.5599 2.2860 0.4847
0.4774 2.3041 0.4845
0.3944 2.3192 0.4843
0.3109 2.3314 0.4841
0.2270 2.3408 0.4840
0.1429 2.3472 0.4839
0.0586 2.3507 0.4839
-0.0257 2.3513 0.4839
-0.1101 2.3490 0.4839
-0.1942 2.3437 0.4840
-0.2782 2.3355 0.4841
-0.3619 2.3245 0.4842
-0.4451 2.3105 0.4844
-0.5278 2.2936 0.4846
-0.6099 2.2739 0.4849
-0.6913 2.2513 0.4852
-0.7720 2.2259 0.4855
-2.9567 7.6299 1.6868
-3.2273 7.5162 1.6868
-3.4935 7.3926 1.6868
-3.7548 7.2595 1.6868
-4.0110 7.1168 1.6868
-4.2616 6.9649 1.6868
-4.5064 6.8040 1.6868
-4.7450 6.6344 1.6868
-4.9771 6.4561 1.6868
-5.2023 6.2696 1.6868
-5.4205 6.0751 1.6868
-5.6313 5.8729 1.6868
-5.6355 5.4702 1.6293
-5.6611 5.1135 1.5837
-5.8367 4.9035 1.5837
-6.0043 4.6874 1.5837
-6.1639 4.4655 1.5837
-6.3152 4.2381 1.5837
-6.4580 4.0055 1.5837
-6.5921 3.7680 1.5837
-6.7174 3.5261 1.5837
-6.8338 3.2799 1.5837
-6.9410 3.0298 1.5837
-7.0390 2.7763 1.5837
-7.1277 2.5196 1.5837
-7.2070 2.2601 1.5837
-7.2768 1.9981 1.5837
-7.3370 1.7340 1.5837
-7.3064 1.4520 1.5663
-7.3478 1.1878 1.5665
-7.3778 0.9222 1.5663
-7.4814 0.6634 1.5837
-7.4932 0.3939 1.5837
-7.4954 0.1245 1.5837
-7.4879 -0.1446 1.5837
-7.4708 -0.4130 1.5837
-7.4440 -0.6803 1.5837
-7.4078 -0.9463 1.5837
-7.3621 -1.2106 1.5837
-7.3070 -1.4729 1.5837
-7.2427 -1.7327 1.5837
-7.1692 -1.9899 1.5837
-7.0867 -2.2441 1.5837
-6.9952 -2.4950 1.5837
-6.8949 -2.7422 1.5837
-6.7861 -2.9855 1.5837
-6.6687 -3.2246 1.5837
-6.5430 -3.4592 1.5837
-6.4092 -3.6890 1.5837
-6.2675 -3.9137 1.5837
-6.1180 -4.1331 1.5837
-5.9609 -4.3469 1.5837
-5.7965 -4.5548 1.5837
-5.5210 -4.6688 1.5545
-5.4083 -4.9175 1.5726
-5.2614 -5.1413 1.5837
-5.1232 -5.3794 1.6004
-5.0976 -5.7531 1.6570
-4.9725 -6.0357 1.6868
-4.7496 -6.2069 1.6868
-4.5209 -6.3700 1.6868
-4.2868 -6.5250 1.6868
-4.0474 -6.6715 1.6868
-3.8032 -6.8094 1.6868
-3.5544 -6.9386 1.6868
-3.3014 -7.0590 1.6868
-3.0443 -7.1703 1.6868
-2.7836 -7.2726 1.6868
-2.5196 -7.3656 1.6868
-2.2525 -7.4492 1.6868
-1.9828 -7.5234 1.6868
-1.7107 -7.5882 1.6868
-1.4365 -7.6433 1.6868
-1.1606 -7.6887 1.6868
-0.8834 -7.7245 1.6868
-0.6051 -7.7506 1.6868
-0.3260 -7.7668 1.6868
-0.0466 -7.7733 1.6868
0.2329 -7.7700 1.6868
0.5121 -7.7570 1.6868
0.7907 -7.7341 1.6868
1.0683 -7.7015 1.6868
1.3447 -7.6592 1.6868
1.6194 -7.6072 1.6868
1.8922 -7.5457 1.6868
2.1628 -7.4746 1.6868
2.4307 -7.3940 1.6868
2.6958 -7.3040 1.6868
2.9576 -7.2048 1.6868
3.0190 -6.6621 1.5836
3.2578 -6.5519 1.5836
3.4927 -6.4333 1.5836
3.7233 -6.3065 1.5836
3.9495 -6.1716 1.5836
4.1710 -6.0287 1.5836
4.3873 -5.8781 1.5836
4.5984 -5.7199 1.5836
4.8038 -5.5542 1.5836
5.0035 -5.3814 1.5836
5.1970 -5.2014 1.5836
5.3841 -5.0147 1.5836
5.5648 -4.8213 1.5836
5.7385 -4.6215 1.5836
5.9052 -4.4156 1.5836
6.0647 -4.2038 1.5836
0.5791 2.0445 0.4878
0.5053 2.0634 0.4876
0.4309 2.0797 0.4874
0.3559 2.0934 0.4872
0.2806 2.1045 0.4871
0.2049 2.1129 0.4870
0.1290 2.1187 0.4869
0.0529 2.1219 0.4868
-0.0232 2.1224 0.4868
-0.0993 2.1203 0.4869
-0.1753 2.1156 0.4869
-0.2511 2.1082 0.4870
-0.3266 2.0981 0.4872
-0.4017 2.0855 0.4873
-0.4764 2.0702 0.4875
-0.5504 2.0523 0.4878
-0.6239 2.0319 0.4880
-0.6966 2.0089 0.4883
-0.7685 1.9834 0.4887
-2.8957 6.7447 1.6868
-3.1346 6.6342 1.6868
-3.3693 6.5149 1.6868
-3.5993 6.3872 1.6868
-3.8244 6.2512 1.6868
-4.0442 6.1072 1.6868
-4.2586 5.9552 1.6868
-4.4671 5.7956 1.6868
-4.6696 5.6285 1.6868
-4.8657 5.4543 1.6868
-5.0552 5.2730 1.6868
-5.2379 5.0852 1.6868
-5.4135 4.8908 1.6868
-5.5818 4.6904 1.6868
-5.5813 4.3581 1.6394
-5.5750 4.0397 1.5951
-5.6717 3.8071 1.5837
-5.8004 3.5985 1.5837
-5.9213 3.3855 1.5837
-6.0344 3.1684 1.5837
-6.1394 2.9475 1.5837
-6.2363 2.7231 1.5837
-6.3249 2.4955 1.5837
-6.4051 2.2650 1.5837
-6.4770 2.0320 1.5837
-6.5402 1.7967 1.5837
-6.5950 1.5594 1.5837
-6.6411 1.3206 1.5837
-6.6785 1.0804 1.5837
-6.7072 0.8392 1.5837
-6.7272 0.5973 1.5837
-6.7385 0.3551 1.5837
-6.7410 0.1128 1.5837
-6.7349 -0.1292 1.5837
-6.7201 -0.3706 1.5837
-6.6967 -0.6112 1.5837
-6.6647 -0.8505 1.5837
-6.6242 -1.0884 1.5837
-6.5752 -1.3245 1.5837
-6.5179 -1.5585 1.5837
-6.4523 -1.7901 1.5837
-6.3786 -2.0190 1.5837
-6.2968 -2.2450 1.5837
-6.2071 -2.4678 1.5837
-6.1096 -2.6871 1.5837
-6.0044 -2.9025 1.5837
-5.8917 -3.1140 1.5837
-5.7717 -3.3212 1.5837
-5.6445 -3.5238 1.5837
-5.5102 -3.7217 1.5837
-5.3778 -3.9208 1.5863
-5.2215 -4.1021 1.5837
-5.1680 -4.3695 1.6152
-5.1489 -4.6807 1.6618
-5.0490 -4.9328 1.6868
-4.8655 -5.1080 1.6868
-4.6761 -5.2765 1.6868
-4.4809 -5.4381 1.6868
-4.2803 -5.5927 1.6868
-4.0744 -5.7400 1.6868
-3.8636 -5.8799 1.6868
-3.6481 -6.0123 1.6868
-3.4281 -6.1369 1.6868
-3.2040 -6.2536 1.6868
-2.9760 -6.3623 1.6868
-2.7444 -6.4630 1.6868
-2.5094 -6.5553 1.6868
-2.2715 -6.6394 1.6868
-2.0308 -6.7150 1.6868
-1.7876 -6.7820 1.6868
-1.5423 -6.8405 1.6868
-1.2952 -6.8904 1.6868
-1.0465 -6.9315 1.6868
-0.7965 -6.9638 1.6868
-0.5456 -6.9873 1.6868
-0.2940 -7.0021 1.6868
-0.0420 -7.0079 1.6868
0.2100 -7.0050 1.6868
0.4617 -6.9931 1.6868
0.7129 -6.9725 1.6868
0.9632 -6.9430 1.6868
1.2124 -6.9048 1.6868
1.4601 -6.8578 1.6868
1.7060 -6.8022 1.6868
1.9499 -6.7379 1.6868
2.1914 -6.6651 1.6868
2.4303 -6.5838 1.6868
2.6662 -6.4942 1.6868
2.8989 -6.3963 1.6868
2.9760 -5.9843 1.6048
3.1724 -5.8426 1.5958
3.3560 -5.6835 1.5836
3.5597 -5.5616 1.5836
3.7591 -5.4326 1.5836
3.9539 -5.2966 1.5836
4.1439 -5.1537 1.5836
4.3288 -5.0042 1.5836
4.5084 -4.8481 1.5836
4.6825 -4.6857 1.5836
4.8509 -4.5171 1.5836
5.0132 -4.3426 1.5836
5.1694 -4.1624 1.5836
5.3193 -3.9766 1.5836
5.4625 -3.7855 1.5836
0.5271 1.8612 0.4902
0.4600 1.8785 0.4900
0.3922 1.8933 0.4898
0.3240 1.9059 0.4896
0.2554 1.9160 0.4895
0.1865 1.9237 0.4894
0.1174 1.9290 0.4893
0.0482 1.9319 0.4893
-0.0211 1.9324 0.4893
-0.0904 1.9305 0.4893
-0.1596 1.9261 0.4894
-0.2286 1.9194 0.4895
-0.2973 1.9102 0.4896
-0.3657 1.8986 0.4897
-0.4336 1.8847 0.4899
-0.5011 1.8684 0.4901
-0.5679 1.8497 0.4904
-0.6340 1.8287 0.4907
-0.6995 1.8054 0.4910
-0.7640 1.7799 0.4913
-0.8277 1.7520 0.4917
-3.0525 5.9032 1.6868
-3.2610 5.7877 1.6868
-3.4650 5.6648 1.6868
-3.6644 5.5345 1.6868
-3.8588 5.3970 1.6868
-4.0480 5.2526 1.6868
-4.2316 5.1015 1.6868
-4.4096 4.9438 1.6868
-4.5816 4.7798 1.6868
-4.7474 4.6098 1.6868
-4.9069 4.4339 1.6868
-5.0597 4.2525 1.6868
-5.2058 4.0657 1.6868
-5.3449 3.8738 1.6868
-5.4768 3.6771 1.6868
-5.5372 3.4360 1.6675
-5.5249 3.1596 1.6297
-5.5199 2.8990 1.5976
-5.5676 2.6738 1.5837
-5.6559 2.4704 1.5837
-5.7367 2.2642 1.5837
-5.8099 2.0553 1.5837
-5.8755 1.8441 1.5837
-5.9333 1.6307 1.5837
-5.9834 1.4156 1.5837
-6.0256 1.1990 1.5837
-6.0600 0.9811 1.5837
-6.0866 0.7623 1.5837
-6.1052 0.5429 1.5837
-6.1159 0.3231 1.5837
-6.1187 0.1032 1.5837
-6.1135 -0.1165 1.5837
-6.1006 -0.3357 1.5837
-6.0798 -0.5541 1.5837
-6.0512 -0.7715 1.5837
-6.0149 -0.9875 1.5837
-5.9708 -1.2020 1.5837
-5.9192 -1.4146 1.5837
-5.8601 -1.6250 1.5837
-5.7935 -1.8331 1.5837
-5.7197 -2.0385 1.5837
-5.6386 -2.2410 1.5837
-5.5504 -2.4403 1.5837
-5.4552 -2.6363 1.5837
-5.3532 -2.8286 1.5837
-5.2444 -3.0170 1.5837
-5.2218 -3.2592 1.6123
-5.2047 -3.5145 1.6461
-5.1918 -3.7844 1.6850
-5.0546 -3.9702 1.6868
-4.9056 -4.1468 1.6868
-4.7506 -4.3178 1.6868
-4.5897 -4.4832 1.6868
-4.4231 -4.6427 1.6868
-4.2511 -4.7961 1.6868
-4.0739 -4.9433 1.6868
-3.8917 -5.0841 1.6868
-3.7046 -5.2183 1.6868
-3.5131 -5.3457 1.6868
-3.3173 -5.4662 1.6868
-3.1174 -5.5797 1.6868
-2.9136 -5.6861 1.6868
-2.7064 -5.7852 1.6868
-2.4959 -5.8768 1.6868
-2.2822 -5.9610 1.6868
-2.0659 -6.0376 1.6868
-1.8470 -6.1065 1.6868
-1.6259 -6.1676 1.6868
-1.4028 -6.2209 1.6868
-1.1780 -6.2663 1.6868
-0.9518 -6.3038 1.6868
-0.7245 -6.3333 1.6868
-0.4962 -6.3547 1.6868
-0.2674 -6.3682 1.6868
-0.0382 -6.3735 1.6868
0.1910 -6.3708 1.6868
0.4200 -6.3600 1.6868
0.6484 -6.3412 1.6868
0.8761 -6.3144 1.6868
1.1027 -6.2795 1.6868
1.3280 -6.2367 1.6868
1.5517 -6.1860 1.6868
1.7734 -6.1274 1.6868
1.9931 -6.0611 1.6868
2.2103 -5.9870 1.6868
2.4248 -5.9053 1.6868
2.6363 -5.8161 1.6868
2.8447 -5.7195 1.6868
2.9430 -5.4194 1.6279
3.0518 -5.1674 1.5836
3.2369 -5.0564 1.5836
3.4180 -4.9389 1.5836
3.5950 -4.8150 1.5836
3.7676 -4.6849 1.5836
3.9355 -4.5487 1.5836
4.0986 -4.4066 1.5836
4.2567 -4.2588 1.5836
4.4094 -4.1053 1.5836
4.5568 -3.9465 1.5836
4.6985 -3.7825 1.5836
4.8344 -3.6134 1.5836
4.9643 -3.4395 1.5836
0.4833 1.7065 0.4922
0.4217 1.7224 0.4920
0.3596 1.7360 0.4918
0.2970 1.7475 0.4917
0.2342 1.7568 0.4916
0.1710 1.7639 0.4915
0.1076 1.7688 0.4914
0.0442 1.7715 0.4914
-0.0194 1.7719 0.4914
-0.0829 1.7702 0.4914
-0.1463 1.7662 0.4915
-0.2096 1.7599 0.4915
-0.2726 1.7515 0.4917
-0.3353 1.7409 0.4918
-0.3975 1.7281 0.4920
-0.4593 1.7131 0.4922
-0.5206 1.6959 0.4924
-0.5812 1.6766 0.4926
-0.6412 1.6552 0.4929
-0.7004 1.6317 0.4932
-0.7587 1.6062 0.4935
-0.8161 1.5786 0.4939
-2.9778 5.2859 1.6868
-3.1643 5.1738 1.6868
-3.3464 5.0550 1.6868
-3.5241 4.9297 1.6868
-3.6970 4.7980 1.6868
-3.8649 4.6601 1.6868
-4.0276 4.5163 1.6868
-4.1849 4.3668 1.6868
-4.3366 4.2116 1.6868
-4.4824 4.0512 1.6868
-4.6223 3.8856 1.6868
-4.7559 3.7151 1.6868
-4.8833 3.5400 1.6868
-5.0041 3.3605 1.6868
-5.1183 3.1768 1.6868
-5.2256 2.9893 1.6868
-5.3260 2.7980 1.6868
-5.4194 2.6034 1.6868
-5.4875 2.3977 1.6813
-5.4763 2.1622 1.6541
-5.4662 1.9345 1.6302
-5.4603 1.7145 1.6101
-5.4541 1.4998 1.5925
-5.4702 1.2949 1.5837
-5.5091 1.0969 1.5837
-5.5410 0.8978 1.5837
-5.5655 0.6978 1.5837
-5.5894 0.4978 1.5856
-5.5930 0.2962 1.5837
-5.5960 0.0951 1.5837
-5.5916 -0.1058 1.5837
-5.5801 -0.3063 1.5837
-5.5615 -0.5061 1.5837
-5.5357 -0.7050 1.5837
-5.5214 -0.9058 1.5891
-5.4628 -1.0990 1.5837
-5.4160 -1.2936 1.5837
-5.3622 -1.4862 1.5837
-5.3040 -1.6774 1.5844
-5.2903 -1.8847 1.6007
-5.2759 -2.0961 1.6192
-5.2622 -2.3129 1.6405
-5.2514 -2.5371 1.6657
-5.2190 -2.7569 1.6868
-5.1133 -2.9408 1.6868
-5.0012 -3.1207 1.6868
-4.8828 -3.2964 1.6868
-4.7583 -3.4676 1.6868
-4.6279 -3.6343 1.6868
-4.4917 -3.7961 1.6868
-4.3500 -3.9530 1.6868
-4.2029 -4.1046 1.6868
-4.0505 -4.2508 1.6868
-3.8932 -4.3915 1.6868
-3.7310 -4.5265 1.6868
-3.5642 -4.6556 1.6868
-3.3931 -4.7787 1.6868
-3.2178 -4.8955 1.6868
-3.0385 -5.0061 1.6868
-2.8555 -5.1102 1.6868
-2.6690 -5.2078 1.6868
-2.4792 -5.2987 1.6868
-2.2864 -5.3828 1.6868
-2.0908 -5.4601 1.6868
-1.8926 -5.5303 1.6868
-1.6921 -5.5936 1.6868
-1.4896 -5.6497 1.6868
-1.2852 -5.6986 1.6868
-1.0793 -5.7402 1.6868
-0.8720 -5.7746 1.6868
-0.6638 -5.8017 1.6868
-0.4546 -5.8214 1.6868
-0.2450 -5.8337 1.6868
-0.0350 -5.8386 1.6868
0.1750 -5.8361 1.6868
0.3848 -5.8262 1.6868
0.5941 -5.8090 1.6868
0.8027 -5.7843 1.6868
1.0103 -5.7524 1.6868
1.2167 -5.7131 1.6868
1.4215 -5.6665 1.6868
1.6247 -5.6128 1.6868
1.8259 -5.5519 1.6868
2.0248 -5.4839 1.6868
2.2213 -5.4090 1.6868
2.4150 -5.3271 1.6868
2.6058 -5.2385 1.6868
2.7934 -5.1431 1.6868
2.9187 -4.9414 1.6535
2.9648 -4.6307 1.5836
3.1306 -4.5229 1.5836
3.2926 -4.4093 1.5836
3.4505 -4.2900 1.5836
3.6042 -4.1651 1.5836
3.7534 -4.0348 1.5836
3.8980 -3.8992 1.5836
4.0377 -3.7585 1.5836
4.1725 -3.6129 1.5836
4.3020 -3.4625 1.5836
4.4262 -3.3076 1.5836
4.5449 -3.1482 1.5836
0.4457 1.5740 0.4939
0.3889 1.5887 0.4938
0.3316 1.6013 0.4936
0.2740 1.6119 0.4935
0.2160 1.6205 0.4933
0.1577 1.6271 0.4933
0.0993 1.6316 0.4932
0.0407 1.6341 0.4932
-0.0179 1.6345 0.4932
-0.0765 1.6328 0.4932
-0.1350 1.6291 0.4932
-0.1933 1.6234 0.4933
-0.2514 1.6156 0.4934
-0.3092 1.6058 0.4935
-0.3666 1.5939 0.4937
-0.4236 1.5801 0.4939
-0.4801 1.5643 0.4941
-0.5360 1.5464 0.4943
-0.5913 1.5267 0.4946
-0.6458 1.5049 0.4949
-0.6996 1.4813 0.4952
-0.7526 1.4558 0.4955
-0.8046 1.4284 0.4959
-2.9086 4.7564 1.6868
-3.0761 4.6474 1.6868
-3.2395 4.5323 1.6868
-3.3985 4.4114 1.6868
-3.5530 4.2848 1.6868
-3.7027 4.1528 1.6868
-3.8475 4.0154 1.6868
-3.9871 3.8729 1.6868
-4.1213 3.7256 1.6868
-4.2501 3.5735 1.6868
-4.3732 3.4169 1.6868
-4.4905 3.2560 1.6868
-4.6018 3.0911 1.6868
-4.7070 2.9223 1.6868
-4.8059 2.7499 1.6868
-4.8986 2.5742 1.6868
-4.9847 2.3953 1.6868
-5.0643 2.2135 1.6868
-5.1371 2.0290 1.6868
-5.2033 1.8422 1.6868
-5.2626 1.6532 1.6868
-5.3151 1.4623 1.6868
-5.3605 1.2697 1.6868
-5.3990 1.0757 1.6868
-5.4148 0.8781 1.6820
-5.4053 0.6784 1.6715
-5.3958 0.4812 1.6633
-5.3865 0.2860 1.6573
-5.3772 0.0921 1.6535
-5.3680 -0.1009 1.6519
-5.3588 -0.2934 1.6523
-5.3496 -0.4861 1.6549
-5.3403 -0.6794 1.6597
-5.3310 -0.8738 1.6666
-5.3216 -1.0699 1.6758
-5.3111 -1.2678 1.6868
-5.2587 -1.4568 1.6868
-5.1995 -1.6437 1.6868
-5.1338 -1.8282 1.6868
-5.0615 -2.0102 1.6868
-4.9829 -2.1894 1.6868
-4.8980 -2.3656 1.6868
-4.8069 -2.5385 1.6868
-4.7097 -2.7080 1.6868
-4.6067 -2.8738 1.6868
-4.4978 -3.0358 1.6868
-4.3834 -3.1937 1.6868
-4.2634 -3.3474 1.6868
-4.1381 -3.4966 1.6868
-4.0077 -3.6412 1.6868
-3.8723 -3.7811 1.6868
-3.7321 -3.9159 1.6868
-3.5872 -4.0457 1.6868
-3.4379 -4.1702 1.6868
-3.2844 -4.2893 1.6868
-3.1268 -4.4029 1.6868
-2.9653 -4.5107 1.6868
-2.8002 -4.6127 1.6868
-2.6316 -4.7088 1.6868
-2.4597 -4.7989 1.6868
-2.2849 -4.8827 1.6868
-2.1072 -4.9604 1.6868
-1.9270 -5.0317 1.6868
-1.7444 -5.0965 1.6868
-1.5596 -5.1549 1.6868
-1.3730 -5.2067 1.6868
-1.1846 -5.2518 1.6868
-0.9948 -5.2903 1.6868
-0.8038 -5.3220 1.6868
-0.6118 -5.3470 1.6868
-0.4191 -5.3652 1.6868
-0.2258 -5.3765 1.6868
-0.0323 -5.3811 1.6868
0.1613 -5.3788 1.6868
0.3547 -5.3697 1.6868
0.5476 -5.3537 1.6868
0.7398 -5.3310 1.6868
0.9312 -5.3015 1.6868
1.1214 -5.2652 1.6868
1.3103 -5.2223 1.6868
1.4975 -5.1726 1.6868
1.6829 -5.1165 1.6868
1.8662 -5.0537 1.6868
2.0473 -4.9846 1.6868
2.2258 -4.9090 1.6868
2.4016 -4.8272 1.6868
2.5744 -4.7392 1.6868
2.7441 -4.6451 1.6868
2.8989 -4.5271 1.6802
2.8939 -4.1802 1.5885
3.0341 -4.0625 1.5836
3.1795 -3.9524 1.5836
3.3210 -3.8372 1.5836
3.4584 -3.7170 1.5836
3.5915 -3.5919 1.5836
3.7201 -3.4622 1.5836
3.8441 -3.3279 1.5836
3.9633 -3.1892 1.5836
4.0775 -3.0463 1.5836
4.1867 -2.8994 1.5836
0.4131 1.4592 0.4954
0.3605 1.4728 0.4953
0.3074 1.4845 0.4951
0.2540 1.4944 0.4950
0.2002 1.5024 0.4949
0.1462 1.5085 0.4948
0.0920 1.5127 0.4947
0.0378 1.5150 0.4947
-0.0166 1.5153 0.4947
-0.0709 1.5138 0.4947
-0.1251 1.5104 0.4948
-0.1792 1.5050 0.4948
-0.2330 1.4978 0.4949
-0.2866 1.4887 0.4951
-0.3398 1.4777 0.4952
-0.3927 1.4648 0.4954
-0.4450 1.4501 0.4956
-0.4968 1.4336 0.4958
-0.5480 1.4152 0.4960
-0.5986 1.3950 0.4963
-0.6484 1.3731 0.4966
-0.6975 1.3494 0.4969
-0.7457 1.3240 0.4972
-0.7930 1.2969 0.4976
-2.8432 4.2962 1.6868
-2.9943 4.1899 1.6868
-3.1414 4.0783 1.6868
-3.2843 3.9614 1.6868
-3.4228 3.8395 1.6868
-3.5567 3.7126 1.6868
-3.6859 3.5811 1.6868
-3.8102 3.4449 1.6868
-3.9293 3.3045 1.6868
-4.0433 3.1598 1.6868
-4.1519 3.0112 1.6868
-4.2550 2.8588 1.6868
-4.3524 2.7028 1.6868
-4.4441 2.5435 1.6868
-4.5299 2.3811 1.6868
-4.6098 2.2158 1.6868
-4.6835 2.0477 1.6868
-4.7512 1.8772 1.6868
-4.8125 1.7045 1.6868
-4.8676 1.5298 1.6868
-4.9163 1.3532 1.6868
-4.9586 1.1752 1.6868
-4.9945 0.9958 1.6868
-5.0238 0.8154 1.6868
-5.0466 0.6341 1.6868
-5.0629 0.4522 1.6868
-5.0726 0.2700 1.6868
-5.0757 0.0876 1.6868
-5.0723 -0.0946 1.6868
-5.0624 -0.2765 1.6868
-5.0460 -0.4579 1.6868
-5.0231 -0.6384 1.6868
-4.9937 -0.8179 1.6868
-4.9580 -0.9961 1.6868
-4.9159 -1.1728 1.6868
-4.8676 -1.3478 1.6868
-4.8130 -1.5208 1.6868
-4.7524 -1.6918 1.6868
-4.6857 -1.8603 1.6868
-4.6131 -2.0263 1.6868
-4.5347 -2.1894 1.6868
-4.4505 -2.3496 1.6868
-4.3608 -2.5067 1.6868
-4.2655 -2.6603 1.6868
-4.1649 -2.8104 1.6868
-4.0590 -2.9567 1.6868
-3.9481 -3.0991 1.6868
-3.8322 -3.2374 1.6868
-3.7116 -3.3715 1.6868
-3.5863 -3.5011 1.6868
-3.4566 -3.6262 1.6868
-3.3225 -3.7465 1.6868
-3.1843 -3.8619 1.6868
-3.0422 -3.9723 1.6868
-2.8963 -4.0776 1.6868
-2.7468 -4.1776 1.6868
-2.5939 -4.2722 1.6868
-2.4378 -4.3613 1.6868
-2.2786 -4.4448 1.6868
-2.1167 -4.5226 1.6868
-1.9522 -4.5946 1.6868
-1.7852 -4.6608 1.6868
-1.6160 -4.7209 1.6868
-1.4449 -4.7751 1.6868
-1.2720 -4.8231 1.6868
-1.0975 -4.8650 1.6868
-0.9217 -4.9007 1.6868
-0.7447 -4.9301 1.6868
-0.5668 -4.9533 1.6868
-0.3883 -4.9701 1.6868
-0.2092 -4.9807 1.6868
-0.0299 -4.9849 1.6868
0.1494 -4.9828 1.6868
0.3286 -4.9743 1.6868
0.5073 -4.9595 1.6868
0.6855 -4.9384 1.6868
0.8627 -4.9111 1.6868
1.0390 -4.8774 1.6868
1.2139 -4.8376 1.6868
1.3874 -4.7916 1.6868
1.5591 -4.7394 1.6868
1.7289 -4.6813 1.6868
1.8966 -4.6171 1.6868
2.0620 -4.5470 1.6868
2.2248 -4.4711 1.6868
2.3848 -4.3895 1.6868
2.5420 -4.3022 1.6868
2.6959 -4.2094 1.6868
2.8466 -4.1112 1.6868
2.8703 -3.8425 1.6173
2.9450 -3.6603 1.5836
3.0760 -3.5535 1.5836
3.2031 -3.4420 1.5836
3.3263 -3.3261 1.5836
3.4453 -3.2058 1.5836
3.5600 -3.0813 1.5836
3.6703 -2.9528 1.5836
3.7759 -2.8204 1.5836
3.8769 -2.6842 1.5836
0.3846 1.3586 0.4967
0.3356 1.3713 0.4966
0.2862 1.3822 0.4964
0.2364 1.3914 0.4963
0.1864 1.3989 0.4962
0.1361 1.4046 0.4961
0.0857 1.4085 0.4961
0.0351 1.4106 0.4961
-0.0154 1.4110 0.4961
-0.0660 1.4095 0.4961
-0.1165 1.4063 0.4961
-0.1668 1.4014 0.4962
-0.2170 1.3946 0.4963
-0.2668 1.3861 0.4964
-0.3164 1.3759 0.4965
-0.3656 1.3639 0.4967
-0.4143 1.3501 0.4969
-0.4625 1.3347 0.4971
-0.5102 1.3176 0.4973
-0.5572 1.2988 0.4975
-0.6036 1.2784 0.4978
-0.6492 1.2563 0.4981
-0.6941 1.2326 0.4984
-0.7381 1.2074 0.4987
-0.7812 1.1806 0.4991
-0.8233 1.1522 0.4994
-2.9174 3.7881 1.6868
-3.0501 3.6796 1.6868
-3.1789 3.5665 1.6868
-3.3033 3.4488 1.6868
-3.4234 3.3267 1.6868
-3.5389 3.2003 1.6868
-3.6497 3.0699 1.6868
-3.7557 2.9357 1.6868
-3.8567 2.7977 1.6868
-3.9525 2.6563 1.6868
-4.0432 2.5115 1.6868
-4.1285 2.3636 1.6868
-4.2084 2.2128 1.6868
-4.2828 2.0592 1.6868
-4.3515 1.9032 1.6868
-4.4145 1.7448 1.6868
-4.4717 1.5844 1.6868
-4.5230 1.4221 1.6868
-4.5685 1.2581 1.6868
-4.6080 1.0927 1.6868
-4.6415 0.9261 1.6868
-4.6689 0.7584 1.6868
-4.6903 0.5900 1.6868
-4.7056 0.4209 1.6868
-4.7148 0.2516 1.6868
-4.7179 0.0821 1.6868
-4.7150 -0.0873 1.6868
-4.7059 -0.2564 1.6868
-4.6908 -0.4250 1.6868
-4.6697 -0.5928 1.6868
-4.6426 -0.7597 1.6868
-4.6096 -0.9254 1.6868
-4.5707 -1.0898 1.6868
-4.5259 -1.2525 1.6868
-4.4754 -1.4135 1.6868
-4.4191 -1.5725 1.6868
-4.3573 -1.7293 1.6868
-4.2900 -1.8837 1.6868
-4.2172 -2.0355 1.6868
-4.1391 -2.1846 1.6868
-4.0557 -2.3307 1.6868
-3.9673 -2.4737 1.6868
-3.8738 -2.6133 1.6868
-3.7755 -2.7495 1.6868
-3.6724 -2.8821 1.6868
-3.5648 -3.0108 1.6868
-3.4527 -3.1356 1.6868
-3.3362 -3.2563 1.6868
-3.2156 -3.3727 1.6868
-3.0910 -3.4847 1.6868
-2.9625 -3.5922 1.6868
-2.8303 -3.6950 1.6868
-2.6946 -3.7931 1.6868
-2.5556 -3.8862 1.6868
-2.4134 -3.9743 1.6868
-2.2682 -4.0573 1.6868
-2.1202 -4.1351 1.6868
-1.9695 -4.2076 1.6868
-1.8164 -4.2746 1.6868
-1.6611 -4.3362 1.6868
-1.5038 -4.3923 1.6868
-1.3445 -4.4427 1.6868
-1.1836 -4.4874 1.6868
-1.0213 -4.5264 1.6868
-0.8577 -4.5597 1.6868
-0.6930 -4.5871 1.6868
-0.5275 -4.6087 1.6868
-0.3613 -4.6244 1.6868
-0.1947 -4.6342 1.6868
-0.0279 -4.6382 1.6868
0.1390 -4.6362 1.6868
0.3058 -4.6283 1.6868
0.4721 -4.6145 1.6868
0.6379 -4.5949 1.6868
0.8028 -4.5694 1.6868
0.9668 -4.5380 1.6868
1.1296 -4.5009 1.6868
1.2910 -4.4581 1.6868
1.4508 -4.4095 1.6868
1.6088 -4.3553 1.6868
1.7648 -4.2956 1.6868
1.9186 -4.2303 1.6868
2.0701 -4.1596 1.6868
2.2190 -4.0836 1.6868
2.3651 -4.0023 1.6868
2.5083 -3.9159 1.6868
2.6484 -3.8244 1.6868
2.7852 -3.7280 1.6868
2.8519 -3.5439 1.6483
2.8617 -3.3053 1.5836
2.9799 -3.2015 1.5836
3.0943 -3.0936 1.5836
3.2050 -2.9816 1.5836
3.3116 -2.8657 1.5836
3.4140 -2.7461 1.5836
3.5122 -2.6228 1.5836
3.6060 -2.4961 1.5836
0.3594 1.2697 0.4979
0.3136 1.2816 0.4977
0.2674 1.2918 0.4976
0.2209 1.3004 0.4975
0.1742 1.3074 0.4974
0.1272 1.3127 0.4973
0.0801 1.3164 0.4973
0.0329 1.3183 0.4973
-0.0144 1.3187 0.4973
-0.0617 1.3173 0.4973
-0.1088 1.3143 0.4973
-0.1559 1.3097 0.4974
-0.2027 1.3034 0.4975
-0.2493 1.2954 0.4976
-0.2956 1.2858 0.4977
-0.3416 1.2746 0.4978
-0.3871 1.2618 0.4980
-0.4322 1.2473 0.4982
-0.4767 1.2313 0.4984
-0.5206 1.2137 0.4986
-0.5640 1.1946 0.4989
-0.6066 1.1740 0.4992
-0.6485 1.1518 0.4994
-0.6896 1.1282 0.4997
-0.7298 1.1031 0.5001
-0.7691 1.0766 0.5004
-0.8076 1.0488 0.5008
-2.8441 3.4316 1.6868
-2.9641 3.3262 1.6868
-3.0803 3.2165 1.6868
-3.1923 3.1027 1.6868
-3.3001 2.9850 1.6868
-3.4036 2.8635 1.6868
-3.5025 2.7384 1.6868
-3.5968 2.6098 1.6868
-3.6863 2.4779 1.6868
-3.7710 2.3430 1.6868
-3.8507 2.2051 1.6868
-3.9253 2.0645 1.6868
-3.9948 1.9214 1.6868
-4.0590 1.7759 1.6868
-4.1179 1.6282 1.6868
-4.1714 1.4786 1.6868
-4.2195 1.3273 1.6868
-4.2620 1.1743 1.6868
-4.2990 1.0201 1.6868
-4.3304 0.8646 1.6868
-4.3562 0.7082 1.6868
-4.3763 0.5511 1.6868
-4.3907 0.3934 1.6868
-4.3995 0.2354 1.6868
-4.4025 0.0772 1.6868
-4.3999 -0.0809 1.6868
-4.3917 -0.2387 1.6868
-4.3777 -0.3960 1.6868
-4.3582 -0.5527 1.6868
-4.3330 -0.7085 1.6868
-4.3024 -0.8632 1.6868
-4.2662 -1.0166 1.6868
-4.2245 -1.1685 1.6868
-4.1775 -1.3188 1.6868
-4.1252 -1.4673 1.6868
-4.0676 -1.6137 1.6868
-4.0049 -1.7579 1.6868
-3.9370 -1.8997 1.6868
-3.8642 -2.0389 1.6868
-3.7865 -2.1754 1.6868
-3.7041 -2.3090 1.6868
-3.6169 -2.4394 1.6868
-3.5252 -2.5667 1.6868
-3.4291 -2.6905 1.6868
-3.3287 -2.8108 1.6868
-3.2240 -2.9274 1.6868
-3.1154 -3.0402 1.6868
-3.0028 -3.1490 1.6868
-2.8865 -3.2537 1.6868
-2.7666 -3.3541 1.6868
-2.6432 -3.4502 1.6868
-2.5166 -3.5418 1.6868
-2.3868 -3.6289 1.6868
-2.2540 -3.7113 1.6868
-2.1184 -3.7888 1.6868
-1.9802 -3.8615 1.6868
-1.8396 -3.9293 1.6868
-1.6966 -3.9920 1.6868
-1.5515 -4.0496 1.6868
-1.4046 -4.1020 1.6868
-1.2559 -4.1491 1.6868
-1.1056 -4.1909 1.6868
-0.9539 -4.2274 1.6868
-0.8011 -4.2585 1.6868
-0.6473 -4.2842 1.6868
-0.4927 -4.3043 1.6868
-0.3375 -4.3190 1.6868
-0.1819 -4.3282 1.6868
-0.0260 -4.3319 1.6868
0.1299 -4.3300 1.6868
0.2856 -4.3227 1.6868
0.4410 -4.3098 1.6868
0.5958 -4.2914 1.6868
0.7499 -4.2676 1.6868
0.9031 -4.2383 1.6868
1.0551 -4.2036 1.6868
1.2059 -4.1635 1.6868
1.3551 -4.1181 1.6868
1.5027 -4.0674 1.6868
1.6484 -4.0116 1.6868
1.7920 -3.9505 1.6868
1.9334 -3.8845 1.6868
2.0725 -3.8134 1.6868
2.2089 -3.7374 1.6868
2.3426 -3.6566 1.6868
2.4734 -3.5711 1.6868
2.6011 -3.4810 1.6868
2.7256 -3.3864 1.6868
2.8392 -3.2787 1.6824
2.8334 -3.0435 1.6124
2.8896 -2.8883 1.5836
2.9928 -2.7837 1.5836
3.0923 -2.6754 1.5836
3.1879 -2.5636 1.5836
3.2795 -2.4484 1.5836
3.3669 -2.3300 1.5836
0.3369 1.1905 0.4989
0.2940 1.2016 0.4988
0.2507 1.2112 0.4987
0.2071 1.2193 0.4985
0.1633 1.2258 0.4985
0.1192 1.2308 0.4984
0.0751 1.2342 0.4984
0.0308 1.2361 0.4983
-0.0135 1.2364 0.4983
-0.0578 1.2352 0.4983
-0.1020 1.2324 0.4984
-0.1461 1.2280 0.4984
-0.1901 1.2221 0.4985
-0.2337 1.2146 0.4986
-0.2771 1.2056 0.4987
-0.3202 1.1951 0.4989
-0.3629 1.1830 0.4990
-0.4051 1.1695 0.4992
-0.4469 1.1544 0.4994
-0.4880 1.1379 0.4996
-0.5286 1.1200 0.4999
-0.5686 1.1006 0.5001
-0.6078 1.0798 0.5004
-0.6463 1.0576 0.5007
-0.6840 1.0341 0.5010
-0.7209 1.0093 0.5013
-0.7569 0.9831 0.5016
-0.7919 0.9557 0.5020
-0.8260 0.9271 0.5024
-2.8823 3.0104 1.6868
-2.9872 2.9040 1.6868
-3.0882 2.7939 1.6868
-3.1850 2.6802 1.6868
-3.2777 2.5632 1.6868
-3.3660 2.4429 1.6868
-3.4499 2.3196 1.6868
-3.5292 2.1934 1.6868
-3.6039 2.0644 1.6868
-3.6739 1.9328 1.6868
-3.7390 1.7989 1.6868
-3.7992 1.6628 1.6868
-3.8545 1.5247 1.6868
-3.9047 1.3847 1.6868
-3.9498 1.2430 1.6868
-3.9897 1.0999 1.6868
-4.0245 0.9555 1.6868
-4.0540 0.8100 1.6868
-4.0782 0.6636 1.6868
-4.0972 0.5165 1.6868
-4.1108 0.3689 1.6868
-4.1192 0.2209 1.6868
-4.1222 0.0729 1.6868
-4.1199 -0.0752 1.6868
-4.1122 -0.2229 1.6868
-4.0993 -0.3703 1.6868
-4.0812 -0.5170 1.6868
-4.0578 -0.6629 1.6868
-4.0291 -0.8078 1.6868
-3.9954 -0.9515 1.6868
-3.9565 -1.0938 1.6868
-3.9126 -1.2346 1.6868
-3.8637 -1.3737 1.6868
-3.8099 -1.5109 1.6868
-3.7512 -1.6460 1.6868
-3.6878 -1.7788 1.6868
-3.6197 -1.9093 1.6868
-3.5470 -2.0372 1.6868
-3.4699 -2.1624 1.6868
-3.3883 -2.2847 1.6868
-3.3025 -2.4039 1.6868
-3.2125 -2.5200 1.6868
-3.1185 -2.6328 1.6868
-3.0206 -2.7421 1.6868
-2.9188 -2.8478 1.6868
-2.8135 -2.9498 1.6868
-2.7045 -3.0480 1.6868
-2.5922 -3.1421 1.6868
-2.4767 -3.2322 1.6868
-2.3580 -3.3182 1.6868
-2.2365 -3.3998 1.6868
-2.1121 -3.4770 1.6868
-1.9851 -3.5498 1.6868
-1.8556 -3.6180 1.6868
-1.7238 -3.6815 1.6868
-1.5899 -3.7403 1.6868
-1.4540 -3.7943 1.6868
-1.3162 -3.8434 1.6868
-1.1769 -3.8876 1.6868
-1.0361 -3.9269 1.6868
-0.8940 -3.9611 1.6868
-0.7508 -3.9903 1.6868
-0.6066 -4.0143 1.6868
-0.4617 -4.0332 1.6868
-0.3163 -4.0470 1.6868
-0.1704 -4.0556 1.6868
-0.0244 -4.0591 1.6868
0.1217 -4.0574 1.6868
0.2677 -4.0504 1.6868
0.4133 -4.0384 1.6868
0.5584 -4.0211 1.6868
0.7028 -3.9988 1.6868
0.8463 -3.9713 1.6868
0.9888 -3.9387 1.6868
1.1300 -3.9012 1.6868
1.2699 -3.8586 1.6868
1.4081 -3.8111 1.6868
1.5447 -3.7587 1.6868
1.6793 -3.7014 1.6868
1.8118 -3.6395 1.6868
1.9420 -3.5728 1.6868
2.0699 -3.5016 1.6868
2.1951 -3.4258 1.6868
2.3176 -3.3456 1.6868
2.4373 -3.2611 1.6868
2.5538 -3.1724 1.6868
2.6672 -3.0796 1.6868
2.7773 -2.9827 1.6868
2.8170 -2.8152 1.6477
2.8184 -2.6210 1.5918
2.8971 -2.5060 1.5836
3.0088 -2.4190 1.5953
3.0723 -2.2932 1.5836
3.1542 -2.1823 1.5836
0.3167 1.1193 0.4998
0.2764 1.1298 0.4997
0.2357 1.1389 0.4996
0.1947 1.1465 0.4995
0.1535 1.1526 0.4994
0.1121 1.1573 0.4994
0.0706 1.1605 0.4993
0.0289 1.1623 0.4993
-0.0127 1.1626 0.4993
-0.0544 1.1614 0.4993
-0.0959 1.1588 0.4993
-0.1374 1.1546 0.4994
-0.1787 1.1491 0.4995
-0.2197 1.1420 0.4996
-0.2605 1.1336 0.4997
-0.3010 1.1236 0.4998
-0.3412 1.1123 0.4999
-0.3809 1.0996 0.5001
-0.4201 1.0854 0.5003
-0.4588 1.0699 0.5005
-0.4969 1.0530 0.5007
-0.5345 1.0348 0.5010
-0.5714 1.0152 0.5012
-0.6075 0.9943 0.5015
-0.6430 0.9722 0.5018
-0.6776 0.9488 0.5021
-0.7114 0.9242 0.5024
-0.7443 0.8984 0.5027
-0.7763 0.8715 0.5031
-0.8074 0.8434 0.5034
-0.8374 0.8142 0.5038
-2.8985 2.6228 1.6868
-2.9895 2.5162 1.6868
-3.0765 2.4064 1.6868
-3.1595 2.2936 1.6868
-3.2383 2.1779 1.6868
-3.3129 2.0595 1.6868
-3.3831 1.9384 1.6868
-3.4488 1.8150 1.6868
-3.5101 1.6893 1.6868
-3.5667 1.5616 1.6868
-3.6186 1.4319 1.6868
-3.6659 1.3005 1.6868
-3.7083 1.1676 1.6868
-3.7459 1.0332 1.6868
-3.7787 0.8977 1.6868
-3.8065 0.7611 1.6868
-3.8294 0.6237 1.6868
-3.8473 0.4856 1.6868
-3.8602 0.3469 1.6868
-3.8681 0.2080 1.6868
-3.8711 0.0690 1.6868
-3.8690 -0.0700 1.6868
-3.8620 -0.2088 1.6868
-3.8500 -0.3472 1.6868
-3.8330 -0.4850 1.6868
-3.8111 -0.6220 1.6868
-3.7844 -0.7581 1.6868
-3.7527 -0.8931 1.6868
-3.7163 -1.0269 1.6868
-3.6752 -1.1592 1.6868
-3.6294 -1.2898 1.6868
-3.5789 -1.4187 1.6868
-3.5239 -1.5457 1.6868
-3.4644 -1.6705 1.6868
-3.4005 -1.7931 1.6868
-3.3323 -1.9134 1.6868
-3.2599 -2.0310 1.6868
-3.1834 -2.1459 1.6868
-3.1028 -2.2580 1.6868
-3.0184 -2.3672 1.6868
-2.9301 -2.4732 1.6868
-2.8381 -2.5759 1.6868
-2.7426 -2.6753 1.6868
-2.6436 -2.7712 1.6868
-2.5413 -2.8635 1.6868
-2.4358 -2.9520 1.6868
-2.3273 -3.0368 1.6868
-2.2159 -3.1175 1.6868
-2.1016 -3.1943 1.6868
-1.9848 -3.2669 1.6868
-1.8655 -3.3353 1.6868
-1.7438 -3.3995 1.6868
-1.6200 -3.4592 1.6868
-1.4941 -3.5145 1.6868
-1.3664 -3.5653 1.6868
-1.2370 -3.6115 1.6868
-1.1061 -3.6531 1.6868
-0.9737 -3.6900 1.6868
-0.8402 -3.7222 1.6868
-0.7056 -3.7496 1.6868
-0.5701 -3.7722 1.6868
-0.4340 -3.7900 1.6868
-0.2973 -3.8030 1.6868
-0.1602 -3.8111 1.6868
-0.0229 -3.8144 1.6868
0.1144 -3.8127 1.6868
0.2516 -3.8062 1.6868
0.3884 -3.7949 1.6868
0.5248 -3.7787 1.6868
0.6605 -3.7576 1.6868
0.7954 -3.7318 1.6868
0.9293 -3.7012 1.6868
1.0620 -3.6658 1.6868
1.1934 -3.6258 1.6868
1.3234 -3.5811 1.6868
1.4517 -3.5318 1.6868
1.5781 -3.4780 1.6868
1.7027 -3.4197 1.6868
1.8250 -3.3570 1.6868
1.9451 -3.2900 1.6868
2.0628 -3.2188 1.6868
2.1779 -3.1434 1.6868
2.2903 -3.0639 1.6868
2.3998 -2.9805 1.6868
2.5063 -2.8932 1.6868
2.6096 -2.8022 1.6868
2.7097 -2.7075 1.6868
2.8064 -2.6092 1.6868
2.7994 -2.4210 1.6286
2.8061 -2.2556 1.5836
2.8866 -2.1541 1.5836
2.9634 -2.0498 1.5836
0.2985 1.0551 0.5007
0.2605 1.0649 0.5005
0.2221 1.0735 0.5004
0.1835 1.0806 0.5003
0.1447 1.0864 0.5003
0.1056 1.0909 0.5002
0.0665 1.0939 0.5002
0.0273 1.0956 0.5002
-0.0120 1.0959 0.5002
-0.0512 1.0947 0.5002
-0.0904 1.0922 0.5002
-0.1295 1.0884 0.5003
-0.1684 1.0831 0.5003
-0.2071 1.0765 0.5004
-0.2456 1.0685 0.5005
-0.2837 1.0591 0.5006
-0.3215 1.0484 0.5008
-0.3589 1.0364 0.5009
-0.3959 1.0231 0.5011
-0.4324 1.0084 0.5013
-0.4683 0.9925 0.5015
-0.5037 0.9753 0.5017
-0.5384 0.9568 0.5020
-0.5725 0.9372 0.5022
-0.6059 0.9163 0.5025
-0.6385 0.8942 0.5028
-0.6704 0.8710 0.5031
-0.7014 0.8467 0.5034
-0.7315 0.8213 0.5037
-0.7607 0.7948 0.5041
-0.7890 0.7673 0.5044
-0.8163 0.7388 0.5048
-2.8134 2.3685 1.6868
-2.8953 2.2652 1.6868
-2.9735 2.1591 1.6868
-3.0477 2.0502 1.6868
-3.1180 1.9388 1.6868
-3.1841 1.8250 1.6868
-3.2461 1.7088 1.6868
-3.3038 1.5906 1.6868
-3.3571 1.4704 1.6868
-3.4061 1.3484 1.6868
-3.4507 1.2247 1.6868
-3.4907 1.0996 1.6868
-3.5262 0.9732 1.6868
-3.5571 0.8456 1.6868
-3.5834 0.7170 1.6868
-3.6050 0.5877 1.6868
-3.6220 0.4576 1.6868
-3.6342 0.3272 1.6868
-3.6418 0.1964 1.6868
-3.6447 0.0655 1.6868
-3.6428 -0.0654 1.6868
-3.6363 -0.1961 1.6868
-3.6250 -0.3264 1.6868
-3.6092 -0.4561 1.6868
-3.5887 -0.5852 1.6868
-3.5636 -0.7134 1.6868
-3.5339 -0.8405 1.6868
-3.4997 -0.9665 1.6868
-3.4610 -1.0911 1.6868
-3.4179 -1.2142 1.6868
-3.3705 -1.3356 1.6868
-3.3188 -1.4552 1.6868
-3.2628 -1.5728 1.6868
-3.2027 -1.6883 1.6868
-3.1386 -1.8016 1.6868
-3.0704 -1.9124 1.6868
-2.9984 -2.0207 1.6868
-2.9226 -2.1264 1.6868
-2.8431 -2.2292 1.6868
-2.7600 -2.3291 1.6868
-2.6735 -2.4259 1.6868
-2.5835 -2.5196 1.6868
-2.4903 -2.6100 1.6868
-2.3940 -2.6969 1.6868
-2.2947 -2.7804 1.6868
-2.1925 -2.8603 1.6868
-2.0875 -2.9364 1.6868
-1.9799 -3.0088 1.6868
-1.8699 -3.0772 1.6868
-1.7575 -3.1417 1.6868
-1.6429 -3.2022 1.6868
-1.5262 -3.2585 1.6868
-1.4077 -3.3106 1.6868
-1.2874 -3.3585 1.6868
-1.1655 -3.4021 1.6868
-1.0421 -3.4413 1.6868
-0.9174 -3.4761 1.6868
-0.7916 -3.5064 1.6868
-0.6648 -3.5323 1.6868
-0.5372 -3.5536 1.6868
-0.4089 -3.5704 1.6868
-0.2801 -3.5826 1.6868
-0.1509 -3.5903 1.6868
-0.0216 -3.5933 1.6868
0.1078 -3.5918 1.6868
0.2370 -3.5857 1.6868
0.3659 -3.5750 1.6868
0.4944 -3.5597 1.6868
0.6223 -3.5398 1.6868
0.7494 -3.5155 1.6868
0.8755 -3.4866 1.6868
1.0006 -3.4533 1.6868
1.1244 -3.4155 1.6868
1.2468 -3.3734 1.6868
1.3677 -3.3269 1.6868
1.4868 -3.2762 1.6868
1.6041 -3.2213 1.6868
1.7194 -3.1622 1.6868
1.8325 -3.0990 1.6868
1.9434 -3.0319 1.6868
2.0518 -2.9608 1.6868
2.1576 -2.8859 1.6868
2.2607 -2.8073 1.6868
2.3610 -2.7250 1.6868
2.4583 -2.6392 1.6868
2.5526 -2.5499 1.6868
2.6436 -2.4573 1.6868
2.7313 -2.3615 1.6868
2.7896 -2.2418 1.6713
2.7847 -2.0776 1.6219
2.7913 -1.9302 1.5836
0.2819 0.9966 0.5014
0.2460 1.0060 0.5013
0.2098 1.0140 0.5012
0.1733 1.0208 0.5011
0.1366 1.0263 0.5011
0.0998 1.0305 0.5010
0.0628 1.0334 0.5010
0.0258 1.0349 0.5009
-0.0113 1.0352 0.5009
-0.0484 1.0342 0.5010
-0.0854 1.0318 0.5010
-0.1223 1.0281 0.5010
-0.1591 1.0231 0.5011
-0.1956 1.0169 0.5012
-0.2319 1.0093 0.5013
-0.2680 1.0005 0.5014
-0.3037 0.9904 0.5015
-0.3390 0.9790 0.5017
-0.3739 0.9664 0.5018
-0.4084 0.9525 0.5020
-0.4423 0.9375 0.5022
-0.4757 0.9212 0.5024
-0.5085 0.9038 0.5027
-0.5407 0.8852 0.5029
-0.5722 0.8655 0.5032
-0.6030 0.8446 0.5034
-0.6330 0.8227 0.5037
-0.6623 0.7997 0.5040
-0.6907 0.7757 0.5043
-0.7183 0.7507 0.5046
-0.7450 0.7247 0.5050
-0.7708 0.6978 0.5053
-0.7956 0.6699 0.5057
-0.8194 0.6412 0.5061
-2.8049 2.0372 1.6868
-2.8749 1.9345 1.6868
-2.9413 1.8294 1.6868
-3.0037 1.7221 1.6868
-3.0622 1.6126 1.6868
-3.1167 1.5010 1.6868
-3.1671 1.3877 1.6868
-3.2134 1.2726 1.6868
-3.2555 1.1560 1.6868
-3.2934 1.0379 1.6868
-3.3269 0.9187 1.6868
-3.3562 0.7983 1.6868
-3.3810 0.6770 1.6868
-3.4015 0.5550 1.6868
-3.4176 0.4323 1.6868
-3.4293 0.3092 1.6868
-3.4365 0.1858 1.6868
-3.4392 0.0623 1.6868
-3.4376 -0.0612 1.6868
-3.4315 -0.1845 1.6868
-3.4210 -0.3075 1.6868
-3.4061 -0.4300 1.6868
-3.3868 -0.5518 1.6868
-3.3632 -0.6728 1.6868
-3.3353 -0.7928 1.6868
-3.3031 -0.9117 1.6868
-3.2667 -1.0293 1.6868
-3.2261 -1.1455 1.6868
-3.1813 -1.2601 1.6868
-3.1326 -1.3730 1.6868
-3.0799 -1.4841 1.6868
-3.0232 -1.5932 1.6868
-2.9627 -1.7001 1.6868
-2.8984 -1.8048 1.6868
-2.8305 -1.9071 1.6868
-2.7590 -2.0068 1.6868
-2.6840 -2.1039 1.6868
-2.6056 -2.1983 1.6868
-2.5239 -2.2897 1.6868
-2.4390 -2.3782 1.6868
-2.3511 -2.4636 1.6868
-2.2602 -2.5457 1.6868
-2.1665 -2.6245 1.6868
-2.0700 -2.7000 1.6868
-1.9709 -2.7719 1.6868
-1.8694 -2.8403 1.6868
-1.7655 -2.9049 1.6868
-1.6594 -2.9659 1.6868
-1.5512 -3.0230 1.6868
-1.4411 -3.0762 1.6868
-1.3292 -3.1254 1.6868
-1.2156 -3.1707 1.6868
-1.1005 -3.2118 1.6868
-0.9840 -3.2489 1.6868
-0.8663 -3.2818 1.6868
-0.7475 -3.3104 1.6868
-0.6278 -3.3349 1.6868
-0.5072 -3.3550 1.6868
-0.3861 -3.3709 1.6868
-0.2645 -3.3825 1.6868
-0.1425 -3.3897 1.6868
-0.0204 -3.3926 1.6868
0.1018 -3.3911 1.6868
0.2238 -3.3853 1.6868
0.3456 -3.3752 1.6868
0.4669 -3.3608 1.6868
0.5876 -3.3420 1.6868
0.7076 -3.3190 1.6868
0.8267 -3.2917 1.6868
0.9448 -3.2602 1.6868
1.0617 -3.2246 1.6868
1.1773 -3.1848 1.6868
1.2914 -3.1409 1.6868
1.4039 -3.0929 1.6868
1.5146 -3.0410 1.6868
1.6234 -2.9852 1.6868
1.7302 -2.9255 1.6868
1.8349 -2.8621 1.6868
1.9372 -2.7949 1.6868
2.0371 -2.7242 1.6868
2.1344 -2.6499 1.6868
2.2291 -2.5722 1.6868
2.3209 -2.4911 1.6868
2.4099 -2.4068 1.6868
2.4957 -2.3194 1.6868
2.5785 -2.2289 1.6868
2.6580 -2.1355 1.6868
2.7341 -2.0393 1.6868
2.7741 -1.9178 1.6672
0.2668 0.9433 0.5021
0.2328 0.9521 0.5020
0.1985 0.9597 0.5019
0.1640 0.9662 0.5018
0.1293 0.9714 0.5018
0.0944 0.9753 0.5017
0.0594 0.9780 0.5017
0.0244 0.9795 0.5017
-0.0107 0.9798 0.5017
-0.0458 0.9788 0.5017
-0.0808 0.9766 0.5017
-0.1157 0.9731 0.5017
-0.1505 0.9684 0.5018
-0.1851 0.9624 0.5019
-0.2195 0.9553 0.5020
-0.2536 0.9469 0.5021
-0.2873 0.9373 0.5022
-0.3208 0.9265 0.5024
-0.3538 0.9146 0.5025
-0.3864 0.9015 0.5027
-0.4185 0.8872 0.5029
-0.4501 0.8718 0.5031
-0.4812 0.8553 0.5033
-0.5116 0.8377 0.5035
-0.5414 0.8190 0.5038
-0.5705 0.7993 0.5040
-0.5989 0.7786 0.5043
-0.6266 0.7568 0.5046
-0.6535 0.7341 0.5049
-0.6796 0.7104 0.5052
-0.7048 0.6858 0.5055
-0.7292 0.6603 0.5058
-0.7526 0.6339 0.5062
-0.7751 0.6067 0.5065
-0.7967 0.5788 0.5069
-0.8172 0.5500 0.5072
-0.8367 0.5205 0.5076
-2.8392 1.6283 1.6868
-2.8946 1.5248 1.6868
-2.9462 1.4194 1.6868
-2.9939 1.3123 1.6868
-3.0377 1.2035 1.6868
-3.0776 1.0933 1.6868
-3.1134 0.9817 1.6868
-3.1452 0.8690 1.6868
-3.1729 0.7552 1.6868
-3.1965 0.6406 1.6868
-3.2160 0.5252 1.6868
-3.2312 0.4092 1.6868
-3.2423 0.2929 1.6868
-3.2492 0.1762 1.6868
-3.2519 0.0594 1.6868
-3.2504 -0.0574 1.6868
-3.2447 -0.1740 1.6868
-3.2348 -0.2903 1.6868
-3.2208 -0.4061 1.6868
-3.2027 -0.5213 1.6868
-3.1804 -0.6357 1.6868
-3.1540 -0.7492 1.6868
-3.1237 -0.8617 1.6868
-3.0893 -0.9729 1.6868
-3.0510 -1.0828 1.6868
-3.0087 -1.1913 1.6868
-2.9627 -1.2981 1.6868
-2.9129 -1.4031 1.6868
-2.8593 -1.5063 1.6868
-2.8021 -1.6075 1.6868
-2.7414 -1.7065 1.6868
-2.6772 -1.8033 1.6868
-2.6096 -1.8977 1.6868
-2.5387 -1.9896 1.6868
-2.4646 -2.0788 1.6868
-2.3874 -2.1654 1.6868
-2.3071 -2.2491 1.6868
-2.2240 -2.3299 1.6868
-2.1380 -2.4076 1.6868
-2.0494 -2.4822 1.6868
-1.9582 -2.5536 1.6868
-1.8645 -2.6217 1.6868
-1.7684 -2.6864 1.6868
-1.6702 -2.7476 1.6868
-1.5698 -2.8053 1.6868
-1.4675 -2.8593 1.6868
-1.3633 -2.9097 1.6868
-1.2575 -2.9563 1.6868
-1.1500 -2.9991 1.6868
-1.0411 -3.0381 1.6868
-0.9309 -3.0732 1.6868
-0.8196 -3.1043 1.6868
-0.7072 -3.1314 1.6868
-0.5939 -3.1546 1.6868
-0.4799 -3.1737 1.6868
-0.3653 -3.1887 1.6868
-0.2502 -3.1996 1.6868
-0.1348 -3.2065 1.6868
-0.0193 -3.2092 1.6868
0.0963 -3.2078 1.6868
0.2117 -3.2023 1.6868
0.3269 -3.1928 1.6868
0.4417 -3.1791 1.6868
0.5559 -3.1613 1.6868
0.6695 -3.1395 1.6868
0.7821 -3.1137 1.6868
0.8938 -3.0839 1.6868
1.0044 -3.0502 1.6868
1.1138 -3.0125 1.6868
1.2217 -2.9709 1.6868
1.3281 -2.9256 1.6868
1.4329 -2.8764 1.6868
1.5358 -2.8236 1.6868
1.6368 -2.7671 1.6868
1.7358 -2.7071 1.6868
1.8326 -2.6435 1.6868
1.9271 -2.5766 1.6868
2.0191 -2.5063 1.6868
2.1086 -2.4327 1.6868
2.1955 -2.3560 1.6868
2.2795 -2.2762 1.6868
2.3608 -2.1935 1.6868
2.4390 -2.1078 1.6868
2.5141 -2.0195 1.6868
2.5861 -1.9284 1.6868
2.6548 -1.8349 1.6868
0.2529 0.8942 0.5028
0.2207 0.9026 0.5027
0.1882 0.9099 0.5026
0.1555 0.9160 0.5025
0.1226 0.9209 0.5024
0.0895 0.9247 0.5024
0.0564 0.9272 0.5023
0.0231 0.9287 0.5023
-0.0101 0.9289 0.5023
-0.0434 0.9279 0.5023
-0.0766 0.9258 0.5024
-0.1097 0.9225 0.5024
-0.1427 0.9181 0.5025
-0.1755 0.9124 0.5025
-0.2080 0.9056 0.5026
-0.2404 0.8977 0.5027
-0.2724 0.8886 0.5028
-0.3041 0.8784 0.5030
-0.3354 0.8671 0.5031
-0.3663 0.8546 0.5033
-0.3967 0.8411 0.5035
-0.4266 0.8265 0.5037
-0.4560 0.8108 0.5039
-0.4849 0.7941 0.5041
-0.5131 0.7764 0.5043
-0.5407 0.7577 0.5046
-0.5677 0.7380 0.5048
-0.5939 0.7174 0.5051
-0.6194 0.6958 0.5054
-0.6441 0.6734 0.5056
-0.6680 0.6500 0.5059
-0.6910 0.6259 0.5063
-0.7132 0.6009 0.5066
-0.7345 0.5751 0.5069
-0.7549 0.5486 0.5073
-0.7743 0.5213 0.5076
-0.7928 0.4934 0.5080
-0.8102 0.4648 0.5084
-0.8267 0.4356 0.5087
-0.8421 0.4058 0.5091
-2.8352 1.2432 1.6868
-2.8767 1.1402 1.6868
-2.9145 1.0358 1.6868
-2.9485 0.9302 1.6868
-2.9787 0.8235 1.6868
-3.0050 0.7157 1.6868
-3.0274 0.6072 1.6868
-3.0458 0.4979 1.6868
-3.0604 0.3881 1.6868
-3.0709 0.2779 1.6868
-3.0775 0.1674 1.6868
-3.0801 0.0567 1.6868
-3.0788 -0.0539 1.6868
-3.0735 -0.1643 1.6868
-3.0642 -0.2745 1.6868
-3.0509 -0.3842 1.6868
-3.0338 -0.4933 1.6868
-3.0128 -0.6017 1.6868
-2.9879 -0.7093 1.6868
-2.9591 -0.8158 1.6868
-2.9266 -0.9212 1.6868
-2.8904 -1.0254 1.6868
-2.8504 -1.1281 1.6868
-2.8068 -1.2293 1.6868
-2.7597 -1.3289 1.6868
-0.8352 -0.4399 0.5201
-0.8192 -0.4698 0.5205
-0.8020 -0.4991 0.5209
