ply
format ascii 1.0
element vertex 2121
property float32 x
property float32 y
property float32 z
end_header
-10.4999 5.6825 0.6092
-11.2997 5.5993 0.6433
-11.6785 5.2723 0.6534
-11.6244 4.7520 0.6401
-11.7772 4.3266 0.6393
-12.8793 4.2119 0.6901
-13.7650 3.9592 0.7292
-14.6279 3.6428 0.7671
-14.5689 3.0759 0.7574
-14.5112 2.5219 0.7489
-12.9402 1.7717 0.6638
-11.2473 1.1293 0.5743
-11.2046 0.7189 0.5702
-11.1624 0.3135 0.5668
-15.9535 -0.1264 0.8095
-10.6813 -0.4694 0.5423
-10.3519 -0.8291 0.5265
-10.0776 -1.1734 0.5141
-9.9829 -1.5283 0.5115
-9.9754 -1.8969 0.5141
-10.1219 -2.3051 0.5254
-10.3191 -2.7441 0.5402
-11.3086 -3.4475 0.5978
-11.2629 -3.8818 0.6022
-9.8500 -3.7967 0.5334
-10.5019 -4.4885 0.5768
-10.3836 -4.8871 0.5794
-10.2512 -5.2835 0.5820
-9.3005 -5.2255 0.5381
-9.0883 -5.5458 0.5369
-10.1030 -6.6755 0.6104
-9.8943 -7.0620 0.6125
-9.0192 -6.9406 0.5733
-10.0697 -8.3428 0.6584
-9.5548 -8.5144 0.6442
-9.3328 -8.9395 0.6503
-9.3129 -9.5866 0.6723
-9.4092 -10.4105 0.7057
-10.3667 -12.3347 0.8100
-9.7785 -12.5236 0.7985
-9.2077 -12.7104 0.7886
-8.8551 -13.1988 0.7984
-8.7540 -14.1214 0.8344
-9.0742 -15.8876 0.9186
-8.2884 -15.8070 0.8959
-7.5197 -15.6894 0.8731
-7.5167 -17.2499 0.9441
-7.4698 -18.9799 1.0232
-8.7759 -24.8924 1.3238
-8.1285 -26.0053 1.3663
-7.5256 -27.5177 1.4304
-6.9383 -29.5056 1.5196
-4.3389 -21.9727 1.1227
-3.9324 -24.5289 1.2452
-3.8967 -31.5298 1.5923
-2.7957 -32.0652 1.6131
-1.7236 -33.7866 1.6954
-0.5065 -33.8280 1.6954
0.7113 -33.8250 1.6954
1.9281 -33.7775 1.6954
3.1425 -33.6859 1.6954
4.3527 -33.5501 1.6954
5.2605 -31.5893 1.6049
6.3428 -31.1281 1.5921
5.5046 -22.7888 1.1750
8.5641 -30.5862 1.5921
9.6780 -30.3168 1.5954
10.7616 -29.9454 1.5954
11.8307 -29.5347 1.5954
12.8841 -29.0855 1.5954
13.9202 -28.5982 1.5954
14.9378 -28.0737 1.5954
15.9355 -27.5128 1.5954
14.4877 -23.0577 1.3667
10.5502 -15.5215 0.9421
14.0860 -19.1989 1.1956
13.9204 -17.6076 1.1273
13.7430 -16.1525 1.0654
13.6624 -14.9337 1.0171
13.5750 -13.8058 0.9732
13.4642 -12.7416 0.9320
13.3624 -11.7631 0.8953
13.2682 -10.8581 0.8625
13.1806 -10.0165 0.8331
13.0987 -9.2300 0.8067
13.0218 -8.4913 0.7829
12.9493 -7.7947 0.7614
12.8531 -7.1195 0.7405
12.7879 -6.4934 0.7230
12.7529 -5.9083 0.7088
12.6895 -5.3329 0.6945
13.7871 -5.2187 0.7441
15.0541 -5.0868 0.8023
15.6252 -4.6603 0.8236
15.3016 -3.9701 0.7988
15.1220 -3.3476 0.7830
14.9544 -2.7500 0.7690
14.7896 -2.1727 0.7563
13.8555 -1.5284 0.7056
13.3402 -0.9872 0.6774
13.5660 -0.5140 0.6878
14.1053 -0.0264 0.7149
16.1270 0.5506 0.8182
32.1590 2.2589 1.6354
13.1490 1.4007 0.6711
0.1129 21.5380 1.5923
-0.4100 13.3273 0.9857
-0.6767 10.1222 0.7500
-1.0411 10.0956 0.7503
-1.4062 10.0690 0.7516
-2.3194 13.1366 0.9861
-4.7980 22.4274 1.6954
-5.6024 22.2414 1.6954
-6.3997 22.0267 1.6954
-7.1888 21.7837 1.6954
-7.9689 21.5126 1.6954
-8.2178 19.9490 1.5943
-8.9195 19.6163 1.5922
-9.6209 19.2848 1.5922
-10.3107 18.9296 1.5923
-10.9868 18.5487 1.5923
-11.6490 18.1438 1.5923
-7.5573 10.8879 0.9786
-12.1888 16.2770 1.5012
-12.0495 14.9386 1.4166
-7.1653 8.2566 0.8068
-7.0978 7.6074 0.7677
-11.7102 11.6785 1.2200
-11.6167 10.7796 1.1689
-11.8928 10.2645 1.1584
-12.6927 10.1813 1.1996
-10.6234 7.9103 0.9763
-11.0755 7.6431 0.9916
-11.0114 7.0276 0.9624
-10.9509 6.4465 0.9360
-10.5002 5.6825 0.8792
-11.3000 5.5993 0.9284
-11.6785 5.2721 0.9430
-11.6244 4.7518 0.9240
-11.7776 4.3266 0.9230
-12.8797 4.2118 0.9965
-13.7655 3.9591 1.0530
-14.6278 3.6426 1.1079
-14.5688 3.0757 1.0941
-14.5112 2.5217 1.0819
-12.9405 1.7716 0.9591
-11.2473 1.1292 0.8298
-11.2046 0.7188 0.8240
-11.1624 0.3133 0.8193
-15.9557 -0.1266 1.1703
-11.0022 -0.4837 0.8075
-10.3519 -0.8292 0.7613
-10.0776 -1.1736 0.7435
-10.1490 -1.5539 0.7522
-10.1106 -1.9227 0.7538
-10.1219 -2.3052 0.7601
-10.5444 -2.8042 0.7986
-11.3086 -3.4477 0.8651
-11.2631 -3.8821 0.8715
-9.8496 -3.7967 0.7720
-8.8492 -3.7823 0.7036
-10.1236 -4.7649 0.8178
-10.0805 -5.1957 0.8287
-9.3854 -5.2734 0.7864
-8.7126 -5.3167 0.7454
-9.7627 -6.4508 0.8544
-9.7107 -6.9311 0.8709
-9.0627 -6.9742 0.8345
-10.0696 -8.3429 0.9541
-9.5547 -8.5145 0.9335
-9.3327 -8.9396 0.9425
-9.3129 -9.5868 0.9745
-9.4108 -10.4125 1.0230
-10.3665 -12.3347 1.1742
-9.7783 -12.5237 1.1577
-9.2076 -12.7105 1.1434
-8.8549 -13.1987 1.1576
-8.7540 -14.1217 1.2100
-9.0741 -15.8877 1.3322
-8.0188 -15.2931 1.2571
-7.5393 -15.7304 1.2697
-7.5164 -17.2494 1.3694
-7.4697 -18.9799 1.4843
-7.2760 -20.6383 1.5923
-6.5292 -20.8891 1.5923
-5.7738 -21.1126 1.5923
-5.0107 -21.3086 1.5923
-4.2409 -21.4768 1.5923
-3.6898 -23.0165 1.6954
-2.8592 -23.1357 1.6954
-2.0249 -23.2247 1.6954
-1.1878 -23.2833 1.6954
-0.3490 -23.3116 1.6954
0.4902 -23.3094 1.6954
1.3287 -23.2767 1.6954
2.1656 -23.2136 1.6954
2.9995 -23.1202 1.6954
3.8296 -22.9966 1.6954
4.3711 -21.4518 1.5921
5.1400 -21.2795 1.5921
5.9021 -21.0795 1.5921
4.9060 -15.3686 1.1734
7.4020 -20.5971 1.5921
8.1543 -20.3571 1.5954
8.8808 -20.0483 1.5954
7.4944 -15.3969 1.2460
10.2974 -19.3530 1.5954
10.9858 -18.9674 1.5954
11.6597 -18.5571 1.5954
12.3181 -18.1227 1.5954
12.9602 -17.6648 1.5954
13.5853 -17.1840 1.5954
13.7431 -16.1528 1.5448
13.6622 -14.9337 1.4746
13.5750 -13.8061 1.4109
9.8780 -9.3480 0.9912
13.3624 -11.7633 1.2978
13.2682 -10.8583 1.2501
13.1806 -10.0168 1.2074
13.0987 -9.2302 1.1689
13.0218 -8.4916 1.1343
12.9493 -7.7949 1.1031
12.8531 -7.1197 1.0726
12.7879 -6.4936 1.0473
12.7529 -5.9085 1.0266
12.6892 -5.3330 1.0056
13.7866 -5.2187 1.0773
15.0536 -5.0868 1.1615
15.4438 -4.6064 1.1784
15.2624 -3.9601 1.1533
15.0906 -3.3409 1.1308
14.9220 -2.7443 1.1104
14.7468 -2.1666 1.0911
13.8556 -1.5286 1.0207
13.3809 -0.9904 0.9828
13.5660 -0.5142 0.9947
13.8416 -0.0261 1.0145
15.8873 0.5422 1.1654
21.7009 1.5240 1.5954
13.1124 1.3966 0.9673
0.0920 17.5478 1.6954
-0.3358 10.9145 1.0550
-0.6769 10.1242 0.9803
-1.0413 10.0977 0.9807
-1.4065 10.0710 0.9824
-1.8979 10.7492 1.0545
-3.6713 17.1609 1.6954
-4.2868 17.0184 1.6954
-4.8968 16.8539 1.6954
-5.5006 16.6677 1.6954
-6.0973 16.4599 1.6954
-6.6863 16.2310 1.6954
-7.2667 15.9811 1.6954
-7.7415 15.5173 1.6745
-7.8883 14.4821 1.5923
-8.4053 14.1902 1.5923
-8.9116 13.8801 1.5923
-7.5423 10.8661 1.2767
-9.8894 13.2062 1.5923
-10.3596 12.8433 1.5923
-7.1653 8.2565 1.0548
-7.6564 8.2061 1.0827
-11.7102 11.6783 1.5952
-11.6166 10.7794 1.5283
-11.8930 10.2645 1.5148
-12.6929 10.1813 1.5687
-6.8357 5.0899 0.8215
-11.0754 7.6429 1.2969
-6.7546 4.3108 0.7721
-6.7175 3.9543 0.7510
-10.5004 5.6825 1.1500
-11.3003 5.5992 1.2145
-11.6785 5.2720 1.2337
-11.6243 4.7516 1.2089
-11.7780 4.3265 1.2076
-12.8801 4.2118 1.3039
-13.7660 3.9591 1.3780
-14.6278 3.6424 1.4499
-14.5688 3.0754 1.4318
-14.5112 2.5215 1.4160
-12.9408 1.7715 1.2554
-11.2473 1.1290 1.0862
-11.2046 0.7186 1.0787
-11.1624 0.3132 1.0726
-15.9580 -0.1269 1.5325
-11.0020 -0.4838 1.0573
-10.3518 -0.8293 0.9968
-10.0775 -1.1737 0.9736
-10.1490 -1.5540 0.9851
-10.1106 -1.9229 0.9872
-10.1220 -2.3054 0.9956
-10.5447 -2.8044 1.0461
-11.3086 -3.4478 1.1333
-11.2633 -3.8823 1.1418
-9.8491 -3.7967 1.0114
-8.6659 -3.7041 0.9028
-9.7634 -4.5956 1.0335
-9.7219 -5.0111 1.0473
-9.3854 -5.2735 1.0306
-8.5499 -5.2175 0.9587
-9.5831 -6.3323 1.0992
-9.5321 -6.8038 1.1205
-9.0627 -6.9744 1.0939
-8.3744 -6.9386 1.0401
-9.5546 -8.5146 1.2238
-9.3326 -8.9398 1.2356
-9.3129 -9.5869 1.2776
-9.4125 -10.4145 1.3417
-10.3663 -12.3347 1.5397
-9.6854 -12.4050 1.5037
-9.2075 -12.7106 1.4994
-8.8547 -13.1987 1.5181
-8.8228 -14.2329 1.5993
-8.2695 -14.4791 1.5923
-5.2511 -10.0148 1.0797
-5.1646 -10.7760 1.1408
-6.6630 -15.2913 1.5923
-4.9614 -12.6067 1.2932
-5.5469 -15.7339 1.5923
-4.9774 -15.9247 1.5923
-4.4433 -16.2479 1.6074
-4.0669 -17.2954 1.6954
-3.4420 -17.4316 1.6954
-2.8126 -17.5451 1.6954
-2.1795 -17.6357 1.6954
-1.5435 -17.7034 1.6954
-0.9053 -17.7479 1.6954
-0.2661 -17.7693 1.6954
0.3736 -17.7676 1.6954
1.0128 -17.7427 1.6954
1.6507 -17.6946 1.6954
2.2864 -17.6235 1.6954
2.9191 -17.5294 1.6954
3.5480 -17.4125 1.6954
3.9181 -16.2209 1.5921
4.4991 -16.0687 1.5921
4.9803 -15.6015 1.5627
5.6426 -15.7015 1.5921
4.2488 -10.6073 1.0904
4.5946 -10.3725 1.0827
7.3003 -14.9984 1.5921
7.8506 -14.7546 1.5954
8.3757 -14.4611 1.5954
8.8897 -14.1487 1.5954
6.8938 -10.1425 1.1710
7.0243 -9.5743 1.1340
10.3591 -13.1034 1.5954
10.8225 -12.7203 1.5954
11.2716 -12.3209 1.5954
11.7060 -11.9054 1.5954
12.1250 -11.4746 1.5954
12.5281 -11.0291 1.5954
12.9148 -10.5693 1.5954
13.1806 -10.0170 1.5829
13.0987 -9.2304 1.5324
13.0219 -8.4918 1.4870
12.9493 -7.7951 1.4459
12.8531 -7.1199 1.4059
12.7879 -6.4938 1.3726
12.7530 -5.9087 1.3454
12.6888 -5.3330 1.3178
13.7862 -5.2188 1.4116
15.0531 -5.0869 1.5219
15.9577 -4.7600 1.5954
16.1152 -4.1816 1.5954
16.2517 -3.5982 1.5954
16.3671 -3.0103 1.5954
14.7674 -2.1699 1.4312
14.2631 -1.5738 1.3762
16.5850 -1.2278 1.5954
16.6147 -0.6300 1.5954
13.9034 -0.0264 1.3344
16.0043 0.5459 1.5372
16.5745 1.1637 1.5954
13.0629 1.3911 1.2616
0.0588 11.1995 1.3372
-0.3338 10.8494 1.2960
-0.6770 10.1263 1.2118
-1.0415 10.0997 1.2123
-1.4068 10.0731 1.2143
-1.8865 10.6846 1.2954
-2.9707 13.8860 1.6954
-3.4687 13.7705 1.6954
-3.9623 13.6373 1.6954
-4.4508 13.4865 1.6954
-4.9336 13.3182 1.6954
-5.4101 13.1328 1.6954
-5.8796 12.9304 1.6954
-6.3417 12.7113 1.6954
-6.7956 12.4758 1.6954
-7.2408 12.2241 1.6954
-7.3189 11.3992 1.6163
-7.5272 10.8443 1.5749
-7.3318 9.7907 1.4591
-8.3809 10.3901 1.5923
-7.1653 8.2563 1.3038
-7.1948 7.7111 1.2577
-7.2325 7.2126 1.2179
-7.0685 6.5589 1.1496
-7.0198 6.0584 1.1054
-7.0859 5.6836 1.0827
-6.8357 5.0898 1.0157
-10.8388 7.4794 1.5692
-11.0114 7.0273 1.5563
-10.9509 6.4461 1.5137
-10.5007 5.6825 1.4220
-11.3006 5.5992 1.5018
-11.6785 5.2718 1.5256
-11.6243 4.7514 1.4950
-11.7783 4.3265 1.4935
-12.7734 4.1768 1.5993
-12.9177 3.7150 1.5993
-13.0453 3.2482 1.5993
-13.1561 2.7771 1.5993
-13.2499 2.3022 1.5993
-12.9411 1.7713 1.5530
-11.2473 1.1289 1.3438
-11.2046 0.7185 1.3345
-11.1624 0.3130 1.3270
-13.4603 -0.1071 1.5993
-11.0017 -0.4840 1.3082
-10.3517 -0.8295 1.2334
-10.0775 -1.1738 1.2047
-10.1490 -1.5542 1.2190
-10.1106 -1.9230 1.2217
-10.1221 -2.3055 1.2321
-10.5449 -2.8046 1.2947
-11.3088 -3.4481 1.4026
-9.4883 -3.2706 1.1905
-9.5082 -3.6654 1.2085
-8.7121 -3.7240 1.1234
-9.5848 -4.5116 1.2559
-9.4916 -4.8925 1.2657
-9.3300 -5.2425 1.2683
-8.5597 -5.2236 1.1882
-9.2386 -6.1048 1.3119
-9.1894 -6.5594 1.3374
-9.0626 -6.9745 1.3544
-8.3849 -6.9474 1.2895
-8.4508 -7.5311 1.3403
-9.3326 -8.9399 1.5300
-9.1505 -9.4200 1.5545
-9.0206 -9.9812 1.5923
-8.6567 -10.3007 1.5923
-8.2814 -10.6069 1.5923
-7.8953 -10.8993 1.5923
-7.4987 -11.1777 1.5923
-7.0924 -11.4415 1.5923
-6.6767 -11.6906 1.5923
-5.2530 -10.0186 1.3378
-5.1646 -10.7762 1.4131
-5.3793 -12.3455 1.5923
-4.9319 -12.5321 1.5923
-4.7299 -13.4168 1.6818
-4.2784 -13.6885 1.6954
-3.7833 -13.8345 1.6954
-3.2831 -13.9624 1.6954
-2.7786 -14.0722 1.6954
-2.2705 -14.1637 1.6954
-1.7594 -14.2367 1.6954
-1.2459 -14.2912 1.6954
-0.7308 -14.3271 1.6954
-0.2147 -14.3444 1.6954
0.3016 -14.3429 1.6954
0.8176 -14.3228 1.6954
1.3325 -14.2840 1.6954
1.8457 -14.2267 1.6954
2.3564 -14.1508 1.6954
2.8641 -14.0565 1.6954
3.3680 -13.9438 1.6954
3.6320 -12.9718 1.5921
4.0962 -12.8322 1.5921
4.5552 -12.6758 1.5921
5.0081 -12.5029 1.5921
4.2120 -9.5089 1.2294
4.6100 -9.4714 1.2453
6.3251 -11.8878 1.5921
6.7483 -11.6515 1.5921
7.1626 -11.4001 1.5921
6.8939 -10.1427 1.4504
7.0242 -9.5743 1.4045
8.3642 -10.5801 1.5954
8.7385 -10.2711 1.5954
9.1015 -9.9489 1.5954
9.4525 -9.6137 1.5954
9.7911 -9.2661 1.5954
10.1169 -8.9066 1.5954
10.4295 -8.5355 1.5954
10.7284 -8.1535 1.5954
11.0133 -7.7610 1.5954
11.2838 -7.3585 1.5954
11.5395 -6.9466 1.5954
11.7803 -6.5258 1.5954
12.0056 -6.0967 1.5954
12.2152 -5.6597 1.5954
12.4089 -5.2155 1.5954
12.5865 -4.7648 1.5954
12.7476 -4.3080 1.5954
12.8922 -3.8457 1.5954
13.0199 -3.3786 1.5954
13.1308 -2.9074 1.5954
13.2245 -2.4325 1.5954
13.3011 -1.9546 1.5954
13.3604 -1.4743 1.5954
13.4023 -0.9924 1.5954
13.4269 -0.5093 1.5954
13.4340 -0.0257 1.5954
13.4237 0.4577 1.5954
13.3961 0.9404 1.5954
13.3511 1.4216 1.5954
0.0181 3.4449 0.4902
-0.1059 3.4435 0.4903
-0.2298 3.4378 0.4903
-0.3535 3.4278 0.4904
-0.4767 3.4137 0.4905
-0.5995 3.3953 0.4906
-0.7216 3.3727 0.4908
-2.9104 11.5537 1.6954
-3.3244 11.4418 1.6954
-3.7343 11.3152 1.6954
-4.1393 11.1739 1.6954
-4.5390 11.0182 1.6954
-4.9329 10.8483 1.6954
-5.3205 10.6644 1.6954
-5.7013 10.4667 1.6954
-6.0747 10.2554 1.6954
-6.4404 10.0308 1.6954
-6.7978 9.7933 1.6954
-7.1153 9.5014 1.6879
-7.0464 8.7354 1.5958
-7.1653 8.2561 1.5542
-7.1054 7.6152 1.4806
-7.4511 7.4305 1.4958
-8.2122 7.6201 1.5923
-7.4659 6.4433 1.4015
-6.8883 5.5250 1.2548
-6.8357 5.0896 1.2109
-6.8799 4.7475 1.1875
-6.8402 4.3652 1.1526
-6.8026 4.0042 1.1211
-6.7755 3.6665 1.0940
-6.8326 3.3853 1.0827
-10.2223 4.6143 1.5923
-7.0603 2.8858 1.0827
-10.5308 3.8681 1.5923
-6.5356 2.1370 0.9758
-10.8325 3.1152 1.5993
-10.9392 2.7237 1.5993
-11.0318 2.3285 1.5993
-11.1101 1.9303 1.5993
-11.1741 1.5294 1.5993
-11.2236 1.1264 1.5993
-11.2045 0.7183 1.5916
-11.1623 0.3129 1.5827
-11.2849 -0.0900 1.5993
-10.6806 -0.4700 1.5148
-10.3516 -0.8296 1.4712
-10.0775 -1.1740 1.4371
-10.1490 -1.5543 1.4541
-10.1106 -1.9232 1.4574
-10.1221 -2.3057 1.4698
-10.3197 -2.7449 1.5117
-10.8080 -3.2955 1.5993
-9.4877 -3.2706 1.4202
-8.8784 -3.4228 1.3464
-8.7217 -3.7282 1.3419
-9.2326 -4.3460 1.4435
-9.1933 -4.7389 1.4628
-9.1529 -5.1431 1.4847
-8.5696 -5.2298 1.4195
-9.0639 -5.9896 1.5359
-8.8956 -6.3498 1.5450
-8.8071 -6.7780 1.5707
-8.3954 -6.9563 1.5408
-8.4125 -7.4971 1.5923
-8.1382 -7.7959 1.5923
-7.8533 -8.0847 1.5923
-7.5581 -8.3631 1.5923
-7.2530 -8.6306 1.5923
-6.9384 -8.8869 1.5923
-6.6148 -9.1318 1.5923
-6.2825 -9.3648 1.5923
-5.9419 -9.5857 1.5923
-5.5936 -9.7942 1.5923
-5.2379 -9.9900 1.5923
-5.0333 -10.5022 1.6438
-4.7982 -11.0120 1.6954
-4.3991 -11.1783 1.6954
-3.9942 -11.3301 1.6954
-3.5841 -11.4672 1.6954
-3.1692 -11.5893 1.6954
-2.7502 -11.6964 1.6954
-2.3276 -11.7882 1.6954
-1.9020 -11.8648 1.6954
-1.4738 -11.9259 1.6954
-1.0437 -11.9715 1.6954
-0.6122 -12.0015 1.6954
-0.1799 -12.0160 1.6954
0.2527 -12.0148 1.6954
0.6849 -11.9979 1.6954
1.1162 -11.9654 1.6954
1.5461 -11.9174 1.6954
1.9739 -11.8539 1.6954
2.3992 -11.7749 1.6954
2.8213 -11.6806 1.6954
3.1269 -11.1682 1.6363
3.4314 -10.7495 1.5921
3.8159 -10.6186 1.5921
4.1953 -10.4739 1.5921
4.3139 -9.7390 1.5031
4.9373 -10.1438 1.5921
5.2988 -9.9590 1.5921
5.6533 -9.7611 1.5921
6.0005 -9.5506 1.5921
6.3398 -9.3278 1.5921
6.6709 -9.0928 1.5921
7.0074 -8.8641 1.5954
7.3212 -8.6054 1.5954
7.6254 -8.3355 1.5954
7.9197 -8.0549 1.5954
8.2035 -7.7638 1.5954
8.4767 -7.4627 1.5954
8.7388 -7.1520 1.5954
8.9895 -6.8321 1.5954
9.2284 -6.5034 1.5954
9.4553 -6.1662 1.5954
9.6698 -5.8212 1.5954
9.8718 -5.4687 1.5954
10.0608 -5.1092 1.5954
10.2368 -4.7432 1.5954
10.3994 -4.3711 1.5954
10.5485 -3.9934 1.5954
10.6838 -3.6107 1.5954
10.8053 -3.2234 1.5954
10.9126 -2.8320 1.5954
11.0059 -2.4370 1.5954
11.0847 -2.0391 1.5954
11.1492 -1.6385 1.5954
11.1993 -1.2360 1.5954
11.2348 -0.8320 1.5954
11.2557 -0.4271 1.5954
11.2620 -0.0217 1.5954
11.2537 0.3836 1.5954
11.2309 0.7882 1.5954
11.1935 1.1917 1.5954
0.0157 2.9841 0.4935
-0.0918 2.9829 0.4935
-0.1991 2.9779 0.4935
-0.3062 2.9692 0.4936
-0.4130 2.9569 0.4937
-0.5192 2.9408 0.4938
-0.6250 2.9212 0.4939
-0.7300 2.8978 0.4941
-2.8609 9.8464 1.6954
-3.2136 9.7374 1.6954
-3.5621 9.6158 1.6954
-3.9061 9.4818 1.6954
-4.2451 9.3355 1.6954
-4.5786 9.1771 1.6954
-4.9062 9.0069 1.6954
-5.2275 8.8250 1.6954
-5.5421 8.6316 1.6954
-5.8496 8.4271 1.6954
-6.1496 8.2117 1.6954
-6.4417 7.9857 1.6954
-6.7255 7.7493 1.6954
-6.8956 7.3902 1.6699
-6.8475 6.8285 1.5975
-7.0662 6.5565 1.5923
-7.2983 6.2986 1.5923
-6.8878 5.5245 1.4582
-6.8357 5.0895 1.4073
-6.8017 4.6934 1.3645
-7.0594 4.5050 1.3826
-8.3124 4.8927 1.5923
-8.4841 4.5909 1.5923
-6.7359 3.3373 1.2407
-8.7944 3.9696 1.5923
-6.6695 2.7260 1.1889
-6.5764 2.4155 1.1559
-6.6108 2.1614 1.1473
-6.5828 1.8929 1.1298
-6.5557 1.6321 1.1142
-6.6761 1.4090 1.1251
-9.5149 1.6529 1.5923
-9.5695 1.3096 1.5923
-9.6117 0.9644 1.5923
-6.6659 0.4272 1.1009
-9.6587 0.2706 1.5923
-9.6635 -0.0772 1.5923
-9.6558 -0.4250 1.5923
-6.5651 -0.5262 1.0849
-9.6028 -1.1188 1.5923
-9.5576 -1.4639 1.5923
-9.5000 -1.8072 1.5923
-9.4301 -2.1482 1.5923
-9.3479 -2.4865 1.5923
-9.2536 -2.8217 1.5923
-6.0683 -2.0919 1.0563
-6.4213 -2.4756 1.1324
-6.3944 -2.7335 1.1441
-6.3670 -2.9972 1.1576
-5.9500 -3.0671 1.1010
-8.4403 -4.7429 1.5923
-8.2651 -5.0442 1.5923
-8.0792 -5.3390 1.5923
-7.8827 -5.6269 1.5923
-7.6759 -5.9076 1.5923
-7.4592 -6.1807 1.5923
-7.2327 -6.4458 1.5923
-6.9968 -6.7027 1.5923
-6.7517 -6.9508 1.5923
-6.4978 -7.1900 1.5923
-6.2354 -7.4199 1.5923
-5.9649 -7.6402 1.5923
-5.6866 -7.8506 1.5923
-5.4008 -8.0508 1.5923
-5.2469 -8.4647 1.6356
-5.1198 -8.9648 1.6954
-4.7942 -9.1439 1.6954
-4.4623 -9.3112 1.6954
-4.1246 -9.4663 1.6954
-3.7815 -9.6092 1.6954
-3.4334 -9.7396 1.6954
-3.0808 -9.8573 1.6954
-2.7242 -9.9622 1.6954
-2.3641 -10.0542 1.6954
-2.0008 -10.1331 1.6954
-1.6349 -10.1989 1.6954
-1.2668 -10.2514 1.6954
-0.8971 -10.2905 1.6954
-0.5262 -10.3163 1.6954
-0.1546 -10.3287 1.6954
0.2172 -10.3276 1.6954
0.5887 -10.3131 1.6954
0.9595 -10.2852 1.6954
1.3290 -10.2440 1.6954
1.6967 -10.1894 1.6954
2.0623 -10.1215 1.6954
2.4251 -10.0405 1.6954
2.7848 -9.9465 1.6954
2.9496 -9.2403 1.5921
3.2801 -9.1278 1.5921
3.6063 -9.0034 1.5921
3.9278 -8.8674 1.5921
4.2441 -8.7199 1.5921
4.5549 -8.5610 1.5921
4.8598 -8.3911 1.5921
5.1583 -8.2102 1.5921
5.4500 -8.0187 1.5921
3.2935 -4.4893 0.9144
3.4527 -4.3676 0.9144
6.2811 -7.3829 1.5921
6.5421 -7.1515 1.5921
6.8085 -6.9249 1.5954
7.0527 -6.6748 1.5954
7.2876 -6.4160 1.5954
7.5131 -6.1490 1.5954
7.7287 -5.8740 1.5954
7.9343 -5.5915 1.5954
8.1295 -5.3018 1.5954
8.3141 -5.0052 1.5954
8.4879 -4.7022 1.5954
8.6506 -4.3932 1.5954
8.8020 -4.0785 1.5954
8.9420 -3.7587 1.5954
9.0704 -3.4340 1.5954
9.1870 -3.1049 1.5954
9.2916 -2.7719 1.5954
9.3841 -2.4354 1.5954
9.4645 -2.0959 1.5954
9.5325 -1.7536 1.5954
9.5882 -1.4092 1.5954
9.6314 -1.0631 1.5954
9.6621 -0.7157 1.5954
9.6803 -0.3674 1.5954
9.6860 -0.0188 1.5954
9.6791 0.3298 1.5954
9.6596 0.6778 1.5954
9.6277 1.0249 1.5954
0.0138 2.6298 0.4959
-0.0809 2.6286 0.4960
-0.1754 2.6242 0.4960
-0.2698 2.6165 0.4960
-0.3639 2.6056 0.4961
-0.4575 2.5914 0.4962
-0.5507 2.5739 0.4964
-0.6432 2.5533 0.4965
-0.7349 2.5294 0.4967
-0.8259 2.5024 0.4969
-3.1234 8.4313 1.6954
-3.4250 8.3137 1.6954
-3.7222 8.1854 1.6954
-4.0146 8.0465 1.6954
-4.3018 7.8972 1.6954
-4.5835 7.7376 1.6954
-4.8593 7.5681 1.6954
-5.1289 7.3887 1.6954
-5.3919 7.1998 1.6954
-5.6479 7.0015 1.6954
-5.8967 6.7942 1.6954
-6.1379 6.5780 1.6954
-6.3712 6.3533 1.6954
-6.5963 6.1204 1.6954
-6.7310 5.8088 1.6750
-6.6911 5.3666 1.6158
-6.7805 5.0483 1.5923
-6.9584 4.8014 1.5923
-7.0596 4.5050 1.5771
-6.7248 3.9581 1.4694
-7.4376 4.0245 1.5923
-7.0971 3.5161 1.4911
-7.7095 3.4798 1.5923
-7.8306 3.2004 1.5923
-7.0635 2.5943 1.4162
-8.0423 2.6294 1.5923
-8.1326 2.3385 1.5923
-6.6547 1.6567 1.2902
-8.2817 1.7478 1.5923
-8.3402 1.4487 1.5923
-8.3879 1.1478 1.5923
-8.4248 0.8452 1.5923
-6.3284 0.4055 1.1924
-6.3046 0.1765 1.1858
-6.2810 -0.0503 1.1808
-6.2576 -0.2755 1.1773
-6.2216 -0.4988 1.1731
-8.4162 -0.9807 1.5923
-8.3764 -1.2831 1.5923
-8.3258 -1.5839 1.5923
-8.2644 -1.8828 1.5923
-8.1922 -2.1792 1.5923
-8.1094 -2.4729 1.5923
-6.0562 -2.0879 1.2030
-6.0437 -2.3301 1.2162
-6.0184 -2.5728 1.2288
-5.9926 -2.8210 1.2434
-5.9541 -3.0693 1.2574
-7.3960 -4.1562 1.5923
-7.2424 -4.4201 1.5923
-7.0794 -4.6784 1.5923
-6.9071 -4.9306 1.5923
-6.7259 -5.1765 1.5923
-6.5359 -5.4158 1.5923
-6.3373 -5.6480 1.5923
-6.1305 -5.8730 1.5923
-5.9157 -6.0903 1.5923
-5.6932 -6.2998 1.5923
-5.4633 -6.5012 1.5923
-5.4057 -6.9240 1.6470
-5.3049 -7.3237 1.6954
-5.0382 -7.5104 1.6954
-4.7650 -7.6874 1.6954
-4.4856 -7.8544 1.6954
-4.2003 -8.0112 1.6954
-3.9095 -8.1577 1.6954
-3.6136 -8.2936 1.6954
-3.3129 -8.4187 1.6954
-3.0080 -8.5328 1.6954
-2.6991 -8.6359 1.6954
-2.3866 -8.7278 1.6954
-2.0711 -8.8084 1.6954
-1.7528 -8.8775 1.6954
-1.4323 -8.9350 1.6954
-1.1098 -8.9810 1.6954
-0.7859 -9.0153 1.6954
-0.4610 -9.0378 1.6954
-0.1354 -9.0487 1.6954
0.1903 -9.0477 1.6954
0.5158 -9.0350 1.6954
0.8406 -9.0106 1.6954
1.1643 -8.9744 1.6954
1.4865 -8.9266 1.6954
1.8067 -8.8672 1.6954
2.1246 -8.7963 1.6954
2.4397 -8.7139 1.6954
2.7516 -8.6202 1.6954
2.8736 -7.9967 1.5921
3.1594 -7.8879 1.5921
3.4411 -7.7687 1.5921
3.7182 -7.6395 1.5921
3.9905 -7.5004 1.5921
4.2577 -7.3515 1.5921
4.5192 -7.1931 1.5921
4.7749 -7.0254 1.5921
3.2840 -4.4764 1.0406
3.4475 -4.3611 1.0421
5.5031 -6.4686 1.5921
5.7319 -6.2659 1.5921
5.9532 -6.0551 1.5921
6.1668 -5.8364 1.5921
6.3723 -5.6103 1.5921
6.5829 -5.3878 1.5954
6.7719 -5.1470 1.5954
6.9521 -4.8994 1.5954
7.1232 -4.6456 1.5954
7.2851 -4.3858 1.5954
7.4375 -4.1204 1.5954
7.5802 -3.8497 1.5954
7.7130 -3.5740 1.5954
7.8358 -3.2938 1.5954
7.9484 -3.0093 1.5954
8.0506 -2.7210 1.5954
8.1424 -2.4292 1.5954
8.2236 -2.1344 1.5954
8.2942 -1.8368 1.5954
8.3539 -1.5370 1.5954
8.4029 -1.2352 1.5954
8.4409 -0.9318 1.5954
8.4679 -0.6274 1.5954
8.4840 -0.3221 1.5954
8.4891 -0.0166 1.5954
8.4832 0.2889 1.5954
8.4663 0.5940 1.5954
8.4384 0.8982 1.5954
0.0123 2.3485 0.4979
-0.0722 2.3475 0.4979
-0.1567 2.3435 0.4980
-0.2410 2.3366 0.4980
-0.3250 2.3268 0.4981
-0.4086 2.3140 0.4982
-0.4917 2.2984 0.4983
-0.5743 2.2799 0.4984
-0.6562 2.2585 0.4986
-0.7374 2.2342 0.4988
-0.8177 2.2072 0.4990
-3.0465 7.3950 1.6954
-3.3109 7.2808 1.6954
-3.5709 7.1572 1.6954
-3.8264 7.0244 1.6954
-4.0770 6.8824 1.6954
-4.3223 6.7316 1.6954
-4.5620 6.5720 1.6954
-4.7959 6.4039 1.6954
-5.0236 6.2275 1.6954
-5.2449 6.0430 1.6954
-5.4593 5.8507 1.6954
-5.6668 5.6508 1.6954
-5.8669 5.4436 1.6954
-6.0595 5.2293 1.6954
-6.2443 5.0082 1.6954
-6.4210 4.7806 1.6954
-6.5895 4.5467 1.6954
-6.5622 4.1875 1.6483
-6.5353 3.8465 1.6056
-6.6148 3.5792 1.5923
-6.7400 3.3391 1.5923
-6.8564 3.0947 1.5923
-6.9641 2.8461 1.5923
-6.5637 2.4106 1.4798
-6.5354 2.1366 1.4550
-7.2324 2.0795 1.5923
-6.6548 1.6566 1.4509
-7.3648 1.5542 1.5923
-7.4167 1.2882 1.5923
-7.4591 1.0206 1.5923
-7.4918 0.7515 1.5923
-6.3329 0.4057 1.3418
-6.3046 0.1765 1.3335
-6.2810 -0.0504 1.3279
-6.2575 -0.2756 1.3240
-6.2216 -0.4989 1.3192
-7.4836 -0.8721 1.5923
-7.4481 -1.1410 1.5923
-7.4030 -1.4085 1.5923
-7.3483 -1.6742 1.5923
-7.2841 -1.9377 1.5923
-7.2103 -2.1989 1.5923
-6.0562 -2.0879 1.3530
-6.0437 -2.3302 1.3679
-6.0184 -2.5729 1.3821
-5.9926 -2.8211 1.3985
-5.9541 -3.0694 1.4142
-6.5756 -3.6952 1.5923
-6.4389 -3.9299 1.5923
-6.2939 -4.1594 1.5923
-6.1407 -4.3836 1.5923
-5.9795 -4.6022 1.5923
-5.8181 -4.8211 1.5943
-5.6339 -5.0212 1.5923
-5.5738 -5.3397 1.6284
-5.5334 -5.6968 1.6753
-5.3889 -5.9631 1.6954
-5.1712 -6.1537 1.6954
-4.9467 -6.3362 1.6954
-4.7158 -6.5106 1.6954
-4.4787 -6.6765 1.6954
-4.2358 -6.8338 1.6954
-3.9874 -6.9822 1.6954
-3.7338 -7.1216 1.6954
-3.4752 -7.2517 1.6954
-3.2122 -7.3725 1.6954
-2.9449 -7.4836 1.6954
-2.6738 -7.5851 1.6954
-2.3992 -7.6767 1.6954
-2.1215 -7.7583 1.6954
-1.8410 -7.8299 1.6954
-1.5581 -7.8913 1.6954
-1.2731 -7.9425 1.6954
-0.9865 -7.9833 1.6954
-0.6986 -8.0137 1.6954
-0.4097 -8.0338 1.6954
-0.1204 -8.0434 1.6954
0.1691 -8.0426 1.6954
0.4584 -8.0313 1.6954
0.7472 -8.0096 1.6954
1.0349 -7.9774 1.6954
1.3213 -7.9349 1.6954
1.6060 -7.8821 1.6954
1.8886 -7.8191 1.6954
2.1687 -7.7459 1.6954
2.4459 -7.6626 1.6954
2.7200 -7.5694 1.6954
2.8084 -7.0117 1.5921
3.0588 -6.9058 1.5921
3.3052 -6.7910 1.5921
3.5473 -6.6674 1.5921
3.7848 -6.5351 1.5921
4.0173 -6.3943 1.5921
4.2446 -6.2453 1.5921
3.2776 -4.4679 1.1684
3.4435 -4.3561 1.1709
4.8920 -5.7504 1.5921
5.0955 -5.5703 1.5921
5.2922 -5.3829 1.5921
5.4821 -5.1886 1.5921
5.6649 -4.9876 1.5921
5.8402 -4.7801 1.5921
6.0080 -4.5664 1.5921
6.1679 -4.3469 1.5921
6.3198 -4.1218 1.5921
6.4767 -3.8993 1.5954
6.6122 -3.6633 1.5954
6.7392 -3.4227 1.5954
6.8573 -3.1776 1.5954
6.9666 -2.9285 1.5954
7.0668 -2.6756 1.5954
7.1578 -2.4193 1.5954
7.2395 -2.1599 1.5954
7.3118 -1.8978 1.5954
7.3746 -1.6333 1.5954
7.4278 -1.3667 1.5954
7.4714 -1.0983 1.5954
7.5053 -0.8286 1.5954
7.5294 -0.5579 1.5954
7.5438 -0.2866 1.5954
7.5485 -0.0149 1.5954
7.5433 0.2568 1.5954
7.5284 0.5281 1.5954
7.5037 0.7986 1.5954
0.0111 2.1196 0.4995
-0.0652 2.1187 0.4995
-0.1414 2.1151 0.4995
-0.2175 2.1088 0.4996
-0.2933 2.0999 0.4997
-0.3687 2.0884 0.4998
-0.4438 2.0742 0.4999
-0.5183 2.0575 0.5000
-0.5922 2.0381 0.5001
-0.6654 2.0161 0.5003
-0.7378 1.9916 0.5005
-0.8094 1.9646 0.5006
-2.9786 6.5500 1.6954
-3.2125 6.4388 1.6954
-3.4424 6.3192 1.6954
-3.6677 6.1915 1.6954
-3.8884 6.0558 1.6954
-4.1041 5.9122 1.6954
-4.3145 5.7609 1.6954
-4.5193 5.6022 1.6954
-4.7183 5.4362 1.6954
-4.9112 5.2632 1.6954
-5.0978 5.0833 1.6954
-5.2778 4.8969 1.6954
-5.4510 4.7040 1.6954
-5.6172 4.5051 1.6954
-5.7761 4.3003 1.6954
-5.9276 4.0900 1.6954
-6.0715 3.8742 1.6954
-6.2075 3.6535 1.6954
-6.3355 3.4280 1.6954
-6.4553 3.1980 1.6954
-6.4284 2.9013 1.6596
-6.4022 2.6164 1.6273
-6.3803 2.3432 1.5991
-6.4333 2.1031 1.5923
-6.5148 1.8731 1.5945
-6.5692 1.6352 1.5923
-6.6244 1.3978 1.5923
-6.6710 1.1586 1.5923
-6.7091 0.9178 1.5923
-6.7384 0.6758 1.5923
-6.3284 0.4054 1.4908
-6.3046 0.1764 1.4826
-6.2810 -0.0505 1.4764
-6.2575 -0.2757 1.4721
-6.2216 -0.4990 1.4668
-6.7306 -0.7845 1.5923
-6.6986 -1.0263 1.5923
-6.6580 -1.2668 1.5923
-6.6087 -1.5058 1.5923
-6.5509 -1.7428 1.5923
-6.4845 -1.9776 1.5923
-6.0562 -2.0880 1.5044
-6.0437 -2.3303 1.5210
-6.0184 -2.5730 1.5369
-5.9926 -2.8212 1.5551
-5.9714 -3.0785 1.5772
-5.9133 -3.3232 1.5923
-5.7904 -3.5341 1.5923
-5.7382 -3.7923 1.6143
-5.7026 -4.0710 1.6443
-5.6720 -4.3656 1.6796
-5.5634 -4.6101 1.6954
-5.3943 -4.8077 1.6954
-5.2182 -4.9991 1.6954
-5.0352 -5.1840 1.6954
-4.8458 -5.3623 1.6954
-4.6500 -5.5336 1.6954
-4.4481 -5.6977 1.6954
-4.2404 -5.8544 1.6954
-4.0273 -6.0036 1.6954
-3.8088 -6.1450 1.6954
-3.5854 -6.2784 1.6954
-3.3573 -6.4037 1.6954
-3.1248 -6.5207 1.6954
-2.8883 -6.6292 1.6954
-2.6480 -6.7291 1.6954
-2.4042 -6.8203 1.6954
-2.1573 -6.9027 1.6954
-1.9076 -6.9760 1.6954
-1.6553 -7.0404 1.6954
-1.4009 -7.0956 1.6954
-1.1447 -7.1415 1.6954
-0.8870 -7.1782 1.6954
-0.6281 -7.2056 1.6954
-0.3684 -7.2236 1.6954
-0.1082 -7.2323 1.6954
0.1521 -7.2315 1.6954
0.4122 -7.2214 1.6954
0.6718 -7.2018 1.6954
0.9305 -7.1730 1.6954
1.1880 -7.1348 1.6954
1.4440 -7.0873 1.6954
1.6981 -7.0306 1.6954
1.9499 -6.9648 1.6954
2.1993 -6.8900 1.6954
2.4457 -6.8062 1.6954
2.6523 -6.6219 1.6722
2.7504 -6.2095 1.5921
2.9719 -6.1063 1.5921
3.1896 -5.9952 1.5921
3.4032 -5.8763 1.5921
3.6122 -5.7497 1.5921
3.8166 -5.6157 1.5921
3.2713 -4.4592 1.2968
3.4394 -4.3510 1.3006
4.3989 -5.1708 1.5921
4.5818 -5.0089 1.5921
4.7588 -4.8404 1.5921
4.9296 -4.6657 1.5921
5.0940 -4.4850 1.5921
5.2517 -4.2985 1.5921
5.4026 -4.1064 1.5921
5.5465 -3.9090 1.5921
5.6831 -3.7066 1.5921
5.8123 -3.4994 1.5921
5.9340 -3.2877 1.5921
6.0480 -3.0717 1.5921
6.1541 -2.8519 1.5921
6.2522 -2.6283 1.5921
6.3551 -2.4063 1.5954
6.4370 -2.1758 1.5954
6.5106 -1.9426 1.5954
6.5756 -1.7068 1.5954
6.6322 -1.4689 1.5954
6.6801 -1.2292 1.5954
6.7194 -0.9879 1.5954
6.7500 -0.7453 1.5954
6.7718 -0.5019 1.5954
6.7848 -0.2578 1.5954
6.7890 -0.0135 1.5954
6.7844 0.2309 1.5954
6.7711 0.4748 1.5954
6.7489 0.7182 1.5954
0.0101 1.9295 0.5008
-0.0593 1.9287 0.5008
-0.1287 1.9254 0.5009
-0.1980 1.9197 0.5009
-0.2670 1.9116 0.5010
-0.3357 1.9010 0.5011
-0.4040 1.8881 0.5012
-0.4718 1.8728 0.5013
-0.5390 1.8551 0.5014
-0.6057 1.8351 0.5015
-0.6715 1.8127 0.5017
-0.7366 1.7881 0.5019
-0.8009 1.7611 0.5021
-2.9167 5.8458 1.6954
-3.1253 5.7372 1.6954
-3.3300 5.6212 1.6954
-3.5303 5.4979 1.6954
-3.7261 5.3675 1.6954
-3.9170 5.2302 1.6954
-4.1030 5.0861 1.6954
-4.2836 4.9353 1.6954
-4.4588 4.7782 1.6954
-4.6281 4.6149 1.6954
-4.7915 4.4456 1.6954
-4.9488 4.2705 1.6954
-5.0996 4.0899 1.6954
-5.2439 3.9040 1.6954
-5.3814 3.7129 1.6954
-5.5119 3.5171 1.6954
-5.6354 3.3167 1.6954
-5.7515 3.1119 1.6954
-5.8602 2.9031 1.6954
-5.9614 2.6905 1.6954
-6.0549 2.4744 1.6954
-6.1405 2.2550 1.6954
-6.2182 2.0327 1.6954
-6.2879 1.8077 1.6954
-6.2893 1.5654 1.6793
-6.2639 1.3217 1.6586
-6.2395 1.0836 1.6406
-6.2187 0.8507 1.6259
-6.1978 0.6215 1.6134
-6.1767 0.3955 1.6030
-6.1553 0.1721 1.5947
-6.1489 -0.0495 1.5923
-6.1436 -0.2708 1.5923
-6.1304 -0.4918 1.5923
-6.1093 -0.7121 1.5923
-6.0803 -0.9316 1.5923
-6.0434 -1.1500 1.5923
-5.9986 -1.3668 1.5923
-5.9711 -1.5886 1.5990
-5.9455 -1.8133 1.6084
-5.9191 -2.0409 1.6200
-5.8919 -2.2719 1.6337
-5.8654 -2.5077 1.6502
-5.8402 -2.7496 1.6698
-5.8144 -2.9976 1.6920
-5.7145 -3.2115 1.6954
-5.5957 -3.4154 1.6954
-5.4695 -3.6148 1.6954
-5.3363 -3.8096 1.6954
-5.1962 -3.9995 1.6954
-5.0492 -4.1842 1.6954
-4.8957 -4.3635 1.6954
-4.7358 -4.5372 1.6954
-4.5698 -4.7050 1.6954
-4.3978 -4.8667 1.6954
-4.2201 -5.0221 1.6954
-4.0369 -5.1710 1.6954
-3.8484 -5.3132 1.6954
-3.6549 -5.4486 1.6954
-3.4566 -5.5769 1.6954
-3.2539 -5.6979 1.6954
-3.0469 -5.8116 1.6954
-2.8359 -5.9178 1.6954
-2.6212 -6.0162 1.6954
-2.4031 -6.1069 1.6954
-2.1818 -6.1896 1.6954
-1.9578 -6.2643 1.6954
-1.7311 -6.3309 1.6954
-1.5022 -6.3893 1.6954
-1.2714 -6.4393 1.6954
-1.0388 -6.4811 1.6954
-0.8050 -6.5143 1.6954
-0.5700 -6.5392 1.6954
-0.3343 -6.5555 1.6954
-0.0982 -6.5634 1.6954
0.1380 -6.5627 1.6954
0.3741 -6.5535 1.6954
0.6097 -6.5358 1.6954
0.8445 -6.5095 1.6954
1.0782 -6.4749 1.6954
1.3104 -6.4318 1.6954
1.5410 -6.3804 1.6954
1.7696 -6.3207 1.6954
1.9959 -6.2528 1.6954
2.2195 -6.1768 1.6954
2.4403 -6.0927 1.6954
2.5675 -5.7968 1.6377
2.6971 -5.5417 1.5921
2.8946 -5.4408 1.5921
3.0884 -5.3329 1.5921
3.2782 -5.2181 1.5921
3.4637 -5.0965 1.5921
3.2648 -4.4505 1.4262
3.4352 -4.3458 1.4314
3.9922 -4.6928 1.5921
4.1582 -4.5459 1.5921
4.3189 -4.3930 1.5921
4.4739 -4.2345 1.5921
4.6231 -4.0705 1.5921
4.7663 -3.9013 1.5921
4.9033 -3.7269 1.5921
5.0339 -3.5478 1.5921
5.1579 -3.3641 1.5921
5.2752 -3.1761 1.5921
5.3857 -2.9840 1.5921
5.4892 -2.7880 1.5921
5.5855 -2.5885 1.5921
5.6746 -2.3856 1.5921
5.7563 -2.1796 1.5921
5.8306 -1.9709 1.5921
5.8972 -1.7596 1.5921
5.9562 -1.5461 1.5921
6.0075 -1.3307 1.5921
6.0510 -1.1135 1.5921
6.0866 -0.8949 1.5921
6.1268 -0.6766 1.5954
6.1466 -0.4556 1.5954
6.1585 -0.2341 1.5954
6.1624 -0.0123 1.5954
6.1583 0.2095 1.5954
6.1462 0.4309 1.5954
6.1262 0.6518 1.5954
0.0093 1.7690 0.5020
-0.0544 1.7683 0.5020
-0.1180 1.7652 0.5020
-0.1815 1.7600 0.5020
-0.2448 1.7525 0.5021
-0.3077 1.7429 0.5022
-0.3703 1.7310 0.5023
-0.4325 1.7169 0.5024
-0.4942 1.7006 0.5025
-0.5552 1.6822 0.5026
-0.6156 1.6617 0.5028
-0.6753 1.6390 0.5029
-0.7341 1.6143 0.5031
-0.7921 1.5875 0.5033
-2.8589 5.2481 1.6954
-3.0461 5.1420 1.6954
-3.2294 5.0292 1.6954
-3.4084 4.9099 1.6954
-3.5831 4.7842 1.6954
-3.7532 4.6524 1.6954
-3.9184 4.5145 1.6954
-4.0786 4.3708 1.6954
-4.2335 4.2214 1.6954
-4.3830 4.0665 1.6954
-4.5268 3.9063 1.6954
-4.6647 3.7410 1.6954
-4.7967 3.5709 1.6954
-4.9224 3.3962 1.6954
-5.0418 3.2170 1.6954
-5.1547 3.0337 1.6954
-5.2609 2.8464 1.6954
-5.3603 2.6554 1.6954
-5.4528 2.4609 1.6954
-5.5383 2.2632 1.6954
-5.6166 2.0625 1.6954
-5.6876 1.8592 1.6954
-5.7513 1.6534 1.6954
-5.8075 1.4454 1.6954
-5.8563 1.2356 1.6954
-5.8974 1.0241 1.6954
-5.9309 0.8112 1.6954
-5.9568 0.5973 1.6954
-5.9749 0.3825 1.6954
-5.9853 0.1673 1.6954
-5.9879 -0.0483 1.6954
-5.9828 -0.2638 1.6954
-5.9699 -0.4790 1.6954
-5.9493 -0.6936 1.6954
-5.9210 -0.9073 1.6954
-5.8850 -1.1199 1.6954
-5.8413 -1.3311 1.6954
-5.7901 -1.5406 1.6954
-5.7314 -1.7481 1.6954
-5.6652 -1.9534 1.6954
-5.5917 -2.1562 1.6954
-5.5109 -2.3562 1.6954
-5.4229 -2.5532 1.6954
-5.3279 -2.7469 1.6954
-5.2260 -2.9371 1.6954
-5.1173 -3.1235 1.6954
-5.0020 -3.3059 1.6954
-4.8801 -3.4840 1.6954
-4.7519 -3.6576 1.6954
-4.6175 -3.8265 1.6954
-4.4771 -3.9905 1.6954
-4.3309 -4.1492 1.6954
-4.1790 -4.3027 1.6954
-4.0217 -4.4505 1.6954
-3.8592 -4.5926 1.6954
-3.6916 -4.7288 1.6954
-3.5192 -4.8588 1.6954
-3.3422 -4.9826 1.6954
-3.1609 -5.0999 1.6954
-2.9755 -5.2106 1.6954
-2.7862 -5.3145 1.6954
-2.5932 -5.4115 1.6954
-2.3969 -5.5016 1.6954
-2.1975 -5.5845 1.6954
-1.9952 -5.6601 1.6954
-1.7902 -5.7284 1.6954
-1.5830 -5.7893 1.6954
-1.3737 -5.8426 1.6954
-1.1626 -5.8884 1.6954
-0.9499 -5.9265 1.6954
-0.7361 -5.9570 1.6954
-0.5212 -5.9797 1.6954
-0.3057 -5.9946 1.6954
-0.0898 -6.0018 1.6954
0.1262 -6.0011 1.6954
0.3421 -5.9927 1.6954
0.5575 -5.9765 1.6954
0.7722 -5.9526 1.6954
0.9859 -5.9209 1.6954
1.1983 -5.8815 1.6954
1.4092 -5.8345 1.6954
1.6182 -5.7799 1.6954
1.8251 -5.7178 1.6954
2.0296 -5.6483 1.6954
2.2315 -5.5715 1.6954
2.4305 -5.4874 1.6954
2.5052 -5.1475 1.6172
2.6470 -4.9754 1.5921
2.8242 -4.8767 1.5921
2.9977 -4.7717 1.5921
3.1674 -4.6606 1.5921
3.2584 -4.4418 1.5565
3.4311 -4.3406 1.5634
3.6507 -4.2915 1.5921
3.8026 -4.1571 1.5921
3.9495 -4.0174 1.5921
4.0913 -3.8724 1.5921
4.2277 -3.7225 1.5921
4.3587 -3.5677 1.5921
4.4840 -3.4083 1.5921
4.6034 -3.2445 1.5921
4.7169 -3.0766 1.5921
4.8242 -2.9046 1.5921
4.9253 -2.7290 1.5921
5.0200 -2.5498 1.5921
5.1081 -2.3673 1.5921
5.1896 -2.1818 1.5921
5.2643 -1.9934 1.5921
5.3323 -1.8025 1.5921
5.3933 -1.6094 1.5921
5.4473 -1.4141 1.5921
5.4942 -1.2171 1.5921
5.5340 -1.0185 1.5921
5.5666 -0.8186 1.5921
5.5920 -0.6176 1.5921
5.6101 -0.4160 1.5921
5.6210 -0.2138 1.5921
5.6246 -0.0113 1.5921
5.6209 0.1911 1.5921
5.6099 0.3932 1.5921
5.5917 0.5949 1.5921
0.0086 1.6316 0.5029
-0.0502 1.6309 0.5029
-0.1089 1.6281 0.5030
-0.1674 1.6232 0.5030
-0.2257 1.6163 0.5030
-0.2838 1.6074 0.5031
-0.3416 1.5964 0.5032
-0.3989 1.5834 0.5033
-0.4557 1.5684 0.5034
-0.5120 1.5514 0.5035
-0.5677 1.5324 0.5037
-0.6227 1.5114 0.5038
-0.6769 1.4886 0.5040
-0.7304 1.4638 0.5041
-0.7829 1.4371 0.5043
-0.8345 1.4086 0.5045
-2.9727 4.6294 1.6954
-3.1376 4.5196 1.6954
-3.2984 4.4039 1.6954
-3.4549 4.2825 1.6954
-3.6070 4.1556 1.6954
-3.7544 4.0233 1.6954
-3.8970 3.8857 1.6954
-4.0345 3.7431 1.6954
-4.1669 3.5957 1.6954
-4.2939 3.4435 1.6954
-4.4153 3.2869 1.6954
-4.5310 3.1261 1.6954
-4.6409 2.9611 1.6954
-4.7448 2.7923 1.6954
-4.8425 2.6199 1.6954
-4.9340 2.4441 1.6954
-5.0191 2.2651 1.6954
-5.0977 2.0831 1.6954
-5.1698 1.8984 1.6954
-5.2351 1.7112 1.6954
-5.2937 1.5218 1.6954
-5.3455 1.3304 1.6954
-5.3903 1.1372 1.6954
-5.4281 0.9425 1.6954
-5.4589 0.7466 1.6954
-5.4827 0.5497 1.6954
-5.4993 0.3520 1.6954
-5.5089 0.1539 1.6954
-5.5113 -0.0445 1.6954
-5.5065 -0.2429 1.6954
-5.4946 -0.4409 1.6954
-5.4756 -0.6384 1.6954
-5.4495 -0.8352 1.6954
-5.4164 -1.0308 1.6954
-5.3762 -1.2252 1.6954
-5.3290 -1.4180 1.6954
-5.2749 -1.6090 1.6954
-5.2140 -1.7979 1.6954
-5.1462 -1.9845 1.6954
-5.0719 -2.1686 1.6954
-4.9909 -2.3499 1.6954
-4.9034 -2.5282 1.6954
-4.8096 -2.7032 1.6954
-4.7096 -2.8747 1.6954
-4.6034 -3.0425 1.6954
-4.4912 -3.2064 1.6954
-4.3732 -3.3662 1.6954
-4.2495 -3.5216 1.6954
-4.1202 -3.6725 1.6954
-3.9856 -3.8186 1.6954
-3.8459 -3.9598 1.6954
-3.7011 -4.0958 1.6954
-3.5515 -4.2266 1.6954
-3.3973 -4.3519 1.6954
-3.2386 -4.4715 1.6954
-3.0758 -4.5854 1.6954
-2.9089 -4.6933 1.6954
-2.7382 -4.7952 1.6954
-2.5640 -4.8908 1.6954
-2.3864 -4.9801 1.6954
-2.2058 -5.0629 1.6954
-2.0222 -5.1392 1.6954
-1.8360 -5.2088 1.6954
-1.6474 -5.2716 1.6954
-1.4567 -5.3276 1.6954
-1.2641 -5.3767 1.6954
-1.0698 -5.4188 1.6954
-0.8742 -5.4539 1.6954
-0.6774 -5.4819 1.6954
-0.4797 -5.5028 1.6954
-0.2813 -5.5165 1.6954
-0.0827 -5.5231 1.6954
0.1161 -5.5226 1.6954
0.3148 -5.5148 1.6954
0.5130 -5.4999 1.6954
0.7106 -5.4778 1.6954
0.9073 -5.4487 1.6954
1.1027 -5.4125 1.6954
1.2968 -5.3692 1.6954
1.4891 -5.3190 1.6954
1.6795 -5.2618 1.6954
1.8677 -5.1979 1.6954
2.0535 -5.1272 1.6954
2.2366 -5.0498 1.6954
2.4168 -4.9659 1.6954
2.4529 -4.6107 1.6032
2.5990 -4.4879 1.5921
2.7587 -4.3913 1.5921
2.9148 -4.2890 1.5921
3.0671 -4.1812 1.5921
3.2155 -4.0679 1.5921
3.3596 -3.9494 1.5921
3.4994 -3.8258 1.5921
3.6346 -3.6972 1.5921
3.7651 -3.5638 1.5921
3.8907 -3.4258 1.5921
4.0112 -3.2834 1.5921
4.1266 -3.1367 1.5921
4.2365 -2.9860 1.5921
4.3410 -2.8315 1.5921
4.4398 -2.6732 1.5921
4.5328 -2.5116 1.5921
4.6199 -2.3467 1.5921
4.7011 -2.1787 1.5921
4.7761 -2.0080 1.5921
4.8450 -1.8347 1.5921
4.9075 -1.6590 1.5921
4.9636 -1.4812 1.5921
5.0134 -1.3015 1.5921
5.0566 -1.1202 1.5921
5.0932 -0.9374 1.5921
5.1233 -0.7534 1.5921
5.1467 -0.5685 1.5921
5.1634 -0.3829 1.5921
5.1735 -0.1968 1.5921
5.1768 -0.0105 1.5921
5.1734 0.1758 1.5921
5.1633 0.3619 1.5921
5.1466 0.5474 1.5921
0.0079 1.5124 0.5038
-0.0465 1.5117 0.5038
-0.1009 1.5092 0.5038
-0.1552 1.5047 0.5038
-0.2093 1.4983 0.5039
-0.2631 1.4899 0.5039
-0.3166 1.4797 0.5040
-0.3697 1.4677 0.5041
-0.4224 1.4537 0.5042
-0.4746 1.4379 0.5043
-0.5262 1.4203 0.5044
-0.5771 1.4008 0.5046
-0.6274 1.3796 0.5047
-0.6769 1.3566 0.5049
-0.7256 1.3319 0.5051
-0.7734 1.3054 0.5053
-0.8202 1.2773 0.5055
-2.9036 4.1825 1.6954
-3.0524 4.0754 1.6954
-3.1972 3.9631 1.6954
-3.3380 3.8456 1.6954
-3.4744 3.7231 1.6954
-3.6063 3.5958 1.6954
-3.7336 3.4638 1.6954
-3.8561 3.3274 1.6954
-3.9735 3.1866 1.6954
-4.0859 3.0416 1.6954
-4.1930 2.8928 1.6954
-4.2946 2.7401 1.6954
-4.3907 2.5839 1.6954
-4.4812 2.4244 1.6954
-4.5658 2.2616 1.6954
-4.6446 2.0960 1.6954
-4.7173 1.9275 1.6954
-4.7839 1.7566 1.6954
-4.8444 1.5834 1.6954
-4.8986 1.4081 1.6954
-4.9464 1.2310 1.6954
-4.9879 1.0522 1.6954
-5.0229 0.8721 1.6954
-5.0513 0.6908 1.6954
-5.0733 0.5085 1.6954
-5.0887 0.3256 1.6954
-5.0975 0.1423 1.6954
-5.0997 -0.0413 1.6954
-5.0952 -0.2248 1.6954
-5.0842 -0.4081 1.6954
-5.0666 -0.5908 1.6954
-5.0424 -0.7728 1.6954
-5.0117 -0.9539 1.6954
-4.9745 -1.1337 1.6954
-4.9308 -1.3121 1.6954
-4.8807 -1.4888 1.6954
-4.8243 -1.6636 1.6954
-4.7617 -1.8363 1.6954
-4.6928 -2.0066 1.6954
-4.6179 -2.1743 1.6954
-4.5369 -2.3393 1.6954
-4.4501 -2.5012 1.6954
-4.3575 -2.6599 1.6954
-4.2592 -2.8151 1.6954
-4.1554 -2.9668 1.6954
-4.0462 -3.1146 1.6954
-3.9317 -3.2584 1.6954
-3.8121 -3.3979 1.6954
-3.6876 -3.5331 1.6954
-3.5583 -3.6637 1.6954
-3.4243 -3.7896 1.6954
-3.2859 -3.9106 1.6954
-3.1432 -4.0265 1.6954
-2.9964 -4.1372 1.6954
-2.8457 -4.2425 1.6954
-2.6913 -4.3423 1.6954
-2.5334 -4.4366 1.6954
-2.3722 -4.5250 1.6954
-2.2079 -4.6076 1.6954
-2.0407 -4.6842 1.6954
-1.8709 -4.7548 1.6954
-1.6987 -4.8192 1.6954
-1.5242 -4.8773 1.6954
-1.3477 -4.9291 1.6954
-1.1695 -4.9745 1.6954
-0.9898 -5.0135 1.6954
-0.8087 -5.0459 1.6954
-0.6267 -5.0718 1.6954
-0.4438 -5.0911 1.6954
-0.2603 -5.1039 1.6954
-0.0765 -5.1100 1.6954
0.1075 -5.1094 1.6954
0.2913 -5.1022 1.6954
0.4747 -5.0884 1.6954
0.6575 -5.0680 1.6954
0.8394 -5.0411 1.6954
1.0202 -5.0075 1.6954
1.1997 -4.9675 1.6954
1.3777 -4.9211 1.6954
1.5539 -4.8682 1.6954
1.7280 -4.8091 1.6954
1.8999 -4.7437 1.6954
2.0693 -4.6721 1.6954
2.2360 -4.5945 1.6954
2.3998 -4.5109 1.6954
2.4081 -4.1584 1.5944
2.5523 -4.0629 1.5921
2.6968 -3.9683 1.5921
2.8377 -3.8685 1.5921
2.9750 -3.7637 1.5921
3.1083 -3.6541 1.5921
3.2377 -3.5397 1.5921
3.3628 -3.4207 1.5921
3.4835 -3.2973 1.5921
3.5997 -3.1697 1.5921
3.7113 -3.0379 1.5921
3.8180 -2.9023 1.5921
3.9198 -2.7628 1.5921
4.0164 -2.6198 1.5921
4.1078 -2.4734 1.5921
4.1939 -2.3239 1.5921
4.2746 -2.1713 1.5921
4.3497 -2.0159 1.5921
4.4191 -1.8580 1.5921
4.4828 -1.6976 1.5921
4.5407 -1.5351 1.5921
4.5927 -1.3706 1.5921
4.6387 -1.2043 1.5921
4.6787 -1.0366 1.5921
4.7127 -0.8674 1.5921
4.7405 -0.6972 1.5921
4.7622 -0.5261 1.5921
4.7777 -0.3544 1.5921
4.7870 -0.1822 1.5921
4.7901 -0.0098 1.5921
4.7870 0.1626 1.5921
4.7777 0.3348 1.5921
4.7622 0.5065 1.5921
0.0074 1.4080 0.5045
-0.0433 1.4074 0.5045
-0.0939 1.4050 0.5045
-0.1445 1.4008 0.5045
-0.1948 1.3948 0.5046
-0.2449 1.3871 0.5046
-0.2947 1.3776 0.5047
-0.3442 1.3663 0.5048
-0.3932 1.3533 0.5049
-0.4418 1.3386 0.5050
-0.4898 1.3221 0.5051
-0.5373 1.3040 0.5053
-0.5840 1.2842 0.5054
-0.6301 1.2628 0.5055
-0.6754 1.2397 0.5057
-0.7198 1.2151 0.5059
-0.7634 1.1888 0.5061
-0.8061 1.1611 0.5063
-2.8375 3.7885 1.6954
-2.9722 3.6841 1.6954
-3.1030 3.5749 1.6954
-3.2298 3.4610 1.6954
-3.3525 3.3426 1.6954
-3.4708 3.2199 1.6954
-3.5846 3.0931 1.6954
-3.6938 2.9622 1.6954
-3.7983 2.8274 1.6954
-3.8978 2.6890 1.6954
-3.9922 2.5471 1.6954
-4.0816 2.4019 1.6954
-4.1656 2.2536 1.6954
-4.2443 2.1023 1.6954
-4.3175 1.9483 1.6954
-4.3851 1.7917 1.6954
-4.4470 1.6328 1.6954
-4.5032 1.4718 1.6954
-4.5535 1.3089 1.6954
-4.5980 1.1442 1.6954
-4.6365 0.9780 1.6954
-4.6690 0.8106 1.6954
-4.6955 0.6420 1.6954
-4.7158 0.4726 1.6954
-4.7301 0.3026 1.6954
-4.7383 0.1322 1.6954
-4.7403 -0.0384 1.6954
-4.7362 -0.2090 1.6954
-4.7259 -0.3794 1.6954
-4.7095 -0.5492 1.6954
-4.6870 -0.7184 1.6954
-4.6584 -0.8867 1.6954
-4.6238 -1.0539 1.6954
-4.5832 -1.2197 1.6954
-4.5366 -1.3839 1.6954
-4.4842 -1.5464 1.6954
-4.4259 -1.7069 1.6954
-4.3619 -1.8652 1.6954
-4.2922 -2.0211 1.6954
-4.2170 -2.1744 1.6954
-4.1363 -2.3249 1.6954
-4.0501 -2.4724 1.6954
-3.9588 -2.6167 1.6954
-3.8623 -2.7576 1.6954
-3.7608 -2.8950 1.6954
-3.6544 -3.0286 1.6954
-3.5432 -3.1583 1.6954
-3.4274 -3.2839 1.6954
-3.3072 -3.4053 1.6954
-3.1827 -3.5223 1.6954
-3.0540 -3.6347 1.6954
-2.9214 -3.7424 1.6954
-2.7849 -3.8453 1.6954
-2.6449 -3.9432 1.6954
-2.5014 -4.0360 1.6954
-2.3546 -4.1235 1.6954
-2.2048 -4.2057 1.6954
-2.0521 -4.2825 1.6954
-1.8967 -4.3537 1.6954
-1.7389 -4.4192 1.6954
-1.5788 -4.4791 1.6954
-1.4166 -4.5331 1.6954
-1.2526 -4.5812 1.6954
-1.0870 -4.6234 1.6954
-0.9199 -4.6596 1.6954
-0.7517 -4.6898 1.6954
-0.5824 -4.7139 1.6954
-0.4124 -4.7318 1.6954
-0.2419 -4.7436 1.6954
-0.0711 -4.7493 1.6954
0.0999 -4.7488 1.6954
0.2707 -4.7421 1.6954
0.4411 -4.7293 1.6954
0.6110 -4.7104 1.6954
0.7801 -4.6853 1.6954
0.9482 -4.6541 1.6954
1.1151 -4.6170 1.6954
1.2805 -4.5738 1.6954
1.4442 -4.5247 1.6954
1.6060 -4.4697 1.6954
1.7658 -4.4089 1.6954
1.9232 -4.3424 1.6954
2.0782 -4.2703 1.6954
2.2304 -4.1926 1.6954
2.3798 -4.1095 1.6954
2.3722 -3.7762 1.5921
2.5065 -3.6883 1.5921
2.6375 -3.5956 1.5921
2.7650 -3.4982 1.5921
2.8890 -3.3963 1.5921
3.0092 -3.2900 1.5921
3.1255 -3.1794 1.5921
3.2377 -3.0647 1.5921
3.3458 -2.9461 1.5921
3.4494 -2.8237 1.5921
3.5486 -2.6976 1.5921
3.6432 -2.5680 1.5921
3.7331 -2.4351 1.5921
3.8181 -2.2990 1.5921
3.8981 -2.1600 1.5921
3.9731 -2.0182 1.5921
4.0429 -1.8738 1.5921
4.1075 -1.7270 1.5921
4.1667 -1.5780 1.5921
4.2205 -1.4269 1.5921
4.2689 -1.2740 1.5921
4.3117 -1.1195 1.5921
4.3489 -0.9635 1.5921
4.3804 -0.8064 1.5921
4.4063 -0.6481 1.5921
4.4265 -0.4891 1.5921
4.4409 -0.3295 1.5921
4.4496 -0.1694 1.5921
4.4525 -0.0092 1.5921
4.4497 0.1511 1.5921
4.4410 0.3111 1.5921
4.4267 0.4707 1.5921
0.0069 1.3157 0.5051
-0.0404 1.3152 0.5051
-0.0878 1.3129 0.5052
-0.1350 1.3090 0.5052
-0.1820 1.3034 0.5052
-0.2289 1.2961 0.5053
-0.2754 1.2872 0.5054
-0.3216 1.2767 0.5054
-0.3675 1.2645 0.5055
-0.4128 1.2507 0.5056
-0.4577 1.2354 0.5057
-0.5020 1.2184 0.5058
-0.5457 1.1999 0.5060
-0.5887 1.1798 0.5061
-0.6310 1.1583 0.5063
-0.6725 1.1352 0.5064
-0.7132 1.1107 0.5066
-0.7530 1.0847 0.5068
-0.7919 1.0573 0.5070
-0.8298 1.0286 0.5072
-2.8959 3.3362 1.6954
-3.0142 3.2299 1.6954
-3.1287 3.1194 1.6954
-3.2391 3.0049 1.6954
-3.3453 2.8865 1.6954
-3.4472 2.7643 1.6954
-3.5446 2.6386 1.6954
-3.6375 2.5094 1.6954
-3.7257 2.3770 1.6954
-3.8090 2.2415 1.6954
-3.8875 2.1030 1.6954
-3.9609 1.9618 1.6954
-4.0291 1.8181 1.6954
-4.0922 1.6720 1.6954
-4.1500 1.5237 1.6954
-4.2024 1.3734 1.6954
-4.2494 1.2214 1.6954
-4.2908 1.0677 1.6954
-4.3268 0.9126 1.6954
-4.3571 0.7563 1.6954
-4.3818 0.5991 1.6954
-4.4008 0.4410 1.6954
-4.4141 0.2823 1.6954
-4.4217 0.1233 1.6954
-4.4235 -0.0359 1.6954
-4.4196 -0.1951 1.6954
-4.4100 -0.3541 1.6954
-4.3947 -0.5126 1.6954
-4.3737 -0.6705 1.6954
-4.3470 -0.8275 1.6954
-4.3147 -0.9835 1.6954
-4.2768 -1.1382 1.6954
-4.2333 -1.2915 1.6954
-4.1844 -1.4431 1.6954
-4.1300 -1.5928 1.6954
-4.0702 -1.7405 1.6954
-4.0052 -1.8860 1.6954
-3.9350 -2.0290 1.6954
-3.8596 -2.1694 1.6954
-3.7793 -2.3071 1.6954
-3.6940 -2.4417 1.6954
-3.6040 -2.5732 1.6954
-3.5092 -2.7014 1.6954
-3.4099 -2.8261 1.6954
-3.3062 -2.9471 1.6954
-3.1981 -3.0643 1.6954
-3.0859 -3.1776 1.6954
-2.9697 -3.2867 1.6954
-2.8497 -3.3916 1.6954
-2.7259 -3.4921 1.6954
-2.5986 -3.5881 1.6954
-2.4679 -3.6794 1.6954
-2.3340 -3.7660 1.6954
-2.1970 -3.8476 1.6954
-2.0572 -3.9243 1.6954
-1.9147 -3.9960 1.6954
-1.7698 -4.0624 1.6954
-1.6225 -4.1236 1.6954
-1.4731 -4.1794 1.6954
-1.3218 -4.2298 1.6954
-1.1688 -4.2747 1.6954
-1.0142 -4.3141 1.6954
-0.8583 -4.3478 1.6954
-0.7013 -4.3760 1.6954
-0.5434 -4.3984 1.6954
-0.3848 -4.4152 1.6954
-0.2257 -4.4262 1.6954
-0.0663 -4.4315 1.6954
0.0932 -4.4310 1.6954
0.2526 -4.4248 1.6954
0.4116 -4.4128 1.6954
0.5701 -4.3951 1.6954
0.7279 -4.3717 1.6954
0.8847 -4.3427 1.6954
1.0404 -4.3080 1.6954
1.1947 -4.2677 1.6954
1.3475 -4.2219 1.6954
1.4985 -4.1706 1.6954
1.6476 -4.1139 1.6954
1.7945 -4.0518 1.6954
1.9391 -3.9846 1.6954
2.0812 -3.9121 1.6954
2.2205 -3.8346 1.6954
2.3529 -3.7455 1.6924
2.3387 -3.4415 1.5921
2.4610 -3.3550 1.5921
2.5800 -3.2642 1.5921
2.6957 -3.1691 1.5921
2.8079 -3.0699 1.5921
2.9164 -2.9668 1.5921
3.0211 -2.8598 1.5921
3.1219 -2.7491 1.5921
3.2187 -2.6348 1.5921
3.3112 -2.5172 1.5921
3.3995 -2.3963 1.5921
3.4834 -2.2723 1.5921
3.5627 -2.1453 1.5921
3.6374 -2.0156 1.5921
3.7073 -1.8833 1.5921
3.7725 -1.7486 1.5921
3.8328 -1.6116 1.5921
3.8881 -1.4725 1.5921
3.9383 -1.3316 1.5921
3.9834 -1.1889 1.5921
4.0234 -1.0447 1.5921
4.0581 -0.8992 1.5921
4.0876 -0.7525 1.5921
4.1118 -0.6049 1.5921
4.1306 -0.4565 1.5921
4.1441 -0.3075 1.5921
4.1522 -0.1581 1.5921
4.1549 -0.0086 1.5921
4.1523 0.1409 1.5921
4.1442 0.2903 1.5921
4.1308 0.4392 1.5921
0.0065 1.2335 0.5057
-0.0379 1.2329 0.5057
-0.0823 1.2308 0.5057
-0.1265 1.2271 0.5058
-0.1707 1.2219 0.5058
-0.2146 1.2151 0.5059
-0.2582 1.2067 0.5059
-0.3015 1.1968 0.5060
-0.3445 1.1854 0.5061
-0.3870 1.1725 0.5062
-0.4290 1.1580 0.5063
-0.4706 1.1421 0.5064
-0.5115 1.1247 0.5065
-0.5518 1.1059 0.5066
-0.5915 1.0857 0.5068
-0.6304 1.0640 0.5069
-0.6685 1.0410 0.5071
-0.7058 1.0167 0.5073
-0.7422 0.9910 0.5075
-0.7778 0.9640 0.5076
-0.8123 0.9358 0.5078
-2.8225 3.0244 1.6954
-2.9297 2.9210 1.6954
-3.0331 2.8137 1.6954
-3.1325 2.7029 1.6954
-3.2279 2.5885 1.6954
-3.3192 2.4707 1.6954
-3.4061 2.3497 1.6954
-3.4887 2.2257 1.6954
-3.5667 2.0988 1.6954
-3.6402 1.9692 1.6954
-3.7089 1.8370 1.6954
-3.7728 1.7024 1.6954
-3.8318 1.5656 1.6954
-3.8859 1.4267 1.6954
-3.9350 1.2860 1.6954
-3.9790 1.1436 1.6954
-4.0178 0.9997 1.6954
-4.0514 0.8545 1.6954
-4.0798 0.7081 1.6954
-4.1029 0.5609 1.6954
-4.1206 0.4129 1.6954
-4.1331 0.2643 1.6954
-4.1402 0.1154 1.6954
-4.1419 -0.0337 1.6954
-4.1383 -0.1828 1.6954
-4.1292 -0.3316 1.6954
-4.1149 -0.4800 1.6954
-4.0952 -0.6279 1.6954
-4.0702 -0.7749 1.6954
-4.0399 -0.9209 1.6954
-4.0044 -1.0658 1.6954
-3.9637 -1.2093 1.6954
-3.9178 -1.3512 1.6954
-3.8669 -1.4914 1.6954
-3.8110 -1.6297 1.6954
-3.7500 -1.7659 1.6954
-3.6843 -1.8998 1.6954
-3.6137 -2.0313 1.6954
-3.5385 -2.1602 1.6954
-3.4586 -2.2862 1.6954
-3.3743 -2.4093 1.6954
-3.2856 -2.5293 1.6954
-3.1926 -2.6460 1.6954
-3.0955 -2.7593 1.6954
-2.9943 -2.8691 1.6954
-2.8893 -2.9751 1.6954
-2.7805 -3.0773 1.6954
-2.6680 -3.1755 1.6954
-2.5521 -3.2696 1.6954
-2.4329 -3.3594 1.6954
-2.3106 -3.4449 1.6954
-2.1852 -3.5260 1.6954
-2.0570 -3.6024 1.6954
-1.9261 -3.6742 1.6954
-1.7927 -3.7413 1.6954
-1.6569 -3.8035 1.6954
-1.5190 -3.8607 1.6954
-1.3792 -3.9130 1.6954
-1.2375 -3.9602 1.6954
-1.0942 -4.0022 1.6954
-0.9495 -4.0391 1.6954
-0.8036 -4.0707 1.6954
-0.6566 -4.0970 1.6954
-0.5088 -4.1180 1.6954
-0.3603 -4.1337 1.6954
-0.2113 -4.1440 1.6954
-0.0621 -4.1490 1.6954
0.0873 -4.1485 1.6954
0.2365 -4.1427 1.6954
0.3854 -4.1315 1.6954
0.5338 -4.1150 1.6954
0.6815 -4.0931 1.6954
0.8283 -4.0659 1.6954
0.9741 -4.0334 1.6954
1.1186 -3.9957 1.6954
1.2616 -3.9528 1.6954
1.4030 -3.9048 1.6954
1.5426 -3.8517 1.6954
1.6801 -3.7936 1.6954
1.8155 -3.7306 1.6954
1.9485 -3.6628 1.6954
2.0790 -3.5902 1.6954
2.2067 -3.5129 1.6954
2.3181 -3.4112 1.6855
2.3041 -3.1412 1.5921
2.4156 -3.0562 1.5921
2.5239 -2.9671 1.5921
2.6289 -2.8743 1.5921
2.7305 -2.7777 1.5921
2.8286 -2.6776 1.5921
2.9230 -2.5739 1.5921
3.0136 -2.4670 1.5921
3.1002 -2.3568 1.5921
3.1829 -2.2436 1.5921
3.2614 -2.1275 1.5921
3.3357 -2.0087 1.5921
3.4056 -1.8872 1.5921
3.4711 -1.7634 1.5921
3.5322 -1.6372 1.5921
3.5886 -1.5090 1.5921
3.6404 -1.3788 1.5921
3.6874 -1.2468 1.5921
3.7297 -1.1132 1.5921
3.7671 -0.9782 1.5921
3.7997 -0.8420 1.5921
