ply
format ascii 1.0
element vertex 2072
property float32 x
property float32 y
property float32 z
end_header
7.1943 -11.9955 -1.8561
7.2462 -11.1541 -1.7647
4.9684 -7.0784 -1.1471
5.1996 -6.8697 -1.1425
5.4451 -6.6816 -1.1427
5.6829 -6.4837 -1.1427
5.9136 -6.2775 -1.1426
6.1370 -6.0633 -1.1426
6.3527 -5.8412 -1.1426
6.5606 -5.6115 -1.1426
6.7603 -5.3746 -1.1425
6.9515 -5.1306 -1.1425
1.8676 -1.2775 -0.2991
5.6321 -3.5629 -0.8805
5.6556 -3.2997 -0.8647
7.6796 -4.1187 -1.1502
7.7004 -3.7806 -1.1316
7.7206 -3.4525 -1.1151
7.9991 -3.2379 -1.1371
9.0898 -3.3051 -1.2738
9.5932 -3.1033 -1.3271
9.6160 -2.7337 -1.3150
9.6384 -2.3699 -1.3048
9.6605 -2.0108 -1.2964
9.6824 -1.6554 -1.2897
9.7041 -1.3028 -1.2847
9.7257 -0.9520 -1.2814
9.7473 -0.6021 -1.2797
9.7689 -0.2523 -1.2797
9.7905 0.0985 -1.2813
9.8122 0.4511 -1.2845
9.8341 0.8064 -1.2895
9.8562 1.1654 -1.2961
9.8786 1.5291 -1.3045
9.9014 1.8986 -1.3147
9.9245 2.2749 -1.3269
9.9482 2.6592 -1.3410
9.9725 3.0529 -1.3572
9.9974 3.4574 -1.3756
10.0230 3.8740 -1.3964
10.0496 4.3047 -1.4197
10.0771 4.7512 -1.4457
10.1057 5.2156 -1.4747
10.1356 5.7003 -1.5069
10.1668 6.2081 -1.5426
-15.5916 43.3474 -4.8290
-15.8287 39.4985 -4.4610
-16.0324 36.1912 -4.1503
-14.1894 29.1598 -3.4007
-6.5106 12.2432 -1.4543
-16.5050 28.5207 -3.4569
-13.1608 20.9696 -2.5978
-14.5785 21.4775 -2.7246
-14.7281 20.1065 -2.6168
-14.7745 18.7225 -2.5049
-14.8259 17.4617 -2.4067
-14.8962 16.3203 -2.3225
-14.9618 15.2556 -2.2468
-12.1336 11.5151 -1.7597
-12.1945 10.7687 -1.7122
-12.2374 10.0490 -1.6674
-12.2794 9.3669 -1.6271
-12.3195 8.7168 -1.5908
-12.3578 8.0949 -1.5581
-12.3946 7.4980 -1.5287
-12.4898 6.9564 -1.5097
-12.4642 6.3676 -1.4789
-12.4974 5.8292 -1.4581
-12.5296 5.3058 -1.4397
-12.5543 4.7929 -1.4228
-12.5918 4.2965 -1.4097
-12.6219 3.8072 -1.3979
-12.6516 3.3261 -1.3881
-10.9078 2.4531 -1.1873
-13.2111 2.4770 -1.4285
-18.6891 2.8145 -2.0101
-31.0219 3.5394 -3.3235
-10.9021 0.8491 -1.1649
-14.4797 0.6064 -1.5451
-14.4312 0.0864 -1.5399
-14.4631 -0.4324 -1.5453
-14.4953 -0.9546 -1.5527
-7.2100 -0.7353 -0.7753
-17.5732 -2.4318 -1.8994
-17.6134 -3.0849 -1.9161
-17.6543 -3.7492 -1.9356
-17.6961 -4.4270 -1.9580
-17.7388 -5.1203 -1.9835
-17.7826 -5.8316 -2.0122
-17.0380 -6.2727 -1.9539
-15.5441 -6.3648 -1.8091
-14.2568 -6.4441 -1.6865
-13.1332 -6.5133 -1.5816
-12.1416 -6.5744 -1.4909
-11.2580 -6.6288 -1.4119
-10.9423 -6.9832 -1.4039
-11.2853 -7.7855 -1.4840
-11.3645 -8.4576 -1.5346
-11.4282 -9.1599 -1.5878
-11.4118 -9.8394 -1.6348
-11.4599 -10.6210 -1.6965
-11.6364 -11.5877 -1.7844
-11.5681 -12.3775 -1.8422
-11.6295 -13.3743 -1.9286
-11.8235 -14.6256 -2.0479
-11.7716 -15.6802 -2.1365
-13.0038 -18.6817 -2.4819
-13.0217 -20.2174 -2.6238
-13.2233 -22.2450 -2.8252
-13.0384 -23.8419 -2.9684
-11.9807 -23.9070 -2.9228
-12.3849 -27.0995 -3.2584
-12.5870 -30.3799 -3.5981
-12.4845 -33.4818 -3.9118
-13.1520 -39.5520 -4.5651
4.9640 -45.1121 -4.9885
5.3627 -36.6012 -4.0665
5.7020 -31.0934 -3.4754
4.4407 -20.1175 -2.2650
5.1594 -19.9448 -2.2650
4.8026 -16.1516 -1.8526
5.4590 -16.2062 -1.8801
6.1318 -16.2515 -1.9095
7.1605 -17.0942 -2.0372
7.9143 -17.1406 -2.0750
8.6979 -17.1889 -2.1170
9.5151 -17.2392 -2.1635
7.1943 -11.9959 -1.5365
7.2461 -11.1545 -1.4608
7.2195 -10.2859 -1.3797
5.4112 -7.1495 -0.9841
5.6513 -6.9349 -0.9816
7.4123 -8.4573 -1.2335
7.4463 -7.9050 -1.1907
7.4781 -7.3887 -1.1521
7.5080 -6.9038 -1.1173
7.5362 -6.4464 -1.0859
7.5629 -6.0131 -1.0574
7.5438 -5.5682 -1.0256
1.8674 -1.2774 -0.2474
5.6321 -3.5632 -0.7282
5.6539 -3.2990 -0.7148
7.6796 -4.1191 -0.9511
7.7004 -3.7810 -0.9357
7.7206 -3.4529 -0.9219
7.9978 -3.2378 -0.9399
9.0882 -3.3050 -1.0527
9.5932 -3.1038 -1.0968
9.6160 -2.7342 -1.0867
9.6384 -2.3704 -1.0781
9.6605 -2.0113 -1.0710
9.6833 -1.6561 -1.0654
9.7055 -1.3035 -1.0612
9.7274 -0.9527 -1.0584
9.7493 -0.6028 -1.0569
9.7697 -0.2528 -1.0565
9.7904 0.0980 -1.0576
9.8121 0.4505 -1.0602
9.8351 0.8059 -1.0642
9.8574 1.1650 -1.0695
9.8794 1.5287 -1.0763
9.9018 1.8981 -1.0845
9.9245 2.2743 -1.0943
9.9482 2.6586 -1.1058
9.9724 3.0523 -1.1190
9.9973 3.4567 -1.1340
10.0230 3.8734 -1.1509
10.0495 4.3040 -1.1699
10.0770 4.7504 -1.1912
10.1056 5.2148 -1.2149
10.1355 5.6996 -1.2413
10.1668 6.2073 -1.2705
-15.5916 43.3469 -3.7824
-15.8287 39.4978 -3.4943
-16.0325 36.1904 -3.2510
-14.0124 28.7951 -2.6306
-6.4012 12.0370 -1.1202
-16.2720 28.1172 -2.6700
-14.4803 23.0711 -2.2394
-14.5786 21.4767 -2.1348
-14.7282 20.1057 -2.0505
-13.4197 17.0049 -1.7830
-13.4747 15.8695 -1.7143
-13.5386 14.8321 -1.6545
-14.0666 14.3419 -1.6559
-12.1343 11.5151 -1.3797
-12.2001 10.7729 -1.3432
-12.2375 10.0483 -1.3076
-12.2795 9.3662 -1.2762
-12.3195 8.7161 -1.2479
-12.3578 8.0942 -1.2224
-12.3946 7.4973 -1.1996
-12.4898 6.9557 -1.1848
-12.4642 6.3669 -1.1609
-12.4974 5.8286 -1.1447
-12.5297 5.3052 -1.1305
-12.5564 4.7931 -1.1177
-12.5918 4.2959 -1.1074
-12.6220 3.8066 -1.0983
-12.6516 3.3255 -1.0908
-10.9079 2.4526 -0.9332
-13.2168 2.4774 -1.1235
-18.3227 2.7583 -1.5496
-29.2832 3.3394 -2.4674
-14.5333 1.1311 -1.2216
-10.8125 0.4523 -0.9079
-14.4312 0.0856 -1.2119
-14.4632 -0.4332 -1.2164
-14.4954 -0.9554 -1.2225
-7.2091 -0.7357 -0.6105
-17.5732 -2.4329 -1.4962
-17.6134 -3.0859 -1.5097
-17.6544 -3.7503 -1.5254
-17.6961 -4.4281 -1.5435
-17.7388 -5.1214 -1.5639
-17.7827 -5.8327 -1.5869
-17.0354 -6.2729 -1.5410
-15.5419 -6.3649 -1.4272
-14.2549 -6.4442 -1.3308
-13.1316 -6.5134 -1.2482
-12.1402 -6.5744 -1.1769
-11.2567 -6.6289 -1.1148
-10.9423 -6.9841 -1.1089
-11.2853 -7.7865 -1.1724
-11.3249 -8.4290 -1.2084
-11.3670 -9.1118 -1.2482
-11.4119 -9.8405 -1.2923
-11.4268 -10.5914 -1.3375
-11.4472 -11.4005 -1.3882
-11.5682 -12.3788 -1.4571
-11.6296 -13.3757 -1.5257
-11.8100 -14.6102 -1.6186
-11.7717 -15.6818 -1.6908
-12.8957 -18.5280 -1.9481
-13.0218 -20.2195 -2.0772
-13.1134 -22.0621 -2.2184
-11.8832 -21.7314 -2.1424
-11.9795 -23.9071 -2.3147
-12.3851 -27.1025 -2.5812
-12.5872 -30.3835 -2.8506
-12.4848 -33.4859 -3.0996
-13.1523 -39.5571 -3.6177
4.9643 -45.1122 -3.9565
3.7662 -25.7041 -2.2650
4.6855 -25.5498 -2.2650
5.5987 -25.3636 -2.2650
5.9015 -22.8132 -2.0549
4.5966 -15.4587 -1.4064
5.2329 -15.5351 -1.4295
5.8860 -15.6002 -1.4538
7.1603 -17.0942 -1.6158
7.9566 -17.2325 -1.6545
8.6976 -17.1889 -1.6789
9.5148 -17.2392 -1.7157
7.1943 -11.9963 -1.2185
7.2461 -11.1549 -1.1583
7.3583 -10.4840 -1.1150
5.4111 -7.1498 -0.7803
5.6512 -6.9352 -0.7781
7.4123 -8.4577 -0.9778
7.4463 -7.9054 -0.9438
7.4781 -7.3891 -0.9131
7.5080 -6.9042 -0.8854
7.5362 -6.4468 -0.8604
7.5629 -6.0135 -0.8378
7.5915 -5.6038 -0.8176
1.8671 -1.2774 -0.1959
5.6321 -3.5634 -0.5767
5.6521 -3.2983 -0.5659
7.6795 -4.1195 -0.7530
7.7004 -3.7814 -0.7406
7.7206 -3.4533 -0.7296
7.9966 -3.2378 -0.7436
9.0866 -3.3049 -0.8327
9.5932 -3.1043 -0.8675
9.6159 -2.7347 -0.8594
9.6383 -2.3709 -0.8524
9.6605 -2.0118 -0.8467
9.6864 -1.6571 -0.8424
9.7794 -1.3140 -0.8450
9.8012 -0.9605 -0.8425
9.8229 -0.6079 -0.8411
9.7697 -0.2534 -0.8344
9.7904 0.0974 -0.8351
9.8121 0.4500 -0.8369
9.8351 0.8054 -0.8399
9.8561 1.1643 -0.8438
9.8785 1.5279 -0.8489
9.9013 1.8974 -0.8553
9.9245 2.2737 -0.8628
9.9481 2.6580 -0.8717
9.9724 3.0516 -0.8819
9.9973 3.4560 -0.8935
10.0230 3.8727 -0.9067
10.0495 4.3033 -0.9215
10.0770 4.7497 -0.9380
10.1056 5.2141 -0.9564
10.1355 5.6988 -0.9770
10.1667 6.2065 -0.9997
-15.5916 43.3463 -2.7397
-15.8288 39.4971 -2.5311
-16.0325 36.1896 -2.3550
-16.2099 33.3101 -2.2046
-6.4012 12.0367 -0.8116
-13.0619 22.5696 -1.5530
-13.1606 20.9677 -1.4749
-13.2499 19.5185 -1.4062
-13.3313 18.1980 -1.3454
-13.4059 16.9866 -1.2913
-13.4747 15.8688 -1.2431
-13.5387 14.8314 -1.1999
-14.0674 14.3420 -1.2012
-12.1351 11.5152 -1.0011
-12.2056 10.7770 -0.9752
-12.2375 10.0477 -0.9491
-12.2795 9.3656 -0.9266
-12.3196 8.7154 -0.9063
-12.3579 8.0936 -0.8880
-12.3946 7.4967 -0.8717
-12.4899 6.9551 -0.8612
-12.4643 6.3663 -0.8440
-12.4975 5.8279 -0.8325
-12.5297 5.3045 -0.8224
-12.5585 4.7932 -0.8135
-12.5919 4.2952 -0.8062
-12.6220 3.8059 -0.7998
-12.6516 3.3248 -0.7947
-10.9079 2.4520 -0.6801
-13.2224 2.4777 -0.8194
-18.3228 2.7574 -1.1302
-29.2981 3.3395 -1.8011
-14.5332 1.1303 -0.8916
-11.0306 0.4608 -0.6762
-14.4313 0.0848 -0.8852
-14.4632 -0.4340 -0.8888
-14.4954 -0.9563 -0.8936
-7.2082 -0.7360 -0.4464
-17.5733 -2.4339 -1.0945
-17.6135 -3.0870 -1.1049
-17.7257 -3.7665 -1.1213
-17.7672 -4.4469 -1.1350
-17.7389 -5.1225 -1.1459
-17.7827 -5.8339 -1.1632
-17.0328 -6.2731 -1.1298
-15.5397 -6.3650 -1.0467
-14.2530 -6.4443 -0.9764
-13.1299 -6.5135 -0.9162
-12.1387 -6.5745 -0.8642
-11.2554 -6.6290 -0.8189
-10.9424 -6.9850 -0.8150
-10.9788 -7.5759 -0.8386
-11.0173 -8.2010 -0.8646
-11.0582 -8.8653 -0.8934
-11.1019 -9.5743 -0.9253
-11.4601 -10.6233 -0.9876
-11.5120 -11.4662 -1.0282
-11.5683 -12.3801 -1.0735
-11.6297 -13.3771 -1.1244
-11.6972 -14.4721 -1.1818
-11.7718 -15.6834 -1.2468
-11.5682 -16.6223 -1.2891
-11.6596 -18.1060 -1.3723
-13.1135 -22.0644 -1.6372
-13.0361 -23.8420 -1.7350
-11.9785 -23.9071 -1.7090
-12.3853 -27.1056 -1.9065
-12.5874 -30.3870 -2.1060
-12.4850 -33.4900 -2.2905
-13.1526 -39.5622 -2.6739
4.9648 -45.1122 -2.9285
3.8897 -26.5453 -1.7315
5.6165 -30.6256 -2.0098
5.7156 -25.8926 -1.7117
5.9015 -22.8132 -1.5212
4.4082 -14.8252 -0.9984
5.0150 -14.8885 -1.0141
5.6429 -14.9561 -1.0317
6.2948 -15.0281 -1.0514
7.9563 -17.2325 -1.2246
8.6973 -17.1889 -1.2425
9.5145 -17.2392 -1.2697
7.1943 -11.9967 -0.9017
7.2461 -11.1553 -0.8571
7.3582 -10.4844 -0.8249
5.4111 -7.1501 -0.5772
5.6511 -6.9354 -0.5755
7.4123 -8.4581 -0.7231
7.4463 -7.9058 -0.6978
7.4781 -7.3895 -0.6750
7.5080 -6.9046 -0.6544
7.5361 -6.4472 -0.6358
7.5628 -6.0139 -0.6189
7.5957 -5.6073 -0.6042
1.8669 -1.2773 -0.1446
5.6321 -3.5637 -0.4258
5.6504 -3.2976 -0.4175
7.6795 -4.1199 -0.5556
7.7003 -3.7818 -0.5463
7.7205 -3.4537 -0.5380
7.9953 -3.2377 -0.5481
9.0850 -3.3048 -0.6136
9.5931 -3.1048 -0.6392
9.6159 -2.7352 -0.6330
9.6383 -2.3714 -0.6277
9.6604 -2.0123 -0.6232
9.6863 -1.6576 -0.6198
9.7794 -1.3145 -0.6215
9.8012 -0.9610 -0.6195
9.8229 -0.6084 -0.6182
9.7697 -0.2539 -0.6131
9.7904 0.0969 -0.6133
9.8121 0.4494 -0.6144
9.8350 0.8048 -0.6164
9.8561 1.1637 -0.6191
9.8785 1.5274 -0.6226
9.9012 1.8968 -0.6270
9.9244 2.2731 -0.6323
9.9481 2.6574 -0.6385
9.9723 3.0510 -0.6458
9.9973 3.4554 -0.6540
9.9718 3.8523 -0.6600
9.9982 4.2807 -0.6705
10.0770 4.7490 -0.6858
10.1056 5.2134 -0.6990
10.1354 5.6980 -0.7137
10.1667 6.2057 -0.7300
-15.5917 43.3457 -1.6999
-15.8288 39.4964 -1.5706
-16.0326 36.1889 -1.4615
-16.2100 33.3093 -1.3684
-6.4012 12.0363 -0.5038
-13.0620 22.5689 -0.9643
-13.1620 20.9691 -0.9162
-13.2530 19.5224 -0.8738
-13.3313 18.1972 -0.8361
-13.4059 16.9859 -0.8028
-13.4748 15.8680 -0.7731
-13.5387 14.8306 -0.7466
-14.0683 14.3420 -0.7478
-12.1359 11.5152 -0.6235
-12.2111 10.7812 -0.6079
-12.2375 10.0470 -0.5917
-12.2796 9.3649 -0.5779
-10.6025 7.5001 -0.4867
-10.6354 6.9649 -0.4772
-10.6671 6.4512 -0.4687
-10.6975 5.9564 -0.4612
-10.7270 5.4784 -0.4545
-10.7555 5.0150 -0.4486
-10.7833 4.5646 -0.4434
-10.8103 4.1254 -0.4390
-10.8368 3.6960 -0.4353
-10.8627 3.2749 -0.4322
-10.8883 2.8608 -0.4297
-10.9079 2.4514 -0.4277
-13.2281 2.4781 -0.5159
-18.3228 2.7564 -0.7118
-29.3130 3.3397 -1.1359
-14.5330 1.1295 -0.5625
-11.0306 0.4602 -0.4270
-14.4313 0.0840 -0.5594
-14.4633 -0.4349 -0.5621
-14.4955 -0.9571 -0.5656
-7.2072 -0.7363 -0.2827
-17.5733 -2.4349 -0.6940
-17.6136 -3.0880 -0.7011
-17.7343 -3.7694 -0.7125
-17.7695 -4.4486 -0.7215
-17.7390 -5.1236 -0.7290
-17.7828 -5.8350 -0.7406
-17.0302 -6.2732 -0.7198
-15.5375 -6.3652 -0.6675
-14.2511 -6.4444 -0.6232
-13.1283 -6.5136 -0.5852
-12.1373 -6.5746 -0.5524
-11.2541 -6.6290 -0.5239
-10.9425 -6.9859 -0.5219
-10.9789 -7.5768 -0.5374
-11.0174 -8.2020 -0.5545
-11.0583 -8.8663 -0.5734
-11.1020 -9.5753 -0.5943
-11.1488 -10.3358 -0.6175
-11.1993 -11.1559 -0.6433
-11.2541 -12.0450 -0.6722
-11.3139 -13.0151 -0.7045
-11.3795 -14.0804 -0.7409
-11.4521 -15.2589 -0.7822
-11.5683 -16.6240 -0.8318
-11.6597 -18.1079 -0.8860
-11.7636 -19.7950 -0.9488
-11.8832 -21.7355 -1.0223
-11.9773 -23.9072 -1.1051
-12.3855 -27.1086 -1.2335
-12.5876 -30.3905 -1.3633
-12.4853 -33.4940 -1.4834
-13.1530 -39.5674 -1.7325
3.2692 -44.2521 -1.8603
4.8746 -44.2897 -1.8688
3.8899 -26.5453 -1.1255
5.4205 -29.5563 -1.2609
5.7229 -25.9256 -1.1142
5.9015 -22.8131 -0.9890
6.0038 -20.1913 -0.8841
6.1771 -18.3388 -0.8121
6.4325 -17.0493 -0.7646
6.3249 -15.1004 -0.6867
7.9561 -17.2325 -0.7959
8.6971 -17.1889 -0.8075
9.5142 -17.2392 -0.8249
7.1942 -11.9971 -0.5857
7.2461 -11.1557 -0.5566
7.3582 -10.4848 -0.5356
5.4111 -7.1504 -0.3747
5.6510 -6.9356 -0.3735
7.4122 -8.4585 -0.4691
7.4463 -7.9062 -0.4525
7.4781 -7.3899 -0.4376
7.5079 -6.9050 -0.4241
7.5361 -6.4476 -0.4118
7.5628 -6.0143 -0.4007
7.5999 -5.6108 -0.3912
1.8667 -1.2773 -0.0935
5.6320 -3.5640 -0.2752
5.6485 -3.2968 -0.2697
7.6795 -4.1203 -0.3588
7.7003 -3.7822 -0.3526
7.7205 -3.4541 -0.3470
7.9941 -3.2376 -0.3533
9.0834 -3.3047 -0.3952
9.5931 -3.1053 -0.4115
9.6159 -2.7357 -0.4072
9.6383 -2.3719 -0.4035
9.6604 -2.0129 -0.4004
9.6862 -1.6582 -0.3979
9.7794 -1.3150 -0.3987
9.8011 -0.9615 -0.3971
9.8229 -0.6089 -0.3960
9.7697 -0.2544 -0.3924
9.7903 0.0963 -0.3923
9.8120 0.4489 -0.3926
9.8350 0.8042 -0.3936
9.8560 1.1631 -0.3950
9.8784 1.5268 -0.3969
9.9012 1.8962 -0.3994
9.9244 2.2725 -0.4024
9.9481 2.6567 -0.4060
9.9723 3.0504 -0.4103
9.9972 3.4547 -0.4152
10.0262 3.8726 -0.4209
10.0527 4.3033 -0.4272
10.0800 4.7498 -0.4344
10.1055 5.2126 -0.4422
10.1354 5.6972 -0.4511
10.1666 6.2049 -0.4611
30.9371 29.5941 -1.6359
28.9374 29.7408 -1.5823
-15.5917 43.3452 -0.6617
-15.8289 39.4957 -0.6116
-16.0326 36.1881 -0.5695
-16.2100 33.3084 -0.5335
-6.5114 12.2431 -0.2000
-13.0620 22.5682 -0.3766
-13.1648 20.9728 -0.3583
-13.2500 19.5171 -0.3420
-13.3313 18.1965 -0.3277
-13.4060 16.9851 -0.3151
-13.4773 15.8702 -0.3040
-13.5387 14.8299 -0.2940
-11.8657 12.0959 -0.2488
-12.1365 11.5151 -0.2464
-12.2125 10.7817 -0.2408
-12.2376 10.0464 -0.2348
-12.2796 9.3643 -0.2299
-12.3196 8.7142 -0.2255
-12.3580 8.0923 -0.2216
-12.3947 7.4954 -0.2182
-12.4301 6.9205 -0.2152
-12.4644 6.3650 -0.2126
-10.8024 5.0363 -0.1819
-10.8077 4.5743 -0.1799
-12.5612 4.7929 -0.2071
-12.5920 4.2939 -0.2060
-12.6221 3.8046 -0.2051
-10.9129 2.8667 -0.1764
-10.9080 2.4508 -0.1757
-10.9417 2.0492 -0.1758
-18.7343 2.8173 -0.3008
-45.9304 5.2304 -0.7379
-14.5329 1.1287 -0.2339
-11.0306 0.4596 -0.1781
-14.1618 0.0816 -0.2297
-14.1936 -0.4275 -0.2316
-14.2255 -0.9401 -0.2338
-7.2063 -0.7366 -0.1194
-14.5000 -2.0099 -0.2427
-17.6136 -3.0891 -0.2981
-17.7429 -3.7723 -0.3040
-17.7694 -4.4496 -0.3087
-17.7390 -5.1248 -0.3128
-17.7829 -5.8362 -0.3188
-17.0277 -6.2734 -0.3107
-15.5353 -6.3653 -0.2890
-14.2492 -6.4445 -0.2706
-13.1266 -6.5137 -0.2549
-12.1359 -6.5747 -0.2413
-11.2528 -6.6291 -0.2295
-11.2481 -7.1819 -0.2356
-11.2855 -7.7893 -0.2433
-11.3251 -8.4320 -0.2517
-11.3672 -9.1149 -0.2610
-11.4121 -9.8438 -0.2712
-11.4602 -10.6256 -0.2825
-11.5121 -11.4686 -0.2950
-11.5684 -12.3827 -0.3090
-11.6299 -13.3799 -0.3246
-11.6973 -14.4750 -0.3422
-11.7720 -15.6866 -0.3620
-11.5684 -16.6257 -0.3753
-11.7300 -18.2187 -0.4029
-11.7638 -19.7970 -0.4298
-11.8833 -21.7378 -0.4639
-12.0227 -24.0000 -0.5043
-12.3857 -27.1116 -0.5618
-12.2430 -29.5614 -0.6049
-12.4855 -33.4981 -0.6777
-12.7930 -38.4884 -0.7710
3.1847 -43.1021 -0.8378
4.9656 -45.1122 -0.8804
3.8900 -26.5453 -0.5208
4.1648 -22.7085 -0.4483
4.3327 -19.6276 -0.3904
4.4758 -17.3017 -0.3472
6.0528 -20.3564 -0.4126
6.1771 -18.3390 -0.3758
6.4324 -17.0493 -0.3538
6.3248 -15.1004 -0.3177
7.9135 -17.1406 -0.3661
8.6968 -17.1888 -0.3732
9.5138 -17.2392 -0.3811
7.1942 -11.9975 -0.2704
7.2461 -11.1561 -0.2568
7.3582 -10.4852 -0.2469
5.4111 -7.1507 -0.1725
5.6509 -6.9358 -0.1718
7.4122 -8.4589 -0.2156
7.4462 -7.9066 -0.2077
7.4780 -7.3903 -0.2006
7.5079 -6.9054 -0.1941
7.5361 -6.4480 -0.1883
7.5628 -6.0147 -0.1829
7.6040 -5.6143 -0.1784
1.8664 -1.2772 -0.0426
5.6320 -3.5643 -0.1250
5.6485 -3.2971 -0.1223
7.6795 -4.1207 -0.1623
7.7003 -3.7826 -0.1592
7.7205 -3.4545 -0.1564
7.9929 -3.2375 -0.1588
9.0818 -3.3046 -0.1773
9.5931 -3.1058 -0.1842
9.6158 -2.7362 -0.1819
9.6382 -2.3724 -0.1798
9.6604 -2.0134 -0.1780
9.6861 -1.6587 -0.1764
9.7793 -1.3155 -0.1763
9.8011 -0.9621 -0.1751
9.8228 -0.6095 -0.1742
9.7697 -0.2550 -0.1721
9.7903 0.0958 -0.1716
9.8120 0.4483 -0.1713
9.8349 0.8037 -0.1712
9.8560 1.1626 -0.1713
9.8784 1.5262 -0.1716
9.9012 1.8956 -0.1721
9.9243 2.2718 -0.1729
9.9480 2.6561 -0.1739
9.9723 3.0497 -0.1752
9.9972 3.4541 -0.1768
10.0315 3.8740 -0.1787
10.0580 4.3049 -0.1809
10.0854 4.7516 -0.1833
10.1055 5.2119 -0.1859
10.1353 5.6965 -0.1891
10.1666 6.2041 -0.1927
-15.5917 43.3447 0.3757
-15.8289 39.4951 0.3466
-14.1322 31.8979 0.2838
-14.2886 29.3595 0.2651
-6.5116 12.2431 0.1123
-13.0621 22.5675 0.2106
-13.1648 20.9720 0.1994
-13.2500 19.5164 0.1893
-13.3314 18.1958 0.1803
-13.4060 16.9844 0.1722
-13.4855 15.8790 0.1650
-13.5388 14.8292 0.1582
-11.8664 12.0960 0.1328
-12.1364 11.5144 0.1303
-12.2022 10.7720 0.1260
-12.2376 10.0457 0.1218
-12.2796 9.3636 0.1179
-12.3197 8.7135 0.1144
-12.3580 8.0916 0.1111
-12.3948 7.4947 0.1080
-12.4302 6.9198 0.1052
-12.4644 6.3643 0.1026
-10.8038 5.0364 0.0865
-10.8077 4.5738 0.0844
-12.5613 4.7922 0.0957
-12.5920 4.2932 0.0937
-12.6221 3.8039 0.0918
-10.9129 2.8661 0.0777
-10.9080 2.4503 0.0761
-13.2393 2.4788 0.0906
-12.6221 1.8974 0.0848
-45.8258 5.2160 0.3025
-14.3982 1.1175 0.0935
-11.0307 0.4590 0.0705
-14.3113 0.0817 0.0902
-14.3430 -0.4328 0.0891
-14.3749 -0.9507 0.0882
-7.2054 -0.7369 0.0437
-14.6145 -2.0267 0.0877
-17.6137 -3.0901 0.1047
-17.7422 -3.7732 0.1045
-17.7666 -4.4500 0.1039
-17.7391 -5.1259 0.1030
-17.7829 -5.8373 0.1027
-17.0251 -6.2735 0.0980
-15.5331 -6.3654 0.0891
-14.2473 -6.4446 0.0816
-13.1250 -6.5138 0.0752
-12.1344 -6.5748 0.0696
-11.2516 -6.6292 0.0647
-11.2481 -7.1828 0.0649
-11.2856 -7.7902 0.0655
-11.3251 -8.4330 0.0663
-11.3672 -9.1159 0.0672
-11.4121 -9.8449 0.0682
-11.4603 -10.6267 0.0695
-11.5122 -11.4698 0.0710
-11.5685 -12.3840 0.0727
-11.6300 -13.3812 0.0747
-11.6695 -14.4419 0.0768
-11.7721 -15.6882 0.0797
-11.5685 -16.6274 0.0809
-11.7301 -18.2206 0.0851
-11.7639 -19.7991 0.0889
-11.8783 -21.7306 0.0940
-12.0228 -24.0026 0.1003
-12.3858 -27.1146 0.1096
-12.5881 -30.3975 0.1191
-12.8375 -34.4458 0.1310
-13.1536 -39.5775 0.1465
-3.2983 -47.2189 0.1530
3.1850 -43.0997 0.1357
3.7582 -34.1402 0.1073
3.8902 -26.5453 0.0835
4.1649 -22.7085 0.0717
4.3328 -19.6276 0.0623
4.4758 -17.3017 0.0553
6.0528 -20.3566 0.0658
6.1771 -18.3392 0.0600
6.1802 -16.3811 0.0544
6.3246 -15.1004 0.0511
7.9133 -17.1406 0.0591
8.6966 -17.1888 0.0607
9.5135 -17.2391 0.0624
7.1942 -11.9979 0.0447
7.2460 -11.1565 0.0428
7.3582 -10.4856 0.0416
5.4111 -7.1510 0.0294
5.6508 -6.9360 0.0297
7.4122 -8.4593 0.0378
7.4462 -7.9070 0.0369
7.4780 -7.3907 0.0362
7.5079 -6.9058 0.0356
7.5361 -6.4484 0.0351
7.5628 -6.0151 0.0347
7.6082 -5.6178 0.0345
1.8662 -1.2771 0.0084
5.6320 -3.5646 0.0251
5.6485 -3.2974 0.0250
7.6794 -4.1211 0.0339
7.7003 -3.7830 0.0340
7.7205 -3.4549 0.0341
7.9916 -3.2375 0.0354
9.0802 -3.3045 0.0404
9.5930 -3.1063 0.0429
9.6158 -2.7367 0.0433
9.6382 -2.3729 0.0438
9.6603 -2.0139 0.0443
9.6861 -1.6592 0.0449
9.7793 -1.3161 0.0459
9.8011 -0.9626 0.0467
9.8228 -0.6100 0.0475
9.7697 -0.2555 0.0480
9.7903 0.0953 0.0489
9.8120 0.4478 0.0500
9.8348 0.8031 0.0511
9.8560 1.1620 0.0523
9.8784 1.5256 0.0535
9.9011 1.8950 0.0549
9.9243 2.2712 0.0564
9.9480 2.6555 0.0579
9.9722 3.0491 0.0596
9.9971 3.4534 0.0615
10.0366 3.8753 0.0635
10.0632 4.3064 0.0656
10.0907 4.7534 0.0678
10.1054 5.2111 0.0701
10.1353 5.6957 0.0728
10.1665 6.2033 0.0756
30.0875 23.1343 0.2506
29.3603 24.2996 0.2548
-10.0904 28.0505 0.9147
-11.5815 28.8968 0.9550
-3.4854 7.8668 0.2638
-3.5284 7.2497 0.2471
-3.7646 7.0781 0.2456
-4.0190 6.9434 0.2456
-4.2690 6.8005 0.2456
-4.5144 6.6491 0.2456
-4.7549 6.4896 0.2456
-4.9903 6.3220 0.2456
-13.4854 15.8782 0.6343
-10.3361 11.3206 0.4662
-10.3816 10.5818 0.4502
-10.4243 9.8893 0.4357
-10.7093 9.4534 0.4324
-11.0769 9.0923 0.4331
-10.5681 8.0579 0.4009
-10.6026 7.4984 0.3910
-10.6355 6.9633 0.3820
-10.6672 6.4495 0.3738
-10.6977 5.9548 0.3664
-10.7271 5.4767 0.3596
-10.7556 5.0134 0.3535
-10.7834 4.5629 0.3480
-10.8105 4.1237 0.3430
-10.8369 3.6943 0.3386
-10.8628 3.2732 0.3346
-10.8884 2.8591 0.3311
-10.9080 2.4497 0.3280
-13.2449 2.4791 0.3942
-18.7570 2.8187 0.5533
-45.9316 5.2256 1.3446
-14.3981 1.1167 0.4188
-11.0307 0.4584 0.3192
-14.3113 0.0809 0.4126
-14.3430 -0.4336 0.4124
-14.3749 -0.9516 0.4128
-7.2045 -0.7372 0.2068
-14.6149 -2.0275 0.4201
-17.6138 -3.0912 0.5075
-17.7299 -3.7716 0.5128
-17.7628 -4.4501 0.5164
-17.7392 -5.1270 0.5190
-17.7830 -5.8385 0.5244
-17.0226 -6.2737 0.5066
-15.5310 -6.3656 0.4672
-14.2455 -6.4448 0.4338
-13.1233 -6.5139 0.4052
-12.1330 -6.5749 0.3804
-11.2503 -6.6293 0.3588
-11.2482 -7.1836 0.3656
-11.2856 -7.7912 0.3745
-11.3252 -8.4339 0.3844
-11.3673 -9.1169 0.3954
-11.4122 -9.8459 0.4078
-11.4604 -10.6279 0.4216
-11.5123 -11.4710 0.4371
-11.5686 -12.3853 0.4545
-11.6300 -13.3826 0.4741
-11.6696 -14.4434 0.4951
-11.7722 -15.6898 0.5216
-11.5686 -16.6291 0.5372
-11.7302 -18.2224 0.5733
-11.7640 -19.8012 0.6077
-11.8772 -21.7307 0.6519
-12.0230 -24.0052 0.7050
-12.3860 -27.1176 0.7811
-12.5883 -30.4010 0.8603
-12.8377 -34.4501 0.9592
-13.1539 -39.5826 1.0861
-3.2426 -46.4336 1.1990
3.1854 -43.0997 1.1092
3.7154 -33.7490 0.8709
3.8609 -26.3444 0.6826
4.1051 -22.3818 0.5832
4.2874 -19.4218 0.5096
4.4291 -17.1214 0.4531
5.0485 -16.9790 0.4539
5.7336 -17.0226 0.4603
6.2059 -16.4496 0.4507
6.3245 -15.1004 0.4198
7.9131 -17.1405 0.4844
8.6963 -17.1888 0.4946
9.5132 -17.2391 0.5059
7.1942 -11.9983 0.3598
7.2460 -11.1569 0.3425
7.2930 -10.3933 0.3273
5.4111 -7.1513 0.2314
5.6507 -6.9362 0.2312
7.4122 -8.4597 0.2911
7.4462 -7.9074 0.2816
7.4780 -7.3911 0.2730
7.5079 -6.9062 0.2654
7.5360 -6.4488 0.2585
7.5627 -6.0155 0.2524
7.6124 -5.6213 0.2477
1.8659 -1.2771 0.0593
5.6320 -3.5649 0.1753
5.6484 -3.2977 0.1724
7.6794 -4.1215 0.2303
7.7002 -3.7834 0.2273
7.7204 -3.4553 0.2246
7.9904 -3.2374 0.2296
9.0786 -3.3044 0.2580
9.5930 -3.1068 0.2700
9.6158 -2.7372 0.2685
9.6382 -2.3734 0.2674
9.6603 -2.0144 0.2666
9.6860 -1.6597 0.2663
9.7793 -1.3166 0.2682
9.8010 -0.9631 0.2685
9.8228 -0.6105 0.2692
9.7697 -0.2560 0.2682
9.7902 0.0947 0.2695
9.8119 0.4472 0.2712
9.8348 0.8026 0.2734
9.8559 1.1614 0.2758
9.8783 1.5251 0.2787
9.9011 1.8944 0.2820
9.9243 2.2706 0.2857
9.9479 2.6549 0.2899
9.9722 3.0485 0.2946
9.9971 3.4528 0.2997
10.0418 3.8767 0.3060
10.0684 4.3080 0.3123
10.0930 4.7538 0.3192
10.1054 5.2104 0.3263
10.1352 5.6950 0.3347
10.1665 6.2025 0.3439
18.2321 13.0039 0.6505
17.6943 13.6037 0.6502
28.8449 23.8704 1.0938
30.9573 29.6046 1.2584
28.9229 29.7173 1.2215
-10.0905 28.0505 1.5873
-11.4368 28.5351 1.6366
-3.4854 7.8666 0.4580
-3.5284 7.2495 0.4290
-3.5663 6.7049 0.4039
-3.6001 6.2194 0.3821
-3.6304 5.7830 0.3629
-3.8234 5.6311 0.3615
-4.1423 5.6533 0.3720
-4.4813 5.6769 0.3837
-4.8430 5.7021 0.3966
-10.3361 11.3200 0.8120
-10.3816 10.5813 0.7846
-10.4243 9.8888 0.7598
-10.4645 9.2367 0.7374
-10.5024 8.6202 0.7171
-10.5385 8.0348 0.6987
-10.5729 7.4769 0.6820
-10.6057 6.9432 0.6669
-10.6373 6.4309 0.6532
-10.6677 5.9375 0.6407
-10.6971 5.4608 0.6295
-10.7255 4.9988 0.6194
-10.7532 4.5496 0.6104
-10.7802 4.1116 0.6023
-10.8066 3.6834 0.5952
-10.8324 3.2634 0.5889
-10.8579 2.8505 0.5834
-10.8829 2.4435 0.5788
-12.5235 2.3434 0.6601
-18.7683 2.8194 0.9818
-10.9909 1.2498 0.5713
-14.3981 1.1159 0.7446
-11.0308 0.4578 0.5683
-14.3114 0.0801 0.7354
-14.3431 -0.4344 0.7361
-14.3750 -0.9524 0.7377
-7.2036 -0.7376 0.3702
-14.6152 -2.0284 0.7529
-17.2918 -3.0357 0.8943
-17.3318 -3.6880 0.9010
-17.3726 -4.3534 0.9090
-17.4143 -5.0342 0.9184
-17.4570 -5.7326 0.9292
-17.0200 -6.2738 0.9157
-15.5288 -6.3657 0.8457
-14.2436 -6.4449 0.7864
-13.1217 -6.5140 0.7356
-12.1315 -6.5750 0.6916
-11.2490 -6.6293 0.6533
-11.2482 -7.1845 0.6666
-11.2857 -7.7921 0.6838
-11.3253 -8.4349 0.7029
-11.3673 -9.1180 0.7241
-11.4123 -9.8470 0.7478
-11.4604 -10.6290 0.7742
-11.5124 -11.4722 0.8036
-11.5687 -12.3865 0.8368
-11.6301 -13.3840 0.8740
-11.6697 -14.4449 0.9140
-11.7723 -15.6914 0.9641
-11.5687 -16.6308 0.9942
-11.6602 -18.1153 1.0558
-11.7641 -19.8032 1.1273
-11.8766 -21.7316 1.2104
-12.0232 -24.0078 1.3107
-12.3862 -27.1206 1.4536
-12.5885 -30.4045 1.6025
-11.4381 -30.6973 1.5935
-9.0301 -27.1761 1.3915
-9.2273 -31.5032 1.5935
-8.6231 -33.9040 1.6966
-7.4082 -34.2218 1.6966
-6.1813 -34.4942 1.6966
-4.9440 -34.7204 1.6966
-3.6982 -34.9001 1.6966
-2.4458 -35.0329 1.6966
-1.1885 -35.1185 1.6966
0.0674 -33.0171 1.5934
0.6740 -17.7679 0.8577
1.1212 -15.1677 0.7334
3.2992 -29.9660 1.4532
3.8610 -26.3436 1.2831
4.1051 -22.3814 1.0964
4.2874 -19.4217 0.9582
4.4291 -17.1214 0.8519
4.5712 -15.3739 0.7727
5.5315 -16.4228 0.8349
6.2120 -16.4661 0.8480
6.3244 -15.1004 0.7890
7.9129 -17.1405 0.9102
8.6960 -17.1888 0.9290
9.5129 -17.2391 0.9500
7.1941 -11.9986 0.6753
7.2460 -11.1573 0.6425
7.2930 -10.3937 0.6136
5.4110 -7.1516 0.4337
5.6506 -6.9365 0.4330
7.4121 -8.4601 0.5448
7.4462 -7.9078 0.5265
7.4780 -7.3915 0.5102
7.5078 -6.9066 0.4955
7.5360 -6.4492 0.4822
7.5627 -6.0159 0.4703
7.6087 -5.6190 0.4609
1.8657 -1.2770 0.1103
5.6320 -3.5652 0.3256
5.6484 -3.2980 0.3199
7.6794 -4.1219 0.4268
7.7002 -3.7838 0.4208
7.7204 -3.4557 0.4154
7.9891 -3.2373 0.4240
9.0770 -3.3043 0.4758
9.5930 -3.1073 0.4975
9.6157 -2.7377 0.4940
9.6381 -2.3739 0.4912
9.6603 -2.0149 0.4892
9.6860 -1.6602 0.4879
9.7792 -1.3171 0.4908
9.8010 -0.9636 0.4906
9.8227 -0.6111 0.4912
9.7697 -0.2566 0.4886
9.7902 0.0942 0.4903
9.8119 0.4467 0.4928
9.8347 0.8020 0.4959
9.8559 1.1608 0.4997
9.8783 1.5245 0.5042
9.9011 1.8938 0.5094
9.9242 2.2700 0.5153
9.9479 2.6543 0.5221
9.9722 3.0478 0.5298
9.9971 3.4521 0.5383
10.0469 3.8780 0.5491
10.0736 4.3096 0.5596
10.0931 4.7531 0.5708
10.1053 5.2097 0.5827
10.1352 5.6942 0.5969
10.1664 6.2017 0.6125
15.8528 10.4687 0.9787
25.1410 17.9296 1.5935
26.0227 20.0046 1.6966
25.2476 20.8913 1.6966
24.4432 21.7490 1.6966
23.6105 22.5766 1.6966
22.7508 23.3734 1.6966
-3.2392 9.0045 0.7260
-3.2911 8.2113 0.6710
-3.3725 7.6115 0.6314
-3.5284 7.2494 0.6113
-3.5663 6.7047 0.5757
-3.6001 6.2192 0.5446
-3.6304 5.7828 0.5173
-3.8235 5.6311 0.5155
-4.1425 5.6533 0.5305
-4.4815 5.6769 0.5472
-4.8433 5.7021 0.5658
-10.3361 11.3195 1.1586
-10.3817 10.5807 1.1198
-10.4243 9.8882 1.0847
-10.4645 9.2362 1.0530
-10.5025 8.6196 1.0244
-10.5385 8.0342 0.9984
-10.5729 7.4763 0.9748
-10.6058 6.9426 0.9535
-10.6373 6.4303 0.9342
-10.6677 5.9370 0.9168
-10.6971 5.4602 0.9011
-10.7256 4.9982 0.8870
-10.7532 4.5490 0.8744
-10.7802 4.1110 0.8632
-10.8066 3.6828 0.8533
-10.8325 3.2629 0.8447
-10.8579 2.8500 0.8373
-10.8830 2.4429 0.8310
-11.0938 2.0753 0.8400
-12.3404 1.8531 0.9277
-21.7617 2.4735 1.6263
-12.6785 0.9820 0.9432
-11.0308 0.4572 0.8179
-14.3111 0.0793 1.0590
-14.3428 -0.4352 1.0605
-14.3747 -0.9532 1.0634
-7.2027 -0.7379 0.5338
-14.6140 -2.0291 1.0865
-16.9335 -2.9738 1.2645
-16.9726 -3.6126 1.2746
-17.0125 -4.2642 1.2867
-17.0532 -4.9309 1.3007
-17.0959 -5.6151 1.3168
-17.0174 -6.2740 1.3256
-15.5266 -6.3658 1.2250
-14.2417 -6.4450 1.1397
-13.1200 -6.5141 1.0667
-12.1301 -6.5751 1.0035
-11.2477 -6.6294 0.9484
-11.2483 -7.1855 0.9684
-11.2857 -7.7930 0.9939
-11.3253 -8.4359 1.0221
-11.3674 -9.1190 1.0536
-11.4123 -9.8481 1.0885
-11.4605 -10.6302 1.1275
-11.5124 -11.4734 1.1711
-11.5688 -12.3878 1.2199
-11.6302 -13.3854 1.2749
-11.6697 -14.4463 1.3338
-11.7724 -15.6930 1.4076
-11.5688 -16.6325 1.4522
-11.6603 -18.1172 1.5428
-11.3751 -19.1500 1.5935
-7.9770 -14.5975 1.1890
-9.9907 -19.9513 1.5935
-9.2765 -20.3137 1.5935
-8.5489 -20.6498 1.5935
-7.9173 -21.2505 1.6157
-7.5138 -22.6151 1.6966
-6.7025 -22.8858 1.6966
-5.8813 -23.1264 1.6966
-5.0512 -23.3366 1.6966
-4.2134 -23.5161 1.6966
-3.3692 -23.6645 1.6966
-2.5196 -23.7816 1.6966
-1.6658 -23.8672 1.6966
-0.8091 -23.9211 1.6966
0.0473 -22.9839 1.6286
0.6722 -17.7155 1.2558
1.1119 -15.0405 1.0681
2.4456 -22.2109 1.5821
3.2641 -22.2698 1.5934
4.0612 -22.1412 1.5934
4.2874 -19.4215 1.4077
4.4291 -17.1213 1.2516
4.5956 -15.4560 1.1412
5.3481 -15.8785 1.1859
6.0060 -15.9203 1.2045
6.3242 -15.1004 1.1590
7.9126 -17.1405 1.3368
8.6958 -17.1888 1.3644
9.0202 -16.3467 1.3228
7.1941 -11.9990 0.9915
7.2460 -11.1577 0.9432
7.2930 -10.3940 0.9006
5.4110 -7.1519 0.6364
5.6505 -6.9367 0.6352
7.4121 -8.4605 0.7990
7.4461 -7.9082 0.7721
7.4779 -7.3919 0.7478
7.5078 -6.9070 0.7261
7.5360 -6.4496 0.7064
7.5627 -6.0163 0.6888
7.6026 -5.6149 0.6742
1.8655 -1.2770 0.1614
5.6319 -3.5655 0.4763
5.6484 -3.2983 0.4678
7.6794 -4.1223 0.6239
7.7002 -3.7842 0.6147
7.7204 -3.4561 0.6066
7.9879 -3.2372 0.6187
9.0754 -3.3042 0.6940
9.5929 -3.1078 0.7254
9.6157 -2.7382 0.7200
9.6381 -2.3744 0.7156
9.6602 -2.0154 0.7122
9.6859 -1.6607 0.7101
9.7087 -1.3081 0.7087
9.7303 -0.9572 0.7081
9.7517 -0.6072 0.7085
9.7697 -0.2571 0.7095
9.7902 0.0936 0.7116
9.8119 0.4461 0.7148
9.8346 0.8014 0.7190
9.8582 1.1606 0.7242
9.8803 1.5242 0.7303
9.9027 1.8936 0.7374
9.9255 2.2697 0.7456
9.9479 2.6536 0.7549
9.9721 3.0472 0.7655
9.9970 3.4515 0.7774
10.0512 3.8790 0.7929
10.0774 4.3105 0.8076
10.0919 4.7519 0.8229
10.1053 5.2089 0.8397
10.1351 5.6934 0.8597
10.1664 6.2009 0.8817
15.8348 10.4556 1.4066
15.4316 11.0040 1.4066
15.0098 11.5373 1.4066
14.5698 12.0547 1.4066
14.1124 12.5556 1.4066
13.6381 13.0396 1.4066
13.1476 13.5060 1.4066
-3.2392 9.0042 0.9431
-3.2911 8.2110 0.8717
-3.3357 7.5284 0.8113
-3.3747 6.9334 0.7597
-3.4090 6.4088 0.7150
-3.4396 5.9418 0.6761
-3.4670 5.5223 0.6419
-3.4919 5.1425 0.6118
-3.7675 5.1413 0.6271
-4.0745 5.1612 0.6467
-4.4020 5.1823 0.6685
-4.7531 5.2050 0.6927
-5.1313 5.2294 0.7197
-10.4244 9.8877 1.4107
-10.4645 9.2356 1.3697
-10.5025 8.6190 1.3326
-10.5386 8.0337 1.2990
-10.5729 7.4757 1.2686
-10.6058 6.9421 1.2411
-10.6374 6.4298 1.2162
-10.6678 5.9364 1.1938
-10.6971 5.4597 1.1736
-10.7256 4.9976 1.1555
-10.7533 4.5484 1.1393
-10.7803 4.1105 1.1249
-10.8066 3.6822 1.1123
-10.8325 3.2623 1.1013
-10.8579 2.8494 1.0919
-10.8830 2.4423 1.0841
-10.9106 2.0404 1.0779
-11.3974 1.7109 1.1182
-16.7745 1.9057 1.6366
-14.3984 1.1144 1.3987
-11.0308 0.4566 1.0684
-14.3111 0.0785 1.3836
-14.3428 -0.4360 1.3860
-14.3747 -0.9540 1.3902
-7.2017 -0.7382 0.6980
-14.6144 -2.0300 1.4212
-16.2438 -2.8536 1.5871
-16.2817 -3.4665 1.6004
-16.3198 -4.0916 1.6160
-16.3820 -4.7378 1.6363
-16.2196 -5.3282 1.6366
-16.0333 -5.9122 1.6366
-15.5244 -6.3660 1.6054
-14.2398 -6.4451 1.4941
-13.1184 -6.5142 1.3987
-12.1286 -6.5752 1.3163
-11.2464 -6.6295 1.2444
-11.2483 -7.1863 1.2712
-11.2858 -7.7940 1.3050
-11.3254 -8.4369 1.3425
-11.3675 -9.1200 1.3841
-11.4124 -9.8492 1.4305
-11.4606 -10.6313 1.4821
-11.5125 -11.4746 1.5398
-11.5487 -12.3675 1.6016
-11.0506 -12.7196 1.5935
-10.5958 -13.1181 1.5935
-10.1264 -13.5001 1.5935
-9.6430 -13.8650 1.5935
-9.1462 -14.2123 1.5935
-8.6368 -14.5415 1.5935
-7.9591 -14.5662 1.5629
-7.5825 -15.1435 1.5935
-7.4944 -16.4127 1.6966
-6.9051 -16.6810 1.6966
-6.3062 -16.9278 1.6966
-5.6982 -17.1525 1.6966
-5.0821 -17.3549 1.6966
-4.4587 -17.5346 1.6966
-3.8288 -17.6914 1.6966
-3.1933 -17.8250 1.6966
-2.5531 -17.9352 1.6966
-1.9090 -18.0219 1.6966
-1.2619 -18.0848 1.6966
-0.6127 -18.1239 1.6966
0.0376 -18.1391 1.6966
0.6463 -17.0270 1.5934
1.1110 -15.0260 1.4086
1.8657 -16.9430 1.5934
2.4724 -16.8675 1.5934
3.0760 -16.7696 1.5934
3.6755 -16.6495 1.5934
4.2703 -16.5074 1.5934
4.5699 -15.3695 1.4984
5.2586 -15.6130 1.5396
5.9055 -15.6541 1.5637
6.3241 -15.1004 1.5302
6.7918 -14.7130 1.5149
7.2765 -14.3836 1.5072
7.7317 -14.0121 1.4967
7.1941 -11.9994 1.3088
7.2459 -11.1581 1.2449
7.2930 -10.3944 1.1885
5.4110 -7.1522 0.8398
5.6504 -6.9369 0.8381
7.4121 -8.4609 1.0541
7.4461 -7.9086 1.0184
7.4779 -7.3924 0.9863
7.5078 -6.9074 0.9574
7.5360 -6.4500 0.9314
7.5627 -6.0167 0.9079
7.5964 -5.6108 0.8878
1.8652 -1.2769 0.2126
5.6319 -3.5658 0.6274
5.6484 -3.2986 0.6161
7.6793 -4.1227 0.8215
7.7002 -3.7846 0.8093
7.7204 -3.4565 0.7984
7.9867 -3.2371 0.8141
9.0738 -3.3041 0.9129
9.5929 -3.1083 0.9541
9.6157 -2.7387 0.9467
9.6381 -2.3749 0.9407
9.6602 -2.0159 0.9360
9.6821 -1.6606 0.9326
9.7038 -1.3080 0.9304
9.7254 -0.9573 0.9294
9.7470 -0.6074 0.9296
9.7685 -0.2576 0.9311
9.7901 0.0931 0.9337
9.8118 0.4456 0.9376
9.8337 0.8008 0.9427
9.8558 1.1597 0.9491
9.8782 1.5233 0.9568
9.9010 1.8926 0.9659
9.9242 2.2688 0.9764
9.9478 2.6530 0.9884
9.9721 3.0466 1.0020
9.9970 3.4508 1.0172
10.0436 3.8754 1.0365
10.0697 4.3065 1.0554
10.0845 4.7477 1.0752
10.1052 5.2082 1.0976
10.1351 5.6927 1.1234
10.1663 6.2001 1.1518
12.1248 8.0049 1.4066
11.8193 8.4272 1.4066
11.4992 8.8379 1.4066
11.1651 9.2367 1.4066
10.8174 9.6231 1.4066
10.4565 9.9966 1.4066
10.0829 10.3567 1.4066
-3.1383 8.7238 1.1250
-3.2910 8.2107 1.0733
-3.3357 7.5281 0.9990
-3.3746 6.9331 0.9354
-3.4090 6.4085 0.8804
-3.4395 5.9415 0.8325
-3.4670 5.5220 0.7905
-3.4919 5.1422 0.7534
-3.7663 5.1395 0.7721
-4.0732 5.1593 0.7963
-4.4006 5.1804 0.8232
-4.7515 5.2030 0.8531
-5.1295 5.2273 0.8863
-9.5571 9.0645 1.5935
-9.8802 8.7193 1.5935
-10.2427 8.4053 1.6016
-10.5386 8.0331 1.6010
-10.5730 7.4752 1.5637
-10.6058 6.9415 1.5300
-10.6374 6.4292 1.4995
-10.6678 5.9358 1.4720
-10.6972 5.4591 1.4473
-4.2693 1.9891 0.5673
-4.3406 1.8357 0.5673
-4.4063 1.6799 0.5673
-4.4665 1.5217 0.5673
-4.5212 1.3613 0.5673
-4.5701 1.1991 0.5673
-4.6133 1.0351 0.5673
-4.6506 0.8695 0.5673
-4.7073 0.7064 0.5703
-11.0581 1.2557 1.3325
-13.6387 1.0549 1.6366
-11.0309 0.4559 1.3199
-13.6993 0.0744 1.6366
-13.7034 -0.4173 1.6366
-13.6900 -0.9093 1.6366
-7.2008 -0.7385 0.8628
-13.6103 -1.8913 1.6366
-13.5442 -2.3801 1.6366
-13.4605 -2.8666 1.6366
-13.3593 -3.3502 1.6366
-13.2408 -3.8301 1.6366
-13.1050 -4.3059 1.6366
-12.9522 -4.7769 1.6366
-12.7824 -5.2424 1.6366
-12.5959 -5.7019 1.6366
-12.1278 -6.0231 1.6016
-11.9130 -6.4592 1.6016
-11.2451 -6.6296 1.5416
-11.2484 -7.1873 1.5753
-11.1754 -7.7187 1.6016
-10.8443 -8.0794 1.5935
-10.5552 -8.4693 1.5935
-10.2520 -8.8486 1.5935
-9.9350 -9.2171 1.5935
-9.6046 -9.5740 1.5935
-9.2613 -9.9190 1.5935
-8.9055 -10.2515 1.5935
-8.5376 -10.5710 1.5935
-8.1582 -10.8772 1.5935
-7.7676 -11.1696 1.5935
-7.3664 -11.4477 1.5935
-7.3659 -12.4028 1.6876
-6.9570 -12.7335 1.6966
-6.4994 -12.9817 1.6966
-6.0328 -13.2132 1.6966
-5.5578 -13.4276 1.6966
-5.0751 -13.6247 1.6966
-4.5854 -13.8041 1.6966
-4.0891 -13.9655 1.6966
-3.5872 -14.1088 1.6966
-3.0801 -14.2337 1.6966
-2.5686 -14.3399 1.6966
-2.0534 -14.4275 1.6966
-1.5352 -14.4962 1.6966
-1.0147 -14.5458 1.6966
-0.4926 -14.5764 1.6966
0.0304 -14.5879 1.6966
0.5536 -14.5802 1.6966
1.0108 -13.6676 1.5934
1.5004 -13.6244 1.5934
1.9882 -13.5633 1.5934
2.4734 -13.4843 1.5934
2.9555 -13.3876 1.5934
3.4337 -13.2733 1.5934
3.9074 -13.1416 1.5934
4.3759 -12.9925 1.5934
4.8875 -12.9557 1.6094
5.3732 -12.8301 1.6169
5.8484 -12.6696 1.6222
6.2980 -12.4499 1.6222
6.7392 -12.2139 1.6222
7.1714 -11.9620 1.6222
7.2459 -11.1585 1.5479
7.2929 -10.3949 1.4777
5.4110 -7.1525 1.0440
5.6504 -6.9371 1.0418
7.4121 -8.4613 1.3103
6.9372 -7.3685 1.1792
7.1942 -7.1123 1.1792
7.4415 -6.8469 1.1792
7.5359 -6.4504 1.1573
7.5626 -6.0171 1.1280
7.5903 -5.6067 1.1020
1.8650 -1.2768 0.2641
5.6319 -3.5661 0.7792
5.6484 -3.2989 0.7651
7.6793 -4.1231 1.0200
7.7001 -3.7850 1.0047
7.7203 -3.4569 0.9911
7.9854 -3.2371 1.0102
9.0722 -3.3040 1.1327
9.5929 -3.1088 1.1837
9.6156 -2.7392 1.1745
9.6381 -2.3755 1.1668
9.6602 -2.0164 1.1608
9.6821 -1.6611 1.1563
9.7038 -1.3085 1.1534
9.7254 -0.9578 1.1520
9.7469 -0.6080 1.1521
9.7685 -0.2582 1.1536
9.7901 0.0925 1.1567
9.8118 0.4450 1.1613
9.8337 0.8002 1.1674
9.8558 1.1591 1.1751
9.8782 1.5227 1.1845
9.9010 1.8920 1.1955
9.9241 2.2682 1.2083
9.9478 2.6524 1.2229
9.9720 3.0459 1.2395
9.9969 3.4502 1.2582
10.0360 3.8718 1.2807
10.0619 4.3025 1.3039
10.0771 4.7435 1.3281
10.1052 5.2074 1.3566
10.1350 5.6919 1.3882
10.1663 6.1993 1.4231
9.8497 6.5022 1.4116
9.5695 6.8223 1.4066
9.3120 7.1561 1.4066
9.0429 7.4802 1.4066
8.7627 7.7944 1.4066
8.4716 8.0982 1.4066
8.1702 8.3913 1.4066
-3.1117 8.6496 1.3261
-3.2910 8.2104 1.2760
-3.3357 7.5278 1.1877
-3.3746 6.9328 1.1121
-3.4089 6.4082 1.0467
-3.4395 5.9412 0.9898
-3.4669 5.5217 0.9399
-3.4918 5.1419 0.8959
-3.7652 5.1377 0.9179
-4.0719 5.1574 0.9467
-4.3991 5.1784 0.9786
-4.7499 5.2009 1.0142
-5.1277 5.2251 1.0538
-8.0352 7.6206 1.5935
-8.3064 7.3300 1.5935
-8.5671 7.0298 1.5935
-8.8172 6.7205 1.5935
-9.0564 6.4024 1.5935
-9.2841 6.0759 1.5935
-9.5003 5.7415 1.5935
-9.7046 5.3994 1.5935
-9.8968 5.0501 1.5935
-4.2541 1.9817 0.6728
-4.2651 1.8036 0.6635
-4.2758 1.6299 0.6553
-4.2862 1.4600 0.6481
-4.2965 1.2935 0.6419
-4.3066 1.1297 0.6366
-4.3166 0.9682 0.6321
-4.3264 0.8086 0.6285
-4.7102 0.7066 0.6798
-10.9607 1.2440 1.5734
-11.2021 0.8658 1.6016
-11.0309 0.4553 1.5728
-11.2493 0.0605 1.6016
-11.2513 -0.3433 1.6016
-11.2389 -0.7472 1.6016
-7.1300 -0.7317 1.0185
-11.1708 -1.5530 1.6016
-11.1151 -1.9540 1.6016
-11.0451 -2.3529 1.6016
-10.9608 -2.7494 1.6016
-10.8074 -3.1269 1.5935
-10.6953 -3.5148 1.5935
-10.5692 -3.8987 1.5935
-10.4294 -4.2781 1.5935
-10.2759 -4.6524 1.5935
-10.1090 -5.0212 1.5935
-9.9287 -5.3840 1.5935
-9.7354 -5.7403 1.5935
-9.5293 -6.0896 1.5935
-9.3106 -6.4314 1.5935
-9.0796 -6.7654 1.5935
-8.8365 -7.0910 1.5935
-8.5816 -7.4077 1.5935
-8.3153 -7.7153 1.5935
-8.0380 -8.0131 1.5935
-7.7498 -8.3009 1.5935
-7.4513 -8.5783 1.5935
-7.1586 -8.8644 1.5971
-7.1926 -9.5907 1.6795
-6.9175 -9.9481 1.6966
-6.5596 -10.1949 1.6966
-6.1928 -10.4286 1.6966
-5.8175 -10.6489 1.6966
-5.4344 -10.8555 1.6966
-5.0438 -11.0482 1.6966
-4.6463 -11.2265 1.6966
-4.2425 -11.3904 1.6966
-3.8327 -11.5395 1.6966
-3.4177 -11.6737 1.6966
-2.9979 -11.7927 1.6966
-2.5740 -11.8964 1.6966
-2.1464 -11.9845 1.6966
-1.7158 -12.0571 1.6966
-1.2826 -12.1138 1.6966
-0.8477 -12.1548 1.6966
-0.4114 -12.1799 1.6966
0.0256 -12.1890 1.6966
0.4627 -12.1822 1.6966
0.8446 -11.4195 1.5934
1.2537 -11.3831 1.5934
1.6611 -11.3319 1.5934
2.0665 -11.2657 1.5934
2.4692 -11.1849 1.5934
2.8687 -11.0893 1.5934
3.2645 -10.9793 1.5934
3.6559 -10.8548 1.5934
4.0425 -10.7162 1.5934
4.4238 -10.5635 1.5934
4.7993 -10.3971 1.5934
5.2113 -10.3020 1.6066
5.5765 -10.1070 1.6066
5.9366 -9.9026 1.6072
6.3059 -9.7113 1.6122
6.6542 -9.4848 1.6135
5.3342 -7.0513 1.2316
5.3630 -6.5846 1.1832
5.5751 -6.3647 1.1792
5.7980 -6.1588 1.1792
6.0132 -5.9451 1.1792
6.2203 -5.7236 1.1792
6.4192 -5.4949 1.1792
6.6095 -5.2592 1.1792
6.7911 -5.0168 1.1792
1.8647 -1.2768 0.3158
5.6319 -3.5664 0.9318
5.6484 -3.2992 0.9148
7.4253 -3.9871 1.1792
7.5598 -3.7164 1.1792
7.6843 -3.4412 1.1792
7.9842 -3.2370 1.2073
9.0706 -3.3039 1.3535
9.5928 -3.1093 1.4146
9.6156 -2.7397 1.4034
9.6380 -2.3760 1.3941
9.6601 -2.0169 1.3868
9.6820 -1.6616 1.3813
9.7038 -1.3090 1.3776
9.7254 -0.9583 1.3758
9.7469 -0.6085 1.3757
9.7685 -0.2587 1.3774
9.7901 0.0920 1.3809
9.8118 0.4445 1.3862
9.8337 0.7997 1.3933
9.8558 1.1586 1.4024
9.8782 1.5221 1.4133
9.9009 1.8914 1.4263
9.9241 2.2676 1.4414
9.9478 2.6518 1.4587
9.9720 3.0453 1.4783
9.9969 3.4495 1.5003
10.0283 3.8682 1.5259
9.9214 4.2418 1.5328
9.7588 4.5930 1.5331
9.5983 4.9455 1.5358
9.4704 5.3179 1.5459
9.3290 5.6880 1.5561
9.2138 6.0816 1.5733
9.0750 6.4690 1.5892
8.5650 6.5813 1.5412
7.9992 6.6162 1.4820
7.4751 6.6485 1.4291
7.1141 6.7998 1.4066
6.8617 7.0467 1.4066
-3.1375 8.7211 1.5509
-3.4666 8.6484 1.5590
-3.3356 7.5275 1.3776
-3.3746 6.9325 1.2899
-3.2516 6.1123 1.1581
-3.3717 5.8240 1.1256
-3.4669 5.5215 1.0903
-3.4918 5.1417 1.0392
-3.7640 5.1358 1.0644
-4.0706 5.1555 1.0978
-4.3977 5.1764 1.1349
-4.7482 5.1988 1.1762
-5.1259 5.2230 1.2222
-6.9254 6.5676 1.5935
-7.1587 6.3168 1.5935
-7.3831 6.0578 1.5935
-7.5983 5.7910 1.5935
-7.8039 5.5165 1.5935
-7.9997 5.2349 1.5935
-8.1855 4.9464 1.5935
-8.3610 4.6514 1.5935
-8.5260 4.3502 1.5935
-4.2541 1.9815 0.7810
-4.2651 1.8034 0.7703
-4.2758 1.6297 0.7608
-4.2863 1.4598 0.7525
-4.2965 1.2932 0.7453
-4.3066 1.1295 0.7392
-4.3166 0.9680 0.7341
-4.3264 0.8084 0.7300
-4.7132 0.7067 0.7901
-9.5560 1.0841 1.5935
-9.5938 0.7409 1.5935
-9.6194 0.3965 1.5935
-9.6327 0.0512 1.5935
-9.6336 -0.2945 1.5935
-9.6221 -0.6402 1.5935
-7.1230 -0.7314 1.1826
-9.5621 -1.3299 1.5935
-9.5136 -1.6730 1.5935
-9.4528 -2.0143 1.5935
-9.3798 -2.3534 1.5935
-9.2946 -2.6898 1.5935
-9.1974 -3.0232 1.5935
-9.0882 -3.3530 1.5935
-8.9671 -3.6789 1.5935
-8.8344 -4.0004 1.5935
-8.6901 -4.3171 1.5935
-8.5344 -4.6285 1.5935
-8.3675 -4.9344 1.5935
-8.1896 -5.2341 1.5935
-8.0010 -5.5274 1.5935
-7.8018 -5.8139 1.5935
-7.5922 -6.0932 1.5935
-7.3727 -6.3648 1.5935
-7.1433 -6.6285 1.5935
-7.0385 -7.0175 1.6245
-7.0682 -7.5716 1.6921
-6.8135 -7.8448 1.6966
-6.5309 -8.0879 1.6966
-6.2395 -8.3206 1.6966
-5.9398 -8.5428 1.6966
-5.6320 -8.7541 1.6966
-5.3167 -8.9542 1.6966
-4.9942 -9.1427 1.6966
-4.6650 -9.3195 1.6966
-4.3295 -9.4843 1.6966
-3.9880 -9.6369 1.6966
-3.6412 -9.7771 1.6966
-3.2893 -9.9045 1.6966
-2.9330 -10.0192 1.6966
-2.5726 -10.1208 1.6966
-2.2087 -10.2093 1.6966
-1.8417 -10.2846 1.6966
-1.4721 -10.3464 1.6966
-1.1004 -10.3948 1.6966
-0.7271 -10.4296 1.6966
-0.3528 -10.4508 1.6966
0.0221 -10.4584 1.6966
0.3971 -10.4523 1.6966
0.7717 -10.4326 1.6966
1.0757 -9.7664 1.5934
1.4253 -9.7223 1.5934
1.7730 -9.6655 1.5934
2.1185 -9.5960 1.5934
2.4612 -9.5141 1.5934
2.8007 -9.4196 1.5934
3.1366 -9.3129 1.5934
3.4683 -9.1941 1.5934
3.7954 -9.0632 1.5934
4.1176 -8.9205 1.5934
4.4343 -8.7662 1.5934
4.7451 -8.6005 1.5934
5.0917 -8.4936 1.6066
5.3920 -8.3042 1.6066
5.0921 -7.2585 1.4390
5.3342 -7.0517 1.4353
5.3630 -6.5849 1.3789
5.3896 -6.1532 1.3284
5.4143 -5.7516 1.2832
5.4374 -5.3762 1.2425
5.4591 -5.0236 1.2059
5.5096 -4.7166 1.1792
5.6733 -4.5145 1.1792
5.8295 -4.3067 1.1792
1.8645 -1.2767 0.3678
5.6319 -3.5667 1.0854
5.6483 -3.2995 1.0655
6.3754 -3.4237 1.1792
6.4913 -3.1915 1.1792
7.2045 -3.2268 1.2875
7.9829 -3.2369 1.4056
9.0689 -3.3038 1.5757
9.1910 -2.9795 1.5780
9.2785 -2.6441 1.5765
9.3573 -2.3073 1.5756
9.4223 -1.9678 1.5744
9.4784 -1.6272 1.5738
9.5225 -1.2851 1.5733
9.5556 -0.9421 1.5730
9.5604 -0.5974 1.5701
9.5586 -0.2537 1.5681
9.5499 0.0892 1.5671
9.5382 0.4315 1.5676
9.5154 0.7732 1.5683
9.4751 1.1133 1.5681
9.4121 1.4498 1.5661
9.3378 1.7833 1.5643
9.2536 2.1138 1.5628
9.1713 2.4442 1.5636
9.0894 2.7752 1.5665
9.0030 3.1060 1.5707
8.8852 3.4267 1.5715
8.7908 3.7578 1.5785
8.6817 4.0854 1.5851
8.5652 4.4126 1.5926
8.4408 4.7392 1.6009
8.2720 5.0429 1.6031
8.0960 5.3431 1.6060
7.8980 5.6293 1.6066
7.6869 5.9059 1.6066
7.4662 6.1747 1.6066
7.2362 6.4353 1.6066
6.9878 6.6785 1.6045
6.5312 6.7066 1.5547
-3.0137 8.3769 1.6966
-3.3125 8.2637 1.6966
-3.6071 8.1401 1.6966
-3.8973 8.0061 1.6966
-3.1999 6.0149 1.2980
-3.3397 5.7684 1.2697
-3.4669 5.5212 1.2418
-3.4917 5.1414 1.1836
-3.7628 5.1339 1.2120
-4.0693 5.1535 1.2501
-4.3962 5.1744 1.2923
-4.7466 5.1968 1.3393
-6.1946 6.3116 1.6825
-6.2200 5.8984 1.6304
-6.2840 5.5446 1.5935
-6.4807 5.3170 1.5935
-6.6693 5.0826 1.5935
-6.8495 4.8415 1.5935
-7.0211 4.5941 1.5935
-7.1838 4.3407 1.5935
-7.3375 4.0816 1.5935
-7.4820 3.8171 1.5935
-4.2541 1.9813 0.8900
-4.2651 1.8031 0.8778
-4.2758 1.6294 0.8671
-4.2863 1.4596 0.8577
-4.2966 1.2930 0.8496
-4.3066 1.1292 0.8426
-4.3166 0.9678 0.8369
-4.3264 0.8082 0.8323
-4.7161 0.7069 0.9013
-8.3811 0.9503 1.5935
-8.4137 0.6493 1.5935
-8.4356 0.3473 1.5935
-8.4467 0.0445 1.5935
-8.4469 -0.2587 1.5935
-8.4363 -0.5618 1.5935
-7.1160 -0.7311 1.3475
-8.3826 -1.1664 1.5935
-8.3395 -1.4670 1.5935
-8.2857 -1.7661 1.5935
-8.2211 -2.0632 1.5935
-8.1459 -2.3579 1.5935
-8.0601 -2.6499 1.5935
-7.9639 -2.9387 1.5935
-7.8572 -3.2241 1.5935
-7.7404 -3.5055 1.5935
-7.6135 -3.7828 1.5935
-7.4765 -4.0554 1.5935
-7.3299 -4.3230 1.5935
-7.1736 -4.5853 1.5935
-7.0079 -4.8419 1.5935
-6.9263 -5.1621 1.6153
-6.9452 -5.5745 1.6645
-6.8740 -5.9349 1.6966
-6.6597 -6.1804 1.6966
-6.4367 -6.4181 1.6966
-6.2050 -6.6476 1.6966
-5.9652 -6.8688 1.6966
-5.7174 -7.0812 1.6966
-5.4620 -7.2846 1.6966
-5.1994 -7.4787 1.6966
-4.9297 -7.6632 1.6966
-4.6535 -7.8379 1.6966
-4.3710 -8.0026 1.6966
-4.0827 -8.1569 1.6966
-3.7888 -8.3008 1.6966
-3.4899 -8.4340 1.6966
-3.1862 -8.5562 1.6966
-2.8782 -8.6675 1.6966
-2.5663 -8.7675 1.6966
-2.2508 -8.8561 1.6966
-1.9324 -8.9332 1.6966
-1.6112 -8.9988 1.6966
-1.2878 -9.0526 1.6966
-0.9626 -9.0947 1.6966
-0.6360 -9.1250 1.6966
-0.3085 -9.1433 1.6966
0.0195 -9.1498 1.6966
0.3476 -9.1443 1.6966
0.6753 -9.1269 1.6966
0.9435 -8.5656 1.5974
1.2469 -8.5053 1.5934
1.5511 -8.4556 1.5934
1.8533 -8.3948 1.5934
2.1531 -8.3230 1.5934
2.4501 -8.2405 1.5934
2.7439 -8.1471 1.5934
3.0341 -8.0432 1.5934
3.3203 -7.9288 1.5934
3.6022 -7.8041 1.5934
3.8793 -7.6692 1.5934
4.1512 -7.5243 1.5934
4.4178 -7.3697 1.5934
4.6784 -7.2055 1.5934
4.9329 -7.0320 1.5934
5.0512 -6.6778 1.5535
5.0784 -6.2359 1.4924
5.1081 -5.8321 1.4390
5.3127 -5.6439 1.4390
5.4374 -5.3765 1.4200
5.4591 -5.0239 1.3780
5.4796 -4.6912 1.3402
5.4990 -4.3762 1.3061
5.5175 -4.0765 1.2754
1.8643 -1.2767 0.4202
5.5520 -3.5164 1.2226
5.5682 -3.2530 1.2001
5.8530 -3.1435 1.2368
6.4702 -3.1815 1.3428
7.2035 -3.2267 1.4705
7.9398 -3.2198 1.5969
8.0401 -2.9294 1.5955
8.1228 -2.6337 1.5928
8.1922 -2.3350 1.5897
8.2515 -2.0350 1.5867
8.3134 -1.7366 1.5863
8.3738 -1.4380 1.5876
8.4246 -1.1374 1.5893
8.4635 -0.8349 1.5907
8.4722 -0.5298 1.5884
8.4707 -0.2253 1.5864
8.4592 0.0785 1.5845
8.4411 0.3814 1.5834
8.4114 0.6831 1.5822
8.3737 0.9834 1.5815
8.3329 1.2830 1.5823
8.2774 1.5803 1.5823
8.2175 1.8767 1.5835
8.1573 2.1735 1.5867
8.0973 2.4717 1.5921
8.0193 2.7661 1.5960
7.9279 3.0569 1.5994
7.8311 3.3470 1.6039
7.7152 3.6301 1.6066
7.5763 3.9026 1.6066
7.4278 4.1698 1.6066
7.2699 4.4314 1.6066
7.1029 4.6871 1.6066
6.9269 4.9366 1.6066
6.7423 5.1795 1.6066
6.5491 5.4156 1.6066
6.3478 5.6445 1.6066
6.1385 5.8660 1.6066
5.9215 6.0799 1.6066
-0.7964 2.2136 0.5035
-2.9497 7.3585 1.6966
-3.2121 7.2484 1.6966
-3.4704 7.1290 1.6966
-3.2190 6.0506 1.4664
-3.3417 5.7717 1.4268
-3.5807 5.7022 1.4403
-3.4917 5.1412 1.3292
-3.7616 5.1321 1.3607
-4.9175 6.2275 1.6966
-5.1388 6.0482 1.6966
-5.3536 5.8610 1.6966
-5.5616 5.6663 1.6966
-5.7627 5.4643 1.6966
-5.9565 5.2553 1.6966
-6.1428 5.0394 1.6966
-6.2895 4.7928 1.6881
-6.3113 4.4607 1.6494
-6.3322 4.1430 1.6145
-6.3946 3.8635 1.5935
-6.5312 3.6327 1.5935
-6.6595 3.3971 1.5935
-4.2541 1.9811 0.9999
-4.2651 1.8029 0.9863
-4.2758 1.6292 0.9743
-4.2863 1.4593 0.9638
-4.2966 1.2928 0.9547
-4.3067 1.1290 0.9469
-4.3166 0.9676 0.9405
-4.3265 0.8079 0.9354
-4.7191 0.7071 1.0137
-7.4565 0.8451 1.5935
-7.4852 0.5773 1.5935
-7.5042 0.3085 1.5935
-7.5137 0.0391 1.5935
-7.5135 -0.2306 1.5935
-7.5037 -0.5001 1.5935
-7.1089 -0.7307 1.5136
-7.4551 -1.0378 1.5935
-7.4164 -1.3051 1.5935
-7.3681 -1.5710 1.5935
-7.3103 -1.8351 1.5935
-7.2431 -2.0970 1.5935
-7.1664 -2.3565 1.5935
-7.0804 -2.6132 1.5935
-6.9853 -2.8668 1.5935
-6.8810 -3.1168 1.5935
-6.8193 -3.3887 1.6056
-6.8314 -3.7059 1.6380
-6.8507 -4.0409 1.6756
-6.7883 -4.3396 1.6966
-6.6311 -4.5822 1.6966
-6.4653 -4.8191 1.6966
-6.2909 -5.0499 1.6966
-6.1083 -5.2744 1.6966
-5.9176 -5.4923 1.6966
-5.7191 -5.7032 1.6966
-5.5131 -5.9069 1.6966
-5.2997 -6.1031 1.6966
-5.0794 -6.2915 1.6966
-4.8522 -6.4719 1.6966
-4.6187 -6.6441 1.6966
-4.3790 -6.8077 1.6966
-4.1334 -6.9627 1.6966
-3.8824 -7.1087 1.6966
-3.6261 -7.2455 1.6966
-3.3650 -7.3730 1.6966
-3.0994 -7.4910 1.6966
-2.8296 -7.5994 1.6966
-2.5560 -7.6979 1.6966
-2.2789 -7.7865 1.6966
-1.9987 -7.8650 1.6966
-1.7158 -7.9333 1.6966
-1.4306 -7.9913 1.6966
-1.1434 -8.0390 1.6966
-0.8546 -8.0762 1.6966
-0.5646 -8.1029 1.6966
-0.2738 -8.1190 1.6966
0.0174 -8.1246 1.6966
0.3087 -8.1197 1.6966
0.5997 -8.1041 1.6966
0.8899 -8.0781 1.6966
1.1072 -7.5521 1.5934
1.3773 -7.5079 1.5934
1.6456 -7.4539 1.5934
1.9118 -7.3902 1.5934
2.1755 -7.3169 1.5934
2.4363 -7.2340 1.5934
2.6940 -7.1418 1.5934
2.9481 -7.0402 1.5934
3.1984 -6.9295 1.5934
3.4445 -6.8098 1.5934
3.6860 -6.6813 1.5934
3.9227 -6.5441 1.5934
4.1542 -6.3984 1.5934
4.3803 -6.2445 1.5934
4.6006 -6.0824 1.5934
4.8148 -5.9125 1.5934
5.0228 -5.7350 1.5934
5.1270 -5.4470 1.5638
5.1489 -5.0915 1.5141
5.1695 -4.7576 1.4694
5.2251 -4.4736 1.4390
5.3807 -4.2823 1.4390
5.5175 -4.0768 1.4359
1.8640 -1.2766 0.4730
5.5520 -3.5167 1.3764
5.5682 -3.2533 1.3510
