ply
format ascii 1.0
element vertex 2133
property float32 x
property float32 y
property float32 z
end_header
-10.2299 -23.4199 -0.4845
-9.3001 -23.5687 -0.4811
-8.6577 -24.4867 -0.4940
-7.4976 -23.9103 -0.4773
-6.7661 -24.6512 -0.4875
-5.5119 -23.3421 -0.4579
-4.7945 -24.1605 -0.4707
-4.0808 -25.3014 -0.4902
-3.2347 -25.9681 -0.5009
-3.2121 -36.4325 -0.7004
-1.8313 -35.2193 -0.6756
-0.5455 -34.1749 -0.6549
0.6682 -33.3621 -0.6394
1.8306 -32.6458 -0.6265
2.9562 -32.0412 -0.6164
4.0559 -31.5161 -0.6085
5.1427 -31.0807 -0.6029
5.4582 -26.9308 -0.5255
6.3323 -26.3370 -0.5176
7.2329 -25.9385 -0.5141
9.5449 -30.0111 -0.6005
2.1942 -6.1265 -0.1239
12.1532 -30.4362 -0.6232
13.5635 -30.7106 -0.6374
12.9146 -26.6075 -0.5605
6.9384 -13.0752 -0.2800
14.5209 -25.1361 -0.5480
16.7144 -26.6693 -0.5929
18.8595 -27.8151 -0.6316
23.0891 -31.5468 -0.7329
24.4748 -31.0324 -0.7390
24.8871 -29.3206 -0.7172
26.1550 -28.6572 -0.7215
27.9360 -28.4793 -0.7396
31.9747 -30.3322 -0.8146
36.9095 -32.5722 -0.9070
38.3968 -31.5014 -0.9120
24.5192 -16.0329 -0.5322
45.2333 13.2311 -0.7678
41.4325 13.7558 -0.7078
35.9495 13.3897 -0.6190
33.2540 13.7675 -0.5780
31.6443 14.4558 -0.5561
29.8983 14.9809 -0.5321
27.4871 15.0335 -0.4962
26.6228 15.8310 -0.4883
24.9331 16.0678 -0.4655
23.4970 16.3680 -0.4475
22.3871 16.8227 -0.4357
21.0221 17.0140 -0.4190
19.3520 16.8500 -0.3959
18.3714 17.1967 -0.3868
17.4157 17.5195 -0.3782
16.0181 17.3173 -0.3598
15.0190 17.4573 -0.3500
14.1783 17.7326 -0.3438
14.4182 19.4265 -0.3651
14.7131 21.3910 -0.3906
15.0089 23.5964 -0.4194
15.3802 26.2178 -0.4545
9.7724 18.1225 -0.3070
8.9999 18.2310 -0.3024
8.2455 18.3370 -0.2983
4.2593 10.4631 -0.1672
3.8476 10.5208 -0.1655
-12.6068 -7.6813 0.0662
-12.7051 -8.3825 0.0672
-12.8098 -9.1296 0.0683
-12.8927 -9.9071 0.0696
-13.0131 -10.7659 0.0712
-13.1731 -11.7216 0.0732
-13.6067 -13.0143 0.0770
-13.7658 -14.1492 0.0796
-13.9413 -15.4014 0.0826
-14.1365 -16.7939 0.0860
-14.3554 -18.3559 0.0901
-14.5711 -20.0807 0.0947
-15.8048 -23.5166 0.1068
-21.6175 -34.8083 0.1525
-12.6645 -22.1312 0.0938
-11.5256 -21.9360 0.0902
-10.8940 -22.6800 0.0906
-10.1774 -23.3010 0.0907
-9.3156 -23.6092 0.0897
-8.3396 -23.5883 0.0876
-7.4505 -23.7613 0.0866
-6.8028 -24.7863 0.0887
-5.7259 -24.2496 0.0855
-4.7969 -24.1738 0.0841
-4.0364 -25.0274 0.0861
-3.2395 -26.0083 0.0887
-3.0511 -34.6094 0.1172
-1.4047 -27.0166 0.0911
-0.5206 -32.6168 0.1096
0.6379 -31.8481 0.1070
1.4881 -26.5396 0.0894
2.4514 -26.5708 0.0898
3.4958 -27.1651 0.0924
4.3553 -26.3227 0.0903
5.3576 -26.4355 0.0916
6.1834 -25.7189 0.0903
7.1747 -25.7309 0.0917
8.8347 -27.7794 0.1007
2.1919 -6.1205 0.0226
10.9868 -27.5164 0.1039
12.2515 -27.7417 0.1073
13.5329 -27.8829 0.1107
6.9373 -13.0738 0.0534
14.5344 -25.1610 0.1059
16.8521 -26.8906 0.1170
18.5632 -27.3797 0.1234
21.1385 -28.8834 0.1351
23.1531 -29.3584 0.1430
24.6954 -29.0967 0.1478
25.8484 -28.3232 0.1506
27.1488 -27.6788 0.1544
31.3216 -29.7148 0.1744
33.9003 -29.9189 0.1853
37.1985 -30.5207 0.2001
45.2389 13.2303 0.2936
41.4372 13.7551 0.2754
35.9534 13.3892 0.2450
33.2573 13.7670 0.2326
31.6473 14.4554 0.2275
29.8974 14.9788 0.2211
27.4895 15.0332 0.2094
26.6250 15.8307 0.2093
24.9351 16.0675 0.2025
23.4968 16.3663 0.1974
22.3888 16.8225 0.1950
21.0236 17.0138 0.1901
19.3534 16.8499 0.1820
18.3712 17.1952 0.1800
17.4169 17.5193 0.1782
16.0191 17.3172 0.1715
15.0200 17.4572 0.1687
14.1781 17.7312 0.1675
14.4180 19.4249 0.1797
14.7139 21.3909 0.1942
15.0086 23.5946 0.2104
15.3799 26.2157 0.2300
16.3624 30.3415 0.2623
16.5211 33.4646 0.2854
17.0814 37.9845 0.3200
17.9308 44.0451 0.3670
-12.6070 -7.6822 0.3987
-12.7052 -8.3834 0.4101
-12.8099 -9.1305 0.4227
-12.8929 -9.9080 0.4359
-13.0132 -10.7669 0.4516
-13.1732 -11.7227 0.4704
-13.6069 -13.0154 0.5012
-13.7660 -14.1504 0.5243
-13.9415 -15.4027 0.5505
-14.1367 -16.7953 0.5805
-14.3556 -18.3573 0.6151
-14.5713 -20.0823 0.6536
-15.4313 -22.9624 0.7275
-14.5723 -23.4657 0.7251
-13.9320 -24.3477 0.7352
-11.8758 -22.6038 0.6681
-11.0899 -23.0892 0.6692
-10.4305 -23.8819 0.6800
-9.3224 -23.6278 0.6619
-8.2846 -23.4341 0.6470
-7.4041 -23.6146 0.6435
-6.5640 -23.9178 0.6443
-5.7739 -24.4544 0.6522
-4.8978 -24.6836 0.6527
-4.1685 -25.8477 0.6787
-3.1197 -25.0481 0.6540
-1.4488 -16.4353 0.4273
-0.8277 -15.9200 0.4127
-0.2589 -16.2261 0.4201
0.3314 -16.5440 0.4283
0.9462 -16.8750 0.4375
1.5887 -17.2209 0.4478
2.2627 -17.5837 0.4592
2.9724 -17.9658 0.4718
5.2370 -25.8419 0.6835
6.1287 -25.4928 0.6801
7.1378 -25.6000 0.6899
8.2649 -25.9892 0.7085
2.1897 -6.1145 0.1689
11.0024 -27.5571 0.7725
12.2934 -27.8379 0.7932
13.7936 -28.4215 0.8245
6.9362 -13.0725 0.3867
14.8310 -25.6758 0.7760
17.2620 -27.5462 0.8521
18.4371 -27.1954 0.8626
20.0395 -27.3835 0.8925
22.4592 -28.4803 0.9557
24.6656 -29.0635 1.0064
25.8827 -28.3627 1.0157
27.2692 -27.8035 1.0323
26.2148 -24.8718 0.9600
28.5781 -25.2237 1.0149
31.1581 -25.5668 1.0756
34.0716 -25.9638 1.1459
37.7167 -26.6525 1.2384
34.0033 -17.3254 1.0339
38.0317 -17.6844 1.1393
44.5688 -18.8048 1.3176
39.6362 -1.5628 1.1118
29.6009 -0.1013 0.8321
28.2783 0.9212 0.7977
27.5328 1.8904 0.7803
27.0041 2.8333 0.7699
26.8334 3.7957 0.7707
27.2452 4.8596 0.7892
45.2446 13.2295 1.3556
41.4420 13.7544 1.2591
35.9572 13.3886 1.1094
33.2607 13.7666 1.0436
31.6504 14.4550 1.0113
29.8967 14.9767 0.9744
27.4918 15.0329 0.9154
26.6272 15.8304 0.9072
24.9370 16.0673 0.8708
23.3823 16.2852 0.8384
21.9439 16.4868 0.8094
20.6058 16.6743 0.7835
19.3547 16.8497 0.7601
18.1795 17.0144 0.7391
17.0706 17.1698 0.7201
16.0201 17.3170 0.7030
15.0209 17.4571 0.6875
14.1779 17.7297 0.6789
14.4178 19.4233 0.7247
14.6917 21.3572 0.7779
15.0084 23.5926 0.8404
15.3796 26.2136 0.9147
15.8222 29.3379 1.0046
16.4185 33.2549 1.1192
17.0809 37.9813 1.2583
14.9802 36.7951 1.2016
10.7331 37.5139 1.1835
11.9651 48.3327 1.5114
-12.6071 -7.6830 0.7317
-12.7053 -8.3842 0.7534
-12.8101 -9.1314 0.7775
-12.8930 -9.9090 0.8026
-13.0134 -10.7679 0.8326
-13.1734 -11.7237 0.8682
-13.6070 -13.0165 0.9259
-13.7661 -14.1516 0.9696
-13.9417 -15.4040 1.0191
-14.1369 -16.7966 1.0757
-14.3558 -18.3588 1.1407
-14.5716 -20.0839 1.2133
-14.9701 -22.2775 1.3111
-14.3072 -23.0403 1.3236
-13.6696 -23.8905 1.3421
-11.9701 -22.7846 1.2539
-11.1132 -23.1392 1.2496
-11.0015 -25.1908 1.3372
-9.1481 -23.1874 1.2117
-8.2865 -23.4407 1.2079
-7.3518 -23.4493 1.1932
-6.5323 -23.8036 1.1979
-7.7791 -32.9491 1.6423
-4.9358 -24.8765 1.2298
-4.4393 -27.5288 1.3517
-3.1366 -25.1849 1.2299
-1.4478 -16.4244 0.7989
-0.8275 -15.9172 0.7721
-0.2589 -16.2233 0.7859
0.3313 -16.5409 0.8014
0.9460 -16.8718 0.8186
1.5883 -17.2176 0.8376
2.2622 -17.5802 0.8588
2.9717 -17.9621 0.8823
5.1337 -25.3333 1.2530
6.0969 -25.3619 1.2649
7.1019 -25.4723 1.2828
8.2253 -25.8661 1.3173
2.1874 -6.1085 0.3151
10.9871 -27.5202 1.4397
12.4502 -28.1946 1.4984
13.5719 -27.9662 1.5123
6.9351 -13.0712 0.7204
16.1438 -27.9501 1.5727
16.9223 -27.0058 1.5541
18.3305 -27.0397 1.5944
19.2732 -26.3379 1.5944
20.1882 -25.6022 1.5944
21.0743 -24.8335 1.5944
22.0843 -24.2020 1.6056
23.9869 -24.4586 1.6808
25.0725 -23.7897 1.6977
25.8807 -22.8446 1.6977
26.6525 -21.8714 1.6977
27.3868 -20.8715 1.6977
28.0829 -19.8466 1.6977
28.7398 -18.7979 1.6977
27.6055 -16.6697 1.5964
28.1155 -15.6258 1.5946
28.6180 -14.5831 1.5946
29.0815 -13.5243 1.5946
29.9324 -12.6309 1.6177
30.3214 -11.5284 1.6177
30.6694 -10.4141 1.6177
30.9761 -9.2895 1.6177
31.2413 -8.1562 1.6177
31.4646 -7.0159 1.6177
31.4761 -5.8384 1.6090
28.2504 -4.1950 1.4378
26.0881 -2.9191 1.3236
25.1970 -1.9046 1.2762
24.6124 -0.9717 1.2460
24.3121 -0.0844 1.2318
24.0616 0.7826 1.2217
23.8941 1.6393 1.2174
23.8711 2.5033 1.2220
24.0004 3.3938 1.2360
24.2590 4.3257 1.2586
24.8005 5.3495 1.2979
25.9648 6.5866 1.3725
28.4190 8.3082 1.5194
29.4403 9.7695 1.5942
29.0966 10.8325 1.5981
27.1253 11.2256 1.5133
26.6647 12.1765 1.5133
26.1124 13.0794 1.5098
26.4063 14.4377 1.5581
25.4164 15.1090 1.5329
24.9390 16.0670 1.5401
23.3841 16.2849 1.4813
21.9455 16.4866 1.4287
20.6072 16.6741 1.3815
19.3560 16.8495 1.3390
18.1807 17.0142 1.3008
17.0717 17.1696 1.2663
16.0212 17.3169 1.2352
15.0218 17.4570 1.2071
14.1777 17.7283 1.1910
14.4176 19.4218 1.2703
14.6915 21.3555 1.3626
15.0081 23.5907 1.4711
15.3065 26.0874 1.5927
12.6846 23.5188 1.4082
13.3704 27.0795 1.5927
12.3789 27.5241 1.5927
11.3732 27.9339 1.5927
10.3547 28.3085 1.5927
9.3346 28.6790 1.5944
8.2927 28.9825 1.5944
6.1492 24.8382 1.3540
-12.6072 -7.6838 1.0655
-12.7055 -8.3851 1.0976
-12.8102 -9.1323 1.1332
-12.8931 -9.9099 1.1702
-13.0135 -10.7689 1.2145
-13.1735 -11.7248 1.2668
-13.6072 -13.0177 1.3516
-13.7663 -14.1528 1.4159
-13.9419 -15.4052 1.4888
-14.1371 -16.7980 1.5720
-13.7114 -17.5359 1.5927
-13.0810 -18.0306 1.5927
-12.4322 -18.5019 1.5927
-8.0450 -12.9564 1.0890
-11.1880 -19.5545 1.6077
-10.4833 -19.9557 1.6077
-4.3777 -9.1154 0.7208
-3.9794 -9.1125 0.7084
-3.9516 -10.0166 0.7668
-7.5271 -21.2938 1.6077
-6.7588 -21.5590 1.6077
-5.9810 -21.7957 1.6077
-5.1523 -21.8243 1.5946
-4.3651 -22.0013 1.5946
-3.5716 -22.1491 1.5946
-2.7730 -22.2673 1.5946
-1.4467 -16.4134 1.1707
-0.8273 -15.9144 1.1322
-0.2579 -16.1645 1.1485
0.3312 -16.5379 1.1751
0.9457 -16.8686 1.2003
1.5880 -17.2142 1.2282
2.2529 -17.5093 1.2544
3.6623 -22.1379 1.5946
4.4614 -22.0168 1.5967
5.2588 -21.8766 1.5996
6.1271 -21.9772 1.6225
7.0218 -22.0826 1.6484
2.1851 -6.1025 0.4613
8.8419 -22.1482 1.6977
9.6288 -21.8064 1.6977
10.4022 -21.4360 1.6977
6.8920 -12.9906 1.0483
11.9041 -20.6110 1.6977
12.6305 -20.1578 1.6977
13.3394 -19.6784 1.6977
14.0296 -19.1734 1.6977
14.7002 -18.6436 1.6977
15.3505 -18.0899 1.6977
15.9794 -17.5129 1.6977
16.5863 -16.9136 1.6977
17.1702 -16.2929 1.6977
16.6538 -14.7013 1.5946
17.1572 -14.0806 1.5946
17.6370 -13.4423 1.5946
18.0928 -12.7875 1.5946
18.5239 -12.1171 1.5946
19.2038 -11.5974 1.6177
19.5895 -10.8884 1.6177
19.9487 -10.1665 1.6177
20.2810 -9.4327 1.6177
20.5860 -8.6881 1.6177
20.8634 -7.9335 1.6177
21.1130 -7.1702 1.6177
21.3344 -6.3991 1.6177
21.5275 -5.6214 1.6177
21.6921 -4.8379 1.6177
21.8280 -4.0499 1.6177
21.7545 -3.2315 1.6044
21.5928 -2.4172 1.5868
21.4290 -1.6209 1.5712
21.2681 -0.8408 1.5579
21.1336 -0.0745 1.5486
21.0302 0.6829 1.5435
20.9555 1.4366 1.5426
20.8733 2.1879 1.5430
20.8160 2.9424 1.5473
20.8359 3.7143 1.5595
20.8627 4.4990 1.5743
20.8947 5.2993 1.5918
20.8832 6.1040 1.6084
20.7383 6.8807 1.6170
20.4647 7.6178 1.6177
20.1565 8.3405 1.6177
19.8231 9.0511 1.6177
19.4650 9.7487 1.6177
19.0828 10.4324 1.6177
18.1064 10.7624 1.5683
18.2481 11.7552 1.6177
17.7968 12.3928 1.6177
16.7282 12.5660 1.5621
15.7431 12.7373 1.5133
15.2616 13.2842 1.5133
14.7517 13.8042 1.5123
14.2186 14.2991 1.5106
13.6583 14.7619 1.5078
13.0984 15.2207 1.5066
13.4575 16.8266 1.6177
12.8345 17.2881 1.6177
12.1962 17.7272 1.6177
11.5432 18.1433 1.6177
10.8765 18.5361 1.6177
10.1241 18.7701 1.6061
9.0410 18.3100 1.5387
8.6755 19.2887 1.5944
7.9723 19.5797 1.5944
7.2596 19.8457 1.5944
6.5383 20.0866 1.5944
5.8093 20.3020 1.5944
5.1670 20.8695 1.6238
-12.6073 -7.6847 1.4004
-12.7056 -8.3860 1.4428
-12.8103 -9.1332 1.4900
-12.8933 -9.9109 1.5391
-12.9738 -10.7369 1.5927
-12.5876 -11.2042 1.5927
-12.1843 -11.6573 1.5927
-11.7645 -12.0957 1.5927
-11.3287 -12.5187 1.5927
-10.9799 -13.0474 1.6077
-10.4237 -13.3321 1.5946
-9.9427 -13.7058 1.5946
-9.4481 -14.0618 1.5946
-8.0326 -12.9372 1.4327
-8.4207 -14.7187 1.5946
-7.8892 -15.0186 1.5946
-4.3779 -9.1164 0.9502
-3.9796 -9.1135 0.9340
-3.9700 -10.0637 1.0157
-5.6698 -16.0405 1.5968
-5.0949 -16.2525 1.5982
-4.6376 -16.9010 1.6440
-4.1170 -17.4400 1.6806
-3.5234 -17.7599 1.6977
-2.8832 -17.8813 1.6980
-2.2388 -17.9788 1.6983
-1.5911 -18.0525 1.6986
-0.9409 -18.1026 1.6989
-0.2577 -16.1546 1.5141
0.3631 -18.1300 1.6994
1.0152 -18.1073 1.6996
1.6660 -18.0606 1.6998
2.3147 -17.9898 1.7000
2.9603 -17.8951 1.7003
3.6012 -17.7727 1.7001
4.2360 -17.6227 1.6995
4.8643 -17.4488 1.6989
5.4854 -17.2515 1.6982
2.1829 -6.0965 0.6076
6.7057 -16.7979 1.6977
7.3032 -16.5404 1.6977
7.8906 -16.2612 1.6977
6.8834 -12.9752 1.3801
9.0322 -15.6394 1.6977
9.5847 -15.2977 1.6977
9.5093 -14.0291 1.5946
10.0029 -13.6712 1.5946
10.4828 -13.2956 1.5946
10.9483 -12.9030 1.5946
11.3989 -12.4937 1.5946
11.8340 -12.0684 1.5946
12.2530 -11.6278 1.5946
12.6553 -11.1724 1.5946
13.2293 -10.8579 1.6177
13.6021 -10.3679 1.6177
13.9566 -9.8650 1.6177
14.2923 -9.3499 1.6177
14.6088 -8.8233 1.6177
14.9056 -8.2859 1.6177
15.1826 -7.7384 1.6177
15.4392 -7.1817 1.6177
15.6752 -6.6164 1.6177
15.8904 -6.0434 1.6177
16.0845 -5.4633 1.6177
16.2573 -4.8772 1.6177
16.4086 -4.2856 1.6177
16.5384 -3.6894 1.6177
16.6463 -3.0894 1.6177
16.7325 -2.4864 1.6177
16.7968 -1.8812 1.6177
16.8392 -1.2746 1.6177
16.8597 -0.6674 1.6177
16.8583 -0.0603 1.6177
16.8351 0.5458 1.6177
16.7901 1.1502 1.6177
16.7236 1.7520 1.6177
16.6355 2.3506 1.6177
16.5261 2.9451 1.6177
16.3957 3.5348 1.6177
16.2443 4.1190 1.6177
16.0723 4.6969 1.6177
15.8799 5.2679 1.6177
15.6673 5.8311 1.6177
15.4351 6.3860 1.6177
15.1834 6.9318 1.6177
14.9125 7.4678 1.6177
14.6231 7.9935 1.6177
14.3153 8.5082 1.6177
13.9897 9.0112 1.6177
13.6467 9.5020 1.6177
13.2867 9.9800 1.6177
12.9103 10.4445 1.6177
12.5179 10.8951 1.6177
12.1100 11.3313 1.6177
11.6872 11.7525 1.6177
11.2500 12.1582 1.6177
10.7990 12.5479 1.6177
10.3348 12.9213 1.6177
9.8580 13.2778 1.6177
9.3567 13.5992 1.6156
8.7145 13.6963 1.5895
8.2376 14.0378 1.5944
7.7238 14.3191 1.5944
7.2006 14.5819 1.5944
6.6688 14.8261 1.5944
6.1288 15.0513 1.5944
5.5814 15.2572 1.5944
5.0273 15.4438 1.5944
4.4671 15.6106 1.5944
4.1542 16.7781 1.6977
-11.5618 -7.0481 1.5927
-11.3076 -7.4640 1.5927
-11.0382 -7.8705 1.5927
-10.7541 -8.2673 1.5927
-10.4682 -8.6640 1.5946
-10.1552 -9.0398 1.5946
-9.8287 -9.4043 1.5946
-9.4889 -9.7567 1.5946
-9.1363 -10.0967 1.5946
-8.7713 -10.4237 1.5946
-8.3945 -10.7374 1.5946
-8.0063 -11.0372 1.5946
-7.6073 -11.3228 1.5946
-7.2214 -11.6314 1.5998
-6.8283 -11.9361 1.6063
-6.6250 -12.6127 1.6636
-4.3781 -9.1174 1.1806
-3.9875 -9.1321 1.1628
-3.9886 -10.1115 1.2681
-4.8534 -13.7316 1.6986
-4.3582 -13.9031 1.6989
-3.8568 -14.0565 1.6992
-3.3499 -14.1912 1.6995
-2.8382 -14.3072 1.6998
-2.3225 -14.4046 1.7001
-1.8034 -14.4831 1.7004
-1.2816 -14.5424 1.7007
-0.7577 -14.5790 1.7006
-0.2328 -14.5951 1.7003
0.2923 -14.5920 1.7001
0.8168 -14.5696 1.6998
1.3401 -14.5281 1.6996
1.8614 -14.4673 1.6993
2.3800 -14.3878 1.6991
2.8953 -14.2894 1.6989
3.4063 -14.1718 1.6986
3.9127 -14.0359 1.6984
4.4135 -13.8811 1.6981
2.1806 -6.0904 0.7543
5.0686 -12.6976 1.5946
5.5206 -12.5038 1.5946
5.9650 -12.2936 1.5946
6.4014 -12.0673 1.5946
6.8290 -11.8253 1.5946
7.2474 -11.5679 1.5946
7.6559 -11.2955 1.5946
8.0541 -11.0084 1.5946
8.4413 -10.7071 1.5946
8.8171 -10.3920 1.5946
9.3139 -10.2091 1.6177
9.6705 -9.8628 1.6177
10.0141 -9.5038 1.6177
10.3442 -9.1328 1.6177
10.6603 -8.7501 1.6177
10.9622 -8.3564 1.6177
11.2494 -7.9522 1.6177
11.5216 -7.5380 1.6177
11.7783 -7.1145 1.6177
12.0194 -6.6822 1.6177
12.2445 -6.2416 1.6177
12.4533 -5.7935 1.6177
12.6456 -5.3383 1.6177
12.8211 -4.8768 1.6177
12.9797 -4.4095 1.6177
13.1212 -3.9371 1.6177
13.2455 -3.4601 1.6177
13.3523 -2.9794 1.6177
13.4417 -2.4954 1.6177
13.5134 -2.0088 1.6177
13.5676 -1.5202 1.6177
13.6040 -1.0304 1.6177
13.6228 -0.5399 1.6177
13.6239 -0.0494 1.6177
13.6074 0.4405 1.6177
13.5733 0.9291 1.6177
13.5216 1.4159 1.6177
13.4526 1.9002 1.6177
13.3663 2.3813 1.6177
13.2629 2.8587 1.6177
13.1425 3.3318 1.6177
13.0054 3.8000 1.6177
12.8517 4.2626 1.6177
12.6816 4.7192 1.6177
12.4955 5.1691 1.6177
12.2935 5.6118 1.6177
12.0760 6.0467 1.6177
11.8433 6.4733 1.6177
11.5957 6.8911 1.6177
11.3335 7.2995 1.6177
11.0571 7.6981 1.6177
10.7668 8.0865 1.6177
10.4631 8.4640 1.6177
10.1463 8.8303 1.6177
9.8169 9.1849 1.6177
9.4752 9.5275 1.6177
9.1218 9.8575 1.6177
8.7571 10.1746 1.6177
8.3815 10.4785 1.6177
7.9956 10.7687 1.6177
7.4906 10.8862 1.5944
7.0912 11.1444 1.5944
6.6831 11.3881 1.5944
6.2668 11.6172 1.5944
5.8428 11.8314 1.5944
5.4116 12.0303 1.5944
4.0831 10.0267 1.3089
4.5298 12.3817 1.5944
4.0803 12.5338 1.5944
3.8606 13.4903 1.6977
3.3720 13.6179 1.6977
-9.6892 -5.9072 1.5946
-9.4753 -6.2551 1.5946
-9.2487 -6.5951 1.5946
-9.0098 -6.9269 1.5946
-8.7589 -7.2499 1.5946
-8.4964 -7.5638 1.5946
-8.2224 -7.8680 1.5946
-7.9375 -8.1622 1.5946
-7.6420 -8.4459 1.5946
-7.3361 -8.7188 1.5946
-7.0724 -9.0469 1.6064
-7.0903 -9.7751 1.6887
-6.7729 -10.0815 1.6978
-6.4090 -10.3236 1.6981
-6.0364 -10.5524 1.6983
-5.6555 -10.7676 1.6986
-4.3783 -9.1185 1.4123
-4.0048 -9.1723 1.3970
-4.4684 -11.3286 1.6995
-4.0596 -11.4865 1.6997
-3.6452 -11.6294 1.7000
-3.2258 -11.7572 1.7004
-2.8017 -11.8697 1.7007
-2.3733 -11.9642 1.7006
-1.9414 -12.0414 1.7004
-1.5069 -12.1028 1.7001
-1.0706 -12.1482 1.6999
-0.6329 -12.1777 1.6996
-0.1945 -12.1911 1.6994
0.2441 -12.1886 1.6991
0.6822 -12.1699 1.6989
1.1193 -12.1352 1.6986
1.5547 -12.0846 1.6983
1.9879 -12.0181 1.6981
2.4183 -11.9359 1.6978
2.6727 -11.1200 1.5946
3.0705 -11.0151 1.5946
3.4641 -10.8958 1.5946
2.1788 -6.0857 0.9017
4.2368 -10.6145 1.5946
4.6148 -10.4529 1.5946
4.9866 -10.2777 1.5946
5.3517 -10.0890 1.5946
5.7095 -9.8873 1.5946
6.0596 -9.6726 1.5946
6.4942 -9.5821 1.6177
6.8324 -9.3392 1.6177
7.1614 -9.0842 1.6177
7.4808 -8.8175 1.6177
7.7901 -8.5394 1.6177
8.0889 -8.2504 1.6177
8.3770 -7.9508 1.6177
8.6538 -7.6410 1.6177
8.9191 -7.3215 1.6177
9.1725 -6.9927 1.6177
9.4136 -6.6551 1.6177
9.6423 -6.3091 1.6177
9.8581 -5.9552 1.6177
10.0608 -5.5939 1.6177
10.2502 -5.2256 1.6177
10.4261 -4.8510 1.6177
10.5881 -4.4704 1.6177
10.7362 -4.0843 1.6177
10.8702 -3.6934 1.6177
10.9899 -3.2981 1.6177
11.0951 -2.8990 1.6177
11.1858 -2.4965 1.6177
11.2619 -2.0913 1.6177
11.3233 -1.6838 1.6177
11.3699 -1.2746 1.6177
11.4017 -0.8642 1.6177
11.4187 -0.4532 1.6177
11.4209 -0.0420 1.6177
11.4083 0.3687 1.6177
11.3810 0.7784 1.6177
11.3390 1.1867 1.6177
11.2823 1.5930 1.6177
11.2112 1.9968 1.6177
11.1257 2.3975 1.6177
11.0259 2.7946 1.6177
10.9120 3.1877 1.6177
10.7842 3.5763 1.6177
10.6426 3.9598 1.6177
10.4875 4.3378 1.6177
10.3190 4.7098 1.6177
10.1375 5.0754 1.6177
9.9431 5.4340 1.6177
9.7361 5.7854 1.6177
9.5169 6.1289 1.6177
9.2856 6.4642 1.6177
9.0426 6.7909 1.6177
8.7883 7.1086 1.6177
8.5229 7.4169 1.6177
8.2469 7.7154 1.6177
7.9605 8.0038 1.6177
7.6642 8.2817 1.6177
7.2526 8.4259 1.5944
6.9420 8.6782 1.5944
6.6228 8.9192 1.5944
6.2954 9.1486 1.5944
5.9601 9.3661 1.5944
5.6174 9.5716 1.5944
5.2678 9.7647 1.5944
4.9116 9.9452 1.5944
4.5493 10.1129 1.5944
4.0671 9.9869 1.5508
3.8084 10.4092 1.5944
3.6527 11.2198 1.6977
3.2460 11.3420 1.6977
0.8291 3.3480 0.4964
-8.3240 -5.0754 1.5946
-8.1396 -5.3739 1.5946
-7.9445 -5.6656 1.5946
-7.7388 -5.9502 1.5946
-7.5228 -6.2273 1.5946
-7.2968 -6.4964 1.5946
-7.1067 -6.8009 1.6049
-6.8784 -7.0736 1.6092
-6.9243 -7.6533 1.6827
-6.7064 -7.9710 1.6978
-6.4184 -8.2109 1.6980
-6.1217 -8.4403 1.6983
-5.8168 -8.6589 1.6985
-5.5040 -8.8664 1.6988
-5.1838 -9.0625 1.6990
-4.8564 -9.2468 1.6993
-4.5225 -9.4192 1.6995
-4.1824 -9.5794 1.6998
-3.8365 -9.7271 1.7000
-3.4854 -9.8621 1.7003
-3.1294 -9.9844 1.7006
-2.7690 -10.0929 1.7007
-2.4041 -10.1857 1.7005
-2.0362 -10.2652 1.7002
-1.6656 -10.3313 1.6999
-1.2928 -10.3839 1.6997
-0.9185 -10.4228 1.6994
-0.5430 -10.4480 1.6992
-0.1668 -10.4594 1.6989
0.2094 -10.4571 1.6987
0.5853 -10.4411 1.6984
0.9603 -10.4114 1.6981
1.3338 -10.3681 1.6979
1.6020 -9.6854 1.5946
1.9491 -9.6207 1.5946
2.2936 -9.5434 1.5946
2.6351 -9.4536 1.5946
2.9729 -9.3514 1.5946
2.1324 -5.9564 1.0283
2.3879 -5.9827 1.0472
3.9608 -8.9721 1.5946
4.2801 -8.8220 1.5946
4.5936 -8.6604 1.5946
4.9009 -8.4875 1.5946
5.2016 -8.3036 1.5946
5.5750 -8.2263 1.6177
5.8656 -8.0181 1.6177
6.1483 -7.7996 1.6177
6.4228 -7.5710 1.6177
6.6887 -7.3326 1.6177
6.9457 -7.0849 1.6177
7.1935 -6.8280 1.6177
7.4317 -6.5624 1.6177
7.6599 -6.2884 1.6177
7.8780 -6.0064 1.6177
8.0857 -5.7168 1.6177
8.2826 -5.4200 1.6177
8.4686 -5.1163 1.6177
8.6434 -4.8063 1.6177
8.8067 -4.4902 1.6177
8.9584 -4.1686 1.6177
9.0983 -3.8419 1.6177
9.2263 -3.5105 1.6177
9.3421 -3.1747 1.6177
9.4457 -2.8353 1.6177
9.5369 -2.4924 1.6177
9.6157 -2.1466 1.6177
9.6818 -1.7984 1.6177
9.7354 -1.4482 1.6177
9.7762 -1.0965 1.6177
9.8044 -0.7436 1.6177
9.8198 -0.3902 1.6177
9.8225 -0.0367 1.6177
9.8125 0.3166 1.6177
9.7897 0.6691 1.6177
9.7544 1.0204 1.6177
9.7064 1.3700 1.6177
9.6460 1.7175 1.6177
9.5732 2.0624 1.6177
9.4880 2.4043 1.6177
9.3908 2.7428 1.6177
9.2815 3.0774 1.6177
9.1603 3.4078 1.6177
9.0275 3.7334 1.6177
8.8831 4.0539 1.6177
8.7275 4.3690 1.6177
8.5607 4.6781 1.6177
8.3831 4.9809 1.6177
8.1949 5.2770 1.6177
7.9963 5.5661 1.6177
7.7876 5.8479 1.6177
7.5690 6.1218 1.6177
7.3409 6.3878 1.6177
7.0015 6.5498 1.5944
6.7588 6.7950 1.5944
6.5076 7.0314 1.5944
6.2482 7.2585 1.5944
5.9809 7.4762 1.5944
5.7062 7.6842 1.5944
5.4243 7.8822 1.5944
5.1357 8.0700 1.5944
4.8406 8.2474 1.5944
4.5395 8.4141 1.5944
4.2327 8.5700 1.5944
3.9206 8.7149 1.5944
3.6037 8.8485 1.5944
3.4948 9.5517 1.6977
3.1482 9.6696 1.6977
0.8223 2.8729 0.4990
0.7180 2.8995 0.4988
-7.2893 -4.4449 1.5946
-7.1275 -4.7061 1.5946
-6.9562 -4.9613 1.5946
-6.7757 -5.2102 1.5946
-6.6703 -5.5221 1.6149
-6.7173 -5.9809 1.6768
-6.5812 -6.2985 1.6977
-6.3528 -6.5336 1.6978
-6.1160 -6.7604 1.6979
-5.8710 -6.9785 1.6980
-5.6182 -7.1877 1.6981
-5.3579 -7.3876 1.6982
-5.0904 -7.5780 1.6983
-4.8162 -7.7589 1.6985
-4.5359 -7.9304 1.6988
-4.2495 -8.0916 1.6991
-3.9572 -8.2423 1.6993
-3.6595 -8.3823 1.6996
-3.3568 -8.5113 1.6999
-3.0495 -8.6292 1.7001
-2.7378 -8.7353 1.7002
-2.4220 -8.8288 1.7001
-2.1031 -8.9107 1.7000
-1.7813 -8.9809 1.6999
-1.4571 -9.0389 1.6997
-1.1310 -9.0848 1.6995
-0.8035 -9.1189 1.6992
-0.4750 -9.1409 1.6990
-0.1459 -9.1510 1.6988
0.1832 -9.1491 1.6985
0.5121 -9.1352 1.6983
0.8401 -9.1093 1.6980
1.1670 -9.0715 1.6978
1.4017 -8.4748 1.5946
1.7054 -8.4183 1.5946
2.0069 -8.3507 1.5946
2.3057 -8.2723 1.5946
2.6014 -8.1830 1.5946
2.1279 -5.9442 1.1727
2.3851 -5.9760 1.1953
3.4660 -7.8516 1.5946
3.7454 -7.7204 1.5946
4.0199 -7.5792 1.5946
4.2890 -7.4282 1.5946
4.5523 -7.2675 1.5946
4.8096 -7.0973 1.5946
5.0604 -6.9180 1.5946
5.3045 -6.7297 1.5946
5.6218 -6.6273 1.6177
5.8548 -6.4189 1.6177
6.0800 -6.2023 1.6177
6.2972 -5.9777 1.6177
6.5060 -5.7454 1.6177
6.7061 -5.5058 1.6177
6.8974 -5.2592 1.6177
7.0796 -5.0059 1.6177
7.2524 -4.7462 1.6177
7.4156 -4.4806 1.6177
7.5690 -4.2093 1.6177
7.7125 -3.9328 1.6177
7.8458 -3.6513 1.6177
7.9688 -3.3654 1.6177
8.0813 -3.0753 1.6177
8.1832 -2.7814 1.6177
8.2745 -2.4841 1.6177
8.3549 -2.1839 1.6177
8.4243 -1.8811 1.6177
8.4828 -1.5761 1.6177
8.5303 -1.2694 1.6177
8.5666 -0.9612 1.6177
8.5918 -0.6521 1.6177
8.6058 -0.3424 1.6177
8.6087 -0.0326 1.6177
8.6004 0.2770 1.6177
8.5810 0.5860 1.6177
8.5505 0.8940 1.6177
8.5090 1.2005 1.6177
8.4566 1.5052 1.6177
8.3932 1.8077 1.6177
8.3191 2.1076 1.6177
8.2343 2.4046 1.6177
8.1389 2.6981 1.6177
8.0331 2.9880 1.6177
7.9171 3.2738 1.6177
7.7909 3.5551 1.6177
7.6548 3.8315 1.6177
7.5090 4.1029 1.6177
7.3536 4.3687 1.6177
7.1889 4.6287 1.6177
6.9142 4.8125 1.5944
6.7341 5.0563 1.5944
6.5454 5.2935 1.5944
6.3485 5.5237 1.5944
6.1435 5.7467 1.5944
5.9308 5.9621 1.5944
5.7106 6.1697 1.5944
5.4831 6.3693 1.5944
5.2488 6.5606 1.5944
5.0079 6.7434 1.5944
4.7607 6.9175 1.5944
4.5075 7.0825 1.5944
4.2487 7.2384 1.5944
3.9845 7.3850 1.5944
3.7153 7.5220 1.5944
3.4415 7.6494 1.5944
3.3682 8.2698 1.6977
3.0679 8.3843 1.6977
0.8155 2.5045 0.5009
0.7245 2.5312 0.5008
0.6327 2.5547 0.5007
-6.4773 -3.9502 1.5946
-6.4748 -4.2756 1.6303
-6.5138 -4.6462 1.6805
-6.4094 -4.9290 1.6977
-6.2300 -5.1580 1.6977
-6.0423 -5.3804 1.6977
-5.8467 -5.5959 1.6977
-5.6433 -5.8043 1.6977
-5.4324 -6.0052 1.6977
-5.2145 -6.1986 1.6978
-4.9900 -6.3845 1.6979
-4.7588 -6.5621 1.6981
-4.5213 -6.7312 1.6983
-4.2776 -6.8916 1.6984
-4.0281 -7.0431 1.6985
-3.7733 -7.1854 1.6987
-3.5133 -7.3183 1.6988
-3.2486 -7.4416 1.6989
-2.9795 -7.5553 1.6989
-2.7064 -7.6590 1.6990
-2.4295 -7.7524 1.6990
-2.1493 -7.8352 1.6989
-1.8662 -7.9078 1.6988
-1.5807 -7.9701 1.6987
-1.2931 -8.0219 1.6986
-1.0038 -8.0632 1.6985
-0.7132 -8.0940 1.6984
-0.4216 -8.1142 1.6983
-0.1295 -8.1238 1.6982
0.1627 -8.1227 1.6981
0.4547 -8.1110 1.6980
0.7460 -8.0888 1.6979
1.0363 -8.0559 1.6977
1.3109 -7.9263 1.6794
1.5145 -7.4760 1.5946
1.7822 -7.4161 1.5946
2.0475 -7.3466 1.5946
2.3102 -7.2674 1.5946
2.1242 -5.9342 1.3182
2.3822 -5.9692 1.3443
3.0782 -6.9734 1.5946
3.3264 -6.8571 1.5946
3.5702 -6.7318 1.5946
3.8093 -6.5978 1.5946
4.0433 -6.4552 1.5946
4.2719 -6.3043 1.5946
4.4948 -6.1451 1.5946
4.7118 -5.9781 1.5946
4.9225 -5.8033 1.5946
5.1267 -5.6210 1.5946
5.3241 -5.4315 1.5946
5.5144 -5.2350 1.5946
5.7799 -5.1046 1.6177
5.9580 -4.8920 1.6177
6.1281 -4.6730 1.6177
6.2902 -4.4481 1.6177
6.4440 -4.2176 1.6177
6.5893 -3.9817 1.6177
6.7259 -3.7409 1.6177
6.8537 -3.4953 1.6177
6.9724 -3.2453 1.6177
7.0821 -2.9913 1.6177
7.1824 -2.7336 1.6177
7.2733 -2.4725 1.6177
7.3547 -2.2084 1.6177
7.4265 -1.9417 1.6177
7.4886 -1.6726 1.6177
7.5410 -1.4015 1.6177
7.5835 -1.1289 1.6177
7.6162 -0.8550 1.6177
7.6389 -0.5802 1.6177
7.6518 -0.3049 1.6177
7.6547 -0.0294 1.6177
7.6477 0.2459 1.6177
7.6308 0.5207 1.6177
7.6041 0.7946 1.6177
7.5675 1.0673 1.6177
7.5212 1.3383 1.6177
7.4653 1.6075 1.6177
7.3997 1.8743 1.6177
7.3246 2.1385 1.6177
7.2401 2.3998 1.6177
7.1463 2.6577 1.6177
7.0434 2.9121 1.6177
6.9315 3.1625 1.6177
6.7128 3.3596 1.5944
6.5852 3.5977 1.5944
6.4492 3.8310 1.5944
6.3050 4.0592 1.5944
6.1527 4.2821 1.5944
5.9927 4.4992 1.5944
5.8250 4.7105 1.5944
5.6499 4.9155 1.5944
5.4677 5.1141 1.5944
5.2786 5.3061 1.5944
5.0827 5.4910 1.5944
4.8805 5.6689 1.5944
4.6721 5.8393 1.5944
4.4578 6.0022 1.5944
4.2378 6.1573 1.5944
4.0126 6.3044 1.5944
3.7822 6.4434 1.5944
3.5471 6.5740 1.5944
3.3076 6.6961 1.5944
3.2486 7.2201 1.6905
2.9987 7.3621 1.6977
0.8084 2.2093 0.5025
0.7281 2.2361 0.5024
0.6469 2.2600 0.5022
0.5650 2.2811 0.5021
-6.1989 -3.7808 1.6977
-6.0608 -4.0026 1.6977
-5.9147 -4.2193 1.6977
-5.7609 -4.4306 1.6977
-5.5994 -4.6363 1.6977
-5.4306 -4.8361 1.6977
-5.2546 -5.0297 1.6977
-5.0717 -5.2168 1.6977
-4.8820 -5.3972 1.6977
-4.6859 -5.5707 1.6977
-4.4836 -5.7369 1.6977
-4.2754 -5.8958 1.6977
-4.0614 -6.0471 1.6977
-3.8421 -6.1905 1.6977
-3.6177 -6.3259 1.6977
-3.3886 -6.4533 1.6978
-3.1551 -6.5725 1.6979
-2.9173 -6.6831 1.6979
-2.6756 -6.7850 1.6980
-2.4303 -6.8781 1.6981
-2.1818 -6.9621 1.6981
-1.9303 -7.0370 1.6982
-1.6761 -7.1027 1.6982
-1.4198 -7.1591 1.6982
-1.1615 -7.2061 1.6983
-0.9017 -7.2436 1.6983
-0.6407 -7.2717 1.6982
-0.3788 -7.2902 1.6982
-0.1164 -7.2989 1.6982
0.1462 -7.2980 1.6981
0.4085 -7.2876 1.6980
0.6702 -7.2676 1.6979
0.9310 -7.2382 1.6978
1.1906 -7.1993 1.6977
1.3642 -6.7347 1.5988
1.6012 -6.6633 1.5946
1.8396 -6.6009 1.5946
2.0756 -6.5298 1.5946
2.1217 -5.9275 1.4654
2.3794 -5.9624 1.4944
2.7657 -6.2660 1.5946
2.9888 -6.1615 1.5946
3.2079 -6.0491 1.5946
3.4228 -5.9288 1.5946
3.6331 -5.8008 1.5946
3.8386 -5.6653 1.5946
4.0391 -5.5224 1.5946
4.2341 -5.3724 1.5946
4.4236 -5.2154 1.5946
4.6072 -5.0518 1.5946
4.7847 -4.8816 1.5946
4.9559 -4.7051 1.5946
5.1205 -4.5226 1.5946
5.2784 -4.3344 1.5946
5.4293 -4.1405 1.5946
5.5731 -3.9414 1.5946
5.7096 -3.7373 1.5946
5.9230 -3.5795 1.6177
6.0460 -3.3631 1.6177
6.1611 -3.1424 1.6177
6.2680 -2.9178 1.6177
6.3668 -2.6896 1.6177
6.4573 -2.4580 1.6177
6.5392 -2.2233 1.6177
6.6127 -1.9860 1.6177
6.6775 -1.7462 1.6177
6.7336 -1.5043 1.6177
6.7809 -1.2607 1.6177
6.8194 -1.0155 1.6177
6.8490 -0.7693 1.6177
6.8698 -0.5222 1.6177
6.8816 -0.2746 1.6177
6.8845 -0.0268 1.6177
6.8785 0.2208 1.6177
6.8636 0.4680 1.6177
6.8398 0.7144 1.6177
6.8072 0.9597 1.6177
6.7658 1.2035 1.6177
6.7157 1.4457 1.6177
6.6569 1.6858 1.6177
6.4956 1.8961 1.5946
6.4209 2.1279 1.5946
6.3380 2.3567 1.5946
6.2469 2.5824 1.5946
6.1479 2.8046 1.5946
6.0403 3.0227 1.5944
5.9257 3.2371 1.5944
5.8035 3.4471 1.5944
5.6739 3.6526 1.5944
5.5371 3.8532 1.5944
5.3932 4.0488 1.5944
5.2425 4.2390 1.5944
5.0851 4.4237 1.5944
4.9212 4.6026 1.5944
4.7511 4.7755 1.5944
4.5750 4.9421 1.5944
4.3930 5.1023 1.5944
4.2055 5.2559 1.5944
4.0127 5.4026 1.5944
3.8148 5.5424 1.5944
3.6121 5.6749 1.5944
3.4049 5.8001 1.5944
3.1933 5.9178 1.5944
3.1226 6.3212 1.6720
2.9370 6.5271 1.6977
0.8011 1.9667 0.5038
0.7295 1.9935 0.5036
0.6570 2.0177 0.5035
0.5838 2.0394 0.5034
0.5099 2.0585 0.5033
-5.6243 -3.4307 1.6977
-5.4988 -3.6318 1.6977
-5.3662 -3.8283 1.6977
-5.2264 -4.0200 1.6977
-5.0798 -4.2064 1.6977
-4.9265 -4.3876 1.6977
-4.7668 -4.5631 1.6977
-4.6007 -4.7327 1.6977
-4.4286 -4.8962 1.6977
-4.2506 -5.0535 1.6977
-4.0670 -5.2042 1.6977
-3.8780 -5.3482 1.6977
-3.6839 -5.4853 1.6977
-3.4849 -5.6153 1.6977
-3.2813 -5.7380 1.6977
-3.0734 -5.8533 1.6977
-2.8614 -5.9610 1.6977
-2.6455 -6.0609 1.6977
-2.4262 -6.1529 1.6977
-2.2037 -6.2370 1.6977
-1.9782 -6.3129 1.6977
-1.7501 -6.3806 1.6977
-1.5197 -6.4400 1.6977
-1.2872 -6.4910 1.6977
-1.0530 -6.5335 1.6977
-0.8175 -6.5675 1.6977
-0.5808 -6.5929 1.6977
-0.3434 -6.6097 1.6977
-0.1055 -6.6179 1.6977
0.1325 -6.6174 1.6977
0.3704 -6.6083 1.6977
0.6078 -6.5906 1.6977
0.8443 -6.5643 1.6977
1.0798 -6.5294 1.6977
1.3138 -6.4860 1.6977
1.4522 -6.0434 1.5946
1.6684 -5.9868 1.5946
1.8824 -5.9224 1.5946
2.0940 -5.8503 1.5946
2.3027 -5.7706 1.5946
2.5084 -5.6833 1.5946
2.7108 -5.5887 1.5946
2.9096 -5.4868 1.5946
3.1045 -5.3777 1.5946
3.2953 -5.2617 1.5946
3.4818 -5.1389 1.5946
3.6636 -5.0094 1.5946
3.8406 -4.8734 1.5946
4.0126 -4.7312 1.5946
4.1792 -4.5828 1.5946
4.3403 -4.4285 1.5946
4.4957 -4.2686 1.5946
4.6452 -4.1031 1.5946
4.7885 -3.9324 1.5946
4.9255 -3.7567 1.5946
5.0561 -3.5761 1.5946
5.1800 -3.3910 1.5946
5.2971 -3.2016 1.5946
5.4073 -3.0081 1.5946
5.5104 -2.8109 1.5946
5.6062 -2.6101 1.5946
5.6947 -2.4060 1.5946
5.7758 -2.1989 1.5946
5.8493 -1.9891 1.5946
5.9152 -1.7768 1.5946
5.9733 -1.5624 1.5946
6.0237 -1.3461 1.5946
6.0662 -1.1281 1.5946
6.1009 -0.9088 1.5946
6.1276 -0.6885 1.5946
6.1463 -0.4675 1.5946
6.1571 -0.2460 1.5946
6.1599 -0.0243 1.5946
6.1547 0.1973 1.5946
6.1415 0.4184 1.5946
6.1205 0.6389 1.5946
6.0915 0.8584 1.5946
6.0546 1.0767 1.5946
6.0100 1.2934 1.5946
5.9576 1.5084 1.5946
5.8975 1.7212 1.5946
5.8299 1.9317 1.5946
5.7548 2.1395 1.5946
5.6723 2.3445 1.5946
5.5825 2.5463 1.5946
5.4856 2.7447 1.5946
5.3811 2.9392 1.5944
5.2703 3.1300 1.5944
5.1527 3.3167 1.5944
5.0286 3.4990 1.5944
4.8980 3.6767 1.5944
4.7613 3.8496 1.5944
4.6184 4.0174 1.5944
4.4697 4.1800 1.5944
4.3153 4.3371 1.5944
4.1554 4.4886 1.5944
3.9903 4.6342 1.5944
3.8200 4.7738 1.5944
3.6450 4.9071 1.5944
3.4653 5.0342 1.5944
3.2812 5.1547 1.5944
3.0930 5.2685 1.5944
3.0213 5.5988 1.6607
2.8802 5.8301 1.6977
0.7934 1.7633 0.5049
0.7292 1.7899 0.5047
0.6640 1.8144 0.5046
0.5981 1.8365 0.5045
0.5314 1.8562 0.5044
0.4641 1.8737 0.5043
-5.1420 -3.1369 1.6977
-5.0272 -3.3207 1.6977
-4.9058 -3.5002 1.6977
-4.7780 -3.6753 1.6977
-4.6439 -3.8458 1.6977
-4.5036 -4.0112 1.6977
-4.3575 -4.1716 1.6977
-4.2056 -4.3266 1.6977
-4.0482 -4.4760 1.6977
-3.8854 -4.6196 1.6977
-3.7175 -4.7573 1.6977
-3.5447 -4.8889 1.6977
-3.3672 -5.0141 1.6977
-3.1853 -5.1329 1.6977
-2.9992 -5.2449 1.6977
-2.8091 -5.3502 1.6977
-2.6152 -5.4486 1.6977
-2.4180 -5.5398 1.6977
-2.2175 -5.6239 1.6977
-2.0140 -5.7006 1.6977
-1.8080 -5.7700 1.6977
-1.5995 -5.8318 1.6977
-1.3889 -5.8860 1.6977
-1.1764 -5.9326 1.6977
-0.9624 -5.9714 1.6977
-0.7471 -6.0025 1.6977
-0.5308 -6.0257 1.6977
-0.3138 -6.0410 1.6977
-0.0964 -6.0485 1.6977
0.1211 -6.0481 1.6977
0.3385 -6.0398 1.6977
0.5554 -6.0236 1.6977
0.7716 -5.9996 1.6977
0.9868 -5.9677 1.6977
1.2007 -5.9281 1.6977
1.4130 -5.8807 1.6977
1.5248 -5.4719 1.5946
1.7204 -5.4131 1.5946
1.9138 -5.3472 1.5946
2.1046 -5.2744 1.5946
2.2926 -5.1947 1.5946
2.4776 -5.1082 1.5946
2.6593 -5.0152 1.5946
2.8375 -4.9156 1.5946
3.0120 -4.8096 1.5946
3.1824 -4.6974 1.5946
3.3487 -4.5791 1.5946
3.5105 -4.4549 1.5946
3.6678 -4.3249 1.5946
3.8201 -4.1894 1.5946
3.9675 -4.0485 1.5946
4.1096 -3.9023 1.5946
4.2463 -3.7511 1.5946
4.3775 -3.5951 1.5946
4.5028 -3.4346 1.5946
4.6223 -3.2696 1.5946
4.7357 -3.1004 1.5946
4.8429 -2.9273 1.5946
4.9437 -2.7505 1.5946
5.0380 -2.5702 1.5946
5.1258 -2.3867 1.5946
5.2068 -2.2002 1.5946
5.2811 -2.0109 1.5946
5.3484 -1.8191 1.5946
5.4088 -1.6250 1.5946
5.4621 -1.4290 1.5946
5.5083 -1.2312 1.5946
5.5474 -1.0319 1.5946
5.5792 -0.8314 1.5946
5.6038 -0.6300 1.5946
5.6211 -0.4279 1.5946
5.6311 -0.2253 1.5946
5.6338 -0.0225 1.5946
5.6292 0.1801 1.5946
5.6173 0.3824 1.5946
5.5982 0.5841 1.5946
5.5718 0.7849 1.5946
5.5382 0.9846 1.5946
5.4975 1.1828 1.5946
5.4498 1.3795 1.5946
5.3950 1.5742 1.5946
5.3332 1.7668 1.5946
5.2646 1.9570 1.5946
5.1893 2.1446 1.5946
5.1073 2.3293 1.5946
5.0187 2.5109 1.5946
4.9238 2.6891 1.5946
4.8225 2.8638 1.5946
4.7145 3.0344 1.5944
4.6011 3.2012 1.5944
4.4817 3.3639 1.5944
4.3567 3.5222 1.5944
4.2261 3.6758 1.5944
4.0901 3.8246 1.5944
3.9488 3.9685 1.5944
3.8026 4.1072 1.5944
3.6515 4.2405 1.5944
3.4958 4.3683 1.5944
3.3357 4.4904 1.5944
3.1713 4.6067 1.5944
3.0029 4.7171 1.5944
2.9380 5.0041 1.6549
2.8268 5.2379 1.6977
0.7853 1.5896 0.5058
0.7273 1.6162 0.5057
0.6684 1.6407 0.5055
0.6087 1.6631 0.5054
0.5483 1.6834 0.5053
0.4872 1.7016 0.5052
0.4255 1.7176 0.5051
-4.7311 -2.8865 1.6977
-4.6254 -3.0556 1.6977
-4.5136 -3.2207 1.6977
-4.3959 -3.3818 1.6977
-4.2724 -3.5385 1.6977
-4.1434 -3.6907 1.6977
-4.0088 -3.8381 1.6977
-3.8690 -3.9807 1.6977
-3.7241 -4.1181 1.6977
-3.5743 -4.2501 1.6977
-3.4198 -4.3767 1.6977
-3.2608 -4.4977 1.6977
-3.0975 -4.6128 1.6977
-2.9301 -4.7220 1.6977
-2.7589 -4.8250 1.6977
-2.5840 -4.9218 1.6977
-2.4057 -5.0123 1.6977
-2.2242 -5.0962 1.6977
-2.0397 -5.1734 1.6977
-1.8526 -5.2440 1.6977
-1.6630 -5.3077 1.6977
-1.4712 -5.3646 1.6977
-1.2775 -5.4144 1.6977
-1.0821 -5.4572 1.6977
-0.8852 -5.4929 1.6977
-0.6872 -5.5214 1.6977
-0.4882 -5.5427 1.6977
-0.2887 -5.5569 1.6977
-0.0887 -5.5637 1.6977
0.1114 -5.5634 1.6977
0.3114 -5.5557 1.6977
0.5109 -5.5408 1.6977
0.7098 -5.5187 1.6977
0.9077 -5.4894 1.6977
1.1044 -5.4530 1.6977
1.2997 -5.4094 1.6977
1.4932 -5.3589 1.6977
1.5825 -4.9794 1.5946
1.7640 -4.9290 1.5979
1.9359 -4.8519 1.5946
2.1089 -4.7786 1.5946
2.2790 -4.6991 1.5946
2.4462 -4.6136 1.5946
2.6102 -4.5220 1.5946
2.7707 -4.4246 1.5946
2.9275 -4.3214 1.5946
3.0805 -4.2127 1.5946
3.2294 -4.0985 1.5946
3.3741 -3.9790 1.5946
3.5143 -3.8543 1.5946
3.6500 -3.7247 1.5946
3.7808 -3.5903 1.5946
3.9066 -3.4513 1.5946
4.0273 -3.3079 1.5946
4.1427 -3.1602 1.5946
4.2527 -3.0084 1.5946
4.3571 -2.8529 1.5946
4.4558 -2.6937 1.5946
4.5487 -2.5310 1.5946
4.6356 -2.3652 1.5946
4.7164 -2.1964 1.5946
4.7911 -2.0248 1.5946
4.8595 -1.8506 1.5946
4.9216 -1.6742 1.5946
4.9773 -1.4957 1.5946
5.0265 -1.3153 1.5946
5.0691 -1.1333 1.5946
5.1051 -0.9500 1.5946
5.1345 -0.7655 1.5946
5.1572 -0.5801 1.5946
5.1733 -0.3941 1.5946
5.1826 -0.2076 1.5946
5.1852 -0.0210 1.5946
5.1811 0.1655 1.5946
5.1703 0.3517 1.5946
5.1528 0.5373 1.5946
5.1286 0.7222 1.5946
5.0979 0.9060 1.5946
5.0605 1.0885 1.5946
5.0167 1.2696 1.5946
4.9663 1.4489 1.5946
4.9096 1.6262 1.5946
4.8466 1.8013 1.5946
4.7773 1.9740 1.5946
4.7019 2.1441 1.5946
4.6205 2.3113 1.5946
4.5331 2.4755 1.5946
4.4400 2.6363 1.5946
4.3411 2.7937 1.5946
4.2367 2.9475 1.5946
4.1269 3.0973 1.5946
4.0114 3.2428 1.5944
3.8912 3.3843 1.5944
3.7661 3.5214 1.5944
3.6361 3.6539 1.5944
3.5015 3.7816 1.5944
3.3625 3.9045 1.5944
3.2191 4.0222 1.5944
3.0717 4.1347 1.5944
2.9203 4.2419 1.5944
2.8680 4.5049 1.6537
0.8285 1.4110 0.5067
0.7768 1.4393 0.5066
0.7242 1.4657 0.5065
0.6707 1.4903 0.5063
0.6164 1.5129 0.5062
0.5613 1.5337 0.5061
0.5056 1.5524 0.5060
0.4493 1.5692 0.5059
0.3924 1.5840 0.5059
-4.3765 -2.6705 1.6977
-4.2787 -2.8268 1.6977
-4.1752 -2.9795 1.6977
-4.0662 -3.1285 1.6977
-3.9520 -3.2734 1.6977
-3.8325 -3.4141 1.6977
-3.7080 -3.5504 1.6977
-3.5787 -3.6822 1.6977
-3.4446 -3.8092 1.6977
-3.3060 -3.9313 1.6977
-3.1631 -4.0484 1.6977
-3.0159 -4.1602 1.6977
-2.8649 -4.2667 1.6977
-2.7100 -4.3676 1.6977
-2.5516 -4.4628 1.6977
-2.3898 -4.5523 1.6977
-2.2249 -4.6359 1.6977
-2.0570 -4.7134 1.6977
-1.8864 -4.7849 1.6977
-1.7133 -4.8501 1.6977
-1.5380 -4.9090 1.6977
-1.3606 -4.9615 1.6977
-1.1814 -5.0076 1.6977
-1.0007 -5.0472 1.6977
-0.8186 -5.0801 1.6977
-0.6355 -5.1065 1.6977
-0.4515 -5.1262 1.6977
-0.2669 -5.1393 1.6977
-0.0820 -5.1456 1.6977
0.1030 -5.1453 1.6977
0.2880 -5.1382 1.6977
0.4725 -5.1244 1.6977
0.6564 -5.1040 1.6977
0.8394 -5.0769 1.6977
1.0214 -5.0433 1.6977
1.2020 -5.0030 1.6977
1.3810 -4.9562 1.6977
1.5582 -4.9030 1.6977
1.6323 -4.5613 1.5988
1.7904 -4.4874 1.5946
1.9504 -4.4197 1.5946
2.1078 -4.3462 1.5946
2.2624 -4.2671 1.5946
2.4140 -4.1825 1.5946
2.5625 -4.0924 1.5946
2.7076 -3.9971 1.5946
2.8491 -3.8965 1.5946
2.9869 -3.7909 1.5946
3.1208 -3.6805 1.5946
3.2505 -3.5652 1.5946
3.3760 -3.4454 1.5946
3.4970 -3.3211 1.5946
3.6135 -3.1926 1.5946
3.7252 -3.0600 1.5946
3.8320 -2.9234 1.5946
3.9338 -2.7831 1.5946
4.0304 -2.6392 1.5946
4.1218 -2.4920 1.5946
4.2078 -2.3416 1.5946
4.2882 -2.1882 1.5946
4.3631 -2.0321 1.5946
4.4323 -1.8734 1.5946
4.4957 -1.7123 1.5946
4.5532 -1.5491 1.5946
4.6048 -1.3840 1.5946
4.6503 -1.2171 1.5946
4.6899 -1.0488 1.5946
4.7233 -0.8792 1.5946
4.7506 -0.7085 1.5946
4.7717 -0.5370 1.5946
4.7867 -0.3649 1.5946
4.7954 -0.1924 1.5946
4.7979 -0.0197 1.5946
4.7942 0.1529 1.5946
4.7843 0.3252 1.5946
4.7682 0.4970 1.5946
4.7459 0.6680 1.5946
4.7175 0.8381 1.5946
4.6831 1.0071 1.5946
4.6426 1.1746 1.5946
4.5961 1.3406 1.5946
4.5437 1.5047 1.5946
4.4854 1.6668 1.5946
4.4214 1.8267 1.5946
4.3517 1.9841 1.5946
4.2764 2.1389 1.5946
4.1956 2.2909 1.5946
4.1095 2.4398 1.5946
4.0181 2.5855 1.5946
3.9215 2.7279 1.5946
3.8199 2.8666 1.5946
3.7135 3.0016 1.5946
3.6022 3.1327 1.5946
3.4861 3.2593 1.5944
3.3658 3.3820 1.5944
3.2413 3.5003 1.5944
3.1126 3.6141 1.5944
2.9799 3.7231 1.5944
2.8435 3.8273 1.5944
2.8083 4.0789 1.6563
0.8147 1.2796 0.5074
0.7678 1.3076 0.5073
0.7199 1.3338 0.5072
0.6712 1.3584 0.5070
0.6216 1.3812 0.5069
0.5713 1.4022 0.5068
0.5203 1.4214 0.5067
0.4687 1.4389 0.5066
0.4165 1.4545 0.5065
0.3637 1.4682 0.5065
-4.0671 -2.4819 1.6977
-3.9761 -2.6272 1.6977
-3.8799 -2.7691 1.6977
-3.7786 -2.9074 1.6977
-3.6724 -3.0420 1.6977
-3.5613 -3.1728 1.6977
-3.4456 -3.2994 1.6977
-3.3253 -3.4218 1.6977
-3.2007 -3.5398 1.6977
-3.0719 -3.6532 1.6977
-2.9390 -3.7620 1.6977
-2.8023 -3.8658 1.6977
-2.6619 -3.9647 1.6977
-2.5180 -4.0584 1.6977
-2.3708 -4.1469 1.6977
-2.2204 -4.2300 1.6977
-2.0672 -4.3076 1.6977
-1.9112 -4.3796 1.6977
-1.7527 -4.4460 1.6977
-1.5919 -4.5065 1.6977
-1.4289 -4.5612 1.6977
-1.2641 -4.6100 1.6977
-1.0977 -4.6528 1.6977
-0.9297 -4.6895 1.6977
-0.7606 -4.7201 1.6977
-0.5904 -4.7446 1.6977
-0.4195 -4.7629 1.6977
-0.2480 -4.7751 1.6977
-0.0762 -4.7809 1.6977
0.0957 -4.7806 1.6977
0.2675 -4.7741 1.6977
0.4390 -4.7613 1.6977
0.6099 -4.7423 1.6977
0.7799 -4.7172 1.6977
0.9490 -4.6859 1.6977
1.1167 -4.6485 1.6977
1.2831 -4.6051 1.6977
1.4477 -4.5556 1.6977
1.6104 -4.5003 1.6977
1.6798 -4.2106 1.6103
1.8121 -4.1067 1.5946
1.9584 -4.0384 1.5946
2.1021 -3.9650 1.5946
2.2430 -3.8863 1.5946
2.3809 -3.8027 1.5946
2.5158 -3.7141 1.5946
2.6473 -3.6207 1.5946
2.7754 -3.5227 1.5946
2.8998 -3.4201 1.5946
3.0204 -3.3130 1.5946
3.1370 -3.2017 1.5946
3.2495 -3.0863 1.5946
3.3577 -2.9669 1.5946
3.4616 -2.8437 1.5946
3.5609 -2.7168 1.5946
3.6555 -2.5865 1.5946
3.7454 -2.4528 1.5946
3.8304 -2.3161 1.5946
3.9103 -2.1763 1.5946
3.9851 -2.0338 1.5946
4.0548 -1.8888 1.5946
4.1191 -1.7413 1.5946
4.1781 -1.5916 1.5946
4.2316 -1.4400 1.5946
4.2796 -1.2865 1.5946
4.3221 -1.1315 1.5946
4.3589 -0.9750 1.5946
4.3900 -0.8174 1.5946
4.4155 -0.6588 1.5946
4.4352 -0.4994 1.5946
4.4491 -0.3394 1.5946
4.4573 -0.1791 1.5946
4.4597 -0.0186 1.5946
4.4564 0.1418 1.5946
4.4472 0.3020 1.5946
4.4323 0.4617 1.5946
4.4117 0.6207 1.5946
4.3854 0.7789 1.5946
4.3534 0.9359 1.5946
4.3159 1.0917 1.5946
4.2727 1.2460 1.5946
4.2241 1.3986 1.5946
4.1700 1.5493 1.5946
4.1105 1.6980 1.5946
4.0458 1.8444 1.5946
3.9759 1.9883 1.5946
3.9008 2.1297 1.5946
3.8208 2.2682 1.5946
3.7358 2.4037 1.5946
3.6461 2.5361 1.5946
3.5517 2.6651 1.5946
3.4528 2.7906 1.5946
3.3494 2.9125 1.5946
3.2418 3.0306 1.5946
3.1300 3.1448 1.5946
3.0142 3.2548 1.5946
2.8943 3.3603 1.5944
2.7710 3.4617 1.5944
2.7566 3.7101 1.6623
0.8011 1.1634 0.5081
0.7583 1.1910 0.5079
0.7147 1.2170 0.5078
0.6701 1.2415 0.5077
0.6248 1.2644 0.5075
0.5787 1.2856 0.5074
0.5318 1.3052 0.5073
0.4844 1.3231 0.5072
0.4363 1.3394 0.5072
0.3877 1.3539 0.5071
0.3386 1.3667 0.5070
-3.7945 -2.3158 1.6977
-3.7095 -2.4513 1.6977
-3.6197 -2.5837 1.6977
-3.5252 -2.7127 1.6977
-3.4260 -2.8382 1.6977
-3.3224 -2.9602 1.6977
-3.2144 -3.0783 1.6977
-3.1021 -3.1924 1.6977
-2.9859 -3.3025 1.6977
-2.8657 -3.4083 1.6977
-2.7417 -3.5096 1.6977
-2.6141 -3.6065 1.6977
-2.4831 -3.6987 1.6977
-2.3489 -3.7861 1.6977
-2.2115 -3.8686 1.6977
-2.0713 -3.9461 1.6977
-1.9283 -4.0184 1.6977
-1.7828 -4.0856 1.6977
-1.6349 -4.1474 1.6977
-1.4849 -4.2039 1.6977
-1.3329 -4.2549 1.6977
-1.1792 -4.3004 1.6977
-1.0239 -4.3403 1.6977
-0.8672 -4.3745 1.6977
-0.7095 -4.4031 1.6977
-0.5507 -4.4259 1.6977
-0.3913 -4.4430 1.6977
-0.2313 -4.4543 1.6977
-0.0711 -4.4598 1.6977
0.0893 -4.4595 1.6977
0.2496 -4.4534 1.6977
0.4095 -4.4414 1.6977
0.5689 -4.4238 1.6977
0.7275 -4.4003 1.6977
0.8852 -4.3711 1.6977
1.0417 -4.3363 1.6977
1.1968 -4.2958 1.6977
1.3504 -4.2497 1.6977
1.5022 -4.1981 1.6977
1.6520 -4.1410 1.6977
1.7213 -3.9012 1.6239
1.8268 -3.7673 1.5946
1.9608 -3.6988 1.5946
2.0923 -3.6255 1.5946
2.2210 -3.5475 1.5946
2.3468 -3.4649 1.5946
2.4695 -3.3778 1.5946
2.5890 -3.2864 1.5946
2.7051 -3.1907 1.5946
2.8176 -3.0909 1.5946
2.9264 -2.9871 1.5946
3.0314 -2.8794 1.5946
3.1324 -2.7681 1.5946
3.2294 -2.6532 1.5946
3.3220 -2.5348 1.5946
3.4104 -2.4133 1.5946
3.4943 -2.2886 1.5946
3.5736 -2.1610 1.5946
3.6482 -2.0307 1.5946
3.7181 -1.8978 1.5946
3.7831 -1.7624 1.5946
3.8432 -1.6249 1.5946
3.8983 -1.4853 1.5946
3.9482 -1.3438 1.5946
3.9931 -1.2006 1.5946
4.0328 -1.0560 1.5946
4.0672 -0.9100 1.5946
4.0963 -0.7629 1.5946
4.1201 -0.6149 1.5946
4.1385 -0.4662 1.5946
4.1516 -0.3170 1.5946
4.1593 -0.1673 1.5946
4.1616 -0.0176 1.5946
4.1586 0.1321 1.5946
4.1501 0.2816 1.5946
4.1363 0.4306 1.5946
4.1171 0.5790 1.5946
4.0926 0.7266 1.5946
4.0628 0.8732 1.5946
4.0278 1.0186 1.5946
3.9876 1.1626 1.5946
3.9423 1.3051 1.5946
3.8918 1.4458 1.5946
3.8364 1.5845 1.5946
3.7761 1.7212 1.5946
3.7108 1.8556 1.5946
3.6408 1.9875 1.5946
3.5662 2.1168 1.5946
3.4870 2.2433 1.5946
3.4032 2.3669 1.5946
3.3152 2.4874 1.5946
3.2229 2.6046 1.5946
3.1264 2.7184 1.5946
3.0260 2.8287 1.5946
2.9217 2.9352 1.5946
2.8136 3.0380 1.5946
2.7109 3.1472 1.5999
0.8254 1.0310 0.5088
0.7874 1.0596 0.5086
0.7484 1.0868 0.5085
0.7085 1.1126 0.5083
0.6677 1.1370 0.5082
0.6261 1.1599 0.5081
0.5838 1.1813 0.5080
0.5407 1.2011 0.5079
0.4969 1.2195 0.5078
0.4526 1.2363 0.5077
0.4077 1.2515 0.5076
0.3623 1.2651 0.5076
0.3164 1.2771 0.5075
-3.5522 -2.1682 1.6977
-3.4727 -2.2950 1.6977
-3.3885 -2.4189 1.6977
-3.3000 -2.5397 1.6977
-3.2071 -2.6572 1.6977
-3.1101 -2.7713 1.6977
-3.0089 -2.8818 1.6977
-2.9039 -2.9886 1.6977
-2.7950 -3.0916 1.6977
-2.6824 -3.1906 1.6977
-2.5664 -3.2855 1.6977
-2.4470 -3.3761 1.6977
-2.3243 -3.4624 1.6977
-2.1986 -3.5442 1.6977
-2.0701 -3.6214 1.6977
-1.9388 -3.6939 1.6977
-1.8049 -3.7616 1.6977
-1.6687 -3.8244 1.6977
-1.5303 -3.8823 1.6977
-1.3898 -3.9351 1.6977
-1.2476 -3.9828 1.6977
-1.1037 -4.0254 1.6977
-0.9583 -4.0627 1.6977
-0.8117 -4.0948 1.6977
-0.6640 -4.1215 1.6977
-0.5155 -4.1428 1.6977
-0.3662 -4.1588 1.6977
-0.2165 -4.1694 1.6977
-0.0665 -4.1745 1.6977
0.0836 -4.1742 1.6977
0.2336 -4.1685 1.6977
0.3833 -4.1574 1.6977
0.5324 -4.1408 1.6977
0.6809 -4.1189 1.6977
0.8285 -4.0916 1.6977
0.9750 -4.0590 1.6977
1.1202 -4.0211 1.6977
1.2640 -3.9779 1.6977
1.4060 -3.9297 1.6977
1.5463 -3.8763 1.6977
1.6845 -3.8178 1.6977
1.7580 -3.6256 1.6394
1.8354 -3.4624 1.5946
1.9722 -3.4176 1.6058
2.0789 -3.3208 1.5946
2.1967 -3.2435 1.5946
2.3116 -3.1620 1.5946
2.4234 -3.0765 1.5946
2.5321 -2.9869 1.5946
2.6375 -2.8935 1.5946
2.7394 -2.7964 1.5946
2.8377 -2.6956 1.5946
2.9323 -2.5914 1.5946
3.0230 -2.4839 1.5946
3.1098 -2.3731 1.5946
3.1925 -2.2594 1.5946
3.2711 -2.1427 1.5946
3.3454 -2.0233 1.5946
3.4153 -1.9013 1.5946
3.4807 -1.7769 1.5946
3.5417 -1.6502 1.5946
3.5980 -1.5214 1.5946
3.6496 -1.3907 1.5946
3.6964 -1.2583 1.5946
3.7385 -1.1243 1.5946
3.7756 -0.9889 1.5946
3.8079 -0.8522 1.5946
3.8352 -0.7145 1.5946
3.8576 -0.5760 1.5946
3.8749 -0.4367 1.5946
3.8872 -0.2970 1.5946
3.8944 -0.1569 1.5946
3.8967 -0.0167 1.5946
3.8938 0.1235 1.5946
3.8860 0.2634 1.5946
3.8731 0.4030 1.5946
3.8552 0.5420 1.5946
3.8323 0.6802 1.5946
3.8045 0.8174 1.5946
3.7717 0.9536 1.5946
3.7341 1.0885 1.5946
3.6917 1.2219 1.5946
3.6445 1.3536 1.5946
3.5927 1.4836 1.5946
3.5362 1.6116 1.5946
3.4751 1.7375 1.5946
3.4097 1.8610 1.5946
3.3398 1.9822 1.5946
3.2656 2.1007 1.5946
3.1872 2.2164 1.5946
3.1048 2.3293 1.5946
3.0184 2.4391 1.5946
2.9281 2.5457 1.5946
2.8340 2.6490 1.5946
2.7364 2.7489 1.5946
2.6695 2.8822 1.6154
0.8082 0.9382 0.5093
0.7736 0.9663 0.5091
0.7380 0.9931 0.5090
0.7015 1.0186 0.5088
0.6641 1.0428 0.5087
0.6259 1.0657 0.5086
0.5869 1.0871 0.5085
0.5472 1.1072 0.5084
0.5068 1.1259 0.5083
0.4658 1.1431 0.5082
0.4243 1.1588 0.5081
0.3822 1.1731 0.5081
0.3396 1.1859 0.5080
0.2966 1.1971 0.5079
-3.3353 -2.0361 1.6977
-3.2606 -2.1551 1.6977
-3.1816 -2.2714 1.6977
-3.0984 -2.3847 1.6977
-3.0112 -2.4950 1.6977
-2.9200 -2.6021 1.6977
-2.8250 -2.7059 1.6977
-2.7264 -2.8062 1.6977
-2.6241 -2.9028 1.6977
-2.5184 -2.9958 1.6977
-2.4095 -3.0848 1.6977
-2.2973 -3.1699 1.6977
-2.1822 -3.2508 1.6977
-2.0641 -3.3276 1.6977
-1.9434 -3.4000 1.6977
-1.8201 -3.4681 1.6977
-1.6945 -3.5316 1.6977
-1.5666 -3.5906 1.6977
-1.4366 -3.6449 1.6977
-1.3048 -3.6945 1.6977
-1.1712 -3.7393 1.6977
-1.0361 -3.7793 1.6977
-0.8997 -3.8143 1.6977
-0.7620 -3.8444 1.6977
-0.6234 -3.8694 1.6977
-0.4839 -3.8895 1.6977
-0.3438 -3.9045 1.6977
-0.2033 -3.9144 1.6977
-0.0624 -3.9192 1.6977
0.0785 -3.9189 1.6977
0.2193 -3.9135 1.6977
0.3598 -3.9031 1.6977
0.4999 -3.8875 1.6977
0.6392 -3.8670 1.6977
0.7778 -3.8413 1.6977
0.9153 -3.8107 1.6977
1.0516 -3.7752 1.6977
1.1866 -3.7347 1.6977
1.3200 -3.6894 1.6977
1.4516 -3.6393 1.6977
1.5814 -3.5845 1.6977
1.7091 -3.5250 1.6977
1.7905 -3.3779 1.6570
1.8386 -3.1864 1.5946
1.9518 -3.1179 1.5946
2.0623 -3.0453 1.5946
2.1702 -2.9689 1.5946
2.2752 -2.8885 1.5946
2.3773 -2.8045 1.5946
2.4762 -2.7168 1.5946
2.5719 -2.6256 1.5946
2.6642 -2.5311 1.5946
2.7531 -2.4333 1.5946
2.8383 -2.3323 1.5946
2.9198 -2.2284 1.5946
2.9975 -2.1215 1.5946
3.0713 -2.0120 1.5946
3.1411 -1.8999 1.5946
3.2068 -1.7854 1.5946
3.2682 -1.6686 1.5946
3.3255 -1.5497 1.5946
3.3784 -1.4288 1.5946
3.4269 -1.3061 1.5946
3.4709 -1.1818 1.5946
3.5104 -1.0559 1.5946
3.5454 -0.9288 1.5946
3.5757 -0.8005 1.5946
3.6014 -0.6712 1.5946
3.6224 -0.5411 1.5946
3.6387 -0.4104 1.5946
3.6503 -0.2791 1.5946
3.6572 -0.1476 1.5946
3.6593 -0.0159 1.5946
3.6567 0.1157 1.5946
3.6494 0.2472 1.5946
3.6373 0.3782 1.5946
3.6205 0.5088 1.5946
3.5991 0.6386 1.5946
3.5730 0.7675 1.5946
3.5423 0.8954 1.5946
3.5070 1.0221 1.5946
3.4672 1.1474 1.5946
3.4230 1.2711 1.5946
3.3743 1.3932 1.5946
3.3213 1.5134 1.5946
3.2640 1.6317 1.5946
3.2025 1.7478 1.5946
3.1369 1.8615 1.5946
3.0673 1.9729 1.5946
2.9937 2.0816 1.5946
2.9163 2.1876 1.5946
2.8351 2.2908 1.5946
2.7504 2.3910 1.5946
2.6621 2.4880 1.5946
0.8219 0.8255 0.5099
0.7912 0.8542 0.5097
0.7596 0.8817 0.5096
0.7271 0.9082 0.5094
0.6937 0.9334 0.5093
0.6593 0.9574 0.5092
0.6242 0.9801 0.5091
0.5883 1.0016 0.5089
0.5517 1.0219 0.5088
0.5144 1.0408 0.5087
0.4764 1.0583 0.5087
0.4379 1.0745 0.5086
0.3988 1.0893 0.5085
0.3593 1.1027 0.5084
0.3193 1.1148 0.5084
0.2789 1.1254 0.5083
-3.1398 -1.9169 1.6977
-3.0694 -2.0290 1.6977
-2.9950 -2.1384 1.6977
-2.9167 -2.2451 1.6977
-2.8345 -2.3489 1.6977
-2.7487 -2.4497 1.6977
-2.6593 -2.5474 1.6977
-2.5664 -2.6417 1.6977
-2.4701 -2.7327 1.6977
-2.3706 -2.8201 1.6977
-2.2680 -2.9040 1.6977
-2.1624 -2.9840 1.6977
-2.0540 -3.0602 1.6977
-1.9429 -3.1324 1.6977
-1.8293 -3.2006 1.6977
-1.7132 -3.2646 1.6977
-1.5949 -3.3244 1.6977
-1.4746 -3.3799 1.6977
-1.3522 -3.4310 1.6977
-1.2281 -3.4777 1.6977
-1.1024 -3.5199 1.6977
-0.9752 -3.5574 1.6977
-0.8468 -3.5904 1.6977
-0.7172 -3.6187 1.6977
