ply
format ascii 1.0
element vertex 2133
property float32 x
property float32 y
property float32 z
end_header
3.8449 -14.2877 1.0738
4.1389 -13.4405 1.0196
4.3406 -12.4859 0.9574
4.4565 -11.4758 0.8907
4.7301 -10.9955 0.8652
9.5708 -20.2193 1.6154
10.2989 -19.8821 1.6154
11.0064 -19.5032 1.6142
11.7089 -19.1135 1.6142
12.3972 -18.6980 1.6142
13.0705 -18.2574 1.6142
13.7278 -17.7921 1.6142
14.3681 -17.3026 1.6142
14.9905 -16.7897 1.6142
15.5943 -16.2540 1.6142
16.1783 -15.6960 1.6142
16.7420 -15.1166 1.6142
17.0407 -14.3119 1.5914
16.9645 -13.2409 1.5380
16.8930 -12.2369 1.4899
16.8258 -11.2915 1.4465
16.7622 -10.3976 1.4074
16.7018 -9.5489 1.3720
16.6442 -8.7400 1.3401
17.4373 -8.3736 1.3783
18.9264 -8.2676 1.4710
20.6341 -8.1461 1.5795
21.7758 -7.7070 1.6442
22.0439 -6.9236 1.6442
22.2829 -6.1306 1.6442
22.4925 -5.3292 1.6442
22.6724 -4.5205 1.6442
22.8223 -3.7056 1.6442
22.9420 -2.8856 1.6442
23.0314 -2.0617 1.6442
23.0902 -1.2351 1.6442
23.1184 -0.4068 1.6442
23.1160 0.4218 1.6442
5.3840 0.2915 0.3835
22.6171 2.0394 1.6154
22.5247 2.8479 1.6154
-2.4875 17.3927 1.6954
-3.1068 17.2785 1.6954
-3.7211 17.1424 1.6954
-4.3298 16.9847 1.6954
-4.9319 16.8055 1.6954
-5.5269 16.6053 1.6954
-5.8965 15.8016 1.6352
-6.2853 15.1610 1.5923
-6.8198 14.9152 1.5923
-7.3447 14.6508 1.5923
-7.8597 14.3681 1.5923
-8.3640 14.0677 1.5923
-8.8570 13.7498 1.5923
-9.3382 13.4148 1.5923
-9.6501 12.8545 1.5669
-10.0487 12.4311 1.5591
-9.8798 11.3636 1.4696
-10.5724 11.3143 1.5122
-9.4506 9.4134 1.3033
-9.4111 8.7248 1.2545
-9.3725 8.0841 1.2105
-9.3268 7.4787 1.1698
-9.2856 6.9137 1.1333
-9.2478 6.3834 1.1005
-12.9016 8.2388 1.4997
-12.9015 7.6018 1.4676
-12.8985 6.9897 1.4383
-9.1316 4.5328 0.9998
-9.0861 4.1111 0.9784
-13.0863 5.3645 1.3878
-9.0305 3.3290 0.9447
-13.5239 4.4416 1.3974
-8.9784 2.5961 0.9177
-8.9533 2.2445 0.9064
-8.9289 1.9010 0.8966
-14.4993 2.5474 1.4460
-14.5313 2.0190 1.4411
-8.8821 0.9110 0.8771
-8.8354 0.5871 0.8698
-8.8128 0.2688 0.8661
-8.7903 -0.0471 0.8634
-8.7680 -0.3616 0.8619
-8.7456 -0.6753 0.8614
-8.7233 -0.9893 0.8620
-8.7009 -1.3041 0.8637
-8.6784 -1.6207 0.8665
-8.6557 -1.9400 0.8705
-8.6327 -2.2627 0.8755
-8.6094 -2.5897 0.8818
-8.5858 -2.9221 0.8892
-8.5617 -3.2608 0.8980
-15.0305 -6.3504 1.5987
-14.9538 -6.9599 1.6154
-8.4859 -4.3261 0.9325
-10.1004 -5.6141 1.1308
-8.4315 -5.0905 0.9634
-13.8306 -9.0420 1.6154
-8.3730 -5.9130 1.0016
-8.3418 -6.3511 1.0239
-8.3149 -6.8149 1.0493
-8.2748 -7.2932 1.0760
-8.2385 -7.8034 1.1063
-9.8819 -10.0561 1.3737
-9.9052 -10.8303 1.4291
-10.6042 -12.4637 1.5923
-4.8357 -6.1149 0.7581
-9.6973 -13.2094 1.5923
-9.2241 -13.5581 1.5923
-8.6874 -13.8088 1.5830
-8.7763 -15.1271 1.6957
-8.2354 -15.4450 1.6959
-7.6859 -15.7495 1.6967
-7.1236 -16.0309 1.6971
-6.5507 -16.2914 1.6974
-5.1976 -14.3969 1.4784
-4.4156 -13.7557 1.3943
-3.8451 -13.6402 1.3666
-4.1716 -17.1269 1.6985
-3.5573 -17.2761 1.6982
-2.9376 -17.4032 1.6978
-2.3135 -17.5081 1.6975
-1.6855 -17.5904 1.6971
-1.0547 -17.6502 1.6967
-0.4217 -17.6877 1.6963
0.2126 -17.7026 1.6960
0.8474 -17.6944 1.6956
1.4691 -17.5102 1.6806
2.0123 -16.7522 1.6124
2.5810 -16.4758 1.5923
3.1724 -16.3859 1.5923
3.7606 -16.2748 1.5923
4.3448 -16.1423 1.5923
4.9244 -15.9888 1.5923
5.4984 -15.8143 1.5923
4.4307 -11.4077 1.1630
4.4664 -10.3812 1.0732
4.3895 -9.2724 0.9735
4.3434 -8.3841 0.8954
8.3794 -14.8467 1.6154
8.9122 -14.5469 1.6154
9.4341 -14.2278 1.6154
9.9444 -13.8896 1.6154
10.4423 -13.5329 1.6154
10.9188 -13.1479 1.6142
11.3897 -12.7558 1.6142
11.8462 -12.3466 1.6142
12.2878 -11.9207 1.6142
12.7137 -11.4788 1.6142
13.1235 -11.0213 1.6142
13.5164 -10.5491 1.6142
13.8921 -10.0625 1.6142
14.2498 -9.5623 1.6142
14.5891 -9.0492 1.6142
14.9096 -8.5238 1.6142
15.2107 -7.9869 1.6142
15.4920 -7.4391 1.6142
15.7532 -6.8812 1.6142
15.9939 -6.3140 1.6142
16.2136 -5.7381 1.6142
16.4121 -5.1545 1.6142
16.5891 -4.5640 1.6142
16.7444 -3.9672 1.6142
16.8777 -3.3650 1.6142
16.9889 -2.7583 1.6142
17.0777 -2.1479 1.6142
17.1441 -1.5347 1.6142
17.5074 -0.9365 1.6442
17.5290 -0.3085 1.6442
17.5276 0.3197 1.6442
5.3684 0.2906 0.5043
17.1505 1.5463 1.6154
17.0813 2.1595 1.6154
-2.0117 14.0707 1.6954
-2.5131 13.9804 1.6954
-3.0106 13.8724 1.6954
-3.5037 13.7468 1.6954
-3.9916 13.6038 1.6954
-4.4738 13.4436 1.6954
-4.9498 13.2665 1.6954
-5.4189 13.0727 1.6954
-5.6533 12.3654 1.6299
-5.9489 11.8678 1.5923
-6.3669 11.6404 1.5923
-6.7763 11.3984 1.5923
-7.1767 11.1422 1.5923
-7.5675 10.8721 1.5923
-7.9483 10.5885 1.5923
-8.3187 10.2917 1.5923
-8.6781 9.9822 1.5923
-9.0262 9.6602 1.5923
-9.3626 9.3264 1.5923
-9.4111 8.7254 1.5470
-9.3720 8.0841 1.4926
-9.3268 7.4792 1.4423
-9.2856 6.9141 1.3972
-9.2478 6.3838 1.3566
-10.7883 6.8896 1.5458
-11.0177 6.4921 1.5448
-11.2010 6.0701 1.5394
-9.1313 4.5328 1.2321
-9.0862 4.1113 1.2057
-11.8888 4.8738 1.5537
-9.0305 3.3292 1.1640
-12.2602 4.0268 1.5609
-8.9784 2.5962 1.1307
-8.9534 2.2446 1.1168
-8.9289 1.9010 1.1047
-12.8890 2.2645 1.5836
-12.8968 1.7920 1.5758
-12.9026 1.3233 1.5697
-8.8354 0.5871 1.0717
-8.8128 0.2688 1.0670
-8.7903 -0.0471 1.0638
-8.7679 -0.3616 1.0619
-8.7456 -0.6754 1.0613
-8.7233 -0.9893 1.0621
-8.7009 -1.3042 1.0643
-8.6784 -1.6209 1.0678
-8.6557 -1.9401 1.0726
-8.6327 -2.2628 1.0789
-8.6094 -2.5899 1.0867
-8.5858 -2.9223 1.0959
-8.5617 -3.2610 1.1068
-12.2547 -5.1780 1.6067
-12.1269 -5.6445 1.6149
-8.4859 -4.3264 1.1496
-10.1003 -5.6145 1.3942
-8.4315 -5.0908 1.1878
-11.2158 -7.3330 1.6154
-8.3730 -5.9134 1.2352
-8.3418 -6.3515 1.2629
-8.3143 -6.8148 1.2943
-8.2748 -7.2937 1.3274
-8.2385 -7.8039 1.3649
-9.4180 -9.5847 1.6154
-9.0731 -9.9213 1.6154
-8.5917 -10.0991 1.5923
-4.8335 -6.1126 0.9353
-5.1203 -6.9754 1.0380
-7.4705 -10.9816 1.5923
-7.0762 -11.2489 1.5923
-6.6725 -11.5022 1.5923
-6.2598 -11.7411 1.5923
-5.8385 -11.9653 1.5923
-5.7602 -12.9644 1.6957
-5.2962 -13.1734 1.6960
-4.8246 -13.3658 1.6963
-4.3461 -13.5414 1.6966
-3.8613 -13.7001 1.6969
-3.3706 -13.8414 1.6972
-2.8749 -13.9653 1.6975
-2.3745 -14.0714 1.6979
-1.8703 -14.1595 1.6982
-1.3628 -14.2296 1.6985
-0.8524 -14.2768 1.6982
-0.3403 -14.3048 1.6979
0.1726 -14.3143 1.6975
0.6859 -14.3056 1.6971
1.1987 -14.2784 1.6968
1.7104 -14.2329 1.6964
2.2203 -14.1687 1.6961
2.7279 -14.0863 1.6957
3.2325 -13.9863 1.6954
3.5693 -13.2586 1.6206
3.9831 -12.9305 1.5960
4.4366 -12.7585 1.5923
4.6447 -11.9573 1.5112
4.7206 -10.9708 1.4062
4.6036 -9.7234 1.2659
4.3273 -8.3521 1.1062
4.3038 -7.6248 1.0291
4.2322 -6.9073 0.9516
4.2229 -6.3681 0.8971
4.5369 -6.3364 0.9145
8.3108 -10.7698 1.5954
8.6957 -10.4702 1.5954
9.0697 -10.1568 1.5954
9.4321 -9.8298 1.5954
9.7827 -9.4898 1.5954
10.1207 -9.1371 1.5954
10.5686 -8.8752 1.6142
10.8841 -8.4941 1.6142
11.1855 -8.1016 1.6142
11.4726 -7.6983 1.6142
11.7449 -7.2846 1.6142
12.0020 -6.8612 1.6142
12.2435 -6.4286 1.6142
12.4692 -5.9873 1.6142
12.6787 -5.5380 1.6142
12.8717 -5.0812 1.6142
13.0480 -4.6176 1.6142
13.2072 -4.1478 1.6142
13.3492 -3.6725 1.6142
13.4738 -3.1922 1.6142
13.5808 -2.7076 1.6142
13.6699 -2.2194 1.6142
13.7413 -1.7283 1.6142
13.7946 -1.2348 1.6142
13.8299 -0.7398 1.6142
13.8471 -0.2438 1.6142
13.8462 0.2525 1.6142
5.3528 0.2897 0.6249
13.7900 1.2432 1.6142
13.7348 1.7363 1.6142
-0.4877 3.4123 0.4901
-0.6099 3.3936 0.4905
-0.7314 3.3707 0.4910
-2.9396 11.5358 1.6954
-3.3494 11.4170 1.6954
-3.7545 11.2837 1.6954
-4.1543 11.1361 1.6954
-4.5485 10.9745 1.6954
-4.9365 10.7990 1.6954
-5.3178 10.6099 1.6954
-5.4862 10.0312 1.6341
-5.6902 9.5723 1.5923
-6.0269 9.3579 1.5923
-6.3557 9.1319 1.5923
-6.6761 8.8943 1.5923
-6.9877 8.6457 1.5923
-7.2902 8.3863 1.5923
-7.5833 8.1165 1.5923
-7.8664 7.8365 1.5923
-8.1394 7.5468 1.5923
-8.4018 7.2477 1.5923
-8.6535 6.9396 1.5923
-8.8939 6.6229 1.5923
-9.1230 6.2980 1.5923
-9.1551 5.8469 1.5607
-9.2031 5.4232 1.5352
-9.1709 4.9702 1.4995
-9.1309 4.5328 1.4657
-9.0862 4.1115 1.4342
-10.3667 4.2500 1.6115
-9.0305 3.3293 1.3846
-10.6645 3.5028 1.6150
-8.9784 2.5963 1.3449
-8.9534 2.2446 1.3284
-8.9289 1.9011 1.3139
-11.0545 1.9423 1.6154
-11.1165 1.5446 1.6154
-11.1645 1.1451 1.6154
-8.8354 0.5871 1.2746
-8.8128 0.2688 1.2691
-8.7903 -0.0472 1.2652
-8.7679 -0.3617 1.2630
-8.7456 -0.6755 1.2623
-8.7233 -0.9894 1.2633
-8.7009 -1.3043 1.2659
-8.6784 -1.6210 1.2701
-8.6556 -1.9402 1.2759
-8.6327 -2.2630 1.2834
-8.6094 -2.5901 1.2927
-8.5858 -2.9225 1.3038
-8.5617 -3.2612 1.3167
-10.3563 -4.3762 1.6154
-10.1956 -4.7459 1.6154
-8.4859 -4.3267 1.3679
-9.8351 -5.4674 1.6154
-8.4315 -5.0911 1.4135
-9.4243 -6.1621 1.6154
-8.3730 -5.9138 1.4702
-8.3418 -6.3519 1.5031
-8.3136 -6.8148 1.5405
-8.4595 -7.4571 1.6154
-8.0730 -7.6478 1.5923
-7.7970 -7.9356 1.5923
-7.5108 -8.2136 1.5923
-7.2148 -8.4814 1.5923
-4.8338 -6.1135 1.1140
-5.1127 -6.9656 1.2345
-6.2716 -9.2200 1.5923
-4.7376 -7.5320 1.2700
-5.6005 -9.6553 1.5923
-5.2536 -9.8550 1.5923
-4.8995 -10.0422 1.5923
-4.7455 -10.6820 1.6649
-4.4426 -11.0516 1.6956
-4.0465 -11.2118 1.6959
-3.6447 -11.3579 1.6962
-3.2377 -11.4896 1.6965
-2.8259 -11.6068 1.6968
-2.4098 -11.7093 1.6971
-1.9901 -11.7969 1.6974
-1.5672 -11.8695 1.6977
-1.1416 -11.9269 1.6980
-0.7140 -11.9691 1.6983
-0.2847 -11.9944 1.6984
0.1453 -12.0015 1.6981
0.5756 -11.9931 1.6978
1.0054 -11.9692 1.6975
1.4342 -11.9300 1.6971
1.8615 -11.8753 1.6968
2.2867 -11.8054 1.6965
2.7093 -11.7201 1.6962
3.1287 -11.6197 1.6959
3.5444 -11.5043 1.6956
3.9343 -11.3123 1.6861
4.0981 -10.5486 1.5923
4.4757 -10.4003 1.5923
4.6041 -9.7233 1.5122
4.5975 -8.8727 1.4040
5.5742 -9.8745 1.5923
4.2321 -6.9066 1.1370
4.2275 -6.3745 1.0731
4.1974 -5.8617 1.0110
4.7128 -6.1067 1.0813
7.2611 -8.7423 1.5923
7.5728 -8.4799 1.5923
7.8901 -8.2222 1.5954
8.1827 -7.9372 1.5954
8.4649 -7.6417 1.5954
8.7362 -7.3359 1.5954
8.9964 -7.0205 1.5954
9.2450 -6.6957 1.5954
9.4817 -6.3620 1.5954
9.7062 -6.0199 1.5954
9.9182 -5.6697 1.5954
10.2362 -5.3744 1.6142
10.4245 -5.0053 1.6142
10.5992 -4.6295 1.6142
10.7602 -4.2475 1.6142
10.9072 -3.8598 1.6142
11.0400 -3.4670 1.6142
11.1584 -3.0696 1.6142
11.2624 -2.6682 1.6142
11.3516 -2.2631 1.6142
11.4260 -1.8551 1.6142
11.4856 -1.4446 1.6142
11.5301 -1.0321 1.6142
5.5035 -0.2944 0.7685
5.7974 -0.1021 0.8085
5.9255 0.1080 0.8265
5.3373 0.2888 0.7454
5.9148 0.5332 0.8283
5.8028 0.7335 0.8159
-0.4223 2.9557 0.4934
-0.5281 2.9394 0.4937
-0.6333 2.9194 0.4941
-0.7378 2.8959 0.4945
-2.8825 9.8271 1.6954
-3.2314 9.7131 1.6954
-3.5759 9.5867 1.6954
-3.9155 9.4482 1.6954
-4.2498 9.2978 1.6954
-4.5784 9.1356 1.6954
-4.9009 8.9619 1.6954
-5.2169 8.7769 1.6954
-5.3631 8.3280 1.6455
-5.4735 7.8649 1.5923
-5.7497 7.6608 1.5923
-6.0185 7.4471 1.5923
-6.2794 7.2240 1.5923
-6.5321 6.9919 1.5923
-6.7764 6.7511 1.5923
-7.0119 6.5018 1.5923
-7.2384 6.2444 1.5923
-7.4555 5.9792 1.5923
-7.6630 5.7066 1.5923
-7.8607 5.4268 1.5923
-8.0483 5.1403 1.5923
-8.2256 4.8474 1.5923
-8.3924 4.5485 1.5923
-8.5484 4.2439 1.5923
-8.6936 3.9340 1.5923
-8.8277 3.6192 1.5923
-8.9505 3.2999 1.5923
-9.1934 3.0198 1.6154
-9.2948 2.6879 1.6154
-8.9534 2.2447 1.5413
-8.9289 1.9012 1.5244
-8.9289 1.5688 1.5139
-8.9053 1.2374 1.5015
-8.8821 0.9110 1.4911
-8.8354 0.5871 1.4788
-8.8128 0.2688 1.4724
-8.7903 -0.0472 1.4680
-8.7679 -0.3617 1.4654
-8.7456 -0.6755 1.4647
-8.7233 -0.9895 1.4658
-8.7009 -1.3044 1.4688
-8.6783 -1.6211 1.4737
-8.6556 -1.9404 1.4805
-8.6327 -2.2631 1.4893
-8.6094 -2.5902 1.5001
-8.5857 -2.9227 1.5130
-8.5616 -3.2614 1.5281
-8.9238 -3.7711 1.6154
-8.7850 -4.0895 1.6154
-8.6348 -4.4029 1.6154
-8.3525 -4.6435 1.5923
-8.1829 -4.9414 1.5923
-8.0029 -5.2331 1.5923
-7.8125 -5.5183 1.5923
-7.6121 -5.7967 1.5923
-7.4019 -6.0678 1.5923
-7.1821 -6.3315 1.5923
-6.9530 -6.5872 1.5923
-6.7148 -6.8348 1.5923
-6.4680 -7.0738 1.5923
-6.2127 -7.3040 1.5923
-4.8341 -6.1145 1.2938
-5.1050 -6.9558 1.4316
-5.3993 -7.9385 1.5923
-4.7352 -7.5289 1.4745
-4.8209 -8.3122 1.5923
-4.5219 -8.4834 1.5923
-4.3155 -8.8463 1.6296
-4.1590 -9.3630 1.6955
-3.8229 -9.5114 1.6956
-3.4819 -9.6488 1.6960
-3.1359 -9.7740 1.6963
-2.7854 -9.8865 1.6966
-2.4308 -9.9864 1.6968
-2.0727 -10.0737 1.6971
-1.7114 -10.1482 1.6974
-1.3475 -10.2097 1.6977
-0.9814 -10.2581 1.6980
-0.6135 -10.2935 1.6982
-0.2444 -10.3156 1.6985
0.1255 -10.3212 1.6983
0.4955 -10.3134 1.6980
0.8650 -10.2923 1.6977
1.2337 -10.2580 1.6974
1.6011 -10.2104 1.6971
1.9666 -10.1497 1.6968
2.3297 -10.0758 1.6966
2.6901 -9.9889 1.6963
3.0473 -9.8891 1.6960
3.4007 -9.7764 1.6957
3.7499 -9.6511 1.6955
3.9456 -9.1673 1.6336
4.1991 -8.8671 1.6052
4.4800 -8.6450 1.5923
4.7889 -8.4825 1.5923
5.0918 -8.3088 1.5923
5.3884 -8.1243 1.5923
4.4819 -6.2585 1.2569
4.7076 -6.0995 1.2576
6.2361 -7.5075 1.5923
6.5033 -7.2818 1.5923
6.7623 -7.0465 1.5923
7.0127 -6.8019 1.5923
7.2542 -6.5483 1.5923
7.4864 -6.2860 1.5923
7.7089 -6.0155 1.5923
7.9370 -5.7481 1.5954
8.1399 -5.4614 1.5954
8.3323 -5.1675 1.5954
8.5139 -4.8667 1.5954
8.6846 -4.5595 1.5954
8.8440 -4.2462 1.5954
8.9920 -3.9273 1.5954
9.1284 -3.6032 1.5954
9.2528 -3.2742 1.5954
9.3653 -2.9410 1.5954
9.4656 -2.6039 1.5954
9.5537 -2.2633 1.5954
9.6293 -1.9197 1.5954
9.6923 -1.5735 1.5954
9.8573 -1.2397 1.6142
9.8955 -0.8858 1.6142
4.8861 -0.2614 0.7950
4.6561 -0.0820 0.7566
4.5987 0.0838 0.7474
4.5835 0.2480 0.7459
4.5713 0.4120 0.7459
4.6003 0.5814 0.7536
-0.3720 2.6045 0.4958
-0.4652 2.5901 0.4962
-0.5579 2.5724 0.4965
-0.6499 2.5516 0.4969
-0.7412 2.5276 0.4972
-2.8335 8.5185 1.6954
-3.1358 8.4082 1.6954
-3.4338 8.2871 1.6954
-3.7273 8.1556 1.6954
-4.0157 8.0138 1.6954
-4.2988 7.8618 1.6954
-4.5763 7.6999 1.6954
-4.8477 7.5282 1.6954
-5.1127 7.3471 1.6954
-5.2703 7.0225 1.6636
-5.2805 6.5344 1.5923
-5.5096 6.3389 1.5923
-5.7317 6.1355 1.5923
-5.9462 5.9244 1.5923
-6.1531 5.7059 1.5923
-6.3521 5.4802 1.5923
-6.5428 5.2476 1.5923
-6.7252 5.0085 1.5923
-6.8989 4.7631 1.5923
-7.0638 4.5117 1.5923
-7.2195 4.2548 1.5923
-7.3661 3.9925 1.5923
-7.5033 3.7252 1.5923
-7.6308 3.4532 1.5923
-7.7487 3.1770 1.5923
-7.8566 2.8968 1.5923
-7.9546 2.6129 1.5923
-8.0424 2.3258 1.5923
-8.1200 2.0358 1.5923
-8.1872 1.7433 1.5923
-8.2441 1.4486 1.5923
-8.2905 1.1520 1.5923
-8.3263 0.8540 1.5923
-8.3515 0.5549 1.5923
-8.3662 0.2551 1.5923
-8.3702 -0.0450 1.5923
-8.3636 -0.3451 1.5923
-8.3463 -0.6448 1.5923
-8.3185 -0.9437 1.5923
-8.2800 -1.2414 1.5923
-8.2311 -1.5377 1.5923
-8.1717 -1.8320 1.5923
-8.1018 -2.1241 1.5923
-8.0216 -2.4136 1.5923
-7.9313 -2.7001 1.5923
-7.8308 -2.9832 1.5923
-7.7203 -3.2627 1.5923
-7.5999 -3.5381 1.5923
-7.4698 -3.8091 1.5923
-7.3301 -4.0754 1.5923
-7.1811 -4.3367 1.5923
-7.0228 -4.5925 1.5923
-6.8555 -4.8427 1.5923
-6.6794 -5.0868 1.5923
-6.4946 -5.3245 1.5923
-6.3015 -5.5556 1.5923
-6.1002 -5.7798 1.5923
-5.8910 -5.9967 1.5923
-5.6742 -6.2061 1.5923
-5.4499 -6.4078 1.5923
-4.8344 -6.1154 1.4751
-4.9804 -6.7867 1.5923
-4.7357 -6.9634 1.5923
-4.4848 -7.1314 1.5923
-4.2859 -7.3905 1.6142
-4.2221 -7.9219 1.6954
-3.9372 -8.0717 1.6955
-3.6471 -8.2115 1.6956
-3.3520 -8.3410 1.6957
-3.0523 -8.4598 1.6958
-2.7485 -8.5680 1.6959
-2.4408 -8.6652 1.6961
-2.1298 -8.7515 1.6962
-1.8156 -8.8266 1.6963
-1.4988 -8.8905 1.6964
-1.1798 -8.9430 1.6965
-0.8590 -8.9840 1.6966
-0.5368 -9.0139 1.6968
-0.2135 -9.0324 1.6970
0.1104 -9.0375 1.6969
0.4343 -9.0309 1.6968
0.7579 -9.0126 1.6966
1.0808 -8.9826 1.6964
1.4025 -8.9412 1.6963
1.7226 -8.8883 1.6962
2.0407 -8.8240 1.6961
2.3564 -8.7482 1.6959
2.6693 -8.6611 1.6958
2.9790 -8.5628 1.6957
3.2849 -8.4533 1.6956
3.5869 -8.3329 1.6955
3.8789 -8.1900 1.6930
3.9235 -7.5703 1.5923
4.1938 -7.4276 1.5923
4.4588 -7.2752 1.5923
4.7182 -7.1132 1.5923
4.4736 -6.2464 1.4328
4.7024 -6.0923 1.4347
5.4597 -6.5724 1.5923
5.6934 -6.3745 1.5923
5.9199 -6.1683 1.5923
6.1389 -5.9539 1.5923
6.3500 -5.7317 1.5923
6.5529 -5.5020 1.5923
6.7475 -5.2650 1.5923
6.9335 -5.0210 1.5923
7.1105 -4.7705 1.5923
7.2783 -4.5136 1.5923
7.4368 -4.2508 1.5923
7.5857 -3.9823 1.5923
7.7397 -3.7158 1.5954
7.8691 -3.4367 1.5954
7.9882 -3.1530 1.5954
8.0970 -2.8651 1.5954
8.1953 -2.5735 1.5954
8.2830 -2.2784 1.5954
8.3599 -1.9804 1.5954
8.4260 -1.6797 1.5954
8.4811 -1.3769 1.5954
8.5253 -1.0722 1.5954
8.5583 -0.7661 1.5954
5.0299 -0.2691 0.9353
4.7902 -0.0844 0.8896
4.7102 0.0858 0.8748
4.6488 0.2515 0.8645
4.6762 0.4215 0.8720
4.7140 0.5958 0.8825
-0.3321 2.3259 0.4978
-0.4153 2.3129 0.4981
-0.4981 2.2971 0.4984
-0.5802 2.2784 0.4987
-0.6617 2.2568 0.4991
-0.7425 2.2325 0.4994
-0.8224 2.2053 0.4998
-3.0548 7.3733 1.6954
-3.3160 7.2566 1.6954
-3.5728 7.1306 1.6954
-3.8249 6.9957 1.6954
-4.0719 6.8519 1.6954
-4.3135 6.6994 1.6954
-4.5496 6.5385 1.6954
-4.7796 6.3693 1.6954
-5.0035 6.1921 1.6954
-5.1960 5.9785 1.6874
-5.1710 5.5358 1.6142
-5.2923 5.2732 1.5923
-5.4766 5.0788 1.5923
-5.6538 4.8781 1.5923
-5.8238 4.6712 1.5923
-5.9862 4.4584 1.5923
-6.1410 4.2401 1.5923
-6.2879 4.0164 1.5923
-6.4267 3.7877 1.5923
-6.5574 3.5543 1.5923
-6.6796 3.3164 1.5923
-6.7933 3.0743 1.5923
-6.8983 2.8285 1.5923
-6.9945 2.5790 1.5923
-7.0817 2.3263 1.5923
-7.1600 2.0707 1.5923
-7.2291 1.8126 1.5923
-7.2891 1.5521 1.5923
-7.3397 1.2897 1.5923
-7.3810 1.0257 1.5923
-7.4130 0.7603 1.5923
-7.4354 0.4940 1.5923
-7.4485 0.2271 1.5923
-7.4520 -0.0401 1.5923
-7.4461 -0.3073 1.5923
-7.4307 -0.5741 1.5923
-7.4058 -0.8402 1.5923
-7.3715 -1.1053 1.5923
-7.3279 -1.3690 1.5923
-7.2748 -1.6311 1.5923
-7.2126 -1.8911 1.5923
-7.1411 -2.1488 1.5923
-7.0605 -2.4038 1.5923
-6.9709 -2.6558 1.5923
-6.8724 -2.9046 1.5923
-6.7651 -3.1497 1.5923
-6.6491 -3.3909 1.5923
-6.5246 -3.6278 1.5923
-6.3918 -3.8603 1.5923
-6.2507 -4.0879 1.5923
-6.1016 -4.3104 1.5923
-5.9447 -4.5276 1.5923
-5.7801 -4.7390 1.5923
-5.6080 -4.9446 1.5923
-5.4287 -5.1439 1.5923
-5.2423 -5.3368 1.5923
-5.0491 -5.5229 1.5923
-4.8494 -5.7022 1.5923
-4.6434 -5.8742 1.5923
-4.4313 -6.0389 1.5923
-4.3318 -6.3701 1.6371
-4.2482 -6.7559 1.6954
-4.0047 -6.9063 1.6954
-3.7559 -7.0479 1.6954
-3.5021 -7.1806 1.6954
-3.2436 -7.3042 1.6954
-2.9808 -7.4185 1.6954
-2.7140 -7.5234 1.6954
-2.4435 -7.6187 1.6954
-2.1697 -7.7043 1.6954
-1.8929 -7.7802 1.6954
-1.6136 -7.8465 1.6955
-1.3319 -7.9028 1.6956
-1.0483 -7.9489 1.6957
-0.7631 -7.9848 1.6958
-0.4766 -8.0104 1.6958
-0.1893 -8.0256 1.6959
0.0985 -8.0305 1.6959
0.3864 -8.0250 1.6959
0.6740 -8.0092 1.6959
0.9609 -7.9829 1.6959
1.2468 -7.9463 1.6959
1.5314 -7.8994 1.6959
1.8141 -7.8422 1.6958
2.0946 -7.7748 1.6958
2.3727 -7.6972 1.6957
2.6478 -7.6097 1.6956
2.9196 -7.5122 1.6955
3.1879 -7.4049 1.6954
3.4523 -7.2884 1.6954
3.7125 -7.1625 1.6954
3.7971 -6.7244 1.6224
3.9621 -6.4642 1.5923
4.1925 -6.3201 1.5923
4.4176 -6.1677 1.5923
4.6371 -6.0072 1.5923
4.8508 -5.8389 1.5923
5.0582 -5.6629 1.5923
5.2593 -5.4795 1.5923
5.4536 -5.2889 1.5923
5.6409 -5.0914 1.5923
5.8211 -4.8872 1.5923
5.9938 -4.6766 1.5923
6.1588 -4.4598 1.5923
6.3158 -4.2371 1.5923
6.4648 -4.0089 1.5923
6.6054 -3.7754 1.5923
6.7375 -3.5369 1.5923
6.8609 -3.2937 1.5923
6.9754 -3.0463 1.5923
7.0809 -2.7948 1.5923
7.1773 -2.5396 1.5923
7.2643 -2.2810 1.5923
7.3419 -2.0195 1.5923
7.4101 -1.7553 1.5923
7.4831 -1.4917 1.5954
7.5320 -1.2228 1.5954
7.5712 -0.9522 1.5954
7.6005 -0.6804 1.5954
7.6200 -0.4076 1.5954
4.8718 -0.0858 1.0188
4.7587 0.0867 0.9952
4.6961 0.2540 0.9834
4.7238 0.4257 0.9918
4.7694 0.6027 1.0053
-0.2996 2.0991 0.4994
-0.3747 2.0874 0.4997
-0.4494 2.0731 0.5000
-0.5235 2.0561 0.5003
-0.5970 2.0366 0.5006
-0.6699 2.0146 0.5009
-0.7420 1.9900 0.5012
-0.8131 1.9629 0.5016
-2.9836 6.5299 1.6954
-3.2148 6.4168 1.6954
-3.4417 6.2955 1.6954
-3.6641 6.1663 1.6954
-3.8817 6.0292 1.6954
-4.0942 5.8846 1.6954
-4.3014 5.7325 1.6954
-4.5030 5.5731 1.6954
-4.6987 5.4067 1.6954
-4.8884 5.2335 1.6954
-5.0717 5.0537 1.6954
-5.1077 4.7370 1.6500
-5.0946 4.3958 1.5941
-5.2629 4.2216 1.5987
-5.3884 4.0134 1.5923
-5.5279 3.8169 1.5923
-5.6602 3.6157 1.5923
-5.7853 3.4098 1.5923
-5.9030 3.1997 1.5923
-6.0131 2.9856 1.5923
-6.1155 2.7678 1.5923
-6.2101 2.5464 1.5923
-6.2968 2.3219 1.5923
-6.3754 2.0944 1.5923
-6.4459 1.8643 1.5923
-6.5082 1.6319 1.5923
-6.5622 1.3974 1.5923
-6.6078 1.1611 1.5923
-6.6451 0.9234 1.5923
-6.6738 0.6845 1.5923
-6.6940 0.4448 1.5923
-6.7058 0.2045 1.5923
-6.7089 -0.0361 1.5923
-6.7036 -0.2767 1.5923
-6.6897 -0.5169 1.5923
-6.6673 -0.7565 1.5923
-6.6363 -0.9951 1.5923
-6.5970 -1.2326 1.5923
-6.5492 -1.4685 1.5923
-6.4930 -1.7026 1.5923
-6.4286 -1.9345 1.5923
-6.3559 -2.1641 1.5923
-6.2752 -2.3909 1.5923
-6.1864 -2.6148 1.5923
-6.0897 -2.8354 1.5923
-5.9852 -3.0525 1.5923
-5.8730 -3.2657 1.5923
-5.7533 -3.4749 1.5923
-5.6262 -3.6797 1.5923
-5.4919 -3.8799 1.5923
-5.3504 -4.0753 1.5923
-5.2021 -4.2655 1.5923
-5.0471 -4.4504 1.5923
-4.8856 -4.6297 1.5923
-4.7177 -4.8031 1.5923
-4.5438 -4.9705 1.5923
-4.4108 -5.1869 1.6095
-4.3800 -5.5416 1.6692
-4.2455 -5.7862 1.6954
-4.0365 -5.9365 1.6954
-3.8223 -6.0793 1.6954
-3.6031 -6.2143 1.6954
-3.3791 -6.3415 1.6954
-3.1506 -6.4607 1.6954
-2.9180 -6.5717 1.6954
-2.6814 -6.6743 1.6954
-2.4413 -6.7684 1.6954
-2.1979 -6.8539 1.6954
-1.9515 -6.9307 1.6954
-1.7024 -6.9986 1.6954
-1.4510 -7.0576 1.6954
-1.1975 -7.1076 1.6954
-0.9423 -7.1485 1.6954
-0.6858 -7.1802 1.6954
-0.4282 -7.2027 1.6954
-0.1698 -7.2160 1.6954
0.0889 -7.2200 1.6954
0.3477 -7.2148 1.6954
0.6063 -7.2002 1.6954
0.8642 -7.1763 1.6954
1.1212 -7.1432 1.6954
1.3769 -7.1009 1.6954
1.6311 -7.0494 1.6954
1.8832 -6.9888 1.6954
2.1332 -6.9191 1.6954
2.3805 -6.8405 1.6954
2.6249 -6.7530 1.6954
2.8661 -6.6567 1.6954
3.1038 -6.5518 1.6954
3.3375 -6.4384 1.6954
3.5671 -6.3165 1.6954
3.7265 -6.0791 1.6660
3.7686 -5.6806 1.5923
3.9785 -5.5542 1.5954
4.1680 -5.3991 1.5923
4.3599 -5.2477 1.5923
4.5462 -5.0894 1.5923
4.7268 -4.9244 1.5923
4.9013 -4.7530 1.5923
5.0696 -4.5754 1.5923
5.2313 -4.3918 1.5923
5.3864 -4.2024 1.5923
5.5345 -4.0075 1.5923
5.6756 -3.8074 1.5923
5.8093 -3.6022 1.5923
5.9356 -3.3923 1.5923
6.0541 -3.1780 1.5923
6.1649 -2.9595 1.5923
6.2677 -2.7371 1.5923
6.3625 -2.5111 1.5923
6.4490 -2.2818 1.5923
6.5271 -2.0495 1.5923
6.5968 -1.8145 1.5923
6.6580 -1.5771 1.5923
6.7105 -1.3377 1.5923
6.7544 -1.0965 1.5923
6.7895 -0.8539 1.5923
6.8158 -0.6101 1.5923
6.8332 -0.3656 1.5923
5.0229 -0.0885 1.1690
4.8452 0.0882 1.1277
4.7765 0.2584 1.1132
4.8075 0.4332 1.1234
4.9087 0.6203 1.1516
-0.2726 1.9109 0.5008
-0.3410 1.9002 0.5010
-0.4089 1.8871 0.5013
-0.4764 1.8716 0.5015
-0.5433 1.8538 0.5018
-0.6096 1.8337 0.5021
-0.6752 1.8112 0.5024
-0.7400 1.7865 0.5027
-0.8038 1.7595 0.5031
-2.9190 5.8272 1.6954
-3.1252 5.7172 1.6954
-3.3273 5.6000 1.6954
-3.5250 5.4757 1.6954
-3.7181 5.3444 1.6954
-3.9063 5.2064 1.6954
-4.0895 5.0618 1.6954
-4.2674 4.9108 1.6954
-4.4397 4.7536 1.6954
-4.6063 4.5903 1.6954
-4.7670 4.4213 1.6954
-4.9215 4.2467 1.6954
-5.0594 4.0586 1.6920
-5.0384 3.7529 1.6392
-5.0287 3.4725 1.5948
-5.1414 3.2845 1.5923
-5.2551 3.0975 1.5923
-5.3621 2.9067 1.5923
-5.4622 2.7122 1.5923
-5.5553 2.5143 1.5923
-5.6413 2.3133 1.5923
-5.7201 2.1093 1.5923
-5.7916 1.9027 1.5923
-5.8557 1.6937 1.5923
-5.9123 1.4825 1.5923
-5.9614 1.2695 1.5923
-6.0028 1.0548 1.5923
-6.0366 0.8389 1.5923
-6.0628 0.6219 1.5923
-6.0812 0.4041 1.5923
-6.0918 0.1857 1.5923
-6.0947 -0.0328 1.5923
-6.0898 -0.2514 1.5923
-6.0771 -0.4696 1.5923
-6.0567 -0.6873 1.5923
-6.0286 -0.9041 1.5923
-5.9928 -1.1198 1.5923
-5.9493 -1.3341 1.5923
-5.8983 -1.5467 1.5923
-5.8397 -1.7574 1.5923
-5.7736 -1.9659 1.5923
-5.7001 -2.1720 1.5923
-5.6194 -2.3753 1.5923
-5.5315 -2.5757 1.5923
-5.4365 -2.7728 1.5923
-5.3345 -2.9665 1.5923
-5.2257 -3.1564 1.5923
-5.1101 -3.3424 1.5923
-4.9880 -3.5242 1.5923
-4.8595 -3.7016 1.5923
-4.7247 -3.8743 1.5923
-4.5838 -4.0421 1.5923
-4.4775 -4.2433 1.6069
-4.4499 -4.5308 1.6539
-4.3934 -4.8065 1.6954
-4.2194 -4.9622 1.6954
-4.0398 -5.1116 1.6954
-3.8550 -5.2546 1.6954
-3.6652 -5.3910 1.6954
-3.4706 -5.5205 1.6954
-3.2714 -5.6430 1.6954
-3.0679 -5.7583 1.6954
-2.8604 -5.8663 1.6954
-2.6491 -5.9669 1.6954
-2.4342 -6.0599 1.6954
-2.2162 -6.1452 1.6954
-1.9951 -6.2226 1.6954
-1.7713 -6.2922 1.6954
-1.5452 -6.3536 1.6954
-1.3169 -6.4070 1.6954
-1.0868 -6.4522 1.6954
-0.8551 -6.4891 1.6954
-0.6222 -6.5177 1.6954
-0.3883 -6.5379 1.6954
-0.1538 -6.5498 1.6954
0.0811 -6.5532 1.6954
0.3160 -6.5482 1.6954
0.5506 -6.5348 1.6954
0.7847 -6.5130 1.6954
1.0179 -6.4827 1.6954
1.2499 -6.4441 1.6954
1.4805 -6.3972 1.6954
1.7093 -6.3420 1.6954
1.9360 -6.2786 1.6954
2.1604 -6.2071 1.6954
2.3821 -6.1275 1.6954
2.6009 -6.0400 1.6954
2.8164 -5.9446 1.6954
3.0285 -5.8415 1.6954
3.2367 -5.7308 1.6954
3.4409 -5.6127 1.6954
3.6407 -5.4872 1.6954
3.6692 -5.1219 1.6217
3.7815 -4.8980 1.5923
3.9554 -4.7605 1.5923
4.1244 -4.6168 1.5923
4.2881 -4.4671 1.5923
4.4463 -4.3115 1.5923
4.5988 -4.1503 1.5923
4.7455 -3.9837 1.5923
4.8861 -3.8118 1.5923
5.0203 -3.6350 1.5923
5.1482 -3.4534 1.5923
5.2694 -3.2673 1.5923
5.3838 -3.0769 1.5923
5.4913 -2.8824 1.5923
5.5917 -2.6842 1.5923
5.6849 -2.4825 1.5923
5.7708 -2.2775 1.5923
5.8492 -2.0695 1.5923
5.9200 -1.8588 1.5923
5.9832 -1.6457 1.5923
6.0387 -1.4304 1.5923
6.0863 -1.2132 1.5923
6.1260 -0.9944 1.5923
6.1578 -0.7744 1.5923
6.1817 -0.5533 1.5923
6.1975 -0.3316 1.5923
6.2053 -0.1094 1.5923
4.9921 0.0909 1.2811
4.8973 0.2649 1.2584
4.9444 0.4455 1.2739
5.2514 0.6635 1.3583
-0.2498 1.7519 0.5019
-0.3125 1.7420 0.5021
-0.3748 1.7300 0.5023
-0.4367 1.7158 0.5026
-0.4980 1.6994 0.5028
-0.5588 1.6809 0.5031
-0.6189 1.6603 0.5034
-0.6782 1.6376 0.5037
-0.7367 1.6128 0.5040
-0.7944 1.5860 0.5044
-2.8591 5.2310 1.6954
-3.0441 5.1239 1.6954
-3.2251 5.0102 1.6954
-3.4018 4.8902 1.6954
-3.5741 4.7640 1.6954
-3.7418 4.6318 1.6954
-3.9047 4.4937 1.6954
-4.0624 4.3499 1.6954
-4.2150 4.2006 1.6954
-4.3620 4.0460 1.6954
-4.5035 3.8863 1.6954
-4.6392 3.7217 1.6954
-4.7689 3.5524 1.6954
-4.8924 3.3785 1.6954
-4.9978 3.1929 1.6914
-4.9795 2.9352 1.6487
-4.9692 2.6939 1.6125
-4.9988 2.4823 1.5923
-5.0840 2.3011 1.5923
-5.1628 2.1171 1.5923
-5.2350 1.9305 1.5923
-5.3004 1.7414 1.5923
-5.3591 1.5501 1.5923
-5.4109 1.3568 1.5923
-5.4559 1.1619 1.5923
-5.4939 0.9654 1.5923
-5.5248 0.7678 1.5923
-5.5487 0.5691 1.5923
-5.5656 0.3698 1.5923
-5.5753 0.1700 1.5923
-5.5779 -0.0301 1.5923
-5.5734 -0.2301 1.5923
-5.5618 -0.4299 1.5923
-5.5431 -0.6291 1.5923
-5.5174 -0.8275 1.5923
-5.4846 -1.0249 1.5923
-5.4447 -1.2210 1.5923
-5.3979 -1.4156 1.5923
-5.3443 -1.6084 1.5923
-5.2837 -1.7993 1.5923
-5.2165 -1.9878 1.5923
-5.1425 -2.1739 1.5923
-5.0620 -2.3572 1.5923
-4.9750 -2.5376 1.5923
-4.8816 -2.7148 1.5923
-4.7819 -2.8886 1.5923
-4.6761 -3.0588 1.5923
-4.5643 -3.2251 1.5923
-4.5296 -3.4506 1.6221
-4.5073 -3.6963 1.6602
-4.4657 -3.9383 1.6954
-4.3225 -4.0968 1.6954
-4.1738 -4.2501 1.6954
-4.0197 -4.3980 1.6954
-3.8604 -4.5404 1.6954
-3.6960 -4.6770 1.6954
-3.5269 -4.8077 1.6954
-3.3531 -4.9324 1.6954
-3.1750 -5.0508 1.6954
-2.9927 -5.1627 1.6954
-2.8064 -5.2681 1.6954
-2.6165 -5.3668 1.6954
-2.4231 -5.4587 1.6954
-2.2265 -5.5436 1.6954
-2.0270 -5.6215 1.6954
-1.8247 -5.6922 1.6954
-1.6200 -5.7557 1.6954
-1.4131 -5.8118 1.6954
-1.2042 -5.8604 1.6954
-0.9937 -5.9016 1.6954
-0.7818 -5.9352 1.6954
-0.5687 -5.9612 1.6954
-0.3548 -5.9795 1.6954
-0.1403 -5.9902 1.6954
0.0744 -5.9932 1.6954
0.2893 -5.9885 1.6954
0.5038 -5.9761 1.6954
0.7179 -5.9559 1.6954
0.9311 -5.9281 1.6954
1.1433 -5.8927 1.6954
1.3541 -5.8496 1.6954
1.5633 -5.7990 1.6954
1.7705 -5.7409 1.6954
1.9756 -5.6754 1.6954
2.1783 -5.6025 1.6954
2.3783 -5.5223 1.6954
2.5753 -5.4350 1.6954
2.7691 -5.3406 1.6954
2.9594 -5.2393 1.6954
3.1460 -5.1312 1.6954
3.3286 -5.0164 1.6954
3.5070 -4.8951 1.6954
3.6202 -4.6887 1.6675
3.6252 -4.3627 1.5963
3.7705 -4.2203 1.5923
3.9201 -4.0834 1.5923
4.0646 -3.9411 1.5923
4.2040 -3.7937 1.5923
4.3380 -3.6413 1.5923
4.4664 -3.4842 1.5923
4.5891 -3.3225 1.5923
4.7059 -3.1565 1.5923
4.8166 -2.9863 1.5923
4.9211 -2.8123 1.5923
5.0193 -2.6345 1.5923
5.1110 -2.4533 1.5923
5.1962 -2.2689 1.5923
5.2746 -2.0815 1.5923
5.3462 -1.8914 1.5923
5.4109 -1.6989 1.5923
5.4686 -1.5041 1.5923
5.5193 -1.3073 1.5923
5.5628 -1.1088 1.5923
5.5991 -0.9089 1.5923
5.6282 -0.7078 1.5923
5.6499 -0.5057 1.5923
5.6644 -0.3031 1.5923
5.6715 -0.1000 1.5923
4.9697 0.0905 1.3953
5.6638 0.3063 1.5923
5.6490 0.5089 1.5923
5.1813 0.6546 1.4663
-0.2303 1.6158 0.5029
-0.2881 1.6067 0.5031
-0.3456 1.5955 0.5033
-0.4026 1.5824 0.5035
-0.4592 1.5673 0.5037
-0.5152 1.5502 0.5040
-0.5706 1.5311 0.5043
-0.6253 1.5101 0.5045
-0.6793 1.4872 0.5048
-0.7324 1.4625 0.5051
-0.7847 1.4358 0.5054
-2.8025 4.7177 1.6954
-2.9691 4.6131 1.6954
-3.1319 4.5027 1.6954
-3.2907 4.3866 1.6954
-3.4451 4.2649 1.6954
-3.5951 4.1378 1.6954
-3.7404 4.0054 1.6954
-3.8809 3.8680 1.6954
-4.0164 3.7257 1.6954
-4.1467 3.5787 1.6954
-4.2717 3.4271 1.6954
-4.3912 3.2712 1.6954
-4.5050 3.1112 1.6954
-4.6131 2.9473 1.6954
-4.7152 2.7796 1.6954
-4.8113 2.6084 1.6954
-4.9012 2.4339 1.6954
-4.9277 2.2305 1.6760
-4.9132 2.0149 1.6455
-4.9033 1.8083 1.6196
-4.8941 1.6080 1.5966
-4.9352 1.4275 1.5923
-4.9830 1.2496 1.5923
-5.0371 1.0727 1.5964
-5.0593 0.8891 1.5923
-5.0879 0.7071 1.5923
-5.1099 0.5241 1.5923
-5.1254 0.3405 1.5923
-5.1344 0.1565 1.5923
-5.1368 -0.0277 1.5923
-5.1326 -0.2119 1.5923
-5.1219 -0.3959 1.5923
-5.1047 -0.5794 1.5923
-5.0809 -0.7621 1.5923
-5.0507 -0.9439 1.5923
-5.0140 -1.1245 1.5923
-4.9708 -1.3037 1.5923
-4.9214 -1.4813 1.5923
-4.8656 -1.6570 1.5923
-4.8036 -1.8306 1.5923
-4.7355 -2.0020 1.5923
-4.6612 -2.1708 1.5923
-4.6108 -2.3520 1.6027
-4.5914 -2.5536 1.6265
-4.5729 -2.7625 1.6537
-4.5565 -2.9808 1.6851
-4.4747 -3.1620 1.6954
-4.3592 -3.3211 1.6954
-4.2382 -3.4759 1.6954
-4.1116 -3.6263 1.6954
-3.9798 -3.7722 1.6954
-3.8428 -3.9133 1.6954
-3.7008 -4.0495 1.6954
-3.5540 -4.1805 1.6954
-3.4027 -4.3062 1.6954
-3.2468 -4.4265 1.6954
-3.0868 -4.5411 1.6954
-2.9227 -4.6500 1.6954
-2.7549 -4.7530 1.6954
-2.5834 -4.8500 1.6954
-2.4085 -4.9407 1.6954
-2.2304 -5.0252 1.6954
-2.0494 -5.1033 1.6954
-1.8656 -5.1749 1.6954
-1.6794 -5.2398 1.6954
-1.4909 -5.2981 1.6954
-1.3004 -5.3496 1.6954
-1.1081 -5.3943 1.6954
-0.9143 -5.4321 1.6954
-0.7193 -5.4629 1.6954
-0.5232 -5.4867 1.6954
-0.3263 -5.5035 1.6954
-0.1289 -5.5132 1.6954
0.0688 -5.5158 1.6954
0.2665 -5.5113 1.6954
0.4640 -5.4998 1.6954
0.6609 -5.4812 1.6954
0.8572 -5.4554 1.6954
1.0524 -5.4227 1.6954
1.2464 -5.3830 1.6954
1.4388 -5.3363 1.6954
1.6295 -5.2827 1.6954
1.8182 -5.2223 1.6954
2.0047 -5.1551 1.6954
2.1886 -5.0812 1.6954
2.3699 -5.0008 1.6954
2.5481 -4.9139 1.6954
2.7232 -4.8206 1.6954
2.8948 -4.7210 1.6954
3.0627 -4.6153 1.6954
3.2268 -4.5036 1.6954
3.3868 -4.3861 1.6954
3.5425 -4.2628 1.6954
3.5812 -4.0081 1.6438
3.6066 -3.7566 1.5923
3.7395 -3.6257 1.5923
3.8677 -3.4900 1.5923
3.9909 -3.3498 1.5923
4.1090 -3.2052 1.5923
4.2218 -3.0564 1.5923
4.3292 -2.9036 1.5923
4.4310 -2.7471 1.5923
4.5271 -2.5869 1.5923
4.6174 -2.4234 1.5923
4.7017 -2.2567 1.5923
4.7800 -2.0871 1.5923
4.8521 -1.9147 1.5923
4.9179 -1.7398 1.5923
4.9774 -1.5627 1.5923
5.0305 -1.3835 1.5923
5.0770 -1.2025 1.5923
5.1171 -1.0199 1.5923
5.1504 -0.8360 1.5923
5.1772 -0.6510 1.5923
5.1972 -0.4652 1.5923
5.2105 -0.2788 1.5923
5.2171 -0.0920 1.5923
4.9399 0.0899 1.5078
5.2100 0.2817 1.5923
5.1963 0.4681 1.5923
5.1760 0.6539 1.5923
-0.2134 1.4977 0.5037
-0.2670 1.4893 0.5039
-0.3203 1.4790 0.5041
-0.3731 1.4668 0.5043
-0.4256 1.4527 0.5045
-0.4775 1.4368 0.5047
-0.5288 1.4192 0.5050
-0.5795 1.3997 0.5053
-0.6295 1.3784 0.5055
-0.6787 1.3554 0.5058
-0.7272 1.3307 0.5061
-0.7747 1.3042 0.5064
-0.8213 1.2761 0.5067
-2.8987 4.1678 1.6954
-3.0457 4.0603 1.6954
-3.1887 3.9478 1.6954
-3.3276 3.8302 1.6954
-3.4622 3.7077 1.6954
-3.5923 3.5806 1.6954
-3.7177 3.4489 1.6954
-3.8384 3.3128 1.6954
-3.9541 3.1725 1.6954
-4.0648 3.0283 1.6954
-4.1702 2.8802 1.6954
-4.2703 2.7284 1.6954
-4.3649 2.5732 1.6954
-4.4538 2.4147 1.6954
-4.5371 2.2532 1.6954
-4.6146 2.0889 1.6954
-4.6861 1.9219 1.6954
-4.7517 1.7524 1.6954
-4.8112 1.5808 1.6954
-4.8645 1.4071 1.6954
-4.8543 1.2173 1.6757
-4.8414 1.0311 1.6575
-4.8289 0.8486 1.6417
-4.8189 0.6697 1.6291
-4.8087 0.4932 1.6187
-4.7982 0.3188 1.6102
-4.7873 0.1459 1.6038
-4.7761 -0.0258 1.5993
-4.7645 -0.1968 1.5967
-4.7525 -0.3674 1.5960
-4.7401 -0.5380 1.5972
-4.7272 -0.7091 1.6003
-4.7139 -0.8810 1.6054
-4.7000 -1.0542 1.6124
-4.6856 -1.2290 1.6214
-4.6705 -1.4059 1.6325
-4.6555 -1.5856 1.6459
-4.6421 -1.7692 1.6623
-4.6283 -1.9568 1.6813
-4.5942 -2.1397 1.6954
-4.5151 -2.3034 1.6954
-4.4302 -2.4642 1.6954
-4.3397 -2.6218 1.6954
-4.2435 -2.7762 1.6954
-4.1419 -2.9271 1.6954
-4.0350 -3.0742 1.6954
-3.9229 -3.2175 1.6954
-3.8057 -3.3568 1.6954
-3.6836 -3.4917 1.6954
-3.5567 -3.6223 1.6954
-3.4252 -3.7483 1.6954
-3.2894 -3.8695 1.6954
-3.1492 -3.9858 1.6954
-3.0049 -4.0970 1.6954
-2.8567 -4.2031 1.6954
-2.7048 -4.3038 1.6954
-2.5494 -4.3990 1.6954
-2.3906 -4.4887 1.6954
-2.2287 -4.5726 1.6954
-2.0639 -4.6507 1.6954
-1.8963 -4.7229 1.6954
-1.7262 -4.7891 1.6954
-1.5539 -4.8491 1.6954
-1.3794 -4.9029 1.6954
-1.2031 -4.9505 1.6954
-1.0252 -4.9918 1.6954
-0.8458 -5.0266 1.6954
-0.6653 -5.0550 1.6954
-0.4838 -5.0770 1.6954
-0.3016 -5.0924 1.6954
-0.1189 -5.1013 1.6954
0.0639 -5.1036 1.6954
0.2469 -5.0994 1.6954
0.4296 -5.0886 1.6954
0.6118 -5.0712 1.6954
0.7933 -5.0474 1.6954
0.9739 -5.0170 1.6954
1.1534 -4.9801 1.6954
1.3314 -4.9368 1.6954
1.5078 -4.8872 1.6954
1.6823 -4.8312 1.6954
1.8548 -4.7690 1.6954
2.0249 -4.7006 1.6954
2.1926 -4.6261 1.6954
2.3574 -4.5456 1.6954
2.5193 -4.4592 1.6954
2.6780 -4.3670 1.6954
2.8333 -4.2692 1.6954
2.9851 -4.1658 1.6954
3.1330 -4.0570 1.6954
3.2769 -3.9430 1.6954
3.4167 -3.8238 1.6954
3.5472 -3.6944 1.6931
3.5452 -3.4370 1.6320
3.5775 -3.2280 1.5923
3.6914 -3.0982 1.5923
3.8006 -2.9645 1.5923
3.9049 -2.8269 1.5923
4.0042 -2.6855 1.5923
4.0983 -2.5407 1.5923
4.1872 -2.3926 1.5923
4.2706 -2.2413 1.5923
4.3486 -2.0871 1.5923
4.4210 -1.9302 1.5923
4.4876 -1.7708 1.5923
4.5485 -1.6091 1.5923
4.6035 -1.4452 1.5923
4.6525 -1.2795 1.5923
4.6956 -1.1121 1.5923
4.7326 -0.9433 1.5923
4.7635 -0.7732 1.5923
4.7882 -0.6021 1.5923
4.8067 -0.4303 1.5923
4.8190 -0.2578 1.5923
4.8251 -0.0851 1.5923
4.8249 0.0878 1.5923
4.8185 0.2605 1.5923
4.8059 0.4329 1.5923
4.7871 0.6047 1.5923
-0.1986 1.3944 0.5044
-0.2485 1.3865 0.5046
-0.2981 1.3768 0.5048
-0.3473 1.3655 0.5050
-0.3961 1.3524 0.5052
-0.4444 1.3376 0.5054
-0.4922 1.3211 0.5056
-0.5394 1.3029 0.5059
-0.5859 1.2831 0.5061
-0.6317 1.2617 0.5064
-0.6768 1.2386 0.5067
-0.7210 1.2140 0.5069
-0.7643 1.1878 0.5072
-0.8068 1.1601 0.5075
-2.8317 3.7753 1.6954
-2.9647 3.6707 1.6954
-3.0938 3.5614 1.6954
-3.2190 3.4476 1.6954
-3.3400 3.3294 1.6954
-3.4567 3.2070 1.6954
-3.5690 3.0805 1.6954
-3.6766 2.9501 1.6954
-3.7796 2.8159 1.6954
-3.8776 2.6782 1.6954
-3.9707 2.5371 1.6954
-4.0587 2.3928 1.6954
-4.1415 2.2455 1.6954
-4.2189 2.0953 1.6954
-4.2910 1.9425 1.6954
-4.3576 1.7872 1.6954
-4.4185 1.6296 1.6954
-4.4739 1.4700 1.6954
-4.5235 1.3085 1.6954
-4.5673 1.1454 1.6954
-4.6053 0.9808 1.6954
-4.6374 0.8150 1.6954
-4.6635 0.6481 1.6954
-4.6837 0.4804 1.6954
-4.6979 0.3121 1.6954
-4.7061 0.1434 1.6954
-4.7083 -0.0255 1.6954
-4.7045 -0.1943 1.6954
-4.6947 -0.3630 1.6954
-4.6788 -0.5311 1.6954
-4.6570 -0.6986 1.6954
-4.6293 -0.8653 1.6954
-4.5956 -1.0308 1.6954
-4.5560 -1.1951 1.6954
-4.5106 -1.3578 1.6954
-4.4594 -1.5189 1.6954
-4.4025 -1.6780 1.6954
-4.3400 -1.8350 1.6954
-4.2719 -1.9897 1.6954
-4.1983 -2.1419 1.6954
-4.1193 -2.2914 1.6954
-4.0351 -2.4380 1.6954
-3.9457 -2.5815 1.6954
-3.8511 -2.7218 1.6954
-3.7517 -2.8586 1.6954
-3.6474 -2.9918 1.6954
-3.5383 -3.1212 1.6954
-3.4248 -3.2467 1.6954
-3.3068 -3.3680 1.6954
-3.1845 -3.4851 1.6954
-3.0581 -3.5978 1.6954
-2.9277 -3.7059 1.6954
-2.7936 -3.8093 1.6954
-2.6558 -3.9078 1.6954
-2.5145 -4.0014 1.6954
-2.3700 -4.0899 1.6954
-2.2223 -4.1732 1.6954
-2.0718 -4.2511 1.6954
-1.9185 -4.3237 1.6954
-1.7627 -4.3907 1.6954
-1.6045 -4.4521 1.6954
-1.4443 -4.5079 1.6954
-1.2820 -4.5578 1.6954
-1.1181 -4.6020 1.6954
-0.9527 -4.6403 1.6954
-0.7860 -4.6726 1.6954
-0.6182 -4.6989 1.6954
-0.4494 -4.7192 1.6954
-0.2801 -4.7335 1.6954
-0.1103 -4.7417 1.6954
0.0597 -4.7438 1.6954
0.2297 -4.7397 1.6954
0.3995 -4.7296 1.6954
0.5689 -4.7134 1.6954
0.7376 -4.6912 1.6954
0.9054 -4.6629 1.6954
1.0722 -4.6285 1.6954
1.2376 -4.5882 1.6954
1.4015 -4.5420 1.6954
1.5637 -4.4899 1.6954
1.7240 -4.4320 1.6954
1.8821 -4.3684 1.6954
2.0378 -4.2991 1.6954
2.1910 -4.2242 1.6954
2.3414 -4.1439 1.6954
2.4889 -4.0582 1.6954
2.6332 -3.9672 1.6954
2.7741 -3.8711 1.6954
2.9115 -3.7699 1.6954
3.0453 -3.6639 1.6954
3.1751 -3.5531 1.6954
3.3009 -3.4377 1.6954
3.4225 -3.3178 1.6954
3.5096 -3.1665 1.6810
3.5112 -2.9468 1.6299
3.5316 -2.7545 1.5923
3.6285 -2.6266 1.5923
3.7515 -2.5159 1.6055
3.8082 -2.3607 1.5923
3.8907 -2.2230 1.5923
3.9682 -2.0825 1.5923
4.0406 -1.9392 1.5923
4.1078 -1.7934 1.5923
4.1697 -1.6453 1.5923
4.2263 -1.4950 1.5923
4.2774 -1.3428 1.5923
4.3229 -1.1888 1.5923
4.3629 -1.0333 1.5923
4.3973 -0.8764 1.5923
4.4259 -0.7184 1.5923
4.4489 -0.5594 1.5923
4.4661 -0.3998 1.5923
4.4775 -0.2396 1.5923
4.4832 -0.0791 1.5923
4.4831 0.0815 1.5923
4.4771 0.2420 1.5923
4.4654 0.4022 1.5923
4.4479 0.5618 1.5923
-0.1855 1.3030 0.5051
-0.2321 1.2956 0.5052
-0.2785 1.2866 0.5054
-0.3244 1.2759 0.5056
-0.3700 1.2637 0.5058
-0.4152 1.2498 0.5060
-0.4598 1.2344 0.5062
-0.5039 1.2174 0.5064
-0.5474 1.1989 0.5067
-0.5902 1.1788 0.5069
-0.6322 1.1572 0.5072
-0.6735 1.1342 0.5074
-0.7140 1.1097 0.5077
-0.7536 1.0838 0.5080
-0.7923 1.0565 0.5083
-0.8300 1.0278 0.5086
-2.8877 3.3243 1.6954
-3.0046 3.2181 1.6954
-3.1176 3.1078 1.6954
-3.2265 2.9936 1.6954
-3.3313 2.8755 1.6954
-3.4318 2.7538 1.6954
-3.5279 2.6286 1.6954
-3.6195 2.5001 1.6954
-3.7064 2.3684 1.6954
-3.7886 2.2337 1.6954
-3.8659 2.0962 1.6954
-3.9382 1.9560 1.6954
-4.0055 1.8133 1.6954
-4.0677 1.6684 1.6954
-4.1246 1.5213 1.6954
-4.1763 1.3723 1.6954
-4.2226 1.2216 1.6954
-4.2635 1.0693 1.6954
-4.2990 0.9156 1.6954
-4.3289 0.7608 1.6954
-4.3534 0.6050 1.6954
-4.3722 0.4485 1.6954
-4.3855 0.2914 1.6954
-4.3932 0.1339 1.6954
-4.3952 -0.0238 1.6954
-4.3916 -0.1814 1.6954
-4.3825 -0.3389 1.6954
-4.3677 -0.4958 1.6954
-4.3473 -0.6522 1.6954
-4.3213 -0.8078 1.6954
-4.2899 -0.9623 1.6954
-4.2529 -1.1157 1.6954
-4.2105 -1.2676 1.6954
-4.1627 -1.4179 1.6954
-4.1096 -1.5665 1.6954
-4.0512 -1.7130 1.6954
-3.9876 -1.8574 1.6954
-3.9189 -1.9995 1.6954
-3.8451 -2.1390 1.6954
-3.7664 -2.2759 1.6954
-3.6829 -2.4098 1.6954
-3.5946 -2.5407 1.6954
-3.5018 -2.6684 1.6954
-3.4044 -2.7927 1.6954
-3.3026 -2.9135 1.6954
-3.1965 -3.0306 1.6954
-3.0863 -3.1438 1.6954
-2.9722 -3.2530 1.6954
-2.8542 -3.3582 1.6954
-2.7324 -3.4590 1.6954
-2.6072 -3.5555 1.6954
-2.4785 -3.6474 1.6954
-2.3467 -3.7347 1.6954
-2.2117 -3.8172 1.6954
-2.0739 -3.8949 1.6954
-1.9333 -3.9676 1.6954
-1.7903 -4.0353 1.6954
-1.6448 -4.0978 1.6954
-1.4972 -4.1550 1.6954
-1.3476 -4.2070 1.6954
-1.1962 -4.2536 1.6954
-1.0432 -4.2947 1.6954
-0.8888 -4.3304 1.6954
-0.7332 -4.3605 1.6954
-0.5766 -4.3850 1.6954
-0.4192 -4.4039 1.6954
-0.2611 -4.4171 1.6954
-0.1027 -4.4247 1.6954
0.0560 -4.4266 1.6954
0.2146 -4.4228 1.6954
0.3730 -4.4133 1.6954
0.5311 -4.3981 1.6954
0.6885 -4.3773 1.6954
0.8451 -4.3508 1.6954
1.0006 -4.3187 1.6954
1.1550 -4.2810 1.6954
1.3079 -4.2378 1.6954
1.4592 -4.1892 1.6954
1.6087 -4.1351 1.6954
1.7562 -4.0757 1.6954
1.9015 -4.0110 1.6954
2.0444 -3.9411 1.6954
2.1847 -3.8661 1.6954
2.3222 -3.7861 1.6954
2.4568 -3.7012 1.6954
2.5883 -3.6114 1.6954
2.7165 -3.5170 1.6954
2.8412 -3.4181 1.6954
2.9623 -3.3147 1.6954
3.0796 -3.2070 1.6954
3.1930 -3.0951 1.6954
3.3023 -2.9792 1.6954
3.4073 -2.8594 1.6954
3.4773 -2.7119 1.6806
3.4782 -2.5176 1.6362
3.4807 -2.3342 1.5968
3.5526 -2.2021 1.5923
3.6295 -2.0737 1.5923
3.7160 -1.9501 1.5985
3.7694 -1.8089 1.5923
3.8320 -1.6729 1.5923
3.8898 -1.5347 1.5923
3.9425 -1.3946 1.5923
3.9901 -1.2526 1.5923
4.0326 -1.1089 1.5923
4.0699 -0.9639 1.5923
4.1019 -0.8175 1.5923
4.1287 -0.6701 1.5923
4.1501 -0.5219 1.5923
4.1661 -0.3729 1.5923
4.1768 -0.2235 1.5923
4.1821 -0.0738 1.5923
4.1820 0.0760 1.5923
4.1764 0.2257 1.5923
4.1655 0.3751 1.5923
4.1492 0.5240 1.5923
-0.1739 1.2215 0.5057
-0.2176 1.2146 0.5058
-0.2610 1.2061 0.5060
-0.3041 1.1961 0.5061
-0.3468 1.1846 0.5063
-0.3891 1.1716 0.5065
-0.4310 1.1571 0.5067
-0.4723 1.1412 0.5069
-0.5130 1.1238 0.5072
-0.5531 1.1050 0.5074
-0.5926 1.0847 0.5076
-0.6312 1.0631 0.5079
-0.6692 1.0401 0.5081
-0.7063 1.0158 0.5084
-0.7425 0.9902 0.5087
-0.7779 0.9633 0.5089
-0.8122 0.9351 0.5092
-2.8138 3.0140 1.6954
-2.9196 2.9108 1.6954
-3.0217 2.8038 1.6954
-3.1199 2.6932 1.6954
-3.2141 2.5793 1.6954
-3.3041 2.4620 1.6954
-3.3899 2.3417 1.6954
-3.4713 2.2183 1.6954
-3.5483 2.0922 1.6954
-3.6207 1.9634 1.6954
-3.6885 1.8321 1.6954
-3.7515 1.6985 1.6954
-3.8098 1.5627 1.6954
-3.8631 1.4249 1.6954
-3.9115 1.2854 1.6954
-3.9549 1.1442 1.6954
-3.9933 1.0015 1.6954
-4.0265 0.8576 1.6954
-4.0546 0.7126 1.6954
-4.0774 0.5667 1.6954
-4.0951 0.4201 1.6954
-4.1076 0.2729 1.6954
-4.1147 0.1254 1.6954
-4.1166 -0.0223 1.6954
-4.1133 -0.1700 1.6954
-4.1047 -0.3174 1.6954
-4.0908 -0.4645 1.6954
-4.0717 -0.6109 1.6954
-4.0474 -0.7566 1.6954
-4.0179 -0.9014 1.6954
-3.9833 -1.0450 1.6954
-3.9435 -1.1873 1.6954
-3.8987 -1.3281 1.6954
-3.8489 -1.4672 1.6954
-3.7942 -1.6045 1.6954
-3.7346 -1.7397 1.6954
-3.6703 -1.8728 1.6954
-3.6012 -2.0035 1.6954
-3.5275 -2.1316 1.6954
-3.4492 -2.2571 1.6954
-3.3665 -2.3796 1.6954
-3.2795 -2.4992 1.6954
-3.1882 -2.6156 1.6954
-3.0929 -2.7287 1.6954
-2.9935 -2.8383 1.6954
-2.8903 -2.9444 1.6954
-2.7833 -3.0466 1.6954
-2.6728 -3.1450 1.6954
-2.5588 -3.2395 1.6954
-2.4414 -3.3298 1.6954
-2.3209 -3.4158 1.6954
-2.1974 -3.4975 1.6954
-2.0710 -3.5748 1.6954
-1.9419 -3.6475 1.6954
-1.8103 -3.7155 1.6954
-1.6762 -3.7788 1.6954
-1.5400 -3.8373 1.6954
-1.4018 -3.8909 1.6954
-1.2617 -3.9395 1.6954
-1.1199 -3.9831 1.6954
-0.9766 -4.0216 1.6954
-0.8320 -4.0549 1.6954
-0.6863 -4.0830 1.6954
-0.5397 -4.1059 1.6954
-0.3922 -4.1236 1.6954
-0.2443 -4.1359 1.6954
-0.0959 -4.1429 1.6954
0.0526 -4.1446 1.6954
0.2012 -4.1410 1.6954
0.3495 -4.1321 1.6954
0.4975 -4.1178 1.6954
0.6448 -4.0982 1.6954
0.7914 -4.0734 1.6954
0.9371 -4.0433 1.6954
1.0816 -4.0080 1.6954
1.2247 -3.9675 1.6954
1.3664 -3.9219 1.6954
1.5063 -3.8712 1.6954
1.6444 -3.8155 1.6954
1.7803 -3.7549 1.6954
1.9141 -3.6895 1.6954
2.0454 -3.6192 1.6954
2.1741 -3.5443 1.6954
2.3001 -3.4647 1.6954
2.4231 -3.3807 1.6954
2.5431 -3.2923 1.6954
2.6599 -3.1996 1.6954
2.7732 -3.1028 1.6954
2.8830 -3.0020 1.6954
2.9891 -2.8972 1.6954
3.0914 -2.7887 1.6954
3.1897 -2.6766 1.6954
3.2839 -2.5610 1.6954
3.3739 -2.4420 1.6954
3.4489 -2.3127 1.6902
3.4456 -2.1357 1.6498
3.4473 -1.9695 1.6157
3.4652 -1.8183 1.5923
3.5284 -1.6932 1.5923
3.5870 -1.5659 1.5923
3.6746 -1.4498 1.6070
3.6904 -1.3053 1.5923
3.7350 -1.1724 1.5923
3.7747 -1.0380 1.5923
3.8096 -0.9022 1.5923
3.8396 -0.7652 1.5923
3.8646 -0.6273 1.5923
3.8847 -0.4885 1.5923
3.8997 -0.3491 1.5923
3.9097 -0.2092 1.5923
3.9146 -0.0691 1.5923
3.9145 0.0711 1.5923
3.9093 0.2113 1.5923
3.8991 0.3511 1.5923
3.8839 0.4905 1.5923
-0.1634 1.1484 0.5062
-0.2045 1.1418 0.5063
-0.2453 1.1339 0.5065
-0.2858 1.1245 0.5066
-0.3260 1.1137 0.5068
-0.3657 1.1014 0.5070
-0.4051 1.0878 0.5072
-0.4439 1.0728 0.5074
-0.4822 1.0564 0.5076
-0.5199 1.0387 0.5078
-0.5569 1.0196 0.5080
-0.5933 0.9993 0.5083
-0.6290 0.9777 0.5085
-0.6638 0.9548 0.5087
-0.6979 0.9307 0.5090
-0.7311 0.9054 0.5093
-0.7633 0.8789 0.5095
-0.7947 0.8513 0.5098
-0.8250 0.8226 0.5101
-2.8382 2.6337 1.6954
-2.9305 2.5299 1.6954
-3.0189 2.4228 1.6954
-3.1035 2.3127 1.6954
-3.1841 2.1997 1.6954
-3.2606 2.0838 1.6954
-3.3330 1.9653 1.6954
-3.4010 1.8443 1.6954
-3.4647 1.7210 1.6954
-3.5239 1.5955 1.6954
-3.5787 1.4680 1.6954
-3.6288 1.3386 1.6954
-3.6743 1.2075 1.6954
-3.7151 1.0748 1.6954
-3.7511 0.9408 1.6954
-3.7823 0.8056 1.6954
-3.8087 0.6694 1.6954
-3.8302 0.5323 1.6954
-3.8468 0.3946 1.6954
-3.8584 0.2563 1.6954
-3.8652 0.1178 1.6954
-3.8670 -0.0210 1.6954
-3.8638 -0.1597 1.6954
-3.8557 -0.2982 1.6954
-3.8427 -0.4363 1.6954
-3.8247 -0.5739 1.6954
-3.8019 -0.7108 1.6954
-3.7742 -0.8468 1.6954
-3.7416 -0.9817 1.6954
-3.7043 -1.1154 1.6954
-3.6622 -1.2476 1.6954
-3.6154 -1.3783 1.6954
-3.5640 -1.5072 1.6954
-3.5080 -1.6343 1.6954
-3.4475 -1.7592 1.6954
-3.3825 -1.8820 1.6954
-3.3133 -2.0023 1.6954
-3.2397 -2.1202 1.6954
-3.1620 -2.2353 1.6954
-3.0803 -2.3476 1.6954
-2.9945 -2.4569 1.6954
-2.9049 -2.5631 1.6954
-2.8116 -2.6661 1.6954
-2.7146 -2.7656 1.6954
-2.6141 -2.8617 1.6954
-2.5103 -2.9541 1.6954
-2.4031 -3.0427 1.6954
-2.2929 -3.1275 1.6954
-2.1797 -3.2083 1.6954
-2.0637 -3.2850 1.6954
-1.9449 -3.3576 1.6954
-1.8236 -3.4258 1.6954
-1.7000 -3.4897 1.6954
-1.5741 -3.5491 1.6954
-1.4462 -3.6040 1.6954
-1.3163 -3.6543 1.6954
-1.1847 -3.6999 1.6954
-1.0515 -3.7408 1.6954
-0.9170 -3.7769 1.6954
-0.7812 -3.8081 1.6954
-0.6443 -3.8345 1.6954
-0.5066 -3.8560 1.6954
-0.3681 -3.8725 1.6954
-0.2292 -3.8840 1.6954
-0.0898 -3.8906 1.6954
0.0497 -3.8921 1.6954
0.1891 -3.8887 1.6954
0.3284 -3.8802 1.6954
0.4674 -3.8668 1.6954
0.6057 -3.8484 1.6954
0.7434 -3.8250 1.6954
0.8802 -3.7967 1.6954
1.0158 -3.7635 1.6954
1.1502 -3.7254 1.6954
1.2832 -3.6826 1.6954
1.4146 -3.6350 1.6954
1.5442 -3.5826 1.6954
1.6719 -3.5257 1.6954
1.7974 -3.4642 1.6954
1.9207 -3.3982 1.6954
2.0415 -3.3278 1.6954
2.1598 -3.2531 1.6954
2.2753 -3.1742 1.6954
2.3879 -3.0912 1.6954
2.4975 -3.0041 1.6954
2.6039 -2.9132 1.6954
2.7069 -2.8185 1.6954
2.8065 -2.7201 1.6954
2.9025 -2.6182 1.6954
2.9948 -2.5129 1.6954
3.0833 -2.4043 1.6954
3.1678 -2.2926 1.6954
3.2482 -2.1780 1.6954
3.3244 -2.0605 1.6954
3.3964 -1.9403 1.6954
3.4129 -1.7908 1.6704
3.4137 -1.6381 1.6409
3.4138 -1.4902 1.6141
3.4184 -1.3487 1.5923
3.4648 -1.2255 1.5923
3.5066 -1.1007 1.5923
3.5439 -0.9745 1.5923
3.5767 -0.8470 1.5923
3.6264 -0.7227 1.6019
3.6283 -0.5889 1.5923
3.6471 -0.4586 1.5923
3.6612 -0.3277 1.5923
3.6706 -0.1964 1.5923
3.6752 -0.0649 1.5923
3.6751 0.0668 1.5923
3.6703 0.1983 1.5923
3.6607 0.3296 1.5923
3.6464 0.4604 1.5923
-0.1539 1.0823 0.5067
-0.1926 1.0761 0.5068
-0.2311 1.0686 0.5069
-0.2693 1.0597 0.5071
-0.3071 1.0495 0.5072
-0.3446 1.0380 0.5074
-0.3817 1.0251 0.5076
-0.4183 1.0110 0.5078
-0.4543 0.9955 0.5080
-0.4899 0.9788 0.5082
-0.5248 0.9609 0.5084
-0.5590 0.9417 0.5086
-0.5926 0.9213 0.5088
-0.6254 0.8997 0.5091
-0.6575 0.8770 0.5093
-0.6888 0.8531 0.5096
-0.7192 0.8281 0.5098
-0.7487 0.8021 0.5101
-0.7773 0.7750 0.5103
-0.8049 0.7470 0.5106
-0.8315 0.7179 0.5109
-2.8429 2.2817 1.6954
-2.9226 2.1780 1.6954
-2.9985 2.0715 1.6954
-3.0706 1.9625 1.6954
-3.1387 1.8509 1.6954
-3.2028 1.7369 1.6954
-3.2628 1.6208 1.6954
-3.3186 1.5026 1.6954
-3.3701 1.3825 1.6954
-3.4173 1.2606 1.6954
-3.4602 1.1372 1.6954
-3.4986 1.0122 1.6954
-3.5325 0.8860 1.6954
-3.5619 0.7587 1.6954
-3.5868 0.6304 1.6954
-3.6070 0.5013 1.6954
-3.6227 0.3716 1.6954
-3.6337 0.2414 1.6954
-3.6400 0.1109 1.6954
-3.6417 -0.0198 1.6954
-3.6387 -0.1504 1.6954
-3.6311 -0.2809 1.6954
-3.6188 -0.4110 1.6954
-3.6019 -0.5405 1.6954
-3.5803 -0.6694 1.6954
-3.5542 -0.7975 1.6954
-3.5236 -0.9246 1.6954
-3.4884 -1.0504 1.6954
-3.4487 -1.1750 1.6954
-3.4047 -1.2981 1.6954
-3.3562 -1.4195 1.6954
-3.3035 -1.5391 1.6954
-3.2465 -1.6568 1.6954
-3.1853 -1.7724 1.6954
-3.1200 -1.8857 1.6954
-3.0508 -1.9967 1.6954
-2.9776 -2.1051 1.6954
-2.9006 -2.2108 1.6954
-2.8198 -2.3138 1.6954
-2.7354 -2.4138 1.6954
-2.6475 -2.5107 1.6954
-2.5561 -2.6044 1.6954
-2.4615 -2.6949 1.6954
-2.3637 -2.7818 1.6954
-2.2628 -2.8653 1.6954
-2.1590 -2.9451 1.6954
-2.0523 -3.0212 1.6954
-1.9430 -3.0934 1.6954
-1.8312 -3.1617 1.6954
-1.7170 -3.2259 1.6954
-1.6005 -3.2860 1.6954
-1.4820 -3.3419 1.6954
-1.3615 -3.3936 1.6954
-1.2392 -3.4409 1.6954
-1.1153 -3.4838 1.6954
-0.9899 -3.5222 1.6954
-0.8632 -3.5562 1.6954
-0.7353 -3.5856 1.6954
-0.6064 -3.6104 1.6954
-0.4767 -3.6305 1.6954
-0.3464 -3.6460 1.6954
-0.2155 -3.6569 1.6954
-0.0844 -3.6630 1.6954
0.0470 -3.6644 1.6954
0.1783 -3.6612 1.6954
0.3094 -3.6532 1.6954
0.4402 -3.6405 1.6954
0.5705 -3.6231 1.6954
0.7001 -3.6011 1.6954
0.8288 -3.5744 1.6954
0.9565 -3.5431 1.6954
1.0831 -3.5072 1.6954
1.2082 -3.4668 1.6954
1.3319 -3.4220 1.6954
1.4539 -3.3727 1.6954
1.5741 -3.3190 1.6954
1.6923 -3.2611 1.6954
1.8083 -3.1990 1.6954
1.9220 -3.1327 1.6954
2.0334 -3.0623 1.6954
2.1421 -2.9880 1.6954
2.2481 -2.9098 1.6954
2.3512 -2.8279 1.6954
2.4513 -2.7423 1.6954
2.5483 -2.6531 1.6954
2.6420 -2.5605 1.6954
2.7324 -2.4645 1.6954
2.8192 -2.3654 1.6954
2.9025 -2.2632 1.6954
2.9820 -2.1581 1.6954
3.0577 -2.0501 1.6954
