ply
format ascii 1.0
element vertex 2077
property float32 x
property float32 y
property float32 z
end_header
4.3626 8.6190 -0.7951
4.0383 8.7456 -0.7925
3.7111 8.8613 -0.7901
3.3852 8.9766 -0.7887
3.0236 8.9839 -0.7790
2.7309 9.1960 -0.7882
2.4043 9.3115 -0.7899
2.0535 9.3269 -0.7843
1.7462 9.5561 -0.7977
1.4103 9.6749 -0.8027
1.0684 9.7839 -0.8080
0.7149 9.8031 -0.8069
0.3674 9.9759 -0.8195
0.0084 10.1028 -0.8294
-0.3598 10.2331 -0.8407
-0.7386 10.3670 -0.8534
-1.1239 10.4532 -0.8634
-1.5425 10.7071 -0.8886
-1.9673 10.8692 -0.9075
-2.4080 11.0251 -0.9274
-2.8655 11.1749 -0.9484
-3.3486 11.3458 -0.9729
-3.8621 11.5393 -1.0011
-4.4012 11.7299 -1.0312
-4.9680 11.9184 -1.0633
-5.5836 12.1453 -1.1013
-5.9698 11.8433 -1.0933
-6.1829 11.2407 -1.0581
-6.3827 10.6756 -1.0265
-6.6820 10.3147 -1.0149
-7.3868 10.5506 -1.0643
-8.0692 10.6854 -1.1073
-8.9376 10.9898 -1.1723
-9.9191 11.3377 -1.2476
-11.1613 11.8675 -1.3503
-12.3194 12.1889 -1.4376
-14.0006 12.8892 -1.5800
-15.7936 13.5232 -1.7278
-17.7488 14.1231 -1.8865
-18.0332 13.3188 -1.8663
-18.3114 12.5319 -1.8489
-20.4477 12.9391 -2.0182
-24.3316 14.1974 -2.3518
-29.6897 15.9207 -2.8153
-30.0965 14.7703 -2.8045
-20.7103 9.2548 -1.8995
-48.0761 1.1738 -4.0748
-37.9845 -0.4397 -3.2222
-37.5580 -1.7877 -3.1929
-37.0316 -3.1013 -3.1590
-39.7537 -4.7749 -3.4073
-33.1517 -5.1979 -2.8586
-21.6576 -4.1992 -1.8813
-33.9493 -7.8596 -2.9748
-34.0321 -9.1806 -3.0122
-26.1070 -9.1022 -2.3675
-30.7558 -11.9807 -2.8291
-21.1358 -9.1222 -1.9751
-20.8466 -9.9019 -1.9820
-32.4381 -16.8642 -3.1426
-34.7490 -19.6852 -3.4361
-29.4239 -18.0972 -2.9747
-21.8216 -14.5289 -2.2595
-21.0489 -15.1352 -2.2363
-20.0691 -15.5560 -2.1921
-31.0549 -25.9128 -3.4945
-20.6073 -18.4927 -2.3941
-29.2545 -28.2179 -3.5171
-18.1355 -18.7988 -2.2618
-15.4524 -17.2166 -2.0046
-18.0424 -21.6193 -2.4416
-2.3964 -6.1510 -0.5749
-2.2036 -6.3194 -0.5830
2.9906 -49.4369 -4.3187
8.2838 -48.7247 -4.3074
8.6201 -41.5845 -3.7003
9.3000 -37.9389 -3.4025
10.6251 -37.4594 -3.3905
10.1381 -31.3918 -2.8714
10.9251 -30.0814 -2.7846
12.0450 -29.7785 -2.7937
7.6202 -49.1195 -3.2065
9.0589 -47.1284 -3.0949
8.8608 -38.5560 -2.5503
10.0417 -37.4632 -2.4992
10.8959 -35.4899 -2.3911
10.5142 -30.3130 -2.0654
11.5355 -29.7534 -2.0531
12.8534 -29.9118 -2.0933
14.2343 -30.0912 -2.1389
15.5389 -30.0057 -2.1697
17.2692 -30.5976 -2.2543
18.4624 -30.1250 -2.2652
19.2684 -29.0402 -2.2325
19.8455 -27.6927 -2.1805
19.5049 -25.2465 -2.0400
20.0292 -24.0817 -2.0009
21.2491 -23.7549 -2.0340
23.7469 -24.6980 -2.1843
21.8900 -21.1853 -1.9400
22.3942 -20.1643 -1.9169
23.0374 -19.2886 -1.9091
23.2397 -18.0763 -1.8685
23.4342 -16.9103 -1.8318
23.6220 -15.7851 -1.7987
23.1343 -14.2826 -1.7191
18.1457 -10.3201 -1.3182
18.1041 -9.4510 -1.2880
18.1262 -8.6474 -1.2649
18.1231 -7.8585 -1.2424
18.1161 -7.0924 -1.2220
18.1092 -6.3483 -1.2036
18.1026 -5.6232 -1.1873
18.0961 -4.9147 -1.1728
18.0897 -4.2204 -1.1601
18.0834 -3.5382 -1.1491
18.0773 -2.8660 -1.1398
18.0711 -2.2018 -1.1320
17.7719 -1.5188 -1.1074
17.9199 -0.8836 -1.1123
17.6770 -0.2348 -1.0944
17.4408 0.3960 -1.0783
17.2104 1.0112 -1.0641
16.9852 1.6129 -1.0515
8.7392 1.1484 -0.5424
16.5469 2.7833 -1.0311
16.3327 3.3556 -1.0231
16.1208 3.9214 -1.0166
15.9108 4.4823 -1.0114
15.7020 5.0399 -1.0076
15.4940 5.5956 -1.0051
15.2861 6.1508 -1.0039
15.0779 6.7069 -1.0041
14.8658 7.2641 -1.0054
14.4215 7.7016 -0.9922
14.2074 8.2575 -0.9960
13.7267 8.6533 -0.9822
13.2574 9.0399 -0.9701
12.7978 9.4184 -0.9595
12.3465 9.7900 -0.9504
11.9021 10.1560 -0.9427
11.4634 10.5174 -0.9363
11.0290 10.8751 -0.9312
10.5979 11.2301 -0.9274
10.1689 11.5834 -0.9249
9.7409 11.9359 -0.9236
9.3127 12.2886 -0.9235
8.8833 12.6422 -0.9247
8.4515 12.9978 -0.9271
5.0332 8.3862 -0.5844
4.6950 8.5015 -0.5799
4.3628 8.6189 -0.5765
4.0385 8.7455 -0.5745
3.7113 8.8613 -0.5726
3.3854 8.9765 -0.5715
3.0239 8.9844 -0.5645
2.7310 9.1960 -0.5710
2.4044 9.3115 -0.5723
2.0537 9.3275 -0.5682
1.7462 9.5561 -0.5778
1.4104 9.6749 -0.5814
1.0685 9.7839 -0.5852
0.7149 9.8031 -0.5844
0.3674 9.9759 -0.5935
0.0084 10.1029 -0.6007
-0.3598 10.2331 -0.6089
-0.7386 10.3670 -0.6182
-1.1240 10.4533 -0.6255
-1.5426 10.7072 -0.6437
-1.9675 10.8693 -0.6575
-2.4082 11.0251 -0.6720
-2.8658 11.1750 -0.6873
-3.3489 11.3459 -0.7051
-3.8625 11.5394 -0.7257
-4.4015 11.7300 -0.7476
-4.9684 11.9185 -0.7710
-5.5840 12.1455 -0.7988
-5.9700 11.8428 -0.7931
-6.1831 11.2402 -0.7677
-6.3829 10.6751 -0.7450
-6.6827 10.3149 -0.7368
-7.3876 10.5508 -0.7728
-8.1920 10.8472 -0.8164
-8.9390 10.9906 -0.8517
-10.0725 11.5122 -0.9206
-11.1615 11.8668 -0.9815
-12.3997 12.2673 -1.0521
-13.8141 12.7165 -1.1338
-15.5808 13.3398 -1.2401
-17.7492 14.1221 -1.3730
-18.0336 13.3177 -1.3587
-18.3118 12.5309 -1.3466
-20.4528 12.9409 -1.4707
-23.9416 13.9682 -1.6866
-29.6903 15.9190 -2.0526
-30.0971 14.7686 -2.0455
-20.7089 9.2528 -1.3858
-38.2302 -1.8219 -2.3834
-49.1466 -5.9060 -3.0915
-34.0596 -5.3422 -2.1563
-33.6634 -6.5290 -2.1478
-35.3690 -8.1904 -2.2771
-34.3421 -9.2663 -2.2342
-42.7196 -14.8967 -2.8495
-17.5118 -6.8227 -1.1853
-18.0842 -7.8063 -1.2439
-23.9029 -12.4284 -1.7057
-28.9716 -17.8209 -2.1587
-28.7712 -19.1579 -2.1963
-30.4147 -21.8717 -2.3831
-33.0807 -25.6439 -2.6655
-33.8109 -28.2149 -2.8074
-20.8473 -18.7097 -1.7877
-32.9393 -31.7746 -2.9237
-18.1285 -18.7930 -1.6697
-28.1643 -31.3821 -2.6988
-6.4133 -8.9184 -0.7048
-6.0165 -9.0356 -0.6970
-2.4137 -6.1955 -0.4284
-2.2195 -6.3653 -0.4346
2.9901 -49.4335 -3.1966
8.2754 -48.6788 -3.1849
8.6196 -41.5852 -2.7384
9.2835 -37.8740 -2.5134
10.5906 -37.3402 -2.5005
9.9613 -30.8467 -2.0873
10.8871 -29.9786 -2.0527
12.0433 -29.7764 -2.0660
7.6057 -49.0299 -2.0801
9.0333 -46.9987 -2.0054
8.9795 -39.0754 -1.6791
10.0439 -37.4741 -1.6237
10.9702 -35.7345 -1.5633
10.5188 -30.3283 -1.3414
11.5397 -29.7662 -1.3329
12.8584 -29.9253 -1.3586
14.2888 -30.2086 -1.3925
15.7457 -30.4071 -1.4254
17.3739 -30.7854 -1.4698
18.6985 -30.5125 -1.4861
19.2780 -29.0569 -1.4462
19.9292 -27.8116 -1.4171
19.5050 -25.2487 -1.3196
20.0283 -24.0825 -1.2935
21.2469 -23.7544 -1.3141
23.9172 -24.8773 -1.4207
21.9693 -21.2639 -1.2566
22.3918 -20.1639 -1.2363
23.0371 -19.2902 -1.2306
23.3404 -18.1564 -1.2089
23.5358 -16.9853 -1.1844
23.6217 -15.7866 -1.1571
23.1340 -14.2841 -1.1052
17.8512 -10.1538 -0.8331
17.8435 -9.3162 -0.8149
17.8361 -8.5102 -0.7984
17.8290 -7.7321 -0.7835
17.8220 -6.9784 -0.7700
17.8153 -6.2463 -0.7578
17.8088 -5.5330 -0.7469
17.8023 -4.8360 -0.7372
17.7961 -4.1530 -0.7287
17.7899 -3.4818 -0.7212
17.7838 -2.8205 -0.7147
17.7778 -2.1671 -0.7092
17.7719 -1.5199 -0.7047
17.6016 -0.8689 -0.6946
17.3629 -0.2316 -0.6829
17.1309 0.3880 -0.6723
16.9047 0.9923 -0.6628
16.6834 1.5833 -0.6544
8.7385 1.1478 -0.3434
16.2530 2.7329 -0.6406
16.0425 3.2950 -0.6352
15.8344 3.8508 -0.6306
15.6281 4.4018 -0.6268
15.4231 4.9495 -0.6240
15.2187 5.4953 -0.6219
15.0145 6.0406 -0.6207
14.8100 6.5869 -0.6203
14.6046 7.1355 -0.6207
14.4222 7.7011 -0.6231
13.9379 8.0999 -0.6131
13.4663 8.4883 -0.6042
13.0059 8.8675 -0.5963
12.5550 9.2388 -0.5894
12.1122 9.6034 -0.5834
11.6763 9.9625 -0.5783
11.2458 10.3170 -0.5740
10.8197 10.6679 -0.5705
10.3968 11.0162 -0.5678
9.9759 11.3628 -0.5659
9.5560 11.7086 -0.5648
9.1360 12.0546 -0.5645
8.7147 12.4015 -0.5649
8.2911 12.7503 -0.5661
5.0335 8.3861 -0.3636
4.6952 8.5014 -0.3607
4.3631 8.6189 -0.3584
4.0387 8.7455 -0.3570
3.7115 8.8612 -0.3558
3.3855 8.9764 -0.3550
3.0242 8.9848 -0.3505
2.7311 9.1959 -0.3545
2.4045 9.3114 -0.3552
2.0539 9.3280 -0.3526
1.7463 9.5561 -0.3585
1.4104 9.6749 -0.3607
1.0685 9.7838 -0.3630
0.7149 9.8032 -0.3625
0.3674 9.9759 -0.3682
0.0084 10.1029 -0.3727
-0.3599 10.2331 -0.3778
-0.7387 10.3670 -0.3836
-1.1241 10.4533 -0.3881
-1.5428 10.7072 -0.3995
-1.9676 10.8693 -0.4082
-2.4084 11.0252 -0.4173
-2.8660 11.1751 -0.4269
-3.3492 11.3460 -0.4381
-3.8628 11.5395 -0.4510
-4.4019 11.7301 -0.4648
-4.9689 11.9187 -0.4796
-5.5845 12.1457 -0.4970
-5.9702 11.8423 -0.4937
-6.1832 11.2397 -0.4781
-6.3830 10.6746 -0.4642
-6.6833 10.3151 -0.4593
-7.3883 10.5511 -0.4821
-8.1929 10.8475 -0.5096
-8.9410 10.9922 -0.5320
-10.0737 11.5126 -0.5753
-11.1618 11.8661 -0.6137
-12.4014 12.2679 -0.6584
-14.0256 12.9100 -0.7208
-15.5825 13.3400 -0.7771
-17.7495 14.1210 -0.8609
-18.0340 13.3167 -0.8526
-18.3122 12.5298 -0.8456
-20.5007 12.9697 -0.9264
-24.6035 14.3528 -1.0901
-29.6909 15.9174 -1.2920
-30.0977 14.7669 -1.2886
-20.7073 9.2508 -0.8736
-18.4677 -5.7044 -0.7792
-17.9827 -6.2718 -0.7694
-17.5111 -6.8235 -0.7609
-17.1170 -7.3899 -0.7564
-32.1401 -16.7133 -1.4754
-10.4053 -7.4833 -0.5259
-9.9342 -7.7016 -0.5166
-9.7713 -8.1547 -0.5240
-18.1216 -18.7873 -1.0796
-6.3606 -8.2057 -0.4311
-5.9490 -8.2733 -0.4237
-5.6375 -8.4671 -0.4234
-5.3966 -8.7739 -0.4292
-5.3024 -9.3596 -0.4487
-8.4269 -16.2084 -0.7627
-7.9355 -16.7059 -0.7729
-2.4134 -6.1951 -0.2783
-2.2194 -6.3654 -0.2823
2.9896 -49.4302 -2.0780
8.2823 -48.7233 -2.0716
8.6221 -41.6002 -1.7798
9.3024 -37.9541 -1.6361
10.6246 -37.4628 -1.6293
10.1487 -31.4292 -1.3808
10.9275 -30.0920 -1.3374
12.0480 -29.7901 -1.3412
7.6208 -49.1310 -0.9636
9.0636 -47.1597 -0.9297
8.9680 -39.0283 -0.7743
10.0648 -37.5549 -0.7508
10.9699 -35.7361 -0.7207
10.5183 -30.3290 -0.6178
11.5389 -29.7662 -0.6133
12.8574 -29.9252 -0.6244
14.3196 -30.2758 -0.6407
15.7445 -30.4069 -0.6535
17.3725 -30.7852 -0.6729
18.6979 -30.5138 -0.6794
19.2774 -29.0582 -0.6602
19.9220 -27.8036 -0.6456
19.5052 -25.2508 -0.6004
20.0273 -24.0833 -0.5875
21.2447 -23.7538 -0.5957
23.9773 -24.9420 -0.6444
21.9690 -21.2654 -0.5674
22.3893 -20.1635 -0.5571
23.0368 -19.2917 -0.5534
23.3401 -18.1579 -0.5424
23.5355 -16.9868 -0.5302
23.6215 -15.7881 -0.5167
23.1338 -14.2855 -0.4923
18.1458 -10.3225 -0.3763
18.1379 -9.4711 -0.3672
18.1304 -8.6518 -0.3588
18.1231 -7.8608 -0.3511
18.1161 -7.0947 -0.3441
18.1093 -6.3505 -0.3378
18.1026 -5.6254 -0.3320
18.0961 -4.9169 -0.3267
18.0897 -4.2226 -0.3220
18.0834 -3.5403 -0.3177
18.0773 -2.8681 -0.3139
18.0712 -2.2039 -0.3106
18.0651 -1.5460 -0.3077
17.9207 -0.8857 -0.3028
17.6777 -0.2369 -0.2968
17.4415 0.3940 -0.2913
17.2112 1.0093 -0.2863
16.9859 1.6110 -0.2817
8.7377 1.1472 -0.1447
16.5476 2.7815 -0.2741
16.3333 3.3538 -0.2709
16.1215 3.9197 -0.2680
15.9114 4.4807 -0.2656
15.7027 5.0383 -0.2636
15.4946 5.5940 -0.2619
15.2867 6.1492 -0.2606
15.0785 6.7054 -0.2596
14.8693 7.2640 -0.2590
14.7024 7.8498 -0.2595
14.2087 8.2564 -0.2546
13.7280 8.6523 -0.2502
13.2586 9.0389 -0.2462
12.7989 9.4174 -0.2427
12.3476 9.7892 -0.2396
11.9031 10.1552 -0.2368
11.4643 10.5166 -0.2345
11.0300 10.8743 -0.2325
10.5988 11.2294 -0.2308
10.1697 11.5827 -0.2295
9.7417 11.9353 -0.2286
9.3135 12.2879 -0.2279
8.8840 12.6416 -0.2276
8.4522 12.9972 -0.2277
5.0338 8.3860 -0.1432
4.6954 8.5013 -0.1418
4.3633 8.6188 -0.1407
4.0389 8.7454 -0.1399
3.7116 8.8611 -0.1393
3.3857 8.9764 -0.1388
3.0245 8.9853 -0.1369
2.7313 9.1959 -0.1383
2.4046 9.3114 -0.1385
2.0541 9.3285 -0.1374
1.7463 9.5561 -0.1396
1.4105 9.6748 -0.1404
1.0685 9.7838 -0.1412
0.7149 9.8032 -0.1410
0.3674 9.9759 -0.1432
0.0083 10.1029 -0.1450
-0.3599 10.2331 -0.1470
-0.7388 10.3671 -0.1493
-1.1242 10.4533 -0.1512
-1.5429 10.7073 -0.1557
-1.9678 10.8694 -0.1593
-2.4086 11.0253 -0.1630
-2.8662 11.1752 -0.1669
-3.3495 11.3461 -0.1715
-3.8631 11.5396 -0.1768
-4.4023 11.7302 -0.1825
-4.9693 11.9188 -0.1885
-5.5850 12.1459 -0.1957
-5.9703 11.8418 -0.1948
-6.1834 11.2392 -0.1890
-6.3832 10.6742 -0.1839
-6.6839 10.3153 -0.1824
-7.3890 10.5514 -0.1918
-8.1938 10.8478 -0.2032
-8.9430 10.9937 -0.2127
-10.0749 11.5130 -0.2306
-11.1621 11.8653 -0.2466
-12.4030 12.2685 -0.2653
-14.0276 12.9107 -0.2912
-15.5874 13.3430 -0.3149
-17.7499 14.1200 -0.3497
-18.0343 13.3156 -0.3474
-18.3126 12.5287 -0.3455
-20.5058 12.9715 -0.3798
-24.6109 14.3554 -0.4482
-29.6915 15.9157 -0.5328
-30.0983 14.7652 -0.5330
-20.7057 9.2488 -0.3625
-18.4670 -5.7053 -0.3436
-17.9820 -6.2726 -0.3401
-17.5104 -6.8243 -0.3372
-19.6167 -8.4702 -0.3852
-10.5496 -5.0130 -0.2115
-32.0662 -16.6769 -0.6574
-8.9367 -5.0644 -0.1876
-8.5648 -5.2695 -0.1844
-10.7610 -7.1669 -0.2381
-10.1169 -7.2766 -0.2304
-6.9577 -5.3945 -0.1634
-6.5846 -5.4958 -0.1598
-9.3629 -8.4042 -0.2352
-13.8401 -13.3528 -0.3607
-12.9019 -13.3768 -0.3497
-5.1533 -5.7429 -0.1456
-4.8028 -5.7562 -0.1419
-4.5936 -5.9266 -0.1424
-7.2179 -10.0386 -0.2354
-6.8404 -10.2743 -0.2356
-6.4142 -10.4290 -0.2342
-5.8315 -10.2942 -0.2268
-8.0989 -15.5785 -0.3373
-7.5346 -15.8629 -0.3380
-2.6402 -6.1172 -0.1285
-2.4130 -6.1944 -0.1284
-2.2193 -6.3655 -0.1304
-2.6581 -8.6087 -0.1744
2.9889 -49.4242 -0.9615
4.9675 -37.3064 -0.7298
8.2751 -48.6846 -0.9567
8.6216 -41.6009 -0.8221
9.3019 -37.9548 -0.7552
10.6243 -37.4645 -0.7515
10.1487 -31.4313 -0.6364
10.9268 -30.0923 -0.6157
12.0471 -29.7899 -0.6168
7.4180 -47.8275 0.1521
8.5501 -44.4913 0.1433
8.8922 -38.7009 0.1265
9.7611 -36.4242 0.1212
10.1931 -33.2080 0.1127
10.5178 -30.3296 0.1052
11.5381 -29.7662 0.1057
12.8564 -29.9250 0.1092
14.2637 -30.1599 0.1132
15.7432 -30.4068 0.1177
17.3048 -30.6673 0.1228
18.3815 -29.9996 0.1245
18.7638 -28.2860 0.1219
19.2242 -26.8317 0.1204
19.5053 -25.2530 0.1182
20.0264 -24.0840 0.1180
21.2424 -23.7533 0.1220
23.8483 -24.8098 0.1341
21.9687 -21.2670 0.1212
22.3868 -20.1631 0.1215
23.0366 -19.2933 0.1234
23.3399 -18.1595 0.1236
23.5353 -16.9884 0.1236
23.6212 -15.7897 0.1232
23.1335 -14.2870 0.1200
18.1458 -10.3238 0.0939
18.1379 -9.4723 0.0937
18.1304 -8.6530 0.0937
18.1232 -7.8620 0.0938
18.1161 -7.0959 0.0940
18.1093 -6.3516 0.0944
18.1026 -5.6265 0.0950
18.0961 -4.9180 0.0956
18.0897 -4.2237 0.0964
18.0576 -3.5363 0.0971
18.0514 -2.8650 0.0981
18.0712 -2.2050 0.0994
18.0651 -1.5470 0.1007
17.9211 -0.8868 0.1013
17.6781 -0.2379 0.1014
17.4419 0.3931 0.1017
17.2115 1.0083 0.1020
16.9862 1.6101 0.1025
8.7370 1.1466 0.0537
16.5480 2.7806 0.1038
16.3337 3.3529 0.1047
16.1218 3.9188 0.1056
15.9117 4.4798 0.1067
15.7030 5.0374 0.1078
15.4329 5.5708 0.1087
15.2631 6.1388 0.1103
15.0552 6.6941 0.1119
14.8696 7.2632 0.1137
14.7031 7.8492 0.1158
14.2093 8.2559 0.1155
13.7286 8.6518 0.1153
13.2592 9.0384 0.1152
12.7995 9.4170 0.1152
12.3481 9.7887 0.1153
11.9036 10.1548 0.1155
11.4648 10.5162 0.1159
11.0304 10.8739 0.1164
10.5992 11.2290 0.1169
10.1702 11.5824 0.1176
9.7421 11.9349 0.1184
9.3138 12.2876 0.1193
8.8695 12.6201 0.1201
8.4384 12.9752 0.1213
5.0340 8.3860 0.0771
4.6957 8.5013 0.0769
4.3635 8.6187 0.0769
4.0391 8.7453 0.0770
3.7118 8.8611 0.0771
3.3859 8.9763 0.0773
3.0248 8.9858 0.0766
2.7314 9.1958 0.0777
2.4047 9.3113 0.0781
2.0543 9.3290 0.0778
1.7464 9.5560 0.0792
1.4105 9.6748 0.0798
1.0685 9.7838 0.0804
0.7149 9.8033 0.0803
0.3674 9.9759 0.0816
0.0083 10.1029 0.0825
-0.3600 10.2331 0.0836
-0.7389 10.3671 0.0847
-1.1243 10.4534 0.0856
-1.5430 10.7073 0.0879
-1.9679 10.8695 0.0895
-2.4088 11.0254 0.0912
-2.8665 11.1753 0.0929
-3.3497 11.3461 0.0950
-3.8634 11.5397 0.0973
-4.4026 11.7304 0.0997
-4.9697 11.9190 0.1023
-5.5855 12.1460 0.1053
-5.9705 11.8413 0.1039
-6.1836 11.2388 0.0999
-6.3834 10.6737 0.0962
-6.6845 10.3155 0.0945
-7.3898 10.5516 0.0983
-8.1946 10.8481 0.1030
-9.0663 11.1444 0.1079
-10.0761 11.5134 0.1140
-11.1623 11.8646 0.1203
-12.4047 12.2691 0.1277
-14.0297 12.9114 0.1382
-15.5923 13.3460 0.1473
-17.7503 14.1189 0.1611
-18.0347 13.3146 0.1575
-18.3130 12.5277 0.1542
-20.5109 12.9733 0.1667
-24.6182 14.3579 0.1935
-29.6921 15.9140 0.2259
-30.0989 14.7636 0.2220
-20.7042 9.2467 0.1482
-46.1988 1.1173 0.2566
-38.2050 -0.4511 0.2086
-30.7030 -1.4685 0.1650
-26.3578 -2.2134 0.1396
-20.4351 -3.2088 0.1055
-18.4509 -3.5817 0.0942
-16.5372 -3.8324 0.0835
-18.4662 -5.7062 0.0917
-12.7811 -4.4592 0.0631
-17.5098 -6.8250 0.0860
-19.6160 -8.4711 0.0960
-10.5818 -5.0289 0.0517
-32.1128 -16.7031 0.1569
-8.9855 -5.0926 0.0440
-8.5978 -5.2903 0.0422
-6.9959 -5.4246 0.0351
-6.6192 -5.5251 0.0336
-35.7801 -34.5231 0.1873
-18.1078 -18.7758 0.0966
-4.8294 -5.7885 0.0271
-4.6390 -5.9856 0.0268
-25.8899 -36.0096 0.1546
-24.1343 -36.2521 0.1497
-20.9089 -36.9121 0.1422
-2.6548 -6.1514 0.0217
-2.4129 -6.1944 0.0214
-2.2193 -6.3656 0.0215
-2.6684 -8.6426 0.0286
-10.3895 -38.5148 0.1253
2.9881 -49.4175 0.1536
5.0107 -37.6336 0.1189
7.7952 -45.8650 0.1465
8.6211 -41.6016 0.1347
9.3014 -37.9555 0.1249
9.8360 -34.6872 0.1163
10.1487 -31.4335 0.1076
10.9262 -30.0926 0.1053
12.0462 -29.7898 0.1069
4.0158 -25.8939 0.6726
8.5494 -44.4911 1.1638
8.3124 -36.1802 0.9545
8.8276 -32.9432 0.8778
10.1924 -33.2079 0.8951
10.5173 -30.3303 0.8283
11.5373 -29.7662 0.8249
12.8555 -29.9249 0.8428
14.2820 -30.2006 0.8659
15.7420 -30.4066 0.8890
16.4499 -29.1544 0.8708
17.0296 -27.7953 0.8496
18.4918 -27.8780 0.8737
19.2219 -26.8306 0.8639
19.5054 -25.2551 0.8371
20.0255 -24.0848 0.8236
21.2402 -23.7527 0.8398
23.9761 -24.9449 0.9142
21.8889 -21.1916 0.8071
22.3843 -20.1627 0.8002
22.4548 -18.8078 0.7801
23.3396 -18.1610 0.7898
22.6177 -16.3277 0.7471
23.6210 -15.7912 0.7632
23.1333 -14.2884 0.7325
18.1458 -10.3250 0.5642
18.1380 -9.4735 0.5546
18.1304 -8.6542 0.5462
18.1232 -7.8631 0.5388
18.1161 -7.0970 0.5324
18.1093 -6.3528 0.5268
18.1026 -5.6276 0.5220
18.0961 -4.9191 0.5181
18.0897 -4.2247 0.5149
18.0576 -3.5374 0.5117
18.0514 -2.8661 0.5099
18.0712 -2.2060 0.5095
18.0651 -1.5481 0.5091
17.9215 -0.8878 0.5055
17.6785 -0.2389 0.4997
17.4423 0.3921 0.4947
17.2119 1.0074 0.4904
16.9866 1.6091 0.4869
8.7362 1.1460 0.2522
16.5483 2.7797 0.4819
16.3340 3.3520 0.4803
16.1221 3.9179 0.4794
15.9121 4.4790 0.4791
15.7033 5.0366 0.4794
15.4340 5.5702 0.4783
15.2634 6.1380 0.4810
15.0555 6.6933 0.4831
14.8699 7.2624 0.4865
14.7038 7.8487 0.4913
14.2100 8.2554 0.4857
13.7292 8.6513 0.4808
13.2598 9.0379 0.4767
12.8001 9.4165 0.4732
12.3486 9.7883 0.4703
11.9041 10.1544 0.4681
11.4653 10.5158 0.4664
11.0309 10.8735 0.4653
10.5997 11.2286 0.4648
10.1706 11.5820 0.4649
9.7425 11.9346 0.4655
9.3142 12.2873 0.4667
8.8699 12.6198 0.4677
5.2928 8.1379 0.2948
4.9567 8.2567 0.2928
4.6422 8.4040 0.2924
4.3364 8.5646 0.2927
4.0393 8.7453 0.2940
3.7120 8.8610 0.2936
3.3860 8.9763 0.2934
3.0251 8.9862 0.2903
2.7174 9.1482 0.2924
2.3849 9.2341 0.2924
2.0545 9.3295 0.2930
1.7465 9.5560 0.2981
1.4106 9.6748 0.3001
1.0526 9.6373 0.2976
0.7116 9.7578 0.3004
0.3674 9.9759 0.3065
0.0083 10.1029 0.3102
-0.3600 10.2331 0.3143
-0.7390 10.3671 0.3189
-1.1192 10.4049 0.3210
-1.5201 10.5470 0.3266
-1.9274 10.6450 0.3314
-2.3592 10.7976 0.3383
-2.8237 11.0078 0.3476
-3.2997 11.1761 0.3561
-3.7839 11.3014 0.3638
-4.3156 11.4978 0.3744
-4.8956 11.7405 0.3873
-5.4973 11.9533 0.4001
-5.9707 11.8408 0.4027
-6.1837 11.2383 0.3889
-6.3836 10.6732 0.3764
-6.5728 10.1424 0.3652
-7.2488 10.3496 0.3811
-8.0100 10.6029 0.4000
-9.0672 11.1448 0.4316
-10.0622 11.4966 0.4580
-11.1626 11.8639 0.4873
-12.4063 12.2697 0.5208
-13.1917 12.1392 0.5338
-15.8060 13.5276 0.6180
-17.7507 14.1179 0.6720
-18.0351 13.3135 0.6625
-18.3133 12.5266 0.6540
-20.4734 12.9482 0.7122
-24.6256 14.3606 0.8358
-29.6926 15.9124 0.9849
-30.0995 14.7619 0.9773
-20.7026 9.2447 0.6590
-46.1802 1.1142 1.2971
-36.8811 -0.4375 1.0323
-30.6949 -1.4699 0.8573
-26.3570 -2.2149 0.7355
-23.3298 -2.8089 0.6513
-20.4345 -3.2099 0.5714
-18.4511 -3.5828 0.5176
-16.5348 -3.8328 0.4659
-14.1136 -4.3620 0.4029
-12.7796 -4.4594 0.3680
-17.5091 -6.8258 0.5094
-18.0344 -7.7892 0.5308
-10.5819 -5.0296 0.3156
-32.1595 -16.7294 0.9737
-8.9847 -5.0927 0.2766
-8.5979 -5.2909 0.2696
-13.6834 -9.1150 0.4379
-15.9360 -11.4642 0.5214
-6.9953 -5.4247 0.2345
-6.6190 -5.5254 0.2278
-35.5883 -34.3407 1.3003
-5.5744 -5.7805 0.2106
-5.2431 -5.8438 0.2055
-4.8291 -5.7885 0.1969
-4.6391 -5.9861 0.1974
-19.9732 -27.7821 0.8901
-19.8549 -29.8259 0.9303
-9.5430 -15.5181 0.4722
-20.8448 -36.8010 1.0945
-17.7577 -34.1613 0.9948
-7.3545 -15.4854 0.4423
-2.6547 -6.1514 0.1726
-2.4127 -6.1944 0.1711
-2.2192 -6.3657 0.1733
-2.6683 -8.6426 0.2324
-10.3891 -38.5149 1.0239
-8.9708 -38.7516 1.0203
2.9824 -49.3274 1.2665
3.0029 -31.0633 0.8002
4.0464 -30.3938 0.7867
4.3956 -25.8645 0.6736
8.6206 -41.6022 1.0918
8.4701 -34.5657 0.9154
9.3777 -33.0732 0.8852
10.1486 -31.4356 0.8517
10.9255 -30.0930 0.8265
12.0453 -29.7897 0.8308
3.9529 -25.4898 1.2438
4.9266 -25.6398 1.2595
7.3990 -32.2069 1.5949
8.5480 -31.9020 1.5949
9.7268 -31.6933 1.6020
10.3683 -29.9027 1.5304
10.0590 -25.9542 1.3470
12.8545 -29.9247 1.5773
14.1279 -29.8770 1.6020
15.1794 -29.3221 1.6020
16.2084 -28.7286 1.6020
13.4690 -21.9853 1.2535
14.4797 -21.8311 1.2750
19.1461 -26.7268 1.6020
19.5056 -25.2572 1.5568
20.0245 -24.0856 1.5300
21.2380 -23.7522 1.5584
22.6656 -23.5834 1.6020
21.8887 -21.1932 1.4942
21.1056 -19.0126 1.3952
21.9988 -18.4276 1.4115
22.1920 -17.2697 1.3852
21.8843 -15.7999 1.3317
23.6207 -15.7927 1.4041
23.0493 -14.2381 1.3409
18.1458 -10.3263 1.0351
18.1380 -9.4747 1.0162
18.1304 -8.6553 0.9994
18.1232 -7.8643 0.9844
18.1161 -7.0981 0.9712
18.1093 -6.3539 0.9596
18.1026 -5.6287 0.9496
18.0961 -4.9202 0.9411
18.0897 -4.2258 0.9339
18.0576 -3.5384 0.9267
18.0515 -2.8671 0.9222
18.0712 -2.2071 0.9202
18.0651 -1.5491 0.9181
17.9219 -0.8889 0.9103
17.6789 -0.2399 0.8985
17.4426 0.3911 0.8882
17.2122 1.0064 0.8794
16.9869 1.6082 0.8718
8.7354 1.1454 0.4509
16.5486 2.7788 0.8604
16.3343 3.3512 0.8565
16.1224 3.9171 0.8537
15.9124 4.4781 0.8520
15.7036 5.0358 0.8514
15.4350 5.5697 0.8485
15.2637 6.1372 0.8521
15.0558 6.6925 0.8547
14.8702 7.2616 0.8598
14.7045 7.8481 0.8673
14.2106 8.2548 0.8565
13.7298 8.6508 0.8469
13.2604 9.0374 0.8387
12.8006 9.4161 0.8317
12.3492 9.7878 0.8258
11.9047 10.1539 0.8210
11.4658 10.5154 0.8174
11.0313 10.8732 0.8148
10.6001 11.2283 0.8132
10.1710 11.5817 0.8126
9.7429 11.9343 0.8131
9.3146 12.2870 0.8145
8.8702 12.6195 0.8156
8.4391 12.9746 0.8192
5.0345 8.3858 0.5181
4.6961 8.5011 0.5148
4.3639 8.6186 0.5125
4.0348 8.7350 0.5108
3.7078 8.8506 0.5097
3.3822 8.9657 0.5093
3.0571 9.0807 0.5095
2.7316 9.1958 0.5103
2.4049 9.3113 0.5118
2.0762 9.4275 0.5139
1.7445 9.5448 0.5166
1.4090 9.6635 0.5201
1.0690 9.7874 0.5244
0.7166 9.8266 0.5248
0.3674 9.9759 0.5317
0.0082 10.1029 0.5381
-0.3601 10.2332 0.5453
-0.7390 10.3672 0.5534
-1.1281 10.4870 0.5615
-1.5437 10.7100 0.5758
-1.9660 10.8568 0.5869
-2.4064 11.0126 0.5994
-2.8669 11.1754 0.6132
-3.3502 11.3463 0.6284
-3.8595 11.5264 0.6453
-4.3982 11.7169 0.6639
-4.9705 11.9193 0.6846
-5.5865 12.1464 0.7082
-5.9709 11.8403 0.7018
-6.1839 11.2378 0.6783
-6.3837 10.6727 0.6570
-6.6857 10.3159 0.6488
-7.3913 10.5521 0.6792
-8.1841 10.8325 0.7150
-9.0683 11.1451 0.7558
-10.0633 11.4970 0.8027
-11.1843 11.8860 0.8564
-12.4080 12.2702 0.9145
-13.1936 12.1398 0.9384
-15.8085 13.5285 1.0874
-17.7510 14.1168 1.1837
-18.0355 13.3124 1.1682
-18.3137 12.5255 1.1546
-20.7140 13.0989 1.2734
-23.1583 13.5033 1.3907
-27.9613 14.9827 1.6430
-27.6935 13.5801 1.5949
-20.6182 9.2057 1.1657
-13.2152 5.3388 0.7346
-29.1413 10.5698 1.5949
-31.4638 10.1468 1.6980
-31.8638 9.0239 1.6980
-32.2244 7.8854 1.6980
-32.5447 6.7328 1.6980
-32.8243 5.5674 1.6980
-33.0627 4.3907 1.6980
-33.2590 3.2040 1.6980
-31.3813 1.8868 1.5948
-31.4859 0.7579 1.5948
-31.5499 -0.3761 1.5948
-30.6866 -1.4712 1.5500
-26.2668 -2.2088 1.3275
-22.9423 -2.7636 1.1617
-20.3450 -3.1970 1.0335
-18.3340 -3.5612 0.9355
-16.5324 -3.8332 0.8486
-30.1874 -8.1541 1.5608
-14.1138 -4.3629 0.7361
-12.7782 -4.4597 0.6732
-12.0493 -4.6981 0.6422
-18.0972 -7.8175 0.9773
-10.5820 -5.0303 0.5799
-23.6716 -12.3155 1.3186
-8.9839 -5.0928 0.5095
-8.5980 -5.2915 0.4973
-13.7236 -9.1427 0.8111
-15.9003 -11.4395 0.9620
-6.9948 -5.4248 0.4341
-6.6188 -5.5257 0.4223
-21.8796 -19.6442 1.4382
-13.9086 -13.4220 0.9441
-5.5691 -5.7755 0.3914
-5.2362 -5.8366 0.3821
-4.8289 -5.7886 0.3669
-4.6392 -5.9866 0.3682
-8.1496 -11.3366 0.6781
-16.5624 -24.8814 1.4502
-6.6698 -10.8466 0.6172
-8.9211 -15.7510 0.8767
-8.8742 -17.0726 0.9311
-7.3793 -15.5384 0.8318
-2.6545 -6.1514 0.3237
-2.4126 -6.1944 0.3210
-2.2191 -6.3658 0.3254
-2.6682 -8.6426 0.4363
-8.6921 -32.2254 1.6094
-7.3909 -31.9283 1.5797
-6.2860 -32.4239 1.5916
-5.1271 -32.7027 1.5948
-3.9479 -32.8711 1.5948
-2.9420 -35.1310 1.6980
-1.6763 -35.2147 1.6980
-0.4084 -35.2507 1.6980
0.8599 -35.2384 1.6980
2.1267 -35.1781 1.6980
2.9773 -30.8014 1.4913
3.5977 -27.0256 1.3144
4.3418 -25.5497 1.2499
6.7067 -32.3684 1.5949
6.5817 -26.8612 1.3351
9.0067 -31.7672 1.5949
9.6124 -29.7766 1.5124
10.8702 -29.9427 1.5408
10.5004 -25.9708 1.3560
3.6740 -23.6932 1.6980
4.5225 -23.5388 1.6980
5.3645 -23.3530 1.6980
6.1988 -23.1361 1.6980
6.9824 -22.7526 1.6880
7.3632 -21.2375 1.5949
8.1177 -20.9466 1.5948
8.8614 -20.6305 1.5949
9.5924 -20.2869 1.5949
10.3094 -19.9160 1.5949
11.0117 -19.5190 1.5949
11.7499 -19.1808 1.6020
12.4229 -18.7316 1.6020
13.0784 -18.2581 1.6020
13.7154 -17.7612 1.6020
14.3332 -17.2415 1.6020
14.9308 -16.6998 1.6020
15.5075 -16.1369 1.6020
16.0627 -15.5537 1.6020
16.6065 -14.9611 1.6030
17.1166 -14.3394 1.6030
17.6031 -13.7001 1.6030
18.0653 -13.0441 1.6030
18.5027 -12.3723 1.6030
18.9149 -11.6856 1.6030
17.5712 -10.0005 1.4593
17.9938 -9.4006 1.4671
18.1305 -8.6565 1.4536
17.4953 -7.5929 1.3815
17.4885 -6.8533 1.3622
18.1093 -6.3550 1.3935
18.1026 -5.6299 1.3782
17.4386 -4.7424 1.3154
17.6228 -4.1178 1.3189
18.0576 -3.5395 1.3427
18.0515 -2.8682 1.3354
18.0712 -2.2081 1.3318
18.0652 -1.5502 1.3280
17.4479 -0.8664 1.2811
17.2556 -0.2352 1.2672
17.4430 0.3901 1.2827
17.2126 1.0054 1.2692
16.4822 1.5595 1.2202
8.7347 1.1448 0.6501
16.5490 2.7779 1.2398
16.3347 3.3503 1.2335
15.6136 3.7925 1.1900
15.4101 4.3359 1.1870
15.7039 5.0350 1.2242
15.4360 5.5691 1.2196
15.2640 6.1364 1.2241
15.0561 6.6917 1.2273
14.8705 7.2609 1.2340
14.2075 7.5820 1.2021
13.7304 7.9749 1.1865
13.7304 8.6503 1.2139
13.2609 9.0370 1.2016
12.8012 9.4156 1.1910
12.3497 9.7874 1.1821
11.9052 10.1535 1.1749
11.4663 10.5150 1.1692
11.0318 10.8728 1.1650
10.6006 11.2279 1.1624
10.1715 11.5813 1.1612
9.7433 11.9339 1.1615
9.3150 12.2867 1.1632
8.8706 12.6192 1.1645
8.4394 12.9743 1.1692
5.0348 8.3857 0.7393
4.6964 8.5010 0.7345
4.3641 8.6185 0.7309
4.0350 8.7349 0.7284
3.7080 8.8505 0.7267
3.3824 8.9657 0.7260
3.0572 9.0806 0.7262
2.7317 9.1957 0.7272
2.4050 9.3112 0.7292
2.0763 9.4275 0.7322
1.7446 9.5448 0.7361
1.4090 9.6634 0.7409
1.0690 9.7874 0.7470
0.7203 9.8761 0.7514
0.3674 9.9759 0.7575
0.0082 10.1029 0.7666
-0.3602 10.2332 0.7769
-0.7391 10.3672 0.7884
-1.1343 10.5437 0.8043
-1.5438 10.7100 0.8205
-1.9661 10.8569 0.8364
-2.4066 11.0126 0.8543
-2.8671 11.1755 0.8741
-3.3505 11.3464 0.8960
-3.8598 11.5265 0.9202
-4.3985 11.7170 0.9470
-4.9709 11.9194 0.9767
-5.5869 12.1466 1.0105
-5.9710 11.8398 1.0017
-6.1841 11.2373 0.9683
-6.3839 10.6722 0.9382
-6.6864 10.3161 0.9268
-7.3920 10.5524 0.9706
-8.1849 10.8328 1.0220
-9.0693 11.1455 1.0808
-10.0645 11.4974 1.1483
-11.1560 11.8550 1.2223
-11.7513 11.6198 1.2398
-13.0599 12.0158 1.3301
-16.0201 13.7083 1.5787
-17.1921 13.6709 1.6430
-17.6454 13.0232 1.6388
-17.6363 12.0610 1.5949
-18.0781 11.4308 1.5949
-18.4979 10.7846 1.5949
-18.8949 10.1233 1.5949
-19.2687 9.4476 1.5949
-19.6187 8.7582 1.5949
-13.2134 5.3372 1.0567
-21.5539 7.8164 1.6980
-21.8473 7.0442 1.6980
-22.1133 6.2612 1.6980
-22.3515 5.4682 1.6980
-22.5615 4.6661 1.6980
-22.7430 3.8561 1.6980
-22.8955 3.0391 1.6980
-23.0188 2.2162 1.6980
-23.1125 1.3883 1.6980
-21.7889 0.5232 1.5964
-21.7994 -0.2611 1.5948
-21.8032 -1.0466 1.5948
-21.7787 -1.8326 1.5948
-21.7257 -2.6182 1.5948
-20.3414 -3.1976 1.4988
-18.2519 -3.5463 1.3517
-16.5299 -3.8336 1.2321
-15.0830 -4.0751 1.1331
-13.8472 -4.2813 1.0499
-12.7767 -4.4599 0.9791
-11.9109 -4.6449 0.9239
-18.0998 -7.8197 1.4232
-10.5821 -5.0310 0.8448
-19.9726 -10.3923 1.6215
-8.9832 -5.0930 0.7429
-8.5981 -5.2922 0.7256
-13.7370 -9.1525 1.1850
-7.5677 -5.4451 0.6686
-6.9943 -5.4249 0.6342
-6.6186 -5.5260 0.6172
-15.7075 -14.1038 1.5097
-9.4193 -9.0905 0.9353
-5.5689 -5.7756 0.5727
-5.2360 -5.8367 0.5593
-4.8285 -5.7886 0.5373
-4.6393 -5.9871 0.5394
-6.1164 -8.5088 0.7458
-5.8102 -8.7292 0.7458
-5.5254 -8.9861 0.7498
-9.8958 -17.4728 1.4263
-4.7400 -9.1196 0.7296
-9.6817 -20.3877 1.6015
-2.6544 -6.1515 0.4752
-2.4125 -6.1945 0.4713
-2.2190 -6.3659 0.4777
-2.6681 -8.6426 0.6408
-5.9744 -22.1506 1.6248
-5.0794 -21.9438 1.5948
-4.2876 -22.1167 1.5948
-1.7782 -11.3428 0.8126
-2.6870 -22.3736 1.5948
-1.8806 -22.4571 1.5948
-1.1409 -23.9679 1.6980
-0.2780 -23.9927 1.6980
0.5852 -23.9853 1.6980
1.4475 -23.9457 1.6980
2.3075 -23.8740 1.6980
3.1641 -23.7703 1.6980
4.0161 -23.6348 1.6980
4.8622 -23.4678 1.6980
5.7012 -23.2694 1.6980
6.5319 -23.0401 1.6980
7.1064 -22.0152 1.6410
7.6683 -21.1245 1.5949
8.4183 -20.8227 1.5948
2.7828 -17.9473 1.6980
3.4258 -17.8317 1.6980
4.0639 -17.6924 1.6980
4.6963 -17.5297 1.6980
5.3221 -17.3438 1.6980
5.9404 -17.1350 1.6980
6.5504 -16.9036 1.6980
7.1512 -16.6500 1.6980
7.7419 -16.3746 1.6980
8.1310 -15.7088 1.6591
8.3505 -14.8030 1.5949
8.8728 -14.4852 1.5949
9.3828 -14.1485 1.5949
9.8797 -13.7936 1.5949
10.3629 -13.4208 1.5949
10.8319 -13.0308 1.5949
11.2860 -12.6241 1.5949
11.7245 -12.2013 1.5949
12.1470 -11.7631 1.5949
12.5529 -11.3100 1.5949
12.9416 -10.8428 1.5949
13.3803 -10.4145 1.6030
13.7351 -9.9183 1.6030
14.0714 -9.4100 1.6030
14.3886 -8.8901 1.6030
14.6864 -8.3595 1.6030
14.9644 -7.8189 1.6030
15.2225 -7.2690 1.6030
15.4601 -6.7106 1.6030
15.6772 -6.1444 1.6030
15.8734 -5.5713 1.6030
16.0485 -4.9919 1.6030
16.2024 -4.4072 1.6030
16.3350 -3.8178 1.6030
16.4461 -3.2245 1.6030
16.5356 -2.6282 1.6030
16.6035 -2.0297 1.6030
16.6497 -1.4296 1.6030
16.6743 -0.8288 1.6030
16.6773 -0.2282 1.6030
16.6587 0.3717 1.6030
16.6187 0.9699 1.6030
16.4826 1.5586 1.5958
8.7339 1.1442 0.8498
16.3710 2.7472 1.6030
16.2465 3.3313 1.6030
15.6139 3.7917 1.5545
15.4105 4.3351 1.5502
15.7042 5.0341 1.5984
15.4371 5.5686 1.5920
15.2643 6.1355 1.5973
15.0563 6.6909 1.6011
14.8115 7.2312 1.6030
14.2082 7.5814 1.5675
13.7310 7.9744 1.5468
13.7311 8.6498 1.5821
13.2615 9.0365 1.5657
12.8017 9.4151 1.5516
11.8892 9.4216 1.4822
11.4612 9.7740 1.4728
11.4668 10.5146 1.5222
11.0323 10.8724 1.5165
10.6010 11.2275 1.5127
9.7720 11.1257 1.4515
9.3607 11.4645 1.4516
9.3154 12.2863 1.5131
8.8710 12.6189 1.5145
8.4398 12.9741 1.5204
5.0350 8.3856 0.9612
4.6966 8.5009 0.9549
4.3643 8.6184 0.9502
4.0352 8.7348 0.9467
3.7082 8.8504 0.9445
3.3825 8.9656 0.9434
3.0574 9.0806 0.9436
2.7318 9.1957 0.9449
2.4051 9.3112 0.9475
2.0764 9.4275 0.9512
1.7446 9.5448 0.9562
1.4091 9.6634 0.9625
1.0691 9.7874 0.9705
0.7239 9.9263 0.9811
0.3667 9.9578 0.9822
0.0081 10.0467 0.9903
-0.3582 10.1763 1.0036
-0.7351 10.3095 1.0186
-1.1240 10.4470 1.0354
-1.5439 10.7100 1.0661
-1.9663 10.8570 1.0868
-2.4068 11.0127 1.1101
-2.8674 11.1756 1.1359
-3.3508 11.3465 1.1644
-3.9000 11.6457 1.2084
-4.4444 11.8382 1.2437
-4.9713 11.9195 1.2697
-5.5874 12.1468 1.3140
-5.6780 11.2579 1.2386
-5.8805 10.6849 1.1975
-6.3841 10.6717 1.2203
-6.6870 10.3163 1.2058
-7.3927 10.5527 1.2630
-8.2941 10.9764 1.3478
-9.0703 11.1458 1.4069
-10.1989 11.6499 1.5149
-11.1562 11.8542 1.5916
-11.3721 11.2439 1.5626
-12.0219 11.0597 1.5949
-12.4210 10.6276 1.5949
-12.8054 10.1818 1.5949
-13.1738 9.7220 1.5949
-13.5260 9.2491 1.5949
-13.8614 8.7636 1.5949
-14.1797 8.2660 1.5949
-14.4803 7.7571 1.5949
-15.7170 7.7051 1.6980
-15.9982 7.1409 1.6980
-13.2116 5.3356 1.3797
-16.5002 5.9827 1.6980
-16.7201 5.3901 1.6980
-16.9189 4.7894 1.6980
-17.0963 4.1815 1.6980
-17.2520 3.5670 1.6980
-17.3857 2.9468 1.6980
-17.4971 2.3215 1.6980
-17.5862 1.6921 1.6980
-17.6527 1.0593 1.6980
-17.6964 0.4239 1.6980
-16.6399 -0.2003 1.5948
-16.6379 -0.7996 1.5948
-16.6142 -1.3990 1.5948
-16.5690 -1.9977 1.5948
-16.5020 -2.5950 1.5948
-16.4134 -3.1900 1.5948
-16.3033 -3.7820 1.5948
-15.0810 -4.0754 1.4872
-13.8454 -4.2816 1.3784
-12.7752 -4.4602 1.2859
-11.8369 -4.6167 1.2063
-11.0056 -4.7555 1.1373
-10.2622 -4.8795 1.0770
-9.5917 -4.9914 1.0239
-8.9824 -5.0931 0.9770
-8.4571 -5.2060 0.9389
-8.0598 -5.3705 0.9149
-14.4292 -10.3831 1.6780
-6.9938 -5.4249 0.8349
-6.6184 -5.5263 0.8127
-13.2555 -11.9031 1.6780
-12.8186 -12.3722 1.6769
-5.5686 -5.7758 0.7547
-5.2357 -5.8369 0.7371
-4.8283 -5.7887 0.7082
-4.6394 -5.9876 0.7112
-6.1983 -8.6233 0.9966
-4.0586 -6.0980 0.6871
-3.7623 -6.1191 0.6734
-3.4903 -6.1631 0.6637
-3.2254 -6.2059 0.6551
-2.9710 -6.2566 0.6485
-2.6543 -6.1515 0.6271
-2.4124 -6.1945 0.6220
-2.2190 -6.3660 0.6306
-2.6679 -8.6426 0.8458
-4.6458 -17.2256 1.6681
-3.8476 -16.6229 1.5949
-3.2477 -16.7531 1.5949
-1.7834 -11.3763 1.0761
-2.0352 -16.9466 1.5949
-1.4244 -17.0096 1.5949
-0.8116 -17.0500 1.5949
-0.2106 -18.1709 1.6980
0.4431 -18.1657 1.6980
1.0962 -18.1362 1.6980
1.7476 -18.0827 1.6980
2.3965 -18.0051 1.6980
3.0420 -17.9037 1.6980
3.6831 -17.7785 1.6980
4.3191 -17.6297 1.6980
4.9489 -17.4576 1.6980
5.5718 -17.2625 1.6980
6.1869 -17.0446 1.6980
6.7933 -16.8042 1.6980
2.2376 -14.4326 1.6980
2.7548 -14.3402 1.6980
3.2681 -14.2288 1.6980
3.7769 -14.0988 1.6980
4.2804 -13.9502 1.6980
4.7781 -13.7832 1.6980
5.2691 -13.5981 1.6980
5.7528 -13.3952 1.6980
6.2287 -13.1748 1.6980
6.6959 -12.9372 1.6980
7.1539 -12.6827 1.6980
7.6021 -12.4117 1.6980
8.0399 -12.1246 1.6980
8.4667 -11.8218 1.6980
8.8462 -11.4573 1.6912
8.9753 -10.7982 1.6414
9.0985 -10.1781 1.5967
9.4426 -9.8275 1.5949
9.7842 -9.4759 1.5949
10.1126 -9.1122 1.5949
10.4273 -8.7371 1.5949
10.7280 -8.3510 1.5949
11.0142 -7.9544 1.5949
11.2857 -7.5480 1.5949
11.5419 -7.1322 1.5949
11.7828 -6.7077 1.5949
12.0079 -6.2750 1.5949
12.2170 -5.8347 1.5949
12.4099 -5.3875 1.5949
12.5864 -4.9339 1.5949
12.7462 -4.4745 1.5949
12.8891 -4.0100 1.5949
13.0151 -3.5410 1.5949
13.1239 -3.0681 1.5949
13.2826 -2.6051 1.6030
13.3573 -2.1238 1.6030
13.4147 -1.6406 1.6030
13.4545 -1.1560 1.6030
13.4768 -0.6707 1.6030
13.4817 -0.1852 1.6030
13.4692 0.2997 1.6030
13.4392 0.7836 1.6030
13.3919 1.2656 1.6030
8.6606 1.1341 1.0417
13.2460 2.2220 1.6030
13.1475 2.6951 1.6030
13.0323 3.1641 1.6030
12.9004 3.6282 1.6030
12.7522 4.0871 1.6030
12.5879 4.5401 1.6030
12.4076 4.9865 1.6030
12.2116 5.4260 1.6030
12.0003 5.8579 1.6030
11.7738 6.2817 1.6030
11.5326 6.6970 1.6030
11.2770 7.1031 1.6030
11.0072 7.4996 1.6030
10.7237 7.8861 1.6030
10.4269 8.2621 1.6030
10.1171 8.6271 1.6030
9.7947 8.9806 1.6030
9.4601 9.3223 1.6030
9.1139 9.6519 1.6030
8.7564 9.9688 1.6030
8.3881 10.2727 1.6030
8.0094 10.5632 1.6030
7.6209 10.8401 1.6030
5.8608 9.0089 1.3007
5.0353 8.3856 1.1842
4.6968 8.5009 1.1762
4.3645 8.6183 1.1704
4.0770 8.8250 1.1781
3.7083 8.8504 1.1632
3.3827 8.9655 1.1618
3.0575 9.0805 1.1620
2.7320 9.1956 1.1636
2.4052 9.3112 1.1667
2.0979 9.5249 1.1834
1.7627 9.6434 1.1896
1.4237 9.7633 1.1974
1.0691 9.7874 1.1949
0.7120 9.7626 1.1880
0.3504 9.5157 1.1557
0.0078 9.6849 1.1754
-0.3454 9.8098 1.1912
-0.7087 9.9382 1.2090
-1.0836 10.0708 1.2290
-1.5441 10.7101 1.3127
-1.9868 10.9692 1.3522
-2.4318 11.1266 1.3812
-2.8676 11.1757 1.3989
-3.3510 11.3466 1.4341
-3.9003 11.6458 1.4883
-4.4447 11.8383 1.5319
-4.9717 11.9197 1.5641
-5.5879 12.1470 1.6188
-5.6781 11.2574 1.5259
-5.8807 10.6845 1.4754
-6.3843 10.6712 1.5037
-6.6876 10.3164 1.4860
-7.3935 10.5529 1.5567
-7.9631 10.5375 1.5949
-8.3413 10.2493 1.5949
-8.7094 9.9477 1.5949
-9.0667 9.6331 1.5949
-9.4128 9.3059 1.5949
-9.7473 8.9664 1.5949
-10.0697 8.6150 1.5949
-10.3797 8.2522 1.5949
-10.6767 7.8784 1.5949
-10.9605 7.4940 1.5949
-11.3382 7.1675 1.6102
-12.2290 7.1281 1.6980
-12.4862 6.6881 1.6980
-12.7278 6.2388 1.6980
-12.9534 5.7810 1.6980
-13.1626 5.3150 1.6980
-13.3552 4.8415 1.6980
-13.5309 4.3611 1.6980
-13.6894 3.8744 1.6980
-13.8305 3.3819 1.6980
-13.9539 2.8843 1.6980
-14.0595 2.3822 1.6980
-14.1471 1.8762 1.6980
-14.2165 1.3671 1.6980
-14.2676 0.8554 1.6980
-14.3003 0.3417 1.6980
-14.3145 -0.1731 1.6980
-13.5127 -0.6502 1.6034
-13.4199 -1.1308 1.5949
-13.3808 -1.6141 1.5949
-13.3244 -2.0961 1.5949
-13.2505 -2.5761 1.5949
-13.1592 -3.0534 1.5949
-13.0506 -3.5275 1.5949
-12.9249 -3.9977 1.5949
-12.7737 -4.4604 1.5939
-11.8357 -4.6170 1.4955
-11.0045 -4.7557 1.4102
-10.2612 -4.8797 1.3357
-9.5908 -4.9916 1.2701
-8.9816 -5.0932 1.2121
-8.4242 -5.1862 1.1606
-7.9110 -5.2719 1.1146
-7.4357 -5.3512 1.0734
-6.9933 -5.4250 1.0364
-6.5793 -5.4941 1.0031
-6.1901 -5.5591 0.9731
-5.8366 -5.6338 0.9483
-5.5056 -5.7108 0.9268
-5.2315 -5.8325 0.9149
-4.8280 -5.7887 0.8798
-4.6394 -5.9881 0.8837
-5.9436 -8.2695 1.1876
-7.8333 -11.7700 1.6480
-5.7270 -9.3152 1.2741
-6.9302 -12.2380 1.6381
-6.4935 -12.4948 1.6396
-6.0743 -12.7927 1.6484
-2.6541 -6.1515 0.7796
-2.4123 -6.1945 0.7734
-2.2189 -6.3662 0.7841
-2.4937 -8.0785 0.9831
-3.5721 -13.2451 1.5949
-3.0938 -13.3670 1.5949
-2.6114 -13.4713 1.5949
-1.7858 -11.3923 1.3402
-1.6364 -13.6263 1.5949
-1.1453 -13.6769 1.5949
-0.6526 -13.7094 1.5949
-0.1591 -13.7237 1.5949
0.2336 -9.5779 1.1134
0.8813 -14.5833 1.6980
1.4051 -14.5406 1.6980
1.9270 -14.4787 1.6980
2.4461 -14.3977 1.6980
2.9618 -14.2977 1.6980
3.4734 -14.1788 1.6980
3.9802 -14.0412 1.6980
4.4814 -13.8852 1.6980
4.9765 -13.7109 1.6980
5.4646 -13.5186 1.6980
1.8694 -12.0586 1.6980
2.3016 -11.9818 1.6980
2.7305 -11.8892 1.6980
3.1558 -11.7810 1.6980
3.5767 -11.6573 1.6980
3.9926 -11.5183 1.6980
4.4032 -11.3642 1.6980
4.8077 -11.1953 1.6980
5.2056 -11.0117 1.6980
5.5965 -10.8138 1.6980
5.9797 -10.6018 1.6980
6.3548 -10.3760 1.6980
6.7213 -10.1368 1.6980
7.0802 -9.8865 1.6984
7.4289 -9.6225 1.6986
7.7663 -9.3443 1.6985
8.0931 -9.0542 1.6984
8.4091 -8.7525 1.6983
8.7146 -8.4406 1.6984
9.0069 -8.1166 1.6982
9.2873 -7.7826 1.6980
9.4382 -7.3477 1.6771
9.5045 -6.8648 1.6448
9.4958 -6.3516 1.6036
9.7470 -6.0237 1.6093
9.8628 -5.6153 1.5949
10.0524 -5.2538 1.5949
10.2286 -4.8858 1.5949
10.3913 -4.5118 1.5949
10.5403 -4.1325 1.5949
10.6754 -3.7483 1.5949
10.7965 -3.3597 1.5949
10.9033 -2.9672 1.5949
10.9958 -2.5713 1.5949
11.0740 -2.1726 1.5949
11.1377 -1.7716 1.5949
11.1869 -1.3689 1.5949
11.2215 -0.9649 1.5949
11.2415 -0.5602 1.5949
11.2470 -0.1552 1.5949
11.2379 0.2494 1.5949
11.2208 0.6535 1.5959
11.1882 1.0566 1.5966
8.6518 1.1324 1.2405
11.0800 1.8580 1.5982
11.0319 2.2608 1.6030
10.9365 2.6546 1.6030
10.8272 3.0445 1.6030
10.7040 3.4300 1.6030
10.5672 3.8106 1.6030
10.4170 4.1859 1.6030
10.2536 4.5554 1.6030
10.0773 4.9186 1.6030
9.8882 5.2750 1.6030
9.6866 5.6244 1.6030
9.4728 5.9661 1.6030
9.2471 6.2998 1.6030
9.0098 6.6251 1.6030
8.7612 6.9416 1.6030
8.5016 7.2489 1.6030
8.2315 7.5467 1.6030
7.9510 7.8346 1.6030
7.6606 8.1121 1.6030
7.3607 8.3791 1.6030
7.0516 8.6352 1.6030
6.7337 8.8801 1.6030
6.4075 9.1135 1.6030
5.8611 9.0088 1.5470
5.0356 8.3855 1.4084
4.6971 8.5008 1.3988
4.3648 8.6183 1.3917
4.0772 8.8249 1.4009
3.7468 8.9418 1.3974
3.4178 9.0581 1.3957
3.0576 9.0805 1.3816
2.7321 9.1956 1.3834
2.4053 9.3111 1.3871
0.7417 3.3672 0.4974
0.6198 3.3905 0.4972
0.4972 3.4097 0.4971
0.3741 3.4246 0.4970
0.2506 3.4353 0.4970
0.1267 3.4418 0.4969
0.0028 3.4440 0.4969
-0.1212 3.4420 0.4969
-0.2450 3.4358 0.4969
-0.3686 3.4254 0.4970
-0.4918 3.4107 0.4970
-0.6144 3.3918 0.4971
-0.7363 3.3688 0.4972
-2.8328 11.0392 1.6430
-3.2289 10.9324 1.6430
-3.6212 10.8115 1.6430
-4.0089 10.6769 1.6430
-4.3918 10.5285 1.6430
-4.6297 10.0633 1.5949
-4.9904 9.8932 1.5949
-5.3450 9.7104 1.5949
-5.6931 9.5152 1.5949
-6.0341 9.3076 1.5949
-6.3676 9.0880 1.5949
-6.6933 8.8565 1.5949
-7.0107 8.6136 1.5949
-7.3194 8.3595 1.5949
-7.6191 8.0944 1.5949
-7.9092 7.8187 1.5949
-8.1895 7.5327 1.5949
-8.4596 7.2368 1.5949
-8.7191 6.9314 1.5949
-9.2191 6.8021 1.6396
-9.8001 6.6999 1.6980
-10.0405 6.3465 1.6980
-10.2683 5.9845 1.6980
-10.4832 5.6144 1.6980
-10.6848 5.2367 1.6980
-10.8729 4.8518 1.6980
-11.0473 4.4601 1.6980
-11.2076 4.0623 1.6980
-11.3537 3.6587 1.6980
-11.4853 3.2498 1.6980
-11.6022 2.8363 1.6980
-11.7044 2.4186 1.6980
-11.7915 1.9972 1.6980
-11.8635 1.5727 1.6980
-11.9202 1.1456 1.6980
-11.9616 0.7164 1.6980
-11.9875 0.2858 1.6980
-11.9979 -0.1458 1.6980
-11.9928 -0.5777 1.6980
-11.5306 -0.9723 1.6354
-11.2112 -1.3530 1.5949
-11.1625 -1.7566 1.5949
-11.0992 -2.1585 1.5949
-11.0214 -2.5580 1.5949
-10.9292 -2.9547 1.5949
-10.8226 -3.3481 1.5949
-10.7017 -3.7375 1.5949
-10.5668 -4.1226 1.5949
-10.4179 -4.5028 1.5949
-10.2552 -4.8775 1.5949
-9.5899 -4.9917 1.5175
-8.9808 -5.0934 1.4484
-8.4235 -5.1864 1.3870
-7.9103 -5.2720 1.3321
-7.4351 -5.3513 1.2831
-6.9927 -5.4251 1.2390
-6.5788 -5.4942 1.1993
-6.1897 -5.5591 1.1635
-5.8223 -5.6204 1.1312
-5.4741 -5.6786 1.1021
-5.1426 -5.7339 1.0757
-4.8277 -5.7888 1.0523
-4.5240 -5.8395 1.0309
-4.2318 -5.8882 1.0116
-3.9498 -5.9353 0.9942
-3.6768 -5.9808 0.9787
-3.4140 -6.0292 0.9656
-3.1607 -6.0822 0.9550
-2.9120 -6.1331 0.9457
-2.6540 -6.1515 0.9330
-2.4121 -6.1945 0.9255
-2.2188 -6.3663 0.9384
-2.4937 -8.0790 1.1767
-2.9844 -11.0665 1.5949
-2.5848 -11.1681 1.5949
-2.1816 -11.2550 1.5949
-1.7756 -11.3271 1.5949
-1.3671 -11.3842 1.5949
-0.9568 -11.4264 1.5949
-0.5452 -11.4535 1.5949
-0.1329 -11.4655 1.5949
0.2324 -9.5303 1.3261
0.7362 -12.1839 1.6980
1.1739 -12.1484 1.6980
1.6099 -12.0970 1.6980
2.0436 -12.0296 1.6980
2.4745 -11.9464 1.6980
2.9021 -11.8475 1.6980
3.3256 -11.7331 1.6980
3.7446 -11.6032 1.6980
4.1585 -11.4581 1.6980
4.5667 -11.2980 1.6980
1.6038 -10.3461 1.6980
1.9746 -10.2804 1.6980
2.3427 -10.2012 1.6980
2.7076 -10.1087 1.6980
3.0688 -10.0028 1.6980
3.4259 -9.8839 1.6980
3.7783 -9.7521 1.6980
4.1258 -9.6081 1.6981
4.4682 -9.4524 1.6984
4.8046 -9.2843 1.6986
5.1346 -9.1042 1.6989
5.4579 -8.9123 1.6992
5.7732 -8.7075 1.6992
6.0808 -8.4916 1.6993
6.3806 -8.2653 1.6995
6.6719 -8.0283 1.6997
6.9539 -7.7804 1.6998
7.2255 -7.5213 1.6996
7.4874 -7.2526 1.6994
7.7392 -6.9749 1.6993
7.9806 -6.6882 1.6991
8.2113 -6.3932 1.6989
8.4310 -6.0901 1.6987
8.6394 -5.7794 1.6985
8.8364 -5.4616 1.6983
9.0216 -5.1371 1.6982
9.1950 -4.8063 1.6980
9.2329 -4.4108 1.6755
9.1455 -3.9715 1.6335
9.0613 -3.5532 1.5955
9.2635 -3.2531 1.6103
9.2801 -2.8884 1.5949
9.3728 -2.5512 1.5949
9.4532 -2.2111 1.5949
9.5212 -1.8686 1.5949
9.5769 -1.5239 1.5949
9.6200 -1.1777 1.5949
9.6506 -0.8304 1.5949
9.6697 -0.4824 1.5951
9.6804 -0.1342 1.5959
9.6787 0.2142 1.5968
9.6645 0.5623 1.5977
9.6368 0.9096 1.5984
8.6429 1.1308 1.4402
9.5439 1.5998 1.5997
9.4791 1.9420 1.6004
9.3963 2.2802 1.6002
9.2989 2.6142 1.5994
9.1896 2.9442 1.5987
9.0687 3.2697 1.5979
8.9363 3.5903 1.5972
8.7927 3.9057 1.5964
8.6378 4.2154 1.5956
8.4726 4.5193 1.5949
8.3005 4.8190 1.5949
8.1179 5.1122 1.5949
7.9251 5.3986 1.5949
7.7222 5.6778 1.5949
7.5097 5.9494 1.5949
7.3246 6.2448 1.6030
7.0923 6.5018 1.6030
6.8510 6.7502 1.6030
6.6012 6.9898 1.6030
6.3431 7.2203 1.6030
6.0771 7.4413 1.6030
5.8034 7.6528 1.6030
5.5225 7.8543 1.6030
5.2347 8.0456 1.6030
4.9404 8.2266 1.6030
4.6400 8.3969 1.6030
4.3337 8.5565 1.6030
4.0220 8.7050 1.6030
3.7054 8.8424 1.6030
3.3841 8.9684 1.6030
3.0578 9.0804 1.6026
2.7322 9.1955 1.6047
0.7472 2.8923 0.4998
0.6424 2.9163 0.4996
0.5368 2.9366 0.4995
0.4307 2.9533 0.4994
0.3240 2.9663 0.4994
0.2170 2.9756 0.4993
0.1098 2.9813 0.4993
0.0024 2.9832 0.4992
-0.1050 2.9815 0.4992
-0.2123 2.9761 0.4993
-0.3193 2.9669 0.4993
-0.4260 2.9541 0.4993
-0.5322 2.9377 0.4994
-0.6378 2.9176 0.4995
-0.7426 2.8938 0.4996
-2.7022 9.1483 1.5949
-3.0303 9.0469 1.5949
-3.3547 8.9339 1.5949
-3.6750 8.8094 1.5949
-3.9907 8.6736 1.5949
-4.3014 8.5267 1.5949
-4.6069 8.3688 1.5949
-4.9066 8.2001 1.5949
-5.2002 8.0208 1.5949
-5.4874 7.8311 1.5949
-5.7677 7.6312 1.5949
-6.0409 7.4215 1.5949
-6.3065 7.2020 1.5949
-6.5643 6.9732 1.5949
-6.8138 6.7352 1.5949
-7.0548 6.4885 1.5949
-7.6278 6.5246 1.6695
-7.9954 6.3554 1.6980
-8.2228 6.0664 1.6980
-8.4398 5.7693 1.6980
-8.6462 5.4645 1.6980
-8.8417 5.1524 1.6980
-9.0259 4.8334 1.6980
-9.1988 4.5078 1.6980
-9.3600 4.1760 1.6980
-9.5093 3.8386 1.6980
-9.6465 3.4958 1.6980
-9.7713 3.1482 1.6980
-9.8838 2.7961 1.6980
-9.9835 2.4400 1.6980
-10.0705 2.0804 1.6980
-10.1446 1.7176 1.6980
-10.2056 1.3523 1.6980
-10.2535 0.9848 1.6980
-10.2881 0.6156 1.6980
-10.3095 0.2452 1.6980
-10.3175 -0.1260 1.6980
-10.3122 -0.4974 1.6980
-10.2934 -0.8686 1.6980
-10.0614 -1.2149 1.6649
-9.5956 -1.5106 1.5949
-9.5404 -1.8559 1.5949
-9.4727 -2.1991 1.5949
-9.3926 -2.5399 1.5949
-9.3002 -2.8777 1.5949
-9.1955 -3.2121 1.5949
-9.0788 -3.5426 1.5949
-8.9501 -3.8690 1.5949
-8.8097 -4.1905 1.5949
-8.6576 -4.5070 1.5949
-8.4940 -4.8178 1.5949
-8.3192 -5.1227 1.5949
-7.9097 -5.2721 1.5511
-7.4346 -5.3514 1.4940
-6.9922 -5.4252 1.4428
-6.5783 -5.4943 1.3967
-6.1893 -5.5592 1.3551
-5.8219 -5.6205 1.3176
-5.4737 -5.6786 1.2837
-5.1423 -5.7339 1.2531
-4.8274 -5.7888 1.2259
-4.5237 -5.8395 1.2010
-4.2315 -5.8883 1.1786
-3.9496 -5.9353 1.1584
-3.6766 -5.9809 1.1404
-3.4115 -6.0251 1.1244
-3.1533 -6.0682 1.1103
-2.9010 -6.1103 1.0979
-2.6539 -6.1515 1.0873
-2.4120 -6.1946 1.0786
-2.2187 -6.3664 1.0937
-2.4937 -8.0794 1.3715
-2.5604 -9.4949 1.5949
-2.2175 -9.5819 1.5949
-1.8717 -9.6563 1.5949
-1.5233 -9.7181 1.5949
-1.1729 -9.7670 1.5949
-0.8209 -9.8031 1.5949
-0.4678 -9.8264 1.5949
-0.1141 -9.8367 1.5949
0.2312 -9.4828 1.5380
0.5932 -9.8186 1.5949
1.0070 -10.4229 1.6980
1.3811 -10.3789 1.6980
1.7533 -10.3213 1.6980
2.1230 -10.2502 1.6980
2.4899 -10.1656 1.6980
2.8534 -10.0677 1.6980
3.2130 -9.9566 1.6980
3.5682 -9.8324 1.6980
3.9186 -9.6954 1.6980
1.4030 -9.0518 1.6981
1.7276 -8.9951 1.6982
2.0498 -8.9266 1.6983
2.3693 -8.8463 1.6985
2.6856 -8.7545 1.6986
2.9984 -8.6513 1.6987
3.3071 -8.5367 1.6988
3.6115 -8.4109 1.6989
3.9110 -8.2743 1.6990
4.2058 -8.1279 1.6994
4.4952 -7.9710 1.6998
4.7787 -7.8037 1.7001
5.0559 -7.6262 1.7005
5.3262 -7.4385 1.7008
5.5886 -7.2399 1.7009
5.8427 -7.0311 1.7007
6.0890 -6.8132 1.7005
6.3272 -6.5867 1.7003
6.5568 -6.3519 1.7001
6.7777 -6.1089 1.7000
6.9895 -5.8582 1.6998
7.1920 -5.6001 1.6996
7.3849 -5.3350 1.6994
7.5680 -5.0632 1.6993
7.7411 -4.7852 1.6991
7.9038 -4.5011 1.6989
8.0561 -4.2116 1.6988
8.1978 -3.9168 1.6986
8.3287 -3.6174 1.6984
8.4487 -3.3135 1.6983
8.5575 -3.0057 1.6981
8.6552 -2.6944 1.6980
8.6426 -2.3530 1.6787
8.5139 -1.9920 1.6395
8.3910 -1.6473 1.6042
8.3920 -1.3359 1.5949
8.4325 -1.0329 1.5953
8.4637 -0.7288 1.5960
8.4840 -0.4238 1.5968
8.4934 -0.1182 1.5975
8.4919 0.1874 1.5983
8.4794 0.4928 1.5990
8.4555 0.7976 1.5997
8.4203 1.1012 1.6003
8.3719 1.4029 1.6004
8.3087 1.7017 1.5998
8.2349 1.9978 1.5992
8.1505 2.2908 1.5985
8.0555 2.5803 1.5978
7.9498 2.8658 1.5971
7.8340 3.1470 1.5963
7.7083 3.4236 1.5955
7.5743 3.6959 1.5949
7.4331 3.9644 1.5949
7.2826 4.2275 1.5949
7.1228 4.4850 1.5949
6.9539 4.7366 1.5949
6.7763 4.9818 1.5949
6.5901 5.2205 1.5949
6.3956 5.4523 1.5949
6.1930 5.6769 1.5949
5.9826 5.8941 1.5949
5.7647 6.1036 1.5949
5.5396 6.3051 1.5949
5.3074 6.4985 1.5949
5.0686 6.6834 1.5949
4.8235 6.8596 1.5949
4.5723 7.0270 1.5949
4.3154 7.1853 1.5949
4.0530 7.3343 1.5949
3.7856 7.4739 1.5949
3.5135 7.6038 1.5949
3.2369 7.7240 1.5949
2.9563 7.8343 1.5949
0.8406 2.4963 0.5018
0.7499 2.5239 0.5016
0.6584 2.5483 0.5015
0.5660 2.5695 0.5014
0.4730 2.5875 0.5013
0.3795 2.6023 0.5012
0.2855 2.6138 0.5011
0.1912 2.6221 0.5011
0.0967 2.6271 0.5010
0.0021 2.6288 0.5010
-0.0925 2.6273 0.5010
-0.1871 2.6225 0.5010
-0.2814 2.6144 0.5011
-0.3754 2.6031 0.5011
-0.4689 2.5885 0.5012
-0.5620 2.5706 0.5013
-0.6543 2.5496 0.5014
-0.7460 2.5254 0.5015
-2.6606 7.9426 1.5949
-2.9454 7.8432 1.5949
-3.2264 7.7337 1.5949
-3.5035 7.6142 1.5949
-3.7762 7.4850 1.5949
-4.0442 7.3461 1.5949
-4.3071 7.1977 1.5949
-4.5647 7.0401 1.5949
-4.8166 6.8733 1.5949
-5.0625 6.6976 1.5949
-5.3020 6.5132 1.5949
-5.5349 6.3203 1.5949
-5.8838 6.2498 1.6290
-6.3660 6.2920 1.6980
-6.5908 6.0612 1.6980
-6.8074 5.8223 1.6980
-7.0153 5.5758 1.6980
-7.2144 5.3219 1.6980
-7.4044 5.0610 1.6980
-7.5850 4.7933 1.6980
-7.7561 4.5192 1.6980
-7.9172 4.2391 1.6980
-8.0683 3.9533 1.6980
-8.2092 3.6621 1.6980
-8.3396 3.3659 1.6980
-8.4594 3.0651 1.6980
-8.5683 2.7600 1.6980
-8.6663 2.4511 1.6980
-8.7532 2.1388 1.6980
-8.8289 1.8233 1.6980
-8.8932 1.5052 1.6980
-8.9461 1.1849 1.6980
-8.9874 0.8626 1.6980
-9.0172 0.5390 1.6980
-9.0353 0.2143 1.6980
-9.0417 -0.1109 1.6980
-9.0364 -0.4364 1.6980
-9.0194 -0.7616 1.6980
-8.9906 -1.0861 1.6980
-8.9228 -1.4052 1.6928
-8.3578 -1.6263 1.5949
-8.2980 -1.9269 1.5949
-8.2273 -2.2252 1.5949
-8.1458 -2.5210 1.5949
-8.0536 -2.8137 1.5949
-7.9509 -3.1030 1.5949
-7.8377 -3.3886 1.5949
-7.7142 -3.6699 1.5949
-7.5806 -3.9468 1.5949
-7.4369 -4.2187 1.5949
-7.2834 -4.4854 1.5949
-7.1203 -4.7464 1.5949
-6.9478 -5.0015 1.5949
