ply
format ascii 1.0
element vertex 2156
property float32 x
property float32 y
property float32 z
end_header
19.5942 25.8995 -1.9094
23.0086 38.4159 -2.6244
17.3959 37.7718 -2.4303
2.9578 7.0828 -0.4482
2.7959 7.4378 -0.4637
13.2291 39.4499 -2.4269
10.3168 34.8851 -2.1208
9.8985 45.2164 -2.6965
5.3316 29.3827 -1.7393
6.4829 44.8704 -2.6401
-0.0250 44.1556 -2.5719
-2.9313 40.3090 -2.3555
-1.6963 15.5575 -0.9125
-6.0372 41.4539 -2.4438
-7.5575 41.3828 -2.4555
-10.5135 47.7668 -2.8569
-11.4110 44.1984 -2.6684
-11.8739 39.9836 -2.4402
-13.3956 39.7969 -2.4589
-14.4880 38.4089 -2.4062
-3.4908 8.3328 -0.5301
-3.8120 8.2523 -0.5340
-27.5203 21.7972 -2.1048
-26.9964 19.8431 -2.0126
-19.7002 13.4151 -1.4345
-25.8349 16.2626 -1.8411
-25.6698 14.8958 -1.7935
-25.2909 13.4827 -1.7356
-22.3919 10.9206 -1.5118
-21.9733 9.7533 -1.4619
-21.8113 8.7554 -1.4323
-21.4284 7.7179 -1.3910
-21.1463 6.7665 -1.3589
-20.9816 5.8897 -1.3367
-20.6849 5.0104 -1.3083
-20.6045 4.2117 -1.2957
-20.2894 3.3911 -1.2701
-14.2533 1.8574 -0.8895
-19.9003 1.8674 -1.2396
-19.7690 1.1389 -1.2307
-17.4444 0.3755 -1.0868
22.3876 -33.8186 -1.7183
17.9790 -25.1422 -1.3068
18.1270 -23.5110 -1.2525
19.1287 -23.0435 -1.2606
20.1493 -22.5670 -1.2705
21.1923 -22.0802 -1.2821
22.2550 -21.5751 -1.2953
23.3538 -21.0628 -1.3108
21.9777 -18.4305 -1.1924
24.9089 -19.4045 -1.3090
26.5104 -19.1587 -1.3522
27.3146 -18.2794 -1.3549
28.0172 -17.3221 -1.3539
30.3437 -17.2819 -1.4310
31.7837 -16.6155 -1.4652
33.0678 -15.7974 -1.4926
35.9069 -15.5913 -1.5893
36.5284 -14.3207 -1.5878
36.0810 -12.6660 -1.5425
35.6658 -11.0946 -1.5017
35.2793 -9.5954 -1.4651
34.9184 -8.1589 -1.4321
5.6355 -1.1044 -0.2286
34.4602 -5.4726 -1.3841
33.8180 -4.1283 -1.3468
33.2079 -2.8446 -1.3130
32.6618 -1.6158 -1.2838
32.1755 -0.4315 -1.2589
31.6981 0.7168 -1.2362
32.9902 1.9365 -1.2840
36.7326 3.4872 -1.4287
16.5268 4.0221 -0.6497
20.0465 22.8674 -1.1061
23.0079 38.4116 -1.6130
2.9597 7.0869 -0.2752
2.7961 7.4376 -0.2844
-1.6995 15.5838 -0.5602
-14.1512 42.0368 -1.5961
-3.8359 8.3031 -0.3308
-27.5193 21.7931 -1.3122
-26.9954 19.8393 -1.2561
-19.6993 13.4123 -0.8964
-26.0107 16.3705 -1.1597
-25.6827 14.9007 -1.1240
-25.1661 13.4137 -1.0831
-22.3912 10.9181 -0.9493
-22.1057 9.8099 -0.9247
-21.8107 8.7531 -0.9016
-21.5565 7.7620 -0.8820
-21.1767 6.7742 -0.8588
-20.9884 5.8898 -0.8450
-20.7046 5.0133 -0.8286
-20.6040 4.2098 -0.8208
-20.2935 3.3900 -0.8058
-14.2491 1.8557 -0.5647
-19.9774 1.8730 -0.7913
-19.7685 1.1371 -0.7836
-17.4440 0.3740 -0.6928
21.4570 -32.4166 -0.7706
18.2606 -25.5390 -0.6196
18.3445 -23.7959 -0.5903
19.3810 -23.3503 -0.5933
20.4397 -22.8952 -0.5970
21.5243 -22.4290 -0.6016
22.6386 -21.9499 -0.6069
23.7864 -21.4559 -0.6131
21.9726 -18.4289 -0.5457
24.9069 -19.4058 -0.5973
26.6372 -19.2533 -0.6179
27.3121 -18.2807 -0.6140
28.5955 -17.6826 -0.6240
27.8696 -15.8756 -0.5914
31.6766 -16.5627 -0.6546
33.3036 -15.9134 -0.6713
35.4813 -15.4099 -0.6986
35.2289 -13.8145 -0.6784
34.9869 -12.2852 -0.6600
34.7547 -10.8143 -0.6430
34.5305 -9.3948 -0.6274
34.3136 -8.0206 -0.6131
5.6355 -1.1049 -0.0992
34.5147 -5.4843 -0.5986
33.9130 -4.1428 -0.5805
33.3369 -2.8585 -0.5640
32.7834 -1.6246 -0.5488
32.2498 -0.4352 -0.5349
31.7339 0.7150 -0.5222
33.1897 1.9454 -0.5424
36.5485 3.4666 -0.5941
16.5251 4.0203 -0.2663
26.1667 22.3509 -0.4881
20.0211 22.8361 -0.4202
23.0067 38.4063 -0.6039
2.9580 7.0824 -0.1020
2.7962 7.4374 -0.1053
3.9557 11.7947 -0.1645
2.4247 11.0750 -0.1491
1.9791 10.9062 -0.1456
0.3581 10.1009 -0.1327
-1.7026 15.6103 -0.2073
-1.3540 9.2943 -0.1243
-1.6936 9.2712 -0.1250
-14.1434 42.0089 -0.5962
-3.4939 8.3383 -0.1227
-3.8364 8.3033 -0.1247
-27.3630 25.0736 -0.5426
-27.5182 21.7891 -0.5210
-26.9943 19.8356 -0.5011
-19.3475 13.1706 -0.3529
-26.0098 16.3672 -0.4670
-25.6819 14.8975 -0.4548
-25.1674 13.4118 -0.4404
-22.3905 10.9155 -0.3878
-22.1050 9.8075 -0.3796
-21.8100 8.7507 -0.3719
-21.5559 7.7598 -0.3656
-21.1762 6.7722 -0.3577
-20.9878 5.8877 -0.3536
-20.7040 5.0114 -0.3484
-20.6035 4.2078 -0.3468
-20.2975 3.3890 -0.3422
-14.2449 1.8539 -0.2408
-19.9770 1.8712 -0.3390
-19.7680 1.1354 -0.3373
-17.4435 0.3725 -0.2996
21.4629 -32.4293 0.1050
18.2646 -25.5475 0.0875
18.3429 -23.7966 0.0865
19.6417 -23.6673 0.0914
20.4379 -22.8960 0.0942
21.8139 -22.7336 0.0999
22.9431 -22.2481 0.1047
23.7842 -21.4568 0.1084
21.9697 -18.4290 0.1002
24.9046 -19.4069 0.1139
26.6347 -19.2545 0.1223
27.3095 -18.2819 0.1262
28.5927 -17.6839 0.1332
27.8737 -15.8808 0.1310
32.3302 -16.9077 0.1536
33.5295 -16.0246 0.1611
35.4769 -15.4114 0.1727
35.4886 -13.9197 0.1751
35.2454 -12.3792 0.1765
35.0120 -10.8976 0.1781
34.7870 -9.4678 0.1799
34.5692 -8.0834 0.1819
5.6356 -1.1054 0.0302
34.5162 -5.4875 0.1885
34.3331 -4.1971 0.1913
33.7498 -2.8968 0.1919
33.1895 -1.6476 0.1928
32.6493 -0.4434 0.1938
31.7351 0.7123 0.1927
34.4504 2.0164 0.2142
36.5399 3.4627 0.2327
16.5234 4.0185 0.1167
25.8662 22.0915 0.2836
22.0857 20.2830 0.2528
18.8741 18.6302 0.2259
16.6429 17.6557 0.2088
14.6093 16.6618 0.1925
22.7930 30.1193 0.3338
24.9094 38.3732 0.4104
23.0054 38.4010 0.4043
20.0632 36.4027 0.3777
5.8658 12.7336 0.1288
16.5250 43.9512 0.4351
3.9719 11.8421 0.1162
1.9874 10.9516 0.1045
0.3595 10.1416 0.0953
-1.7058 15.6367 0.1466
-1.3597 9.3323 0.0876
-1.7188 9.4082 0.0885
-14.1368 41.9843 0.4018
-3.5084 8.3720 0.0813
-3.8369 8.3035 0.0813
-28.6225 28.1862 0.3217
-27.3655 25.0724 0.2932
-27.5171 21.7850 0.2695
-26.9933 19.8318 0.2533
-19.6976 13.4068 0.1774
-26.0089 16.3639 0.2251
-25.6673 14.8864 0.2137
-25.1145 13.3811 0.2014
-22.2189 10.8297 0.1718
-21.8955 9.7124 0.1635
-21.6429 8.6816 0.1561
-21.3382 7.6794 0.1489
-21.1259 6.7541 0.1427
-20.9873 5.8857 0.1373
-20.6549 4.9976 0.1310
-20.3860 4.1616 0.1255
-20.2196 3.3742 0.1208
-14.2408 1.8521 0.0827
-19.7661 1.8498 0.1116
-19.6167 1.1251 0.1078
-17.2856 0.3677 0.0925
21.4687 -32.4419 0.9813
18.2686 -25.5562 0.7952
16.2007 -21.0201 0.6742
14.6059 -17.6015 0.5832
13.3968 -15.0099 0.5150
12.4464 -12.9728 0.4620
11.6780 -11.3257 0.4197
11.0423 -9.9631 0.3853
10.5063 -8.8144 0.3568
10.0473 -7.8305 0.3329
9.9123 -7.1668 0.3211
27.3069 -18.2831 0.8665
28.5898 -17.6851 0.8904
27.8778 -15.8860 0.8538
32.3271 -16.9093 0.9754
33.5297 -16.0280 0.9983
35.4732 -15.4132 1.0439
35.4849 -13.9216 1.0338
35.2428 -12.3815 1.0180
25.9615 -8.0830 0.7446
26.2012 -7.1334 0.7472
34.5689 -8.0864 0.9817
5.6357 -1.1059 0.1596
34.5176 -5.4907 0.9759
34.3345 -4.2003 0.9705
33.7512 -2.8998 0.9551
33.1908 -1.6505 0.9414
32.6505 -0.4462 0.9295
31.7362 0.7097 0.9079
33.1756 1.9390 0.9549
36.5313 3.4589 1.0593
16.5217 4.0167 0.4998
35.2606 22.2393 1.2699
34.8803 23.7975 1.2908
34.3602 25.3031 1.3088
25.4021 21.6926 1.0311
22.0865 20.2813 0.9284
18.8764 18.6305 0.8235
16.6435 17.6545 0.7554
14.6098 16.6607 0.6917
23.4321 28.7474 1.1606
22.7933 30.1168 1.1847
22.1296 31.5394 1.2112
21.4378 33.0222 1.2402
20.7141 34.5734 1.2721
19.9542 36.2020 1.3070
19.1534 37.9187 1.3454
5.8664 12.7339 0.4447
17.4047 41.6668 1.4341
16.4426 43.7290 1.4855
3.9722 11.8422 0.3976
2.4712 11.2860 0.3686
1.9875 10.9515 0.3552
0.3594 10.1415 0.3239
-0.0272 45.4143 1.4492
-1.6769 45.7662 1.4607
-3.3263 45.7058 1.4608
-1.7089 15.6633 0.5018
-1.3599 9.3322 0.3001
-1.7192 9.4090 0.3040
-9.0699 41.1875 1.3389
-13.8528 46.6258 1.5397
-14.1301 41.9599 1.3992
-3.2686 8.6615 0.2920
-3.5088 8.3718 0.2858
-3.8374 8.3037 0.2874
-18.0097 16.4984 0.7432
-17.5049 14.9127 0.6972
-27.5160 21.7810 1.0601
-26.9923 19.8280 1.0079
-19.6967 13.4041 0.7141
-25.7015 16.1677 0.9065
-25.6664 14.8833 0.8821
-25.2877 13.4708 0.8483
-22.3892 10.9105 0.7343
-22.0905 9.7968 0.7093
-21.8088 8.7461 0.6867
-21.5419 7.7507 0.6660
-21.2678 6.7976 0.6466
-20.9867 5.8836 0.6283
-20.7858 5.0275 0.6136
-20.5902 4.2015 0.6001
-20.3748 3.3983 0.5871
-14.2366 1.8504 0.4061
-19.9641 1.8666 0.5645
-19.7671 1.1320 0.5547
-17.4426 0.3696 0.4864
13.8820 -20.9799 1.2019
18.2725 -25.5647 1.5041
16.2037 -21.0265 1.2730
14.6082 -17.6064 1.0993
13.3986 -15.0138 0.9689
12.4479 -12.9761 0.8676
11.6792 -11.3285 0.7868
11.0434 -9.9654 0.7209
10.5073 -8.8164 0.6662
10.0482 -7.8323 0.6203
9.6496 -6.9779 0.5811
9.2994 -6.2273 0.5475
8.9886 -5.5611 0.5184
8.7101 -4.9643 0.4929
8.4587 -4.4253 0.4705
8.2299 -3.9349 0.4508
30.5719 -13.2865 1.6515
30.9491 -12.1450 1.6515
31.2837 -10.9935 1.6515
31.5752 -9.8337 1.6515
31.8237 -8.6670 1.6515
30.9739 -7.2482 1.5971
5.6358 -1.1065 0.2891
31.2467 -4.9731 1.5971
31.3212 -3.8343 1.5971
31.3533 -2.6965 1.5970
31.3325 -1.5607 1.5963
31.2630 -0.4298 1.5952
31.1715 0.6944 1.5950
31.0839 1.8141 1.5970
31.0133 2.9338 1.6020
30.9412 4.0559 1.6089
31.5091 5.2908 1.6515
31.2191 6.4060 1.6515
16.5200 4.0149 0.8832
30.0988 8.4739 1.6284
29.7023 9.5294 1.6284
30.7657 11.1078 1.7116
30.6269 12.3218 1.7315
30.0945 13.3864 1.7315
29.5270 14.4294 1.7315
28.9252 15.4499 1.7315
28.2899 16.4468 1.7315
27.6221 17.4191 1.7315
26.0979 17.8031 1.6785
24.6332 18.1377 1.6284
23.9184 18.9771 1.6284
23.1769 19.7900 1.6283
21.7542 19.9739 1.5807
18.8797 18.6317 1.4220
16.5339 17.5363 1.2942
14.6103 16.6596 1.1916
20.0801 24.6327 1.7115
19.1537 25.3055 1.7115
18.2063 25.9456 1.7115
17.2391 26.5525 1.7115
16.2533 27.1258 1.7115
15.2498 27.6649 1.7115
13.8941 27.5046 1.6711
5.8669 12.7342 0.7610
11.1259 26.6336 1.5680
4.6186 12.2823 0.7133
3.9725 11.8424 0.6794
8.8818 30.0241 1.7040
7.8186 30.4180 1.7099
2.4712 11.2859 0.6292
1.9876 10.9515 0.6064
4.0707 28.1710 1.5509
3.0927 28.6641 1.5710
2.0843 29.1210 1.5909
0.3594 10.1415 0.5529
-0.0136 22.4825 1.2247
-0.9868 26.9245 1.4673
-1.9777 27.1700 1.4830
-1.7121 15.6901 0.8588
-1.3600 9.3321 0.5129
-1.7196 9.4098 0.5199
-6.7782 30.7770 1.7115
-7.8888 30.5375 1.7115
-8.9917 30.2607 1.7115
-10.0858 29.9466 1.7115
-3.2638 8.6478 0.5001
-3.5091 8.3717 0.4906
-3.8380 8.3039 0.4938
-13.6518 26.9442 1.6283
-14.6338 26.4717 1.6283
-15.6007 25.9654 1.6283
-17.6008 27.0381 1.7315
-18.5933 26.4293 1.7315
-19.5662 25.7859 1.7315
-20.5183 25.1085 1.7315
-21.4485 24.3977 1.7315
-22.3556 23.6541 1.7315
-23.2385 22.8782 1.7315
-18.0095 16.4959 1.2942
-17.5078 14.9131 1.2162
-24.1987 19.1523 1.6284
-24.9274 18.3084 1.6284
-19.6140 13.3457 1.2463
-25.3492 15.9435 1.5696
-25.6697 14.8825 1.5516
-25.2869 13.4679 1.4945
-22.3885 10.9080 1.2960
-22.2062 9.8460 1.2610
-21.8082 8.7438 1.2166
-21.5878 7.7652 1.1850
-20.5373 6.5622 1.1107
-20.5448 5.7579 1.0964
-20.5798 4.9758 1.0851
-20.6341 4.2086 1.0764
-20.3743 3.3965 1.0530
-14.2324 1.8486 0.7297
-20.0067 1.8689 1.0189
-19.7667 1.1303 1.0013
-17.4421 0.3681 0.8799
12.7525 -19.2751 1.6265
13.4215 -18.7800 1.6265
14.0708 -18.2610 1.6265
10.1116 -12.1885 1.1189
13.4005 -15.0178 1.4240
12.4495 -12.9794 1.2742
11.6805 -11.3312 1.1547
11.0445 -9.9678 1.0572
10.5082 -8.8185 0.9764
10.0490 -7.8341 0.9083
9.6503 -6.9795 0.8504
9.3001 -6.2288 0.8006
8.9892 -5.5624 0.7574
8.7107 -4.9655 0.7196
8.4592 -4.4264 0.6864
8.2304 -3.9359 0.6570
20.4286 -8.8802 1.6071
19.9483 -7.8300 1.5489
20.1565 -7.0851 1.5471
20.3612 -6.3431 1.5471
20.5384 -5.5954 1.5471
20.6883 -4.8431 1.5471
5.6358 -1.1070 0.4190
22.3163 -3.5538 1.6515
22.3881 -2.7427 1.6515
22.4306 -1.9310 1.6515
22.4438 -1.1199 1.6515
22.4281 -0.3103 1.6515
22.3834 0.4967 1.6515
21.1648 1.2334 1.5667
21.1177 1.9959 1.5704
21.7677 2.8516 1.6283
21.6144 3.6275 1.6284
21.4320 4.3959 1.6284
16.4470 3.9957 1.2620
20.9872 5.9069 1.6284
22.0378 7.0685 1.7315
21.7328 7.8446 1.7315
21.4012 8.6083 1.7315
21.0436 9.3585 1.7315
20.6605 10.0946 1.7315
20.2526 10.8157 1.7315
19.8204 11.5210 1.7315
19.3644 12.2098 1.7315
18.8855 12.8812 1.7315
18.3841 13.5346 1.7315
17.2066 13.6501 1.6681
16.2861 13.9045 1.6284
15.7554 14.4644 1.6284
15.2063 15.0049 1.6284
14.6394 15.5254 1.6284
14.0556 16.0255 1.6284
13.9484 17.1091 1.6881
13.2914 17.5588 1.6857
12.5676 17.9083 1.6762
11.9539 18.4104 1.6832
11.2914 18.8431 1.6858
7.4242 13.4673 1.1810
6.6099 13.0839 1.1265
5.8675 12.7344 1.0782
5.1861 12.4137 1.0351
4.5572 12.1183 0.9966
3.9728 11.8425 0.9620
3.4924 11.8048 0.9484
5.3752 20.9107 1.6638
2.4713 11.2857 0.8906
1.9877 10.9514 0.8581
3.1382 21.7168 1.6919
2.3737 21.9995 1.7062
1.5845 22.1396 1.7115
0.3593 10.1415 0.7824
-0.0136 22.2009 1.7115
-0.8136 22.1904 1.7115
-1.6128 22.1526 1.7115
-1.7153 15.7169 1.2179
-1.3602 9.3320 0.7262
-1.7199 9.4106 0.7363
-4.7859 21.7278 1.7115
-5.5687 21.5537 1.7115
-2.6597 8.9498 0.7174
-2.9608 8.7902 0.7122
-3.2638 8.6468 0.7091
-3.5094 8.3715 0.6959
-3.8385 8.3041 0.7007
-9.6181 18.9807 1.6283
-10.3059 18.6406 1.6284
-10.9822 18.2766 1.6284
-11.6464 17.8889 1.6284
-13.0758 18.5843 1.7315
-13.7531 18.1228 1.7315
-14.4148 17.6375 1.7315
-15.0602 17.1288 1.7315
-15.6883 16.5974 1.7315
-16.2984 16.0436 1.7315
-16.8896 15.4681 1.7315
-17.4613 14.8714 1.7315
-18.0127 14.2542 1.7315
-18.5429 13.6171 1.7315
-18.8515 12.8248 1.7134
-18.3740 11.5544 1.6284
-18.8090 10.9030 1.6284
-19.2216 10.2355 1.6284
-19.6111 9.5528 1.6284
-19.9769 8.8556 1.6284
-20.3183 8.1445 1.6284
-20.6350 7.4206 1.6284
-20.2096 6.4556 1.5727
-19.9288 5.5834 1.5314
-20.4657 4.9464 1.5551
-20.5938 4.1986 1.5495
-20.3749 3.3948 1.5200
-14.1526 1.8370 1.0483
-19.9632 1.8631 1.4700
-19.7662 1.1286 1.4488
-17.4416 0.3666 1.2743
9.6445 -14.5791 1.6265
10.1536 -14.2090 1.6265
9.1867 -11.9239 1.4033
10.1252 -12.2064 1.4800
11.5909 -12.9915 1.6265
12.0380 -12.5521 1.6265
11.6818 -11.3340 1.5240
11.0456 -9.9702 1.3948
10.5092 -8.8206 1.2876
10.0499 -7.8360 1.1974
9.6511 -6.9812 1.1206
9.3008 -6.2303 1.0545
8.9898 -5.5638 0.9972
8.7113 -4.9668 0.9471
8.4597 -4.4276 0.9030
8.2308 -3.9370 0.8640
15.9718 -6.9444 1.6515
16.1891 -6.3560 1.6515
16.3847 -5.7609 1.6515
16.5583 -5.1599 1.6515
16.7097 -4.5538 1.6515
16.8391 -3.9435 1.6515
5.6359 -1.1075 0.5492
17.0306 -2.7135 1.6515
17.0928 -2.0955 1.6515
16.9679 -1.4622 1.6356
16.6746 -0.8334 1.6057
16.3922 -0.2282 1.5789
16.8780 0.3731 1.6283
16.8299 0.9794 1.6283
16.7603 1.5827 1.6283
16.6693 2.1823 1.6283
16.5572 2.7774 1.6283
16.4241 3.3674 1.6283
16.2704 3.9514 1.6283
17.1169 4.8161 1.7315
16.9103 5.4224 1.7315
16.6826 6.0203 1.7315
16.4343 6.6090 1.7315
16.1656 7.1878 1.7315
15.8771 7.7560 1.7315
15.5691 8.3131 1.7315
15.2420 8.8583 1.7315
14.8963 9.3911 1.7315
14.5326 9.9108 1.7315
14.1512 10.4169 1.7315
13.7527 10.9088 1.7315
13.3377 11.3859 1.7315
12.4561 11.4342 1.6711
11.7184 11.5619 1.6284
11.2844 11.9661 1.6284
10.8370 12.3546 1.6284
10.3768 12.7269 1.6284
9.9041 13.0827 1.6284
9.4198 13.4216 1.6284
8.9243 13.7432 1.6284
8.6897 14.5002 1.6810
7.4250 13.4676 1.5301
6.6106 13.0843 1.4593
5.8680 12.7347 1.3965
5.1865 12.4139 1.3405
4.5573 12.1177 1.2904
3.9731 11.8426 1.2455
3.4278 11.5860 1.2051
2.9165 11.3453 1.1686
2.4348 11.1185 1.1357
1.9791 10.9040 1.1059
1.5463 10.7002 1.0790
1.1336 10.5060 1.0547
0.7386 10.3200 1.0327
0.3593 10.1415 1.0128
-0.0062 9.9718 0.9951
-0.3602 9.8212 0.9806
-0.7044 9.6736 0.9675
-1.0401 9.5284 0.9559
-1.3604 9.3319 0.9402
-1.7203 9.4114 0.9535
-3.6960 16.7776 1.7115
-4.2999 16.6410 1.7115
-4.8991 16.4834 1.7115
-5.4926 16.3050 1.7115
-3.2644 8.6473 0.9189
-3.5098 8.3714 0.9019
-3.8390 8.3043 0.9084
-7.4187 14.6388 1.6283
-7.9474 14.3731 1.6283
-8.4669 14.0890 1.6284
-8.9767 13.7866 1.6284
-9.4760 13.4664 1.6284
-9.9643 13.1286 1.6284
-11.1017 13.5819 1.7315
-11.5953 13.1863 1.7315
-12.0752 12.7733 1.7315
-12.5408 12.3431 1.7315
-12.9915 11.8964 1.7315
-13.4267 11.4336 1.7315
-13.8459 10.9552 1.7315
-14.2484 10.4618 1.7315
-14.6338 9.9538 1.7315
-15.0014 9.4320 1.7315
-15.3508 8.8968 1.7315
-15.6815 8.3488 1.7315
-15.9929 7.7888 1.7315
-16.2293 7.1927 1.7256
-15.8355 6.3461 1.6561
-15.8067 5.6828 1.6284
-16.0232 5.1169 1.6284
-16.2196 4.5428 1.6284
-16.3956 3.9612 1.6284
-16.5509 3.3729 1.6284
-16.6853 2.7786 1.6284
-14.1359 1.8336 1.3703
-16.8900 1.5748 1.6284
-16.9599 0.9669 1.6284
-17.0080 0.3560 1.6284
7.7480 -11.7136 1.6265
8.1584 -11.4184 1.6265
8.5574 -11.1084 1.6265
8.9444 -10.7842 1.6265
9.3189 -10.4463 1.6265
6.8214 -7.1136 1.1461
7.3234 -7.1063 1.1878
8.1029 -7.3150 1.2718
10.5102 -8.8226 1.6003
10.0507 -7.8378 1.4878
9.6518 -6.9828 1.3920
9.3014 -6.2318 1.3096
8.9904 -5.5651 1.2381
8.7119 -4.9680 1.1756
8.4603 -4.4287 1.1206
8.2313 -3.9380 1.0719
12.8782 -5.6006 1.6515
13.0569 -5.1275 1.6515
13.2182 -4.6487 1.6515
13.3618 -4.1650 1.6515
13.4877 -3.6769 1.6515
13.5957 -3.1852 1.6515
5.6360 -1.1080 0.6801
13.5727 -2.1638 1.6293
13.3189 -1.6340 1.5926
13.6529 -1.1777 1.6283
13.6706 -0.6845 1.6283
13.6706 -0.1915 1.6283
13.6530 0.3007 1.6283
13.6177 0.7913 1.6283
13.5650 1.2798 1.6283
13.4948 1.7655 1.6283
13.4075 2.2479 1.6283
13.3470 2.7353 1.6336
14.0178 3.4032 1.7315
13.8712 3.9017 1.7315
13.7071 4.3941 1.7315
13.5259 4.8799 1.7315
13.3276 5.3585 1.7315
13.1128 5.8292 1.7315
12.8817 6.2916 1.7315
12.6345 6.7450 1.7315
12.3717 7.1890 1.7315
12.0937 7.6231 1.7315
11.8008 8.0466 1.7315
11.4933 8.4593 1.7315
11.1718 8.8604 1.7315
10.8367 9.2497 1.7315
10.4883 9.6267 1.7315
10.1272 9.9908 1.7315
9.4523 10.0222 1.6780
8.8107 10.0435 1.6284
8.4376 10.3476 1.6284
8.0543 10.6382 1.6284
7.6613 10.9151 1.6284
7.2591 11.1779 1.6284
6.8482 11.4263 1.6283
6.4290 11.6600 1.6283
6.0021 11.8789 1.6283
5.5680 12.0826 1.6283
5.1272 12.2709 1.6283
4.5577 12.1178 1.5856
3.9734 11.8428 1.5303
3.4281 11.5861 1.4806
2.9167 11.3454 1.4357
2.4350 11.1186 1.3952
1.9792 10.9041 1.3586
1.5463 10.7003 1.3255
1.1336 10.5060 1.2956
0.7386 10.3200 1.2685
0.3592 10.1414 1.2441
-0.0063 9.9694 1.2222
-0.3596 9.8031 1.2024
-0.7022 9.6418 1.1848
-1.0355 9.4849 1.1691
-1.3606 9.3319 1.1552
-1.6860 9.2222 1.1481
-1.9996 9.0759 1.1378
-2.3082 8.9319 1.1290
-2.6127 8.7898 1.1218
-2.9140 8.6493 1.1160
-3.2129 8.5099 1.1117
-3.5101 8.3712 1.1088
-3.8395 8.3045 1.1170
-6.0332 11.9034 1.6283
-6.4622 11.6857 1.6283
-6.8836 11.4530 1.6284
-7.2968 11.2054 1.6284
-7.7014 10.9432 1.6284
-8.0969 10.6669 1.6284
-8.4826 10.3765 1.6284
-9.4189 10.7100 1.7315
-9.8069 10.3725 1.7315
-10.1830 10.0211 1.7315
-10.5468 9.6564 1.7315
-10.8978 9.2788 1.7315
-11.2356 8.8886 1.7315
-11.5597 8.4863 1.7315
-11.8696 8.0724 1.7315
-12.1650 7.6473 1.7315
-12.4454 7.2116 1.7315
-12.7104 6.7657 1.7315
-12.9596 6.3102 1.7315
-13.1927 5.8457 1.7315
-13.4094 5.3726 1.7315
-13.6093 4.8915 1.7315
-13.7921 4.4031 1.7315
-13.9575 3.9079 1.7315
-14.1052 3.4066 1.7315
-14.2273 2.8981 1.7306
-13.9590 2.3233 1.6847
-13.7072 1.7768 1.6437
-13.6507 1.2716 1.6284
-13.7036 0.7801 1.6284
-13.7387 0.2864 1.6284
6.4690 -9.7812 1.6265
6.8126 -9.5358 1.6265
7.1467 -9.2782 1.6265
7.4709 -9.0087 1.6265
7.7848 -8.7276 1.6265
7.0137 -7.3151 1.4105
7.9268 -7.6928 1.5386
8.6605 -7.8195 1.6265
8.9292 -7.4966 1.6265
9.1857 -7.1643 1.6265
9.4297 -6.8232 1.6265
9.3021 -6.2332 1.5661
8.9911 -5.5665 1.4803
8.7124 -4.9692 1.4053
8.4608 -4.4298 1.3393
8.2318 -3.9391 1.2810
10.7792 -4.6888 1.6515
10.9307 -4.2936 1.6515
11.0677 -3.8935 1.6515
10.6156 -3.3100 1.5667
10.7175 -2.9227 1.5667
11.1965 -2.6241 1.6235
5.6361 -1.1085 0.8117
11.3678 -1.8133 1.6283
11.4146 -1.4013 1.6283
11.4464 -0.9884 1.6283
11.4634 -0.5749 1.6283
11.4655 -0.1616 1.6283
11.4528 0.2512 1.6283
11.4253 0.6629 1.6283
11.3831 1.0730 1.6283
11.3263 1.4808 1.6283
11.2550 1.8860 1.6283
11.8776 2.4332 1.7315
11.7714 2.8568 1.7315
11.6503 3.2759 1.7315
11.5144 3.6902 1.7315
11.3640 4.0989 1.7315
11.1992 4.5017 1.7315
11.0204 4.8981 1.7315
10.8278 5.2875 1.7315
10.6217 5.6695 1.7315
10.4023 6.0437 1.7315
10.1700 6.4095 1.7315
9.9250 6.7667 1.7315
9.6678 7.1147 1.7315
9.3985 7.4531 1.7315
9.1177 7.7816 1.7315
8.8257 8.0997 1.7315
8.5228 8.4071 1.7315
8.2094 8.7035 1.7315
7.8860 8.9884 1.7315
7.3868 9.0581 1.6935
6.7813 8.9559 1.6284
6.4510 9.1899 1.6284
6.1128 9.4120 1.6284
5.7672 9.6219 1.6284
5.4146 9.8195 1.6284
5.0554 10.0045 1.6284
4.6900 10.1767 1.6284
4.3190 10.3359 1.6283
3.9427 10.4820 1.6283
3.5616 10.6147 1.6283
3.1761 10.7339 1.6283
2.7868 10.8395 1.6283
0.7375 3.3675 0.5016
0.6155 3.3907 0.5015
0.4928 3.4097 0.5014
0.3695 3.4245 0.5013
0.2458 3.4350 0.5012
0.1219 3.4413 0.5011
-0.0022 3.4434 0.5011
-0.1263 3.4413 0.5010
-0.2502 3.4349 0.5010
-0.3739 3.4242 0.5010
-0.4972 3.4094 0.5011
-0.6199 3.3903 0.5011
-0.7419 3.3671 0.5011
-2.3085 8.9318 1.3405
-2.6130 8.7897 1.3320
-2.9143 8.6492 1.3252
-3.2132 8.5097 1.3202
-3.5104 8.3711 1.3169
-3.8401 8.3047 1.3268
-5.0795 10.0206 1.6283
-5.4401 9.8364 1.6283
-5.7943 9.6394 1.6283
-6.1414 9.4300 1.6284
-6.4812 9.2083 1.6284
-6.8132 8.9746 1.6284
-7.1369 8.7292 1.6284
-7.4519 8.4723 1.6284
-8.2490 8.7236 1.7315
-8.5642 8.4270 1.7315
-8.8689 8.1191 1.7315
-9.1628 7.8004 1.7315
-9.4454 7.4712 1.7315
-9.7164 7.1320 1.7315
-9.9753 6.7830 1.7315
-10.2219 6.4247 1.7315
-10.4558 6.0576 1.7315
-10.6767 5.6821 1.7315
-10.8842 5.2986 1.7315
-11.0781 4.9076 1.7315
-11.2581 4.5096 1.7315
-11.4239 4.1050 1.7315
-11.5753 3.6943 1.7315
-11.7120 3.2781 1.7315
-11.8338 2.8569 1.7315
-11.9406 2.4312 1.7315
-12.0321 2.0016 1.7315
-12.1081 1.5685 1.7315
-12.1687 1.1325 1.7315
-12.2135 0.6942 1.7315
-12.2425 0.2542 1.7315
5.5474 -8.3887 1.6265
5.8425 -8.1791 1.6265
6.1296 -7.9588 1.6265
6.4083 -7.7284 1.6265
6.6783 -7.4881 1.6265
6.9390 -7.2382 1.6265
7.1904 -6.9791 1.6265
7.4319 -6.7112 1.6265
7.6634 -6.4348 1.6265
7.8844 -6.1503 1.6265
8.0948 -5.8582 1.6265
8.2943 -5.5588 1.6265
8.4826 -5.2526 1.6265
8.6595 -4.9400 1.6265
8.4613 -4.4310 1.5595
8.2323 -3.9401 1.4914
9.2601 -4.0289 1.6515
9.3915 -3.6899 1.6515
9.3766 -3.2995 1.6283
9.4814 -2.9572 1.6283
9.5738 -2.6117 1.6283
9.6535 -2.2634 1.6283
5.6361 -1.1090 0.9441
9.7749 -1.5600 1.6283
9.8164 -1.2060 1.6283
9.8452 -0.8510 1.6283
9.8611 -0.4954 1.6283
9.8642 -0.1399 1.6283
9.8546 0.2153 1.6283
9.8322 0.5696 1.6283
9.7971 0.9226 1.6283
9.7643 1.2758 1.6307
10.3038 1.7258 1.7315
10.2267 2.0941 1.7315
10.1365 2.4591 1.7315
10.0335 2.8204 1.7315
9.9176 3.1776 1.7315
9.7892 3.5301 1.7315
9.6485 3.8775 1.7315
9.4955 4.2194 1.7315
9.3306 4.5555 1.7315
9.1540 4.8852 1.7315
8.9659 5.2083 1.7315
8.7665 5.5242 1.7315
8.5563 5.8327 1.7315
8.3353 6.1332 1.7315
8.1040 6.4256 1.7315
7.8625 6.7095 1.7315
7.6114 6.9845 1.7315
7.3508 7.2502 1.7315
7.0811 7.5064 1.7315
6.8026 7.7528 1.7315
6.5158 7.9891 1.7315
6.2209 8.2150 1.7315
5.8579 8.3443 1.7139
5.2745 8.1205 1.6284
4.9766 8.3022 1.6284
4.6726 8.4732 1.6284
4.3628 8.6333 1.6284
4.0477 8.7823 1.6284
3.7276 8.9201 1.6284
3.4029 9.0464 1.6284
3.0741 9.1613 1.6284
2.7415 9.2645 1.6284
0.7437 2.8925 0.5034
0.6387 2.9164 0.5033
0.5331 2.9366 0.5032
0.4268 2.9532 0.5031
0.3200 2.9661 0.5030
0.2129 2.9753 0.5029
0.1056 2.9808 0.5029
-0.0019 2.9826 0.5028
-0.1094 2.9807 0.5028
-0.2168 2.9751 0.5028
-0.3239 2.9659 0.5028
-0.4307 2.9529 0.5028
-0.5369 2.9363 0.5029
-0.6426 2.9160 0.5029
-0.7476 2.8920 0.5030
-2.6133 8.7896 1.5436
-2.9146 8.6490 1.5358
-3.2135 8.5096 1.5301
-3.5108 8.3709 1.5264
-3.8406 8.3048 1.5379
-4.3823 8.6444 1.6283
-4.6932 8.4848 1.6283
-4.9983 8.3143 1.6284
-5.2973 8.1329 1.6284
-5.5900 7.9411 1.6284
-5.8758 7.7389 1.6284
-6.1544 7.5265 1.6284
-6.4254 7.3043 1.6284
-6.6886 7.0725 1.6284
-7.3831 7.2638 1.7315
-7.6450 6.9976 1.7315
-7.8975 6.7222 1.7315
-8.1401 6.4378 1.7315
-8.3727 6.1448 1.7315
-8.5949 5.8434 1.7315
-8.8064 5.5341 1.7315
-9.0068 5.2172 1.7315
-9.1959 4.8931 1.7315
-9.3735 4.5622 1.7315
-9.5393 4.2250 1.7315
-9.6931 3.8817 1.7315
-9.8346 3.5329 1.7315
-9.9636 3.1790 1.7315
-10.0800 2.8204 1.7315
-10.1835 2.4576 1.7315
-10.2740 2.0910 1.7315
-10.3514 1.7210 1.7315
-10.4154 1.3483 1.7315
-10.4661 0.9731 1.7315
-10.5032 0.5961 1.7315
-10.5268 0.2176 1.7315
4.8511 -7.3367 1.6265
5.1096 -7.1538 1.6265
5.3610 -6.9617 1.6265
5.6052 -6.7607 1.6265
5.8417 -6.5510 1.6265
6.0703 -6.3329 1.6265
6.2907 -6.1067 1.6265
6.5026 -5.8728 1.6265
6.7056 -5.6314 1.6265
6.8997 -5.3830 1.6265
7.0844 -5.1278 1.6265
7.2596 -4.8662 1.6265
7.4252 -4.5986 1.6265
7.5807 -4.3254 1.6265
7.7262 -4.0468 1.6265
7.8614 -3.7634 1.6265
7.9947 -3.4791 1.6283
8.1089 -3.1867 1.6283
8.2125 -2.8906 1.6283
8.3051 -2.5911 1.6283
8.3869 -2.2887 1.6283
8.4576 -1.9837 1.6283
5.6362 -1.1095 1.0775
8.5657 -1.3678 1.6283
8.6029 -1.0577 1.6283
8.6290 -0.7466 1.6283
8.6438 -0.4350 1.6283
8.6474 -0.1233 1.6283
8.6399 0.1880 1.6283
8.6211 0.4987 1.6283
8.7802 0.8261 1.6641
9.0925 1.1872 1.7315
9.0373 1.5129 1.7315
8.9705 1.8361 1.7315
8.8923 2.1565 1.7315
8.8027 2.4737 1.7315
8.7019 2.7873 1.7315
8.5900 3.0968 1.7315
8.4673 3.4020 1.7315
8.3338 3.7025 1.7315
8.1897 3.9977 1.7315
8.0354 4.2875 1.7315
7.8709 4.5715 1.7315
7.6965 4.8492 1.7315
7.5125 5.1204 1.7315
7.3190 5.3847 1.7315
7.1164 5.6419 1.7315
6.9049 5.8916 1.7315
6.6848 6.1334 1.7315
6.4563 6.3672 1.7315
6.2198 6.5927 1.7315
5.9755 6.8095 1.7315
5.7239 7.0175 1.7315
5.4651 7.2163 1.7315
5.1996 7.4058 1.7315
4.9276 7.5857 1.7315
4.6495 7.7558 1.7315
4.1736 7.5677 1.6554
3.8337 7.5856 1.6284
3.5569 7.7168 1.6284
3.2757 7.8382 1.6284
2.9905 7.9494 1.6284
0.8378 2.4966 0.5050
0.7470 2.5241 0.5049
0.6553 2.5484 0.5047
0.5628 2.5696 0.5046
0.4697 2.5875 0.5045
0.3761 2.6021 0.5044
0.2820 2.6136 0.5044
0.1876 2.6217 0.5043
0.0930 2.6266 0.5042
-0.0017 2.6282 0.5042
-0.0964 2.6265 0.5042
-0.1911 2.6216 0.5042
-0.2855 2.6134 0.5042
-0.3795 2.6019 0.5042
-0.4732 2.5871 0.5042
-0.5662 2.5691 0.5043
-0.6587 2.5479 0.5043
-0.7504 2.5235 0.5044
-2.7153 8.0566 1.6283
-3.0048 7.9559 1.6283
-3.2906 7.8451 1.6283
-3.5724 7.7241 1.6283
-3.8499 7.5932 1.6283
-4.1227 7.4526 1.6283
-4.3905 7.3024 1.6283
-4.6529 7.1427 1.6283
-4.9096 6.9738 1.6283
-5.1603 6.7957 1.6283
-5.4046 6.6088 1.6284
-5.6422 6.4132 1.6284
-5.9474 6.2880 1.6490
-6.4824 6.3768 1.7315
-6.7118 6.1427 1.7315
-6.9329 5.9004 1.7315
-7.1454 5.6502 1.7315
-7.3489 5.3925 1.7315
-7.5433 5.1276 1.7315
-7.7282 4.8557 1.7315
-7.9033 4.5772 1.7315
-8.0686 4.2924 1.7315
-8.2237 4.0017 1.7315
-8.3683 3.7055 1.7315
-8.5024 3.4041 1.7315
-8.6257 3.0978 1.7315
-8.7380 2.7872 1.7315
-8.8392 2.4724 1.7315
-8.9290 2.1540 1.7315
-9.0075 1.8324 1.7315
-9.0744 1.5079 1.7315
-9.1296 1.1810 1.7315
-9.1731 0.8521 1.7315
-9.2047 0.5216 1.7315
-9.2244 0.1899 1.7315
4.3060 -6.5131 1.6265
4.5357 -6.3511 1.6265
4.7592 -6.1809 1.6265
4.9762 -6.0028 1.6265
5.1865 -5.8170 1.6265
5.3898 -5.6236 1.6265
5.5858 -5.4232 1.6265
5.7743 -5.2158 1.6265
5.9550 -5.0018 1.6265
6.1278 -4.7815 1.6265
6.2923 -4.5552 1.6265
6.4484 -4.3232 1.6265
6.6030 -4.0901 1.6283
6.7418 -3.8474 1.6283
6.8717 -3.6000 1.6283
6.9925 -3.3481 1.6283
7.1040 -3.0922 1.6283
7.2061 -2.8326 1.6283
7.2986 -2.5697 1.6283
7.3816 -2.3037 1.6283
7.4548 -2.0350 1.6283
7.5183 -1.7641 1.6283
5.6363 -1.1101 1.2120
7.6155 -1.2168 1.6283
7.6493 -0.9411 1.6283
7.6731 -0.6646 1.6283
7.6869 -0.3876 1.6283
7.6907 -0.1104 1.6283
7.6846 0.1666 1.6283
7.9884 0.4614 1.6962
8.1271 0.7639 1.7315
8.0891 1.0555 1.7315
8.0406 1.3453 1.7315
7.9818 1.6330 1.7315
7.9128 1.9182 1.7315
7.8336 2.2007 1.7315
7.7445 2.4799 1.7315
7.6454 2.7556 1.7315
7.5367 3.0275 1.7315
7.4184 3.2951 1.7315
7.2907 3.5582 1.7315
7.1538 3.8164 1.7315
7.0078 4.0695 1.7315
6.8529 4.3170 1.7315
6.6895 4.5588 1.7315
6.5176 4.7944 1.7315
6.3375 5.0237 1.7315
6.1495 5.2464 1.7315
5.9538 5.4621 1.7315
5.7506 5.6706 1.7315
5.5402 5.8717 1.7315
5.3229 6.0651 1.7315
5.0989 6.2507 1.7315
4.8686 6.4281 1.7315
4.6322 6.5971 1.7315
4.3901 6.7576 1.7315
4.1425 6.9094 1.7315
3.8897 7.0523 1.7315
3.6321 7.1861 1.7315
3.2977 7.1540 1.6944
2.9223 6.9921 1.6304
0.8282 2.2014 0.5061
0.7480 2.2289 0.5060
0.6669 2.2536 0.5059
0.5851 2.2754 0.5058
0.5026 2.2943 0.5057
0.4194 2.3104 0.5056
0.3358 2.3236 0.5055
0.2518 2.3338 0.5054
0.1675 2.3411 0.5054
0.0830 2.3455 0.5053
-0.0016 2.3469 0.5053
-0.0861 2.3454 0.5053
-0.1706 2.3410 0.5053
-0.2549 2.3336 0.5053
-0.3389 2.3233 0.5053
-0.4225 2.3101 0.5053
-0.5057 2.2940 0.5053
-0.5882 2.2749 0.5054
-0.6700 2.2530 0.5054
-0.7511 2.2283 0.5055
-0.8313 2.2008 0.5056
-2.9319 6.9890 1.6284
-3.1828 6.8809 1.6283
-3.4299 6.7640 1.6283
-3.6727 6.6384 1.6283
-3.9110 6.5042 1.6283
-4.1445 6.3615 1.6283
-4.3729 6.2106 1.6283
-4.5959 6.0516 1.6283
-4.8132 5.8848 1.6283
-5.0473 5.7363 1.6357
-5.5611 5.8788 1.7315
-5.7722 5.6774 1.7315
-5.9762 5.4686 1.7315
-6.1727 5.2526 1.7315
-6.3614 5.0295 1.7315
-6.5422 4.7998 1.7315
-6.7147 4.5636 1.7315
-6.8788 4.3213 1.7315
-7.0343 4.0731 1.7315
-7.1808 3.8194 1.7315
-7.3183 3.5604 1.7315
-7.4465 3.2966 1.7315
-7.5652 3.0281 1.7315
-7.6743 2.7554 1.7315
-7.7736 2.4788 1.7315
-7.8630 2.1986 1.7315
-7.9423 1.9153 1.7315
-8.0115 1.6290 1.7315
-8.0703 1.3404 1.7315
-8.1188 1.0495 1.7315
-8.1568 0.7570 1.7315
-8.1843 0.4630 1.7315
-8.2011 0.1681 1.7315
3.8673 -5.8502 1.6265
4.0738 -5.7050 1.6265
4.2747 -5.5524 1.6265
4.4698 -5.3926 1.6265
4.6590 -5.2259 1.6265
4.8418 -5.0526 1.6265
5.0235 -4.8779 1.6283
5.1933 -4.6917 1.6283
5.3562 -4.4995 1.6283
5.5118 -4.3015 1.6283
5.6601 -4.0982 1.6283
5.8009 -3.8897 1.6283
5.9339 -3.6764 1.6283
6.0591 -3.4584 1.6283
6.1762 -3.2362 1.6283
6.2851 -3.0101 1.6283
6.3857 -2.7802 1.6283
6.4779 -2.5470 1.6283
6.5615 -2.3108 1.6283
6.6365 -2.0718 1.6283
6.7028 -1.8304 1.6283
6.7602 -1.5869 1.6283
5.6364 -1.1106 1.3479
6.8486 -1.0949 1.6283
6.8794 -0.8470 1.6283
6.9012 -0.5983 1.6283
6.9141 -0.3492 1.6283
6.9180 -0.0999 1.6283
7.3360 0.1584 1.7279
7.3363 0.4231 1.7315
7.3120 0.6867 1.7315
7.2782 0.9490 1.7315
7.2350 1.2099 1.7315
7.1825 1.4689 1.7315
7.1208 1.7256 1.7315
7.0500 1.9799 1.7315
6.9702 2.2314 1.7315
6.8815 2.4797 1.7315
6.7840 2.7245 1.7315
6.6779 2.9656 1.7315
6.5633 3.2026 1.7315
6.4404 3.4352 1.7315
6.3093 3.6632 1.7315
6.1702 3.8863 1.7315
6.0233 4.1042 1.7315
5.8688 4.3166 1.7315
5.7069 4.5232 1.7315
5.5378 4.7239 1.7315
5.3618 4.9184 1.7315
5.1790 5.1064 1.7315
4.9897 5.2878 1.7315
4.7942 5.4622 1.7315
4.5927 5.6295 1.7315
4.3854 5.7895 1.7315
4.1726 5.9419 1.7315
3.9546 6.0867 1.7315
3.7316 6.2236 1.7315
3.5040 6.3525 1.7315
3.2720 6.4732 1.7315
3.0359 6.5855 1.7315
0.8188 1.9589 0.5070
0.7473 1.9863 0.5069
0.6750 2.0112 0.5068
0.6019 2.0335 0.5067
0.5280 2.0532 0.5066
0.4535 2.0704 0.5065
0.3785 2.0850 0.5064
0.3031 2.0969 0.5064
0.2273 2.1062 0.5063
0.1512 2.1128 0.5062
0.0749 2.1167 0.5062
-0.0014 2.1180 0.5062
-0.0778 2.1167 0.5062
-0.1540 2.1126 0.5062
-0.2301 2.1060 0.5062
-0.3059 2.0966 0.5062
-0.3814 2.0847 0.5062
-0.4564 2.0701 0.5062
-0.5308 2.0528 0.5063
-0.6047 2.0330 0.5063
-0.6778 2.0106 0.5064
-0.7501 1.9857 0.5065
-0.8216 1.9582 0.5065
-2.8672 6.1978 1.6284
-3.0896 6.0923 1.6284
-3.3083 5.9789 1.6284
-3.5228 5.8578 1.6284
-3.7330 5.7291 1.6284
-3.9385 5.5930 1.6283
-4.1391 5.4495 1.6283
-4.4940 5.4939 1.6882
-4.8114 5.4674 1.7315
-5.0076 5.2929 1.7315
-5.1974 5.1114 1.7315
-5.3808 4.9231 1.7315
-5.5574 4.7283 1.7315
-5.7270 4.5273 1.7315
-5.8895 4.3202 1.7315
-6.0445 4.1074 1.7315
-6.1918 3.8890 1.7315
-6.3314 3.6654 1.7315
-6.4629 3.4368 1.7315
-6.5862 3.2036 1.7315
-6.7012 2.9660 1.7315
-6.8076 2.7242 1.7315
-6.9054 2.4787 1.7315
-6.9943 2.2296 1.7315
-7.0743 1.9774 1.7315
-7.1452 1.7224 1.7315
-7.2070 1.4648 1.7315
-7.2595 1.2050 1.7315
-7.3026 0.9433 1.7315
-7.3363 0.6802 1.7315
-7.3605 0.4158 1.7315
-7.3752 0.1505 1.7315
3.5101 -5.3104 1.6283
3.6975 -5.1788 1.6283
3.8801 -5.0405 1.6283
4.0573 -4.8956 1.6283
4.2292 -4.7445 1.6283
4.3954 -4.5873 1.6283
4.5556 -4.4242 1.6283
4.7098 -4.2555 1.6283
4.8577 -4.0813 1.6283
4.9991 -3.9020 1.6283
5.1339 -3.7177 1.6283
5.2618 -3.5288 1.6283
5.3827 -3.3354 1.6283
5.4965 -3.1379 1.6283
5.6030 -2.9365 1.6283
5.7021 -2.7315 1.6283
5.7936 -2.5230 1.6283
5.8776 -2.3116 1.6283
5.9538 -2.0973 1.6283
6.0221 -1.8806 1.6283
6.0826 -1.6616 1.6283
6.1351 -1.4407 1.6283
5.6366 -1.1112 1.4852
6.2159 -0.9943 1.6283
6.2442 -0.7694 1.6283
6.2644 -0.5437 1.6283
6.3349 -0.3205 1.6435
6.6785 -0.0970 1.7315
6.6739 0.1435 1.7315
6.6607 0.3836 1.7315
6.6389 0.6229 1.7315
6.6086 0.8611 1.7315
6.5697 1.0980 1.7315
6.5224 1.3333 1.7315
6.4667 1.5665 1.7315
6.4028 1.7975 1.7315
6.3306 2.0260 1.7315
6.2503 2.2516 1.7315
6.1620 2.4741 1.7315
6.0659 2.6932 1.7315
5.9621 2.9086 1.7315
5.8507 3.1201 1.7315
5.7318 3.3274 1.7315
5.6057 3.5302 1.7315
5.4725 3.7283 1.7315
5.3323 3.9214 1.7315
5.1854 4.1094 1.7315
5.0320 4.2919 1.7315
4.8722 4.4688 1.7315
4.7063 4.6398 1.7315
4.5344 4.8047 1.7315
4.3569 4.9634 1.7315
4.1738 5.1156 1.7315
3.9855 5.2611 1.7315
3.7923 5.3998 1.7315
3.5942 5.5315 1.7315
3.3916 5.6561 1.7315
3.1848 5.7734 1.7315
2.9740 5.8832 1.7315
0.8093 1.7554 0.5078
0.7452 1.7827 0.5077
0.6802 1.8077 0.5076
0.6144 1.8304 0.5075
0.5478 1.8508 0.5074
0.4806 1.8688 0.5073
0.4128 1.8845 0.5072
0.3446 1.8978 0.5071
0.2759 1.9087 0.5071
0.2069 1.9171 0.5070
0.1376 1.9232 0.5070
0.0682 1.9268 0.5069
-0.0013 1.9280 0.5069
-0.0708 1.9267 0.5069
-0.1402 1.9230 0.5069
-0.2095 1.9169 0.5069
-0.2785 1.9084 0.5069
-0.3472 1.8975 0.5069
-0.4154 1.8842 0.5069
-0.4832 1.8684 0.5070
-0.5504 1.8503 0.5070
-0.6169 1.8299 0.5071
-0.6828 1.8071 0.5072
-0.7477 1.7821 0.5072
-0.8119 1.7547 0.5073
-2.8081 5.5364 1.6284
-3.0067 5.4333 1.6284
-3.2016 5.3230 1.6284
-3.4134 5.2380 1.6385
-3.7349 5.3031 1.6992
-3.9996 5.2652 1.7315
-4.1883 5.1196 1.7315
-4.3718 4.9673 1.7315
-4.5499 4.8084 1.7315
-4.7222 4.6433 1.7315
-4.8886 4.4721 1.7315
-5.0488 4.2950 1.7315
-5.2027 4.1122 1.7315
-5.3500 3.9239 1.7315
-5.4906 3.7304 1.7315
-5.6242 3.5318 1.7315
-5.7507 3.3286 1.7315
-5.8698 3.1208 1.7315
-5.9816 2.9089 1.7315
-6.0857 2.6929 1.7315
-6.1820 2.4732 1.7315
-6.2705 2.2501 1.7315
-6.3509 2.0239 1.7315
-6.4232 1.7948 1.7315
-6.4872 1.5632 1.7315
-6.5429 1.3292 1.7315
-6.5902 1.0933 1.7315
-6.6290 0.8557 1.7315
-6.6593 0.6168 1.7315
-6.6809 0.3768 1.7315
-6.6939 0.1360 1.7315
3.2071 -4.8527 1.6283
3.3785 -4.7326 1.6283
3.5454 -4.6063 1.6283
3.7075 -4.4741 1.6283
3.8647 -4.3362 1.6283
4.0167 -4.1927 1.6283
4.1633 -4.0438 1.6283
4.3043 -3.8897 1.6283
4.4397 -3.7307 1.6283
4.5691 -3.5669 1.6283
4.6924 -3.3986 1.6283
4.8095 -3.2261 1.6283
4.9203 -3.0494 1.6283
5.0245 -2.8690 1.6283
5.1220 -2.6850 1.6283
5.2129 -2.4976 1.6283
5.2968 -2.3072 1.6283
5.3738 -2.1140 1.6283
5.4437 -1.9182 1.6283
5.5064 -1.7201 1.6283
5.5619 -1.5199 1.6283
5.6102 -1.3180 1.6283
5.6368 -1.1118 1.6242
5.6846 -0.9098 1.6283
5.7107 -0.7042 1.6283
5.9022 -0.5128 1.6774
6.1047 -0.3094 1.7315
6.1087 -0.0893 1.7315
6.1048 0.1307 1.7315
6.0930 0.3503 1.7315
6.0734 0.5693 1.7315
6.0459 0.7873 1.7315
6.0106 1.0040 1.7315
5.9675 1.2193 1.7315
5.9168 1.4328 1.7315
5.8585 1.6442 1.7315
5.7927 1.8533 1.7315
5.7195 2.0599 1.7315
5.6390 2.2636 1.7315
5.5512 2.4642 1.7315
5.4564 2.6614 1.7315
5.3546 2.8551 1.7315
5.2461 3.0449 1.7315
5.1308 3.2306 1.7315
5.0090 3.4120 1.7315
4.8809 3.5890 1.7315
4.7466 3.7611 1.7315
4.6063 3.9283 1.7315
4.4602 4.0903 1.7315
4.3084 4.2470 1.7315
4.1512 4.3981 1.7315
3.9887 4.5435 1.7315
3.8212 4.6830 1.7315
3.6489 4.8163 1.7315
3.4721 4.9434 1.7315
3.2908 5.0641 1.7315
3.1054 5.1783 1.7315
2.9161 5.2857 1.7315
0.7997 1.5818 0.5085
0.7418 1.6089 0.5084
0.6831 1.6340 0.5083
0.6235 1.6570 0.5081
0.5632 1.6778 0.5081
0.5022 1.6966 0.5080
0.4406 1.7131 0.5079
0.3785 1.7275 0.5078
0.3159 1.7397 0.5077
0.2529 1.7497 0.5077
0.1896 1.7575 0.5076
0.1262 1.7631 0.5076
0.0625 1.7664 0.5076
-0.0012 1.7675 0.5075
-0.0649 1.7663 0.5075
-0.1286 1.7630 0.5075
-0.1921 1.7573 0.5075
-0.2553 1.7495 0.5075
-0.3183 1.7395 0.5075
-0.3809 1.7272 0.5076
-0.4430 1.7127 0.5076
-0.5046 1.6961 0.5076
-0.5656 1.6773 0.5077
-0.6259 1.6564 0.5078
-0.6855 1.6334 0.5078
-0.7442 1.6083 0.5079
-0.8020 1.5811 0.5080
-2.8376 5.1270 1.6786
-3.0930 5.1418 1.7183
-3.3025 5.0672 1.7315
-3.4841 4.9465 1.7315
-3.6614 4.8193 1.7315
-3.8341 4.6859 1.7315
-4.0019 4.5464 1.7315
-4.1648 4.4009 1.7315
-4.3224 4.2496 1.7315
-4.4745 4.0927 1.7315
-4.6210 3.9304 1.7315
-4.7617 3.7630 1.7315
-4.8963 3.5905 1.7315
-5.0247 3.4133 1.7315
-5.1468 3.2315 1.7315
-5.2623 3.0454 1.7315
-5.3712 2.8551 1.7315
-5.4732 2.6611 1.7315
-5.5682 2.4633 1.7315
-5.6561 2.2623 1.7315
-5.7368 2.0581 1.7315
-5.8101 1.8510 1.7315
-5.8760 1.6413 1.7315
-5.9343 1.4294 1.7315
-5.9850 1.2153 1.7315
-6.0280 0.9995 1.7315
-6.0633 0.7821 1.7315
-6.0906 0.5636 1.7315
-6.1101 0.3440 1.7315
-6.1217 0.1238 1.7315
2.9493 -4.4632 1.6283
3.1070 -4.3528 1.6283
3.2606 -4.2368 1.6283
3.4098 -4.1153 1.6283
3.5544 -3.9886 1.6283
3.6943 -3.8567 1.6283
3.8292 -3.7198 1.6283
3.9591 -3.5783 1.6283
4.0837 -3.4321 1.6283
4.2029 -3.2816 1.6283
4.3165 -3.1269 1.6283
4.4244 -2.9682 1.6283
4.5264 -2.8058 1.6283
4.6224 -2.6399 1.6283
4.7124 -2.4707 1.6283
4.7961 -2.2985 1.6283
4.8735 -2.1233 1.6283
4.9445 -1.9456 1.6283
5.0090 -1.7655 1.6283
5.0669 -1.5833 1.6283
5.1182 -1.3991 1.6283
5.1628 -1.2134 1.6283
5.2006 -1.0262 1.6283
5.2342 -0.8383 1.6291
5.5340 -0.6829 1.7144
5.6077 -0.4877 1.7315
5.6189 -0.2853 1.7315
5.6229 -0.0827 1.7315
5.6195 0.1198 1.7315
5.6088 0.3220 1.7315
5.5909 0.5235 1.7315
5.5658 0.7242 1.7315
5.5336 0.9238 1.7315
5.4941 1.1221 1.7315
5.4476 1.3187 1.7315
5.3942 1.5134 1.7315
5.3338 1.7060 1.7315
5.2665 1.8962 1.7315
5.1925 2.0839 1.7315
5.1119 2.2687 1.7315
5.0248 2.4504 1.7315
4.9312 2.6288 1.7315
4.8313 2.8037 1.7315
4.7253 2.9748 1.7315
4.6133 3.1420 1.7315
4.4955 3.3051 1.7315
4.3719 3.4637 1.7315
4.2428 3.6178 1.7315
4.1083 3.7672 1.7315
3.9686 3.9116 1.7315
3.8238 4.0509 1.7315
3.6743 4.1849 1.7315
3.5201 4.3134 1.7315
3.3614 4.4363 1.7315
3.1985 4.5535 1.7315
3.0316 4.6648 1.7315
2.8608 4.7700 1.7315
0.7898 1.4315 0.5091
0.7374 1.4585 0.5089
0.6841 1.4835 0.5088
0.6299 1.5067 0.5087
0.5750 1.5279 0.5086
0.5194 1.5472 0.5085
0.4631 1.5645 0.5085
0.4063 1.5798 0.5084
0.3490 1.5931 0.5083
0.2913 1.6044 0.5082
0.2332 1.6136 0.5082
0.1749 1.6208 0.5081
0.1163 1.6259 0.5081
0.0576 1.6290 0.5081
-0.0011 1.6300 0.5081
-0.0599 1.6290 0.5080
-0.1186 1.6258 0.5080
-0.1772 1.6206 0.5080
-0.2355 1.6134 0.5080
-0.2936 1.6041 0.5081
-0.3513 1.5928 0.5081
-0.4086 1.5794 0.5081
-0.4654 1.5641 0.5082
-0.5216 1.5467 0.5082
-0.5772 1.5274 0.5083
-0.6321 1.5061 0.5083
-0.6863 1.4829 0.5084
-0.7396 1.4578 0.5085
-0.7920 1.4308 0.5086
-2.8711 4.7724 1.7315
-3.0421 4.6671 1.7315
-3.2094 4.5558 1.7315
-3.3726 4.4386 1.7315
-3.5315 4.3156 1.7315
-3.6860 4.1869 1.7315
-3.8359 4.0528 1.7315
-3.9809 3.9133 1.7315
-4.1210 3.7688 1.7315
-4.2557 3.6192 1.7315
-4.3852 3.4649 1.7315
-4.5090 3.3059 1.7315
-4.6271 3.1426 1.7315
-4.7394 2.9751 1.7315
-4.8456 2.8036 1.7315
-4.9456 2.6284 1.7315
-5.0394 2.4496 1.7315
-5.1267 2.2675 1.7315
-5.2075 2.0823 1.7315
-5.2815 1.8942 1.7315
-5.3488 1.7035 1.7315
-5.4093 1.5105 1.7315
-5.4628 1.3153 1.7315
-5.5093 1.1182 1.7315
-5.5486 0.9195 1.7315
-5.5808 0.7194 1.7315
-5.6058 0.5182 1.7315
-5.6236 0.3161 1.7315
-5.6340 0.1135 1.7315
2.7270 -4.1273 1.6283
2.8729 -4.0254 1.6283
3.0150 -3.9182 1.6283
3.1530 -3.8060 1.6283
3.2868 -3.6888 1.6283
3.4163 -3.5669 1.6283
3.5412 -3.4405 1.6283
3.6614 -3.3096 1.6283
3.7767 -3.1746 1.6283
3.8870 -3.0354 1.6283
3.9922 -2.8925 1.6283
4.0921 -2.7458 1.6283
4.1866 -2.5957 1.6283
4.2755 -2.4423 1.6283
4.3588 -2.2859 1.6283
4.4364 -2.1266 1.6283
4.5082 -1.9647 1.6283
4.5740 -1.8003 1.6283
4.6338 -1.6337 1.6283
4.6875 -1.4652 1.6283
4.7447 -1.2975 1.6316
4.7766 -1.1231 1.6283
4.9314 -0.9736 1.6688
5.1476 -0.8249 1.7315
5.1716 -0.6387 1.7315
5.1889 -0.4518 1.7315
5.1994 -0.2645 1.7315
5.2032 -0.0770 1.7315
5.2003 0.1104 1.7315
5.1906 0.2975 1.7315
5.1742 0.4840 1.7315
5.1511 0.6698 1.7315
5.1214 0.8546 1.7315
5.0851 1.0381 1.7315
5.0422 1.2201 1.7315
4.9929 1.4003 1.7315
4.9371 1.5787 1.7315
4.8750 1.7548 1.7315
4.8067 1.9286 1.7315
4.7322 2.0997 1.7315
4.6516 2.2680 1.7315
4.5651 2.4332 1.7315
4.4728 2.5952 1.7315
4.3748 2.7537 1.7315
4.2712 2.9086 1.7315
4.1622 3.0596 1.7315
4.0478 3.2066 1.7315
3.9284 3.3493 1.7315
3.8039 3.4877 1.7315
3.6747 3.6214 1.7315
3.5407 3.7505 1.7315
3.4023 3.8746 1.7315
3.2596 3.9938 1.7315
3.1127 4.1077 1.7315
2.9619 4.2163 1.7315
0.8264 1.2715 0.5097
0.7797 1.2999 0.5096
0.7320 1.3266 0.5095
0.6834 1.3516 0.5093
0.6340 1.3748 0.5092
0.5838 1.3963 0.5091
0.5329 1.4160 0.5090
0.4814 1.4339 0.5090
0.4293 1.4500 0.5089
0.3766 1.4642 0.5088
0.3235 1.4766 0.5087
0.2700 1.4870 0.5087
0.2162 1.4956 0.5086
0.1621 1.5023 0.5086
0.1078 1.5071 0.5086
0.0534 1.5099 0.5085
-0.0011 1.5108 0.5085
-0.0556 1.5099 0.5085
-0.1100 1.5070 0.5085
-0.1642 1.5021 0.5085
-0.2183 1.4954 0.5085
-0.2721 1.4868 0.5085
-0.3256 1.4763 0.5085
-0.3787 1.4639 0.5086
-0.4314 1.4496 0.5086
-0.4835 1.4335 0.5087
-0.5350 1.4155 0.5087
-0.5859 1.3958 0.5088
-0.6361 1.3742 0.5088
-0.6854 1.3509 0.5089
-0.7340 1.3259 0.5090
-0.7817 1.2991 0.5091
-0.8284 1.2707 0.5092
-2.9718 4.2180 1.7315
-3.1228 4.1093 1.7315
-3.2699 3.9954 1.7315
-3.4129 3.8761 1.7315
-3.5516 3.7519 1.7315
-3.6858 3.6227 1.7315
-3.8153 3.4887 1.7315
-3.9400 3.3502 1.7315
-4.0597 3.2072 1.7315
-4.1742 3.0600 1.7315
-4.2835 2.9087 1.7315
-4.3872 2.7536 1.7315
-4.4854 2.5947 1.7315
-4.5779 2.4324 1.7315
-4.6645 2.2669 1.7315
-4.7452 2.0983 1.7315
-4.8198 1.9268 1.7315
-4.8882 1.7526 1.7315
-4.9504 1.5761 1.7315
-5.0061 1.3974 1.7315
-5.0555 1.2167 1.7315
-5.0983 1.0343 1.7315
-5.1346 0.8504 1.7315
-5.1642 0.6652 1.7315
-5.1872 0.4790 1.7315
-5.2034 0.2920 1.7315
-5.2129 0.1045 1.7315
2.5332 -3.8345 1.6283
2.6688 -3.7398 1.6283
2.8008 -3.6403 1.6283
2.9291 -3.5362 1.6283
3.0535 -3.4274 1.6283
3.1738 -3.3143 1.6283
3.2899 -3.1969 1.6283
3.4017 -3.0754 1.6283
3.5089 -2.9499 1.6283
3.6115 -2.8207 1.6283
3.7093 -2.6880 1.6283
3.8022 -2.5517 1.6283
3.8901 -2.4123 1.6283
3.9729 -2.2699 1.6283
4.0504 -2.1246 1.6283
4.1226 -1.9766 1.6283
4.1894 -1.8262 1.6283
4.2507 -1.6735 1.6283
4.3064 -1.5187 1.6283
4.3564 -1.3622 1.6283
4.4450 -1.2160 1.6446
4.6570 -1.0954 1.7081
4.7558 -0.9393 1.7315
4.7845 -0.7671 1.7315
4.8070 -0.5941 1.7315
4.8232 -0.4204 1.7315
4.8331 -0.2463 1.7315
4.8368 -0.0721 1.7315
4.8342 0.1021 1.7315
4.8253 0.2761 1.7315
4.8102 0.4495 1.7315
4.7889 0.6223 1.7315
4.7614 0.7941 1.7315
4.7278 0.9647 1.7315
4.6881 1.1339 1.7315
4.6423 1.3016 1.7315
4.5906 1.4674 1.7315
4.5329 1.6313 1.7315
4.4695 1.7929 1.7315
4.4004 1.9520 1.7315
4.3256 2.1085 1.7315
4.2452 2.2623 1.7315
4.1595 2.4129 1.7315
4.0684 2.5604 1.7315
3.9722 2.7045 1.7315
3.8709 2.8450 1.7315
3.7646 2.9818 1.7315
3.6536 3.1146 1.7315
3.5379 3.2433 1.7315
3.4177 3.3678 1.7315
3.2932 3.4879 1.7315
3.1645 3.6035 1.7315
3.0318 3.7143 1.7315
2.8952 3.8203 1.7315
0.8117 1.1553 0.5101
0.7692 1.1833 0.5100
0.7257 1.2098 0.5099
0.6813 1.2347 0.5098
0.6361 1.2580 0.5097
0.5902 1.2797 0.5096
0.5435 1.2997 0.5095
0.4961 1.3181 0.5094
0.4481 1.3348 0.5093
0.3996 1.3497 0.5093
0.3506 1.3630 0.5092
0.3012 1.3745 0.5091
0.2514 1.3843 0.5091
0.2013 1.3923 0.5090
0.1509 1.3985 0.5090
0.1004 1.4029 0.5090
0.0497 1.4056 0.5089
-0.0010 1.4065 0.5089
-0.0517 1.4055 0.5089
-0.1024 1.4028 0.5089
-0.1529 1.3983 0.5089
-0.2033 1.3921 0.5089
-0.2534 1.3840 0.5089
-0.3032 1.3742 0.5089
-0.3526 1.3627 0.5090
-0.4016 1.3494 0.5090
-0.4501 1.3343 0.5091
-0.4980 1.3176 0.5091
-0.5454 1.2992 0.5092
-0.5921 1.2791 0.5092
-0.6380 1.2574 0.5093
-0.6832 1.2340 0.5094
-0.7276 1.2091 0.5094
-0.7710 1.1826 0.5095
-0.8135 1.1545 0.5096
-2.9045 3.8215 1.7315
-3.0412 3.7154 1.7315
-3.1742 3.6045 1.7315
-3.3031 3.4888 1.7315
-3.4278 3.3686 1.7315
-3.5482 3.2439 1.7315
-3.6640 3.1150 1.7315
-3.7753 2.9820 1.7315
-3.8817 2.8450 1.7315
-3.9832 2.7043 1.7315
-4.0796 2.5600 1.7315
-4.1708 2.4122 1.7315
-4.2566 2.2613 1.7315
-4.3371 2.1073 1.7315
-4.4120 1.9504 1.7315
-4.4812 1.7909 1.7315
-4.5447 1.6290 1.7315
-4.6023 1.4648 1.7315
-4.6540 1.2986 1.7315
-4.6998 1.1306 1.7315
-4.7395 0.9610 1.7315
-4.7730 0.7900 1.7315
-4.8005 0.6179 1.7315
-4.8216 0.4448 1.7315
-4.8366 0.2710 1.7315
-4.8453 0.0967 1.7315
2.3626 -3.5767 1.6283
2.4891 -3.4884 1.6283
2.6122 -3.3957 1.6283
2.7319 -3.2986 1.6283
2.8480 -3.1972 1.6283
2.9603 -3.0918 1.6283
3.0686 -2.9823 1.6283
3.1729 -2.8690 1.6283
3.2730 -2.7521 1.6283
3.3688 -2.6316 1.6283
3.4601 -2.5078 1.6283
3.5469 -2.3808 1.6283
3.6289 -2.2508 1.6283
3.7062 -2.1180 1.6283
3.7787 -1.9825 1.6283
3.8461 -1.8445 1.6283
3.9085 -1.7042 1.6283
3.9658 -1.5618 1.6283
4.0284 -1.4212 1.6326
4.1981 -1.3131 1.6817
4.3665 -1.1950 1.7315
4.4050 -1.0366 1.7315
4.4376 -0.8769 1.7315
4.4645 -0.7163 1.7315
4.4856 -0.5548 1.7315
4.5008 -0.3928 1.7315
4.5102 -0.2303 1.7315
4.5138 -0.0677 1.7315
4.5115 0.0949 1.7315
4.5033 0.2572 1.7315
4.4893 0.4191 1.7315
4.4695 0.5803 1.7315
4.4440 0.7407 1.7315
4.4127 0.9000 1.7315
4.3757 1.0580 1.7315
4.3331 1.2145 1.7315
4.2849 1.3693 1.7315
4.2312 1.5222 1.7315
4.1721 1.6731 1.7315
4.1077 1.8218 1.7315
4.0379 1.9679 1.7315
3.9630 2.1115 1.7315
3.8830 2.2522 1.7315
3.7981 2.3899 1.7315
3.7083 2.5245 1.7315
3.6138 2.6557 1.7315
3.5147 2.7834 1.7315
3.4111 2.9075 1.7315
3.3031 3.0277 1.7315
3.1910 3.1440 1.7315
3.0748 3.2562 1.7315
2.9547 3.3641 1.7315
0.8349 1.0227 0.5107
0.7971 1.0516 0.5105
0.7583 1.0792 0.5104
0.7186 1.1054 0.5103
0.6780 1.1301 0.5102
0.6366 1.1534 0.5101
0.5943 1.1752 0.5100
0.5514 1.1955 0.5099
0.5078 1.2143 0.5098
0.4635 1.2315 0.5097
0.4187 1.2471 0.5097
0.3734 1.2611 0.5096
0.3276 1.2735 0.5095
0.2814 1.2843 0.5095
0.2349 1.2934 0.5094
0.1881 1.3009 0.5094
0.1410 1.3067 0.5093
0.0938 1.3109 0.5093
0.0464 1.3134 0.5093
-0.0010 1.3142 0.5093
-0.0484 1.3133 0.5093
-0.0957 1.3108 0.5093
-0.1429 1.3066 0.5093
-0.1900 1.3007 0.5093
-0.2368 1.2932 0.5093
-0.2833 1.2840 0.5093
-0.3295 1.2732 0.5093
-0.3753 1.2607 0.5094
-0.4206 1.2467 0.5094
-0.4654 1.2310 0.5094
-0.5096 1.2138 0.5095
-0.5532 1.1950 0.5096
-0.5962 1.1747 0.5096
-0.6384 1.1528 0.5097
-0.6798 1.1295 0.5098
-0.7203 1.1047 0.5099
-0.7600 1.0785 0.5099
-0.7988 1.0508 0.5100
-0.8365 1.0218 0.5101
-2.9635 3.3648 1.7315
-3.0838 3.2567 1.7315
-3.2002 3.1444 1.7315
-3.3125 3.0280 1.7315
-3.4206 2.9076 1.7315
-3.5243 2.7833 1.7315
-3.6236 2.6554 1.7315
-3.7183 2.5240 1.7315
-3.8082 2.3892 1.7315
-3.8932 2.2512 1.7315
-3.9733 2.1103 1.7315
-4.0483 1.9665 1.7315
-4.1181 1.8200 1.7315
-4.1826 1.6711 1.7315
-4.2417 1.5200 1.7315
-4.2954 1.3667 1.7315
-4.3436 1.2116 1.7315
-4.3862 1.0547 1.7315
-4.4231 0.8964 1.7315
-4.4543 0.7368 1.7315
-4.4798 0.5762 1.7315
-4.4994 0.4146 1.7315
-4.5133 0.2524 1.7315
-4.5213 0.0898 1.7315
2.2110 -3.3477 1.6283
2.3294 -3.2652 1.6283
2.4448 -3.1784 1.6283
2.5568 -3.0876 1.6283
2.6655 -2.9928 1.6283
2.7706 -2.8941 1.6283
2.8721 -2.7917 1.6283
2.9698 -2.6858 1.6283
3.0635 -2.5763 1.6283
3.1532 -2.4636 1.6283
3.2388 -2.3478 1.6283
3.3200 -2.2290 1.6283
3.3969 -2.1073 1.6283
3.4693 -1.9830 1.6283
3.5624 -1.8694 1.6399
3.6004 -1.7270 1.6283
3.6642 -1.5980 1.6306
3.8106 -1.5011 1.6713
3.9917 -1.4086 1.7279
4.0467 -1.2661 1.7315
4.0881 -1.1192 1.7315
4.1241 -0.9709 1.7315
4.1548 -0.8215 1.7315
4.1801 -0.6711 1.7315
4.1999 -0.5199 1.7315
4.2143 -0.3682 1.7315
4.2232 -0.2161 1.7315
4.2266 -0.0638 1.7315
4.2245 0.0884 1.7315
4.2170 0.2405 1.7315
4.2040 0.3921 1.7315
4.1855 0.5431 1.7315
4.1617 0.6932 1.7315
4.1325 0.8424 1.7315
4.0979 0.9904 1.7315
4.0581 1.1370 1.7315
4.0131 1.2820 1.7315
3.9629 1.4253 1.7315
3.9076 1.5667 1.7315
3.8473 1.7059 1.7315
3.7820 1.8428 1.7315
3.7119 1.9773 1.7315
3.6371 2.1091 1.7315
3.5576 2.2382 1.7315
3.4736 2.3643 1.7315
3.3851 2.4872 1.7315
3.2923 2.6069 1.7315
3.1953 2.7232 1.7315
3.0942 2.8358 1.7315
2.9892 2.9448 1.7315
2.8804 3.0499 1.7315
0.8169 0.9300 0.5110
0.7824 0.9584 0.5109
0.7470 0.9855 0.5108
0.7107 1.0114 0.5107
0.6735 1.0360 0.5106
0.6355 1.0592 0.5105
0.5967 1.0811 0.5104
0.5571 1.1015 0.5103
0.5169 1.1206 0.5102
0.4760 1.1381 0.5101
0.4345 1.1543 0.5100
0.3925 1.1689 0.5100
0.3500 1.1821 0.5099
0.3071 1.1937 0.5098
0.2638 1.2038 0.5098
0.2202 1.2124 0.5097
0.1763 1.2194 0.5097
0.1322 1.2249 0.5097
0.0879 1.2288 0.5096
0.0435 1.2311 0.5096
-0.0009 1.2319 0.5096
-0.0453 1.2311 0.5096
-0.0897 1.2287 0.5096
-0.1340 1.2248 0.5096
-0.1781 1.2193 0.5096
-0.2220 1.2122 0.5096
-0.2656 1.2036 0.5096
-0.3089 1.1934 0.5096
-0.3518 1.1817 0.5097
-0.3943 1.1685 0.5097
-0.4363 1.1539 0.5098
-0.4777 1.1377 0.5098
-0.5186 1.1200 0.5099
-0.5588 1.1010 0.5099
-0.5984 1.0805 0.5100
-0.6372 1.0586 0.5101
-0.6752 1.0353 0.5101
-0.7124 1.0107 0.5102
-0.7487 0.9848 0.5103
-0.7840 0.9576 0.5104
-0.8184 0.9291 0.5105
-2.8887 3.0502 1.7315
-2.9976 2.9450 1.7315
-3.1028 2.8359 1.7315
-3.2040 2.7230 1.7315
-3.3011 2.6066 1.7315
-3.3940 2.4867 1.7315
-3.4826 2.3636 1.7315
-3.5668 2.2373 1.7315
-3.6463 2.1081 1.7315
-3.7212 1.9760 1.7315
-3.7914 1.8413 1.7315
-3.8567 1.7041 1.7315
-3.9170 1.5646 1.7315
