ply
format ascii 1.0
element vertex 2078
property float32 x
property float32 y
property float32 z
end_header
-10.9553 -13.3528 -3.0745
-11.4176 -14.9850 -3.3545
-11.5249 -16.3117 -3.5574
-6.4247 -15.2321 -2.9492
5.7288 -13.8287 -2.6727
22.0058 34.5281 -6.1969
22.0523 37.5128 -6.5837
-7.6045 39.9846 -6.1413
-8.9001 39.0823 -6.0484
-10.4883 39.4457 -6.1597
-9.6592 31.6910 -5.0003
-10.2578 29.7710 -4.7531
-9.7014 25.1776 -4.0734
-10.8479 25.3915 -4.1692
-11.5374 24.5245 -4.0931
-12.0966 23.4817 -3.9899
-13.9272 24.8017 -4.2975
-15.3507 25.1712 -4.4555
-17.4844 26.4783 -4.7963
-12.6050 17.6723 -3.2821
-13.1697 17.1260 -3.2675
-11.7948 14.2469 -2.7983
-12.1384 13.6325 -2.7625
-12.4575 13.0166 -2.7277
-22.6235 21.9974 -4.7788
-24.1908 21.8850 -4.9421
-18.5191 15.5802 -3.6679
-14.4571 11.3004 -2.7821
-14.7201 10.6759 -2.7582
-14.7596 9.9146 -2.6981
-18.6161 11.5558 -3.3264
-18.1630 10.3888 -3.1780
-17.7984 9.3473 -3.0547
-22.1424 10.6308 -3.7339
-24.1716 10.5528 -4.0114
-24.4052 9.6252 -3.9920
-24.7598 8.7497 -3.9979
-24.7652 7.7615 -3.9531
-12.9352 3.5484 -2.0441
-13.5032 3.1867 -2.1155
-13.9588 2.7683 -2.1710
-13.6986 2.2078 -2.1179
-13.3935 1.6669 -2.0612
-18.9531 1.6692 -2.9072
-18.5865 0.9648 -2.8454
-18.6061 0.2956 -2.8464
-14.9336 -0.3001 -2.2860
-17.1530 -0.9629 -2.6308
-16.9075 -1.5609 -2.6015
-16.6426 -2.1426 -2.5723
-16.7782 -2.7769 -2.6085
-24.9494 -5.0575 -3.9067
-5.8070 -1.3964 -0.9171
-26.8707 -7.4936 -4.2857
-31.7921 -10.1121 -5.1281
-32.7616 -11.7342 -5.3519
-32.5128 -12.9830 -5.3870
-32.6158 -14.4054 -5.4892
-17.4014 -10.9062 -3.1680
-18.7505 -12.7136 -3.4963
-14.2377 -10.4208 -2.7243
-13.9382 -10.9930 -2.7422
-12.3541 -10.4862 -2.5043
-13.0875 -11.9450 -2.7396
-12.4939 -12.2558 -2.7071
-12.0185 -12.6696 -2.7022
-10.8641 -12.3111 -2.5417
-13.1159 -15.9874 -3.2024
-12.4846 -16.3866 -3.1914
-12.5362 -17.7443 -3.3669
-6.4240 -15.2315 -2.5665
5.7288 -13.8293 -2.3262
5.7648 -11.4989 -1.9983
22.0057 34.5256 -5.2565
22.0522 37.5102 -5.5843
22.1051 40.8991 -5.9644
16.2129 39.7144 -5.4979
14.5790 39.7398 -5.4237
12.9856 39.7646 -5.3585
11.4274 39.7889 -5.3016
10.3817 41.7533 -5.5088
9.0077 42.7367 -5.5911
-7.7827 40.9206 -5.3288
-9.3200 40.9244 -5.3699
-10.5104 39.5275 -5.2334
-10.2309 29.6917 -4.0194
-9.8754 25.6283 -3.5158
-11.1805 26.1689 -3.6435
-11.9138 25.3235 -3.5839
-12.6814 24.6158 -3.5469
-13.8243 24.6171 -3.6174
-14.6769 24.0651 -3.6125
-17.2035 26.0514 -4.0023
-13.1128 18.3831 -2.8957
-13.1634 17.1168 -2.7700
-11.7761 14.2235 -2.3697
-12.1034 13.5923 -2.3365
-15.5339 16.2299 -2.8853
-22.6119 21.9846 -4.0520
-24.1835 21.8768 -4.1917
-15.4921 13.0326 -2.6034
-14.4399 11.2860 -2.3579
-14.7078 10.6661 -2.3386
-14.7476 9.9057 -2.2879
-18.6206 11.5575 -2.8238
-19.1579 10.9568 -2.8451
-19.7035 10.3467 -2.8705
-23.1184 11.0981 -3.3095
-23.7685 10.3755 -3.3488
-29.3028 11.5551 -4.0696
-28.0860 9.9236 -3.8508
-26.3889 8.2690 -3.5771
-26.5018 7.2685 -3.5567
-13.5358 3.1937 -1.8011
-14.0165 2.7790 -1.8517
-13.6935 2.2063 -1.7985
-31.4871 3.9172 -4.1169
-27.7695 2.4442 -3.6192
-18.6144 0.9653 -2.4215
-18.6340 0.2950 -2.4226
-14.9386 -0.3010 -1.9435
-17.3176 -0.9730 -2.2576
-17.0574 -1.5756 -2.2310
-16.7883 -2.1623 -2.2060
-24.0355 -3.9793 -3.1771
-26.8563 -5.4456 -3.5758
-5.8063 -1.3965 -0.7798
-26.7740 -7.4682 -3.6317
-31.5350 -10.0321 -4.3263
-31.7133 -11.3606 -4.4067
-32.4243 -12.9495 -4.5701
-19.3576 -12.1334 -2.9992
-18.7851 -12.7384 -2.9813
-14.4422 -10.5714 -2.3522
-14.1396 -11.1528 -2.3680
-13.9652 -11.8548 -2.4100
-13.6337 -12.4445 -2.4298
-12.5105 -12.2730 -2.3080
-12.1074 -12.7643 -2.3180
-14.6717 -16.6271 -2.9230
-13.1998 -16.0909 -2.7446
-12.7655 -16.7565 -2.7792
-12.5016 -17.6965 -2.8598
-6.4233 -15.2308 -2.1863
13.1621 -44.9687 -6.2074
14.3421 -43.1729 -6.0261
16.4136 -44.0438 -6.2251
5.7285 -13.8293 -1.9821
5.7480 -12.5763 -1.8306
5.7648 -11.4995 -1.7026
22.0057 34.5232 -4.3216
22.0522 37.5075 -4.5907
22.1050 40.8962 -4.9028
16.2140 39.7144 -4.5187
14.5800 39.7398 -4.4575
12.9865 39.7646 -4.4036
11.4638 39.9127 -4.3702
10.5076 42.2565 -4.5812
-8.1877 43.0488 -4.6056
-9.2589 40.6551 -4.3828
-10.4854 39.4321 -4.2894
-11.8826 38.9829 -4.2849
-11.6281 33.7454 -3.7534
-10.7998 28.0259 -3.1591
-11.9588 27.9892 -3.2022
-5.5556 11.8082 -1.3733
-14.4559 28.0589 -3.3225
-14.0003 24.9293 -3.0106
-14.6527 24.0241 -2.9641
-19.8703 30.0881 -3.7994
-18.4682 25.8896 -3.3523
-18.8768 24.5446 -3.2653
-24.6843 29.8125 -4.0834
-16.0935 18.0721 -2.5542
-15.5772 16.2741 -2.3789
-24.8317 24.1412 -3.6590
-27.5344 24.9064 -3.9247
-25.6403 21.5680 -3.5437
-27.0287 21.1236 -3.6302
-16.1110 11.6827 -2.1072
-31.1461 20.9184 -3.9751
-18.6250 11.5592 -2.3239
-19.1625 10.9583 -2.3417
-24.1400 12.6750 -2.8942
-22.9644 11.0229 -2.7058
-23.7882 10.3828 -2.7589
-27.7071 10.9244 -3.1679
-29.6451 10.4729 -3.3466
-26.3004 8.2399 -2.9357
-29.6278 8.1244 -3.2747
-35.7787 7.0919 -3.8937
-33.9650 5.4708 -3.6753
-32.9619 4.0990 -3.5511
-27.7007 2.4368 -2.9752
-27.3881 1.4189 -2.9365
-25.3073 0.3994 -2.7121
-14.9473 -0.3020 -1.6032
-17.4844 -0.9833 -1.8794
-24.5595 -2.2698 -2.6490
-22.8921 -2.9496 -2.4809
-23.8995 -3.9581 -2.6058
-27.3730 -5.5518 -3.0067
-5.8055 -1.3967 -0.6433
-34.5508 -9.6393 -3.8673
-33.9669 -10.8077 -3.8458
-33.2530 -11.9140 -3.8139
-35.2525 -14.0811 -4.1018
-38.0684 -16.8181 -4.5002
-20.7282 -12.9939 -2.6528
-18.7459 -12.7130 -2.4577
-18.8455 -13.7958 -2.5359
-14.2881 -11.2710 -1.9772
-13.9612 -11.8523 -1.9910
-13.6297 -12.4419 -2.0075
-17.0434 -16.7213 -2.5988
-12.7315 -16.7131 -2.2919
-6.4225 -15.2300 -1.8084
2.9583 -11.6469 -1.3176
12.2628 -41.8980 -4.7859
13.9590 -42.0214 -4.8535
15.5928 -41.8430 -4.8936
5.7285 -13.8299 -1.6401
5.7480 -12.5768 -1.5147
5.7648 -11.5000 -1.4087
22.0057 34.5207 -3.3912
22.0522 37.5049 -3.6019
22.1050 40.8934 -3.8463
16.2150 39.7143 -3.5441
14.5809 39.7398 -3.4958
12.9874 39.7646 -3.4532
11.4645 39.9127 -3.4267
10.5075 42.2533 -3.5917
-8.1753 42.9823 -3.6045
-9.8853 43.4041 -3.6678
-10.8235 40.7018 -3.4706
-12.0418 39.5036 -3.4039
-13.7050 39.7710 -3.4680
-10.8391 28.1268 -2.4857
-11.9106 27.8751 -2.5004
-5.4990 11.6873 -1.0658
-14.4572 28.0600 -2.6055
-14.2086 25.2989 -2.3960
-15.8983 26.0651 -2.5222
-23.5969 35.7291 -3.5389
-18.4620 25.8795 -2.6287
-19.2471 25.0247 -2.6119
-31.2662 37.7596 -4.0582
-25.5716 28.7138 -3.1847
-15.6206 16.3184 -1.8722
-25.0781 24.3791 -2.9005
-27.4453 24.8240 -3.0710
-31.3099 26.3352 -3.3975
-27.8511 21.7647 -2.9374
-28.0479 20.3370 -2.8812
-31.0836 20.8746 -3.1162
-27.5137 17.0742 -2.6971
-24.1537 13.8113 -2.3193
-25.2815 13.2730 -2.3822
-25.4038 12.1924 -2.3528
-30.6309 13.3678 -2.7929
-29.7980 11.7472 -2.6790
-29.8810 10.5547 -2.6530
-30.3023 9.4921 -2.6607
-36.2421 7.1818 -3.1044
-35.9107 5.7823 -3.0591
-32.8452 4.0828 -2.7863
-34.0875 2.9968 -2.8834
-39.8227 2.0611 -3.3634
-30.8257 0.4849 -2.6028
-14.9559 -0.3029 -1.2642
-25.7065 -1.4470 -2.1780
-25.6054 -2.3678 -2.1773
-30.1320 -3.8840 -2.5750
-30.5332 -5.0583 -2.6257
-36.4012 -7.3848 -3.1541
-5.8048 -1.3968 -0.5075
-35.1324 -9.8035 -3.1033
-33.6802 -10.7183 -3.0100
-37.4716 -13.4276 -3.3930
-36.5921 -14.6183 -3.3620
-38.0862 -16.8282 -3.5559
-17.6861 -15.0159 -1.9948
-17.3208 -15.8126 -2.0181
-6.4215 -15.2286 -1.4325
-10.6687 -40.9106 -3.6701
-10.3044 -46.2729 -4.1164
2.9274 -11.5256 -1.0334
11.7760 -40.2361 -3.6428
13.3972 -40.3318 -3.6919
15.0687 -40.4382 -3.7480
5.7285 -13.8305 -1.2998
5.7480 -12.5774 -1.2003
5.7692 -11.5094 -1.1171
22.0056 34.5183 -2.4644
22.0521 37.5023 -2.6169
22.1049 40.8906 -2.7939
16.2161 39.7143 -2.5731
14.5819 39.7398 -2.5376
12.9883 39.7646 -2.5063
11.4298 39.7889 -2.4791
10.3816 41.7439 -2.5747
-9.8561 43.2742 -2.6522
-12.0815 45.4310 -2.8098
-12.2047 40.0365 -2.5024
-13.6718 39.6730 -2.5096
-17.1133 40.0496 -2.6067
-5.4997 11.6884 -0.7735
-14.4589 28.0619 -1.8912
-23.5463 41.9230 -2.8821
-23.2198 38.0664 -2.6743
-25.1174 38.0293 -2.7352
-18.4559 25.8695 -1.9084
-28.2071 36.6723 -2.7805
-28.4522 29.7212 -2.4786
-28.2537 27.4643 -2.3758
-27.5050 24.8762 -2.2381
-35.2880 29.6791 -2.7853
-27.7723 21.7014 -2.1311
-31.6484 22.9457 -2.3660
-32.2528 21.6579 -2.3539
-31.8377 19.7557 -2.2727
-37.4692 21.4230 -2.6208
-25.5097 13.3914 -1.7514
-37.5267 18.0087 -2.5332
-30.6275 13.3646 -2.0361
-36.8565 14.5279 -2.4167
-30.1197 10.6374 -1.9510
-36.2562 5.8361 -2.2571
-35.8927 4.4598 -2.2259
-37.6602 3.3090 -2.3297
-40.0769 2.0722 -2.4762
-14.9646 -0.3038 -0.9260
-30.3363 -2.8069 -1.8898
-30.3601 -3.9150 -1.9014
-41.4336 -8.4080 -2.6329
-5.8040 -1.3969 -0.3723
-36.0998 -10.0754 -2.3401
-40.1617 -12.7832 -2.6349
-37.7053 -13.5135 -2.5073
-36.4358 -14.5579 -2.4592
-15.3510 -14.0155 -1.3179
-6.4204 -15.2271 -1.0580
-11.9835 -40.0013 -2.6779
-10.4069 -39.9093 -2.6461
-8.9143 -40.0336 -2.6324
-7.9248 -42.7937 -2.7943
9.8612 -45.6524 -3.0016
2.9263 -11.5217 -0.7638
11.3279 -38.7068 -2.5908
12.8808 -38.7786 -2.6242
14.4791 -38.8578 -2.6623
5.7285 -13.8310 -0.9608
5.7480 -12.5780 -0.8872
5.8384 -11.6478 -0.8355
22.0056 34.5159 -1.5401
22.0521 37.4997 -1.6347
22.1049 40.8878 -1.7445
22.1655 44.7791 -1.8731
16.2172 39.7143 -1.6047
14.5829 39.7398 -1.5820
12.9891 39.7646 -1.5620
11.4305 39.7889 -1.5445
9.9020 39.8127 -1.5295
8.9456 42.4295 -1.6155
3.6598 36.5294 -1.3657
-14.4434 41.9105 -1.6504
-5.5006 11.6897 -0.4819
-14.4693 28.0808 -1.1794
-31.6426 22.9397 -1.4832
-39.5158 20.7418 -1.7054
-37.3179 17.9065 -1.5846
-37.7251 3.3128 -1.4787
-40.3337 2.0834 -1.5802
-14.9732 -0.3048 -0.5884
-5.8033 -1.3971 -0.2374
-40.7375 -11.3719 -1.6858
-15.3611 -14.0259 -0.8490
-14.6973 -20.8105 -1.0489
-6.4194 -15.2256 -0.6848
-13.2151 -38.9578 -1.7078
-11.6778 -38.9835 -1.6906
-10.1718 -39.0106 -1.6760
-8.6905 -39.0313 -1.6634
-7.2317 -39.0540 -1.6531
-7.2451 -48.8925 -2.0582
8.6111 -39.8665 -1.7001
2.9260 -11.5208 -0.4953
10.9139 -37.2934 -1.6186
12.4040 -37.3446 -1.6385
13.9355 -37.4004 -1.6610
5.7285 -13.8316 -0.6227
5.7480 -12.5785 -0.5749
5.8383 -11.6484 -0.5412
22.0056 34.5135 -0.6176
22.0520 37.4971 -0.6543
22.1048 40.8849 -0.6969
22.1655 44.7760 -0.7470
16.2182 39.7143 -0.6380
14.5838 39.7397 -0.6280
12.9900 39.7646 -0.6192
11.4669 39.9127 -0.6135
9.9027 39.8127 -0.6049
8.9885 42.6298 -0.6413
2.2909 22.8635 -0.3369
1.3888 21.7091 -0.3187
0.5770 20.6703 -0.3027
-0.1603 19.8570 -0.2905
-0.9008 20.4356 -0.2992
-1.6884 21.0509 -0.3089
-14.4532 41.9370 -0.6518
-14.4798 28.0997 -0.4678
-9.1001 9.5048 -0.1991
-9.3826 9.1193 -0.1986
-9.1483 7.1474 -0.1782
-9.1670 5.2402 -0.1648
-37.3165 17.9038 -0.6517
-9.1929 3.6226 -0.1570
-9.1980 3.2475 -0.1557
-9.2249 1.4840 -0.1527
-9.2426 1.1475 -0.1530
-37.7996 3.3174 -0.6263
-14.9818 -0.3057 -0.2510
-9.2561 -0.5225 -0.1560
-9.2832 -0.8599 -0.1577
-5.8026 -1.3972 -0.1029
-9.2876 -2.5932 -0.1670
-9.3184 -4.5264 -0.1835
-9.3625 -6.3518 -0.2037
-15.3712 -14.0362 -0.3804
-14.6973 -20.8120 -0.4746
-6.4184 -15.2242 -0.3123
-13.1089 -38.6476 -0.7742
-11.5886 -38.6884 -0.7674
-10.0975 -38.7284 -0.7617
-8.6312 -38.7677 -0.7569
-7.1853 -38.8064 -0.7530
-6.0980 -41.1551 -0.7946
8.1959 -45.8884 -0.8926
8.4430 -39.0894 -0.7654
9.3690 -36.8907 -0.7281
10.8013 -36.9101 -0.7351
12.2657 -36.9299 -0.7431
13.7672 -36.9502 -0.7522
5.7285 -13.8322 -0.2852
5.7480 -12.5791 -0.2631
5.8383 -11.6489 -0.2475
22.0055 34.5111 0.3042
20.5708 34.9761 0.3036
22.1048 40.8821 0.3498
22.1654 44.7730 0.3782
16.2193 39.7143 0.3282
14.5848 39.7397 0.3253
12.9909 39.7646 0.3229
11.4677 39.9127 0.3218
9.9034 39.8127 0.3190
8.9891 42.6298 0.3399
2.2916 22.8689 0.1806
1.3893 21.7140 0.1713
0.5772 20.6746 0.1630
-0.1603 19.8634 0.1567
-0.9011 20.4424 0.1616
-1.6890 21.0581 0.1668
-5.5304 47.4558 0.3772
-8.9261 46.9239 0.3766
-8.8674 38.9297 0.3144
-9.0804 34.1422 0.2777
-14.4653 41.9704 0.3475
-9.1073 23.6288 0.1977
-9.0248 21.1175 0.1787
-9.0162 19.1591 0.1642
-9.0117 17.4875 0.1520
-9.2407 15.1469 0.1359
-9.2317 11.1462 0.1084
-9.1355 9.5411 0.0976
-9.1847 7.1753 0.0836
-9.2022 5.2598 0.0733
-37.3181 17.9025 0.2805
-27.5839 10.8685 0.1967
-9.2334 3.2595 0.0642
-42.5837 11.6660 0.2830
-42.5551 10.0274 0.2768
-9.2610 1.4893 0.0579
-9.3047 1.1547 0.0572
-37.8743 3.3221 0.2287
-47.6762 0.7402 0.2791
-14.9904 -0.3067 0.0866
-9.2924 -0.5250 0.0530
-42.7731 -3.9643 0.2410
-49.1785 -6.3494 0.2741
-5.8019 -1.3973 0.0315
-9.3247 -2.6040 0.0504
-41.7397 -16.6842 0.2233
-9.3550 -4.5447 0.0501
-9.4003 -6.3781 0.0513
-20.1369 -17.1025 0.1139
-9.4182 -8.6009 0.0542
-16.2318 -17.1204 0.0972
-9.4511 -10.7156 0.0580
-14.1590 -17.2677 0.0894
-9.4781 -12.4467 0.0618
-12.1543 -17.2121 0.0821
-9.5109 -14.5530 0.0668
-6.4173 -15.2227 0.0599
-13.1201 -38.6831 0.1451
-11.7313 -39.1676 0.1439
-10.0968 -38.7284 0.1398
-8.6306 -38.7677 0.1377
-7.1848 -38.8064 0.1359
-6.0981 -41.1588 0.1424
-1.8113 -46.2453 0.1565
-0.1469 -46.3799 0.1564
1.4633 -44.5792 0.1502
3.0150 -43.7571 0.1475
8.4430 -39.0906 0.1353
9.3686 -36.8907 0.1292
10.9146 -37.2986 0.1325
12.2652 -36.9299 0.1334
13.9135 -37.3446 0.1374
5.7285 -13.8328 0.0520
5.7480 -12.5796 0.0484
5.8383 -11.6494 0.0460
15.8029 24.7819 0.8806
14.5574 24.7499 0.8617
13.5393 25.0389 0.8556
22.1654 44.7699 1.5037
17.9395 39.7720 1.3150
16.2204 39.7143 1.2947
14.5858 39.7397 1.2791
12.9918 39.7646 1.2654
11.4329 39.7888 1.2535
9.9041 39.8127 1.2433
8.3299 39.5006 1.2244
6.6312 48.5062 1.4869
2.2924 22.8744 0.6986
1.3897 21.7188 0.6616
0.5774 20.6789 0.6291
-0.1603 19.8698 0.6045
-0.9014 20.4492 0.6228
-1.6895 21.0654 0.6430
-8.7198 45.8383 1.4191
-8.8301 38.7645 1.2088
-8.9121 33.5080 1.0537
-9.0000 29.5192 0.9374
-14.4774 42.0039 1.3487
-9.1077 23.6288 0.7682
-9.0252 21.1175 0.6961
-9.0165 19.1588 0.6412
-9.0117 17.4867 0.5952
-21.5550 38.3699 1.3300
-9.2412 15.1469 0.5356
-24.7266 37.4297 1.3524
-9.2322 11.1462 0.4345
-9.1355 9.5405 0.3952
-9.1851 7.1750 0.3461
-9.2995 6.7402 0.3404
-35.8293 24.0513 1.2762
-36.7141 22.7733 1.2749
-9.2022 5.2593 0.3121
-42.3650 22.2303 1.4054
-37.3256 17.9041 1.2132
-9.3353 4.0716 0.2977
-27.5163 10.8404 0.8625
-9.2334 3.2590 0.2848
-42.5041 13.3032 1.2922
-42.5298 11.6491 1.2760
-42.5551 10.0252 1.2618
-42.5801 8.4269 1.2493
-9.2610 1.4888 0.2692
-9.3052 1.1543 0.2684
-37.9504 3.3268 1.0874
-42.6771 2.1979 1.2163
-42.7010 0.6608 1.2121
-14.9990 -0.3076 0.4246
-9.2924 -0.5255 0.2626
-42.7731 -3.9665 1.2087
-27.7842 -3.5886 0.7860
-9.4275 -1.5643 0.2673
-9.4260 -1.9148 0.2683
-5.8011 -1.3975 0.1660
-9.3248 -2.6045 0.2685
-42.9244 -13.6720 1.2457
-42.9578 -15.4056 1.2583
-41.4255 -16.5609 1.2266
-37.6536 -16.6479 1.1287
-9.3550 -4.5452 0.2844
-31.4843 -16.7228 0.9720
-9.3999 -6.3784 0.3072
-33.8119 -26.6861 1.1589
-20.1362 -17.1033 0.7091
-9.4182 -8.6016 0.3415
-17.5296 -17.2064 0.6561
-16.2306 -17.1204 0.6286
-9.4511 -10.7164 0.3799
-14.1590 -17.2690 0.5924
-9.4781 -12.4475 0.4142
-12.1538 -17.2126 0.5567
-9.5109 -14.5540 0.4585
-10.4474 -17.3168 0.5323
-6.4163 -15.2213 0.4320
-13.1072 -38.6476 1.0642
-11.5870 -38.6884 1.0519
-10.0961 -38.7284 1.0413
-8.6300 -38.7677 1.0323
-7.1842 -38.8064 1.0249
-6.0981 -41.1625 1.0798
-2.5869 -23.1889 0.6051
-1.7520 -23.2784 0.6050
-0.8899 -22.7255 0.5892
-0.0739 -23.3613 0.6050
0.7814 -23.8019 0.6166
1.6883 -24.5025 0.6359
8.4430 -39.0917 1.0362
9.3683 -36.8907 0.9866
10.8005 -36.9101 0.9974
12.2647 -36.9298 1.0099
13.7660 -36.9501 1.0242
5.7285 -13.8334 0.3892
5.7480 -12.5802 0.3599
5.8383 -11.6500 0.3395
17.3767 27.2479 1.6974
16.2018 27.5439 1.6799
14.9066 27.5657 1.6489
13.6615 27.5919 1.6213
12.4580 27.6177 1.5967
11.4305 27.9848 1.5943
10.4091 28.3583 1.5943
9.3762 28.6963 1.5942
8.3329 28.9981 1.5942
7.2804 29.2639 1.5942
6.2198 29.4925 1.5942
1.7178 9.8968 0.5315
1.3590 9.9401 0.5310
0.9996 9.9729 0.5307
0.6397 9.9954 0.5305
0.2795 10.0074 0.5303
-0.1603 19.8762 1.0531
-0.9016 20.4560 1.0849
-1.6901 21.0727 1.1202
-3.7083 31.8190 1.6974
-4.8510 31.6675 1.6974
-5.6243 29.5650 1.5943
-6.6856 29.3490 1.5943
-7.7391 29.0966 1.5943
-8.7835 28.8079 1.5943
-9.8579 28.5999 1.6008
-8.9235 23.1499 1.3123
-8.9576 20.9586 1.2051
-8.9867 19.0946 1.1152
-9.0117 17.4859 1.0389
-9.0336 16.0799 0.9735
-9.0941 14.9050 0.9210
-15.5052 23.4697 1.4826
-17.0715 23.9224 1.5479
-18.2195 23.6806 1.5723
-9.2328 11.1463 0.7610
-20.2542 22.7346 1.5995
-9.1355 9.5399 0.6932
-9.2591 8.9974 0.6769
-9.2615 8.3734 0.6539
-9.2862 7.8073 0.6347
-9.1854 7.1748 0.6091
-9.3003 6.7402 0.5995
-22.4990 15.1017 1.4127
-23.2478 14.4190 1.4244
-9.2022 5.2588 0.5512
-24.1268 12.6588 1.4150
-24.7845 11.8871 1.4256
-9.3355 4.0711 0.5275
-27.4489 10.8124 1.5258
-9.2334 3.2585 0.5057
-30.0140 9.3924 1.6219
-30.1883 8.2671 1.6118
-30.5895 7.2048 1.6159
-31.0058 6.1347 1.6227
-9.2610 1.4884 0.4808
-9.3057 1.1539 0.4799
-30.1063 2.6376 1.5443
-30.0712 1.5472 1.5362
-30.2211 0.4662 1.5396
-15.0076 -0.3086 0.7634
-9.2924 -0.5259 0.4726
-29.1060 -2.7006 1.4818
-27.5961 -3.5658 1.4083
-9.4237 -1.5642 0.4827
-9.4233 -1.9147 0.4851
-5.8004 -1.3976 0.3005
-9.3248 -2.6051 0.4869
-27.0954 -8.6317 1.4277
-27.0657 -9.7078 1.4414
-31.1190 -12.4424 1.6774
-30.5973 -13.5299 1.6718
-9.3550 -4.5458 0.5190
-29.0247 -15.4182 1.6374
-28.4669 -16.4613 1.6358
-27.1895 -17.0563 1.5943
-9.3995 -6.3788 0.5634
-25.9673 -19.0215 1.5943
-21.5867 -17.0388 1.3602
-20.0855 -17.0617 1.3017
-9.4182 -8.6023 0.6292
-9.5337 -9.3587 0.6581
-16.2294 -17.1205 1.1607
-9.4512 -10.7172 0.7022
-14.0633 -17.1535 1.0887
-9.4781 -12.4484 0.7671
-12.1239 -17.1714 1.0294
-9.5109 -14.5550 0.8506
-10.3854 -17.2153 0.9826
-16.2507 -29.2691 1.6346
-14.9142 -29.2981 1.6037
-13.7807 -29.6648 1.5943
-4.1969 -9.9570 0.5262
-3.7755 -9.9421 0.5175
-3.3667 -9.9276 0.5098
-2.9689 -9.9136 0.5029
-2.7681 -10.6189 0.5330
-2.7126 -12.1866 0.6061
-5.9807 -32.3076 1.5943
-4.8167 -32.5153 1.5943
-2.4896 -22.3187 1.0888
-1.6508 -21.9359 1.0663
-0.8799 -22.4724 1.0898
-0.0731 -23.1552 1.1219
0.7819 -23.8161 1.1544
1.6894 -24.5175 1.1905
3.4418 -32.7301 1.5943
4.6166 -32.5829 1.5943
5.7849 -32.3917 1.5943
6.9449 -32.1566 1.5943
8.0950 -31.8781 1.5943
9.2336 -31.5565 1.5943
10.3589 -31.1925 1.5943
11.4693 -30.7867 1.5943
5.7285 -13.8340 0.7269
5.7480 -12.5807 0.6719
5.7683 -11.5108 0.6258
11.4085 17.8882 1.5941
10.7506 18.2753 1.5941
10.0800 18.6388 1.5941
9.3974 18.9784 1.5941
8.7037 19.2937 1.5941
8.5180 20.8528 1.6974
4.8224 13.1371 1.0550
6.9900 21.3918 1.6974
6.2133 21.6206 1.6974
1.8019 7.2424 0.5633
1.5313 7.2606 0.5603
1.2637 7.2797 0.5580
1.0000 7.3139 0.5577
0.7357 7.3400 0.5574
0.4709 7.3578 0.5572
0.2058 7.3676 0.5571
-0.0594 7.3691 0.5571
-0.9886 22.4303 1.6974
-1.7949 22.3797 1.6974
-2.5990 22.3009 1.6974
-3.3999 22.1942 1.6974
-4.1966 22.0596 1.6974
-4.9883 21.8972 1.6974
-5.4232 20.3889 1.5943
-6.1546 20.1848 1.5943
-6.8785 19.9552 1.5943
-7.5942 19.7005 1.5943
-8.3008 19.4208 1.5943
-8.9867 19.0937 1.5924
-9.0117 17.4850 1.4837
-9.0337 16.0791 1.3905
-9.0530 14.8369 1.3098
-9.0703 13.7286 1.2394
-9.0858 12.7313 1.1775
-9.0999 11.8268 1.1227
-9.1128 11.0007 1.0741
-9.1246 10.2414 1.0307
-9.1355 9.5394 0.9919
-9.1512 8.8920 0.9575
-9.1890 8.3073 0.9289
-9.3398 7.8518 0.9143
-9.1858 7.1745 0.8726
-9.3011 6.7402 0.8593
-18.5057 12.4202 1.6659
-18.8643 11.6991 1.6577
-9.2022 5.2583 0.7908
-19.3228 10.1371 1.6266
-19.2410 9.2273 1.5893
-9.3357 4.0707 0.7578
-19.6848 7.7530 1.5726
-9.2334 3.2581 0.7271
-20.4175 6.3883 1.5870
-20.5746 5.6333 1.5808
-21.2205 4.9970 1.6139
-21.3316 4.2195 1.6080
-9.2610 1.4879 0.6929
-9.3062 1.1535 0.6920
-21.7780 1.9069 1.6114
-21.8110 1.1211 1.6080
-22.0137 0.3384 1.6192
-15.0163 -0.3095 1.1034
-9.2924 -0.5264 0.6830
-22.7424 -2.1113 1.6742
-22.6563 -2.9287 1.6727
-9.4231 -1.5645 0.6986
-9.4235 -1.9153 0.7025
-5.7997 -1.3977 0.4353
-9.3248 -2.6056 0.7058
-20.3978 -6.4992 1.5588
-20.6930 -7.4232 1.5990
-21.2930 -8.5148 1.6662
-21.1366 -9.3477 1.6774
-9.3550 -4.5463 0.7541
-20.4530 -10.8660 1.6774
-20.0696 -11.6067 1.6774
-19.6591 -12.3336 1.6774
-9.3991 -6.3791 0.8202
-18.7583 -13.7421 1.6774
-18.2694 -14.4217 1.6774
-17.7554 -15.0837 1.6774
-9.4182 -8.6030 0.9175
-9.4409 -9.2683 0.9508
-9.4393 -9.9584 0.9852
-9.4512 -10.7180 1.0252
-9.4640 -11.5445 1.0701
-9.4781 -12.4494 1.1208
-9.4937 -13.4472 1.1782
-9.5110 -14.5560 1.2437
-9.6683 -16.0278 1.3379
-10.8334 -19.5132 1.5942
-10.1309 -19.9029 1.5942
-9.4142 -20.2667 1.5943
-4.1975 -9.9590 0.7706
-3.7760 -9.9441 0.7581
-3.3671 -9.9296 0.7469
-2.9693 -9.9155 0.7370
-2.7673 -10.6167 0.7809
-2.7118 -12.1836 0.8880
-4.3436 -23.4661 1.6974
-3.4978 -23.6139 1.6974
-2.6468 -23.7302 1.6974
-1.7920 -23.8148 1.6974
-0.9344 -23.8677 1.6974
-0.0753 -23.8888 1.6974
0.7840 -23.8779 1.6974
1.6424 -23.8352 1.6974
2.4986 -23.7605 1.6974
3.3514 -23.6543 1.6974
4.1997 -23.5164 1.6974
5.0421 -23.3471 1.6974
5.8776 -23.1467 1.6974
6.7049 -22.9155 1.6974
7.0653 -21.2758 1.5941
7.8237 -21.0018 1.5941
5.7284 -13.8346 1.0654
5.7480 -12.5813 0.9845
5.7648 -11.5043 0.9163
8.8357 13.8532 1.6074
8.3274 14.1551 1.6074
7.8090 14.4387 1.6074
7.2812 14.7037 1.6074
6.6890 14.8266 1.5941
6.1488 15.0517 1.5941
4.8178 13.1238 1.3712
5.0468 15.4440 1.5941
4.4865 15.6107 1.5941
1.8025 7.2441 0.7328
1.5318 7.2622 0.7288
1.2639 7.2802 0.7258
0.9980 7.2981 0.7236
0.7334 7.3159 0.7224
0.4694 7.3336 0.7221
0.2054 7.3513 0.7228
-0.0594 7.3692 0.7243
-0.7603 17.2520 1.6974
-1.3806 17.2131 1.6974
-1.9990 17.1525 1.6974
-2.6150 17.0702 1.6974
-3.2278 16.9663 1.6974
-3.8365 16.8409 1.6974
-4.4406 16.6942 1.6974
-5.0392 16.5263 1.6974
-5.2896 15.3451 1.5943
-5.8396 15.1482 1.5943
-6.3825 14.9320 1.5943
-6.9176 14.6968 1.5943
-7.4441 14.4428 1.5943
-7.9617 14.1704 1.5943
-8.4694 13.8798 1.5943
-8.9668 13.5713 1.5943
-9.0858 12.7306 1.5323
-9.0999 11.8261 1.4613
-9.1128 11.0001 1.3982
-9.1246 10.2408 1.3419
-9.1356 9.5387 1.2915
-9.1457 8.8860 1.2462
-9.1552 8.2762 1.2055
-9.1641 7.7036 1.1687
-9.1726 7.1636 1.1354
-9.1805 6.6523 1.1054
-9.1881 6.1661 1.0781
-9.1953 5.7022 1.0535
-9.2023 5.2578 1.0312
-9.2089 4.8307 1.0111
-9.2153 4.4189 0.9930
-9.2215 4.0205 0.9767
-9.2276 3.6338 0.9622
-9.2334 3.2576 0.9492
-9.2621 2.8975 0.9401
-9.2768 2.5395 0.9309
-9.2902 2.1872 0.9230
-9.3023 1.8396 0.9163
-9.2610 1.4874 0.9057
-9.3068 1.1531 0.9047
-9.4486 0.8268 0.9143
-9.4803 0.4868 0.9143
-9.4997 0.1456 0.9143
-9.5069 -0.1964 0.9143
-9.2924 -0.5269 0.8941
-9.4844 -0.8810 0.9143
-9.4547 -1.2226 0.9143
-9.4126 -1.5633 0.9143
-9.3623 -1.9033 0.9147
-5.7989 -1.3979 0.5706
-9.3248 -2.6061 0.9254
-9.3560 -2.9816 0.9377
-9.3516 -3.3552 0.9480
-9.3459 -3.7379 0.9596
-9.3486 -4.1350 0.9737
-9.3550 -4.5469 0.9900
-9.3617 -4.9741 1.0082
-9.3686 -5.4186 1.0285
-9.3758 -5.8828 1.0510
-9.3834 -6.3691 1.0760
-9.3914 -6.8806 1.1038
-9.3998 -7.4208 1.1346
-9.4087 -7.9936 1.1688
-9.4182 -8.6037 1.2069
-9.4284 -9.2567 1.2492
-9.4393 -9.9591 1.2965
-9.4512 -10.7188 1.3493
-9.4641 -11.5453 1.4087
-9.4782 -12.4503 1.4757
-9.4937 -13.4482 1.5515
-9.2560 -14.1668 1.5941
-8.7452 -14.4984 1.5941
-8.2223 -14.8112 1.5942
-7.6880 -15.1047 1.5942
-7.1431 -15.3785 1.5942
-4.1981 -9.9611 1.0159
-3.7765 -9.9461 0.9994
-3.3676 -9.9316 0.9848
-2.9696 -9.9175 0.9719
-2.7665 -10.6145 1.0294
-2.7109 -12.1806 1.1708
-2.5149 -13.5873 1.2961
-2.6519 -17.9044 1.6974
-2.0066 -17.9915 1.6974
-1.3584 -18.0548 1.6974
-0.7082 -18.0942 1.6974
-0.0570 -18.1096 1.6974
0.5944 -18.1011 1.6974
1.2450 -18.0685 1.6974
1.8941 -18.0120 1.6974
2.5406 -17.9315 1.6974
2.9900 -16.7430 1.5941
3.5899 -16.6230 1.5941
4.1849 -16.4810 1.5941
4.7741 -16.3172 1.5941
5.3569 -16.1319 1.5941
5.9323 -15.9252 1.5941
5.7284 -13.8351 1.4050
5.7480 -12.5819 1.2982
5.7647 -11.5048 1.2081
7.1666 11.2354 1.6074
6.6992 11.3867 1.5941
6.2828 11.6159 1.5941
5.8586 11.8301 1.5941
5.4273 12.0291 1.5941
4.9893 12.2126 1.5941
4.5453 12.3806 1.5941
4.0957 12.5326 1.5941
3.6412 12.6686 1.5941
1.8030 7.2458 0.9032
1.5323 7.2639 0.8982
1.2643 7.2819 0.8944
0.9983 7.2998 0.8917
0.7336 7.3175 0.8902
0.4696 7.3353 0.8898
0.2055 7.3530 0.8906
-0.0593 7.3709 0.8925
-0.6172 14.0045 1.6974
-1.1207 13.9731 1.6974
-1.6228 13.9238 1.6974
-2.1228 13.8569 1.6974
-2.6202 13.7723 1.6974
-3.1143 13.6703 1.6974
-3.6046 13.5508 1.6974
-4.0904 13.4141 1.6974
-4.5712 13.2603 1.6974
-5.0463 13.0896 1.6974
-5.1810 12.1205 1.5945
-5.6141 11.9271 1.5943
-6.0412 11.7202 1.5943
-6.4607 11.4984 1.5943
-6.8723 11.2619 1.5943
-7.2754 11.0108 1.5943
-7.6695 10.7455 1.5943
-8.0541 10.4664 1.5943
-8.4287 10.1737 1.5943
-8.7928 9.8678 1.5943
-9.1356 9.5381 1.5925
-9.1457 8.8854 1.5368
-9.1552 8.2756 1.4867
-9.1642 7.7030 1.4415
-9.1726 7.1631 1.4006
-9.1805 6.6517 1.3637
-9.1881 6.1656 1.3303
-9.1953 5.7017 1.3000
-9.2023 5.2573 1.2727
-9.2089 4.8302 1.2481
-9.2153 4.4184 1.2259
-9.2215 4.0199 1.2059
-9.2276 3.6333 1.1881
-9.2334 3.2571 1.1723
-9.2391 2.8898 1.1583
-9.2447 2.5302 1.1461
-9.2502 2.1773 1.1356
-9.2557 1.8299 1.1267
-9.2610 1.4870 1.1193
-9.2663 1.1476 1.1135
-9.2715 0.8109 1.1092
-9.2768 0.4759 1.1063
-9.2820 0.1418 1.1048
-9.2872 -0.1924 1.1048
-9.2924 -0.5274 1.1062
-9.2976 -0.8641 1.1090
-9.3029 -1.2035 1.1133
-9.3083 -1.5465 1.1191
-9.3137 -1.8939 1.1264
-5.7982 -1.3980 0.7064
-9.3248 -2.6066 1.1459
-9.3305 -2.9740 1.1582
-9.3364 -3.3503 1.1724
-9.3424 -3.7370 1.1885
-9.3486 -4.1355 1.2066
-9.3550 -4.5475 1.2270
-9.3617 -4.9747 1.2497
-9.3686 -5.4192 1.2750
-9.3758 -5.8834 1.3032
-9.3834 -6.3697 1.3344
-9.3914 -6.8813 1.3690
-9.3998 -7.4214 1.4074
-9.4087 -7.9943 1.4501
-9.4182 -8.6045 1.4974
-9.4284 -9.2575 1.5502
-9.3520 -9.8677 1.5941
-8.9957 -10.2031 1.5941
-8.6274 -10.5254 1.5941
-8.2473 -10.8342 1.5942
-7.8560 -11.1291 1.5942
-7.4540 -11.4096 1.5942
-7.0419 -11.6754 1.5942
-6.6202 -11.9261 1.5942
-6.1894 -12.1612 1.5943
-5.7502 -12.3806 1.5943
-4.1987 -9.9632 1.2623
-3.7771 -9.9482 1.2419
-3.3680 -9.9336 1.2238
-2.9700 -9.9195 1.2078
-2.7658 -10.6123 1.2789
-3.1624 -14.2105 1.6974
-2.6499 -14.3178 1.6974
-2.1336 -14.4064 1.6974
-1.6143 -14.4760 1.6974
-1.0928 -14.5265 1.6974
-0.5697 -14.5578 1.6974
-0.0458 -14.5700 1.6974
0.4782 -14.5629 1.6974
1.0017 -14.5366 1.6974
1.5238 -14.4911 1.6974
2.0439 -14.4266 1.6974
2.4736 -13.8520 1.6393
2.8882 -13.3742 1.5941
3.3669 -13.2603 1.5941
3.8412 -13.1289 1.5941
4.3102 -12.9803 1.5941
4.7733 -12.8146 1.5941
5.2301 -12.6321 1.5941
5.6797 -12.4330 1.5941
5.7647 -11.5053 1.5012
5.9731 9.3636 1.5941
5.6303 9.5692 1.5941
5.2806 9.7625 1.5941
4.9244 9.9431 1.5941
4.5621 10.1109 1.5941
4.1942 10.2657 1.5941
3.8211 10.4073 1.5941
3.4433 10.5356 1.5941
3.0613 10.6504 1.5941
0.8329 3.3471 0.4963
0.7117 3.3735 0.4962
0.5896 3.3958 0.4961
0.4669 3.4139 0.4960
0.3437 3.4278 0.4959
0.2201 3.4374 0.4959
0.0962 3.4429 0.4959
-0.0277 3.4441 0.4959
-0.1516 3.4410 0.4960
-0.2754 3.4338 0.4961
-0.3989 3.4223 0.4961
-0.5219 3.4066 0.4963
-0.6443 3.3867 0.4964
-0.7661 3.3626 0.4966
-3.0309 11.3938 1.6974
-3.4394 11.2786 1.6974
-3.8435 11.1490 1.6974
-4.2428 11.0051 1.6974
-4.6369 10.8472 1.6974
-5.0252 10.6754 1.6974
-5.1978 10.0835 1.6316
-5.4313 9.6658 1.5943
-5.7771 9.4665 1.5943
-6.1156 9.2550 1.5943
-6.4465 9.0315 1.5943
-6.7694 8.7964 1.5943
-7.0838 8.5499 1.5943
-7.3894 8.2923 1.5943
-7.6857 8.0239 1.5943
-7.9724 7.7450 1.5943
-8.2492 7.4560 1.5943
-8.5156 7.1573 1.5943
-8.7712 6.8491 1.5943
-9.0159 6.5319 1.5943
-9.1881 6.1651 1.5837
-9.1953 5.7011 1.5479
-9.2023 5.2568 1.5155
-9.2089 4.8297 1.4863
-9.2153 4.4178 1.4600
-9.2215 4.0195 1.4364
-9.2276 3.6329 1.4153
-9.2334 3.2566 1.3965
-9.2392 2.8893 1.3800
-9.2448 2.5298 1.3656
-9.2503 2.1768 1.3533
-9.2557 1.8294 1.3428
-9.2610 1.4865 1.3342
-9.2663 1.1471 1.3274
-9.2715 0.8104 1.3223
-9.2768 0.4754 1.3190
-9.2820 0.1413 1.3174
-9.2872 -0.1929 1.3175
-9.2924 -0.5279 1.3193
-9.2976 -0.8646 1.3229
-9.3029 -1.2040 1.3281
-9.3083 -1.5470 1.3352
-9.3137 -1.8944 1.3441
-5.7974 -1.3982 0.8429
-9.3248 -2.6071 1.3677
-9.3305 -2.9745 1.3825
-9.3364 -3.3508 1.3996
-9.3424 -3.7375 1.4189
-9.3486 -4.1361 1.4407
-9.3550 -4.5480 1.4652
-9.3617 -4.9753 1.4925
-9.3686 -5.4198 1.5229
-9.3758 -5.8840 1.5566
-9.3834 -6.3703 1.5941
-9.1530 -6.7072 1.5941
-8.9104 -7.0356 1.5941
-8.6558 -7.3552 1.5941
-8.3897 -7.6655 1.5942
-8.1124 -7.9660 1.5942
-7.8243 -8.2564 1.5942
-7.5256 -8.5362 1.5942
-7.2168 -8.8052 1.5942
-6.8983 -9.0628 1.5942
-6.5705 -9.3087 1.5942
-6.2339 -9.5427 1.5942
-5.8888 -9.7642 1.5943
-5.5358 -9.9731 1.5943
-5.5098 -10.8266 1.6974
-5.1184 -11.0211 1.6974
-4.7201 -11.2012 1.6974
-4.3154 -11.3668 1.6974
-3.9048 -11.5175 1.6974
-2.9704 -9.9215 1.4451
-2.8350 -10.8789 1.5684
-2.6433 -11.8784 1.6974
-2.2148 -11.9678 1.6974
-1.7832 -12.0415 1.6974
-1.3492 -12.0993 1.6974
-0.9133 -12.1413 1.6974
-0.4761 -12.1673 1.6974
-0.0382 -12.1773 1.6974
0.3997 -12.1713 1.6974
0.8372 -12.1493 1.6974
1.2736 -12.1113 1.6974
1.7082 -12.0574 1.6974
2.1406 -11.9876 1.6974
2.5038 -11.5945 1.6535
2.8140 -11.0831 1.5941
3.2104 -10.9735 1.5941
3.6025 -10.8495 1.5941
3.9897 -10.7114 1.5941
4.3716 -10.5591 1.5941
4.7476 -10.3931 1.5941
5.1172 -10.2135 1.5941
5.1464 8.0672 1.5941
4.8514 8.2447 1.5941
4.5502 8.4116 1.5941
4.2435 8.5676 1.5941
3.9314 8.7125 1.5941
3.6145 8.8463 1.5941
3.2931 8.9686 1.5941
2.9676 9.0795 1.5941
0.8256 2.8721 0.4988
0.7214 2.8987 0.4987
0.6164 2.9218 0.4986
0.5107 2.9412 0.4985
0.4044 2.9570 0.4984
0.2977 2.9691 0.4984
0.1907 2.9775 0.4984
0.0834 2.9822 0.4984
-0.0240 2.9833 0.4984
-0.1313 2.9806 0.4984
-0.2385 2.9743 0.4985
-0.3455 2.9643 0.4986
-0.4520 2.9506 0.4987
-0.5581 2.9332 0.4988
-0.6635 2.9122 0.4989
-0.7682 2.8876 0.4991
-2.9645 9.7209 1.6974
-3.3128 9.6090 1.6974
-3.6569 9.4849 1.6974
-3.9964 9.3485 1.6974
-4.3310 9.2002 1.6974
-4.6601 9.0400 1.6974
-4.9834 8.8683 1.6974
-5.2199 8.5530 1.6716
-5.2701 7.9750 1.5943
-5.5550 7.7821 1.5943
-5.8330 7.5792 1.5943
-6.1037 7.3665 1.5943
-6.3667 7.1442 1.5943
-6.6217 6.9126 1.5943
-6.8684 6.6720 1.5943
-7.1064 6.4227 1.5943
-7.3355 6.1650 1.5943
-7.5553 5.8992 1.5943
-7.7656 5.6256 1.5943
-7.9661 5.3446 1.5943
-8.1565 5.0566 1.5943
-8.3366 4.7618 1.5943
-8.5061 4.4606 1.5943
-8.6648 4.1534 1.5943
-8.8125 3.8407 1.5943
-8.9490 3.5227 1.5943
-9.0741 3.1999 1.5943
-9.1876 2.8727 1.5943
-9.2448 2.5293 1.5866
-9.2503 2.1763 1.5723
-9.2557 1.8289 1.5603
-9.2610 1.4860 1.5504
-9.2663 1.1466 1.5426
-9.2716 0.8099 1.5369
-9.2768 0.4749 1.5332
-9.2820 0.1408 1.5314
-9.2872 -0.1934 1.5316
-9.2924 -0.5284 1.5339
-9.2977 -0.8651 1.5381
-9.3029 -1.2045 1.5444
-9.3083 -1.5475 1.5527
-9.3137 -1.8949 1.5632
-5.7316 -1.3826 0.9692
-9.3248 -2.6076 1.5909
-9.2494 -2.9491 1.5943
-9.1419 -3.2815 1.5943
-9.0223 -3.6100 1.5943
-8.8910 -3.9341 1.5943
-8.7479 -4.2534 1.5943
-8.5933 -4.5675 1.5943
-8.4268 -4.8755 1.5942
-8.2498 -5.1778 1.5942
-8.0619 -5.4737 1.5942
-7.8633 -5.7627 1.5942
-7.6543 -6.0444 1.5942
-7.4352 -6.3185 1.5942
-7.2061 -6.5846 1.5942
-6.9675 -6.8423 1.5942
-6.7195 -7.0912 1.5942
-6.4626 -7.3311 1.5942
-6.1971 -7.5616 1.5942
-5.9233 -7.7823 1.5943
-5.6415 -7.9931 1.5943
-5.4949 -8.4120 1.6368
-5.3825 -8.9253 1.6974
-5.0595 -9.1157 1.6974
-4.7297 -9.2944 1.6974
-4.3936 -9.4609 1.6974
-4.0515 -9.6152 1.6974
-3.7040 -9.7569 1.6974
-3.3514 -9.8859 1.6974
-2.9943 -10.0020 1.6974
-2.6332 -10.1050 1.6974
-2.2685 -10.1948 1.6974
-1.9007 -10.2713 1.6974
-1.5303 -10.3343 1.6974
-1.1578 -10.3838 1.6974
-0.7837 -10.4197 1.6974
-0.4085 -10.4418 1.6974
-0.0328 -10.4503 1.6974
0.3431 -10.4451 1.6974
0.7185 -10.4262 1.6974
1.0929 -10.3936 1.6974
1.4659 -10.3474 1.6974
1.8370 -10.2876 1.6974
2.2056 -10.2143 1.6974
2.5287 -9.9596 1.6692
2.7551 -9.4176 1.5941
3.0917 -9.3114 1.5941
3.4241 -9.1930 1.5941
3.7519 -9.0626 1.5941
4.0747 -8.9204 1.5941
4.3920 -8.7665 1.5941
4.5167 7.0796 1.5941
4.2579 7.2356 1.5941
3.9937 7.3823 1.5941
3.7246 7.5195 1.5941
3.4508 7.6469 1.5941
3.1727 7.7645 1.5941
2.8907 7.8721 1.5941
0.8184 2.5036 0.5008
0.7274 2.5304 0.5007
0.6357 2.5540 0.5005
0.5432 2.5744 0.5005
0.4501 2.5916 0.5004
0.3564 2.6056 0.5003
0.2624 2.6163 0.5003
0.1680 2.6238 0.5003
0.0735 2.6280 0.5003
-0.0211 2.6289 0.5003
-0.1157 2.6265 0.5003
-0.2102 2.6209 0.5004
-0.3044 2.6120 0.5005
-0.3983 2.5999 0.5005
-0.4918 2.5845 0.5006
-0.5846 2.5659 0.5008
-0.6768 2.5441 0.5009
-0.7682 2.5191 0.5011
-2.9082 8.4351 1.6974
-3.2102 8.3260 1.6974
-3.5082 8.2062 1.6974
-3.8019 8.0758 1.6974
-4.0907 7.9350 1.6974
-4.3744 7.7840 1.6974
-4.6526 7.6231 1.6974
-4.9249 7.4522 1.6974
-5.1910 7.2718 1.6974
-5.2455 6.8154 1.6335
-5.3570 6.4648 1.5943
-5.5876 6.2695 1.5943
-5.8112 6.0661 1.5943
-6.0274 5.8547 1.5943
-6.2361 5.6357 1.5943
-6.4368 5.4093 1.5943
-6.6294 5.1758 1.5943
-6.8136 4.9356 1.5943
-6.9892 4.6888 1.5943
-7.1559 4.4359 1.5943
-7.3136 4.1770 1.5943
-7.4619 3.9126 1.5943
-7.6008 3.6430 1.5943
-7.7299 3.3684 1.5943
-7.8492 3.0894 1.5943
-7.9585 2.8061 1.5943
-8.0576 2.5190 1.5943
-8.1465 2.2284 1.5943
-8.2248 1.9346 1.5943
-8.2927 1.6382 1.5943
-8.3499 1.3393 1.5943
-8.3963 1.0385 1.5943
-8.4319 0.7361 1.5943
-8.4567 0.4325 1.5943
-8.4706 0.1280 1.5943
-8.4735 -0.1769 1.5943
-8.4654 -0.4818 1.5943
-8.4464 -0.7864 1.5943
-8.4164 -1.0902 1.5943
-8.3755 -1.3928 1.5943
-8.3237 -1.6940 1.5943
-5.7258 -1.3815 1.1050
-8.1877 -2.2901 1.5943
-8.1036 -2.5842 1.5943
-8.0089 -2.8753 1.5943
-7.9037 -3.1629 1.5943
-7.7881 -3.4466 1.5943
-7.6624 -3.7261 1.5943
-7.5265 -4.0009 1.5943
-7.3808 -4.2708 1.5943
-7.2254 -4.5353 1.5943
-7.0601 -4.7940 1.5942
-6.8858 -5.0468 1.5942
-6.7025 -5.2932 1.5942
-6.5102 -5.5330 1.5942
-6.3093 -5.7656 1.5942
-6.1001 -5.9909 1.5943
-5.8827 -6.2086 1.5943
-5.6576 -6.4183 1.5943
-5.4744 -6.6803 1.6088
-5.4732 -7.1915 1.6829
-5.2573 -7.4492 1.6974
-4.9874 -7.6357 1.6974
-4.7109 -7.8122 1.6974
-4.4281 -7.9786 1.6974
-4.1393 -8.1347 1.6974
-3.8450 -8.2802 1.6974
-3.5455 -8.4150 1.6974
-3.2413 -8.5387 1.6974
-2.9327 -8.6514 1.6974
-2.6202 -8.7528 1.6974
-2.3041 -8.8427 1.6974
-1.9849 -8.9211 1.6974
-1.6630 -8.9879 1.6974
-1.3389 -9.0429 1.6974
-1.0130 -9.0861 1.6974
-0.6857 -9.1173 1.6974
-0.3574 -9.1367 1.6974
-0.0286 -9.1440 1.6974
0.3002 -9.1394 1.6974
0.6287 -9.1229 1.6974
0.9563 -9.0944 1.6974
1.2827 -9.0539 1.6974
1.6073 -9.0016 1.6974
1.9299 -8.9376 1.6974
2.2499 -8.8618 1.6974
2.5476 -8.7086 1.6846
2.7052 -8.1479 1.5941
2.9961 -8.0444 1.5941
3.2830 -7.9304 1.5941
3.5655 -7.8061 1.5941
3.8433 -7.6716 1.5941
4.0205 6.3014 1.5941
3.7903 6.4405 1.5941
3.5552 6.5713 1.5941
3.3157 6.6936 1.5941
3.0721 6.8072 1.5941
2.8246 6.9120 1.5941
0.8110 2.2084 0.5024
0.7307 2.2353 0.5022
0.6495 2.2593 0.5021
0.5676 2.2805 0.5020
0.4850 2.2988 0.5019
0.4019 2.3142 0.5019
0.3183 2.3267 0.5018
0.2343 2.3363 0.5018
0.1501 2.3430 0.5018
0.0656 2.3468 0.5018
-0.0189 2.3476 0.5018
-0.1033 2.3455 0.5018
-0.1877 2.3405 0.5019
-0.2719 2.3325 0.5019
-0.3557 2.3216 0.5020
-0.4391 2.3078 0.5021
-0.5220 2.2911 0.5022
-0.6043 2.2715 0.5023
-0.6859 2.2491 0.5025
-0.7667 2.2238 0.5026
-2.8581 7.4125 1.6974
-3.1234 7.3057 1.6974
-3.3848 7.1895 1.6974
-3.6419 7.0641 1.6974
-3.8944 6.9296 1.6974
-4.1420 6.7861 1.6974
-4.3843 6.6339 1.6974
-4.6211 6.4730 1.6974
-4.8521 6.3039 1.6974
-5.0770 6.1265 1.6974
-5.2598 5.9013 1.6859
-5.2661 5.4967 1.6231
-5.3650 5.2108 1.5943
-5.5505 5.0158 1.5943
-5.7290 4.8141 1.5943
-5.9002 4.6062 1.5943
-6.0640 4.3922 1.5943
-6.2200 4.1724 1.5943
-6.3681 3.9471 1.5943
-6.5082 3.7166 1.5943
-6.6399 3.4812 1.5943
-6.7632 3.2412 1.5943
-6.8778 2.9967 1.5943
-6.9837 2.7483 1.5943
-7.0806 2.4962 1.5943
-7.1685 2.2406 1.5943
-7.2472 1.9820 1.5943
-7.3166 1.7206 1.5943
-7.3766 1.4568 1.5943
-7.4271 1.1909 1.5943
-7.4681 0.9233 1.5943
-7.4994 0.6543 1.5943
-7.5211 0.3842 1.5943
-7.5330 0.1135 1.5943
-7.5353 -0.1577 1.5943
-7.5278 -0.4288 1.5943
-7.5105 -0.6996 1.5943
-7.4835 -0.9697 1.5943
-7.4467 -1.2388 1.5943
-7.4003 -1.5065 1.5943
-5.7200 -1.3804 1.2417
-7.2787 -2.0362 1.5943
-7.2036 -2.2976 1.5943
-7.1191 -2.5563 1.5943
-7.0252 -2.8118 1.5943
-6.9222 -3.0638 1.5943
-6.8101 -3.3120 1.5943
-6.6891 -3.5562 1.5943
-6.5593 -3.7959 1.5943
-6.4209 -4.0308 1.5943
-6.2740 -4.2606 1.5943
-6.1188 -4.4851 1.5943
-5.9556 -4.7038 1.5943
-5.7845 -4.9166 1.5943
-5.6058 -5.1231 1.5943
-5.4548 -5.3576 1.6046
-5.4513 -5.7537 1.6629
-5.3510 -6.0710 1.6974
-5.1307 -6.2614 1.6974
-4.9036 -6.4436 1.6974
-4.6700 -6.6175 1.6974
-4.4301 -6.7829 1.6974
-4.1844 -6.9395 1.6974
-3.9330 -7.0871 1.6974
-3.6764 -7.2256 1.6974
-3.4149 -7.3546 1.6974
-3.1489 -7.4741 1.6974
-2.8786 -7.5839 1.6974
-2.6045 -7.6838 1.6974
-2.3269 -7.7737 1.6974
-2.0462 -7.8534 1.6974
-1.7627 -7.9229 1.6974
-1.4768 -7.9821 1.6974
-1.1890 -8.0309 1.6974
-0.8995 -8.0691 1.6974
-0.6088 -8.0968 1.6974
-0.3173 -8.1139 1.6974
-0.0254 -8.1205 1.6974
0.2666 -8.1163 1.6974
0.5583 -8.1016 1.6974
0.8492 -8.0763 1.6974
1.1390 -8.0404 1.6974
1.4274 -7.9940 1.6974
1.7138 -7.9371 1.6974
1.9980 -7.8699 1.6974
2.2795 -7.7924 1.6974
2.5580 -7.7047 1.6974
2.6607 -7.1443 1.5941
2.9156 -7.0431 1.5941
3.1665 -6.9328 1.5941
3.4132 -6.8135 1.5941
3.6192 5.6720 1.5941
3.4120 5.7973 1.5941
3.2005 5.9151 1.5941
2.9849 6.0253 1.5941
2.7695 6.1362 1.5963
0.8034 1.9659 0.5036
0.7318 1.9927 0.5035
0.6594 2.0170 0.5034
0.5862 2.0388 0.5033
0.5123 2.0579 0.5032
0.4378 2.0745 0.5032
0.3627 2.0885 0.5031
0.2873 2.0998 0.5031
0.2115 2.1085 0.5030
0.1355 2.1146 0.5030
0.0593 2.1180 0.5030
-0.0170 2.1187 0.5030
-0.0933 2.1168 0.5030
-0.1694 2.1123 0.5031
-0.2454 2.1050 0.5031
-0.3210 2.0952 0.5032
-0.3963 2.0827 0.5033
-0.4711 2.0676 0.5034
-0.5454 2.0498 0.5035
-0.6190 2.0295 0.5036
-0.6919 2.0066 0.5038
-0.7640 1.9812 0.5039
-2.8120 6.5771 1.6974
-3.0473 6.4724 1.6974
-3.2787 6.3593 1.6974
-3.5060 6.2381 1.6974
-3.7288 6.1088 1.6974
-3.9469 5.9717 1.6974
-4.1600 5.8268 1.6974
-4.3679 5.6744 1.6974
-4.5702 5.5147 1.6974
-4.7667 5.3478 1.6974
-4.9572 5.1739 1.6974
-5.1414 4.9933 1.6974
-5.2783 4.7694 1.6843
-5.2847 4.4404 1.6339
-5.3105 4.1454 1.5943
-5.4577 3.9527 1.5943
-5.5980 3.7548 1.5943
-5.7311 3.5520 1.5943
-5.8570 3.3444 1.5943
-5.9753 3.1324 1.5943
-6.0861 2.9163 1.5943
-6.1890 2.6963 1.5943
-6.2841 2.4726 1.5943
-6.3711 2.2457 1.5943
-6.4499 2.0157 1.5943
-6.5205 1.7829 1.5943
-6.5827 1.5477 1.5943
-6.6364 1.3103 1.5943
-6.6816 1.0710 1.5943
-6.7182 0.8303 1.5943
-6.7462 0.5882 1.5943
-6.7654 0.3453 1.5943
-6.7759 0.1017 1.5943
-6.7777 -0.1422 1.5943
-6.7706 -0.3860 1.5943
-6.7548 -0.6296 1.5943
-6.7303 -0.8725 1.5943
-6.6970 -1.1145 1.5943
-6.6550 -1.3551 1.5943
-5.7141 -1.3793 1.3794
-6.5451 -1.8314 1.5943
-6.4773 -2.0664 1.5943
-6.4011 -2.2988 1.5943
-6.3165 -2.5285 1.5943
-6.2236 -2.7550 1.5943
-6.1226 -2.9781 1.5943
-6.0136 -3.1974 1.5943
-5.8967 -3.4128 1.5943
-5.7720 -3.6238 1.5943
-5.6398 -3.8303 1.5943
-5.5001 -4.0320 1.5943
-5.4425 -4.2990 1.6209
-5.4422 -4.6261 1.6687
-5.3643 -4.9028 1.6974
-5.1860 -5.0940 1.6974
-5.0008 -5.2787 1.6974
-4.8091 -5.4566 1.6974
-4.6109 -5.6275 1.6974
-4.4067 -5.7911 1.6974
-4.1966 -5.9472 1.6974
-3.9810 -6.0957 1.6974
-3.7601 -6.2363 1.6974
-3.5341 -6.3688 1.6974
-3.3035 -6.4931 1.6974
-3.0685 -6.6089 1.6974
-2.8294 -6.7161 1.6974
-2.5865 -6.8147 1.6974
-2.3401 -6.9043 1.6974
-2.0907 -6.9850 1.6974
-1.8384 -7.0565 1.6974
-1.5837 -7.1189 1.6974
-1.3268 -7.1720 1.6974
-1.0682 -7.2157 1.6974
-0.8081 -7.2500 1.6974
-0.5470 -7.2748 1.6974
-0.2851 -7.2902 1.6974
-0.0228 -7.2960 1.6974
0.2396 -7.2923 1.6974
0.5016 -7.2791 1.6974
0.7630 -7.2563 1.6974
1.0234 -7.2241 1.6974
1.2824 -7.1824 1.6974
1.5398 -7.1314 1.6974
1.7951 -7.0710 1.6974
2.0480 -7.0014 1.6974
2.2982 -6.9227 1.6974
2.5454 -6.8349 1.6974
2.6196 -6.3284 1.5941
2.8451 -6.2294 1.5941
3.0668 -6.1223 1.5941
3.2875 5.1518 1.5941
3.0994 5.2658 1.5941
2.9073 5.3729 1.5941
2.7489 5.5486 1.6161
0.7955 1.7624 0.5047
0.7312 1.7892 0.5046
0.6661 1.8136 0.5045
0.6002 1.8358 0.5044
0.5336 1.8557 0.5043
0.4663 1.8732 0.5042
0.3985 1.8883 0.5042
0.3302 1.9011 0.5041
0.2615 1.9114 0.5041
0.1925 1.9194 0.5040
0.1233 1.9249 0.5040
0.0540 1.9280 0.5040
-0.0155 1.9287 0.5040
-0.0849 1.9269 0.5041
-0.1542 1.9228 0.5041
-0.2233 1.9162 0.5042
-0.2922 1.9071 0.5042
-0.3607 1.8957 0.5043
-0.4288 1.8819 0.5044
-0.4964 1.8658 0.5045
-0.5634 1.8472 0.5046
-0.6297 1.8263 0.5047
-0.6953 1.8031 0.5049
-0.7601 1.7777 0.5050
-0.8239 1.7499 0.5052
-2.9785 5.7768 1.6974
-3.1850 5.6666 1.6974
-3.3873 5.5491 1.6974
-3.5854 5.4244 1.6974
-3.7790 5.2928 1.6974
-3.9677 5.1542 1.6974
-4.1514 5.0090 1.6974
-4.3298 4.8573 1.6974
-4.5028 4.6993 1.6974
-4.6700 4.5352 1.6974
-4.8313 4.3651 1.6974
-4.9864 4.1894 1.6974
-5.1352 4.0082 1.6974
-5.2774 3.8218 1.6974
-5.3021 3.5560 1.6626
-5.3074 3.2890 1.6257
-5.3332 3.0450 1.5985
-5.4264 2.8444 1.5943
-5.5269 2.6480 1.5943
-5.6202 2.4481 1.5943
-5.7064 2.2450 1.5943
-5.7852 2.0388 1.5943
-5.8566 1.8299 1.5943
-5.9205 1.6185 1.5943
-5.9768 1.4049 1.5943
-6.0254 1.1893 1.5943
-6.0663 0.9721 1.5943
-6.0993 0.7535 1.5943
-6.1245 0.5337 1.5943
-6.1418 0.3131 1.5943
-6.1511 0.0920 1.5943
-6.1525 -0.1294 1.5943
-6.1459 -0.3508 1.5943
-6.1314 -0.5718 1.5943
-6.1089 -0.7923 1.5943
-6.0785 -1.0119 1.5943
-6.0402 -1.2302 1.5943
-5.7082 -1.3782 1.5183
-5.9400 -1.6624 1.5943
-5.8783 -1.8756 1.5943
-5.8090 -2.0865 1.5943
-5.7320 -2.2948 1.5943
-5.6476 -2.5003 1.5943
-5.5558 -2.7027 1.5943
-5.4567 -2.9017 1.5943
-5.4254 -3.1404 1.6166
-5.4231 -3.4052 1.6509
-5.4275 -3.6865 1.6910
-5.3129 -3.8950 1.6974
-5.1708 -4.0847 1.6974
-5.0220 -4.2693 1.6974
-4.8665 -4.4483 1.6974
-4.7047 -4.6216 1.6974
-4.5366 -4.7890 1.6974
-4.3625 -4.9503 1.6974
-4.1827 -5.1052 1.6974
-3.9973 -5.2535 1.6974
-3.8067 -5.3950 1.6974
-3.6110 -5.5296 1.6974
-3.4106 -5.6570 1.6974
-3.2056 -5.7771 1.6974
-2.9963 -5.8897 1.6974
-2.7831 -5.9947 1.6974
-2.5662 -6.0918 1.6974
-2.3458 -6.1811 1.6974
-2.1224 -6.2623 1.6974
-1.8961 -6.3354 1.6974
-1.6673 -6.4002 1.6974
-1.4363 -6.4567 1.6974
-1.2033 -6.5048 1.6974
-0.9687 -6.5444 1.6974
-0.7329 -6.5755 1.6974
-0.4960 -6.5980 1.6974
-0.2585 -6.6119 1.6974
-0.0206 -6.6171 1.6974
0.2173 -6.6137 1.6974
0.4549 -6.6017 1.6974
0.6920 -6.5811 1.6974
0.9281 -6.5519 1.6974
1.1631 -6.5141 1.6974
1.3965 -6.4678 1.6974
1.6280 -6.4131 1.6974
1.8574 -6.3500 1.6974
2.0844 -6.2787 1.6974
2.3085 -6.1992 1.6974
2.5297 -6.1116 1.6974
2.6048 -5.7037 1.6092
2.7815 -5.5530 1.5941
3.0086 4.7144 1.5941
2.8364 4.8187 1.5941
2.7414 5.0660 1.6425
0.7872 1.5888 0.5057
0.7292 1.6154 0.5055
0.6703 1.6400 0.5054
0.6106 1.6625 0.5053
0.5502 1.6829 0.5052
0.4892 1.7011 0.5051
0.4275 1.7172 0.5051
0.3653 1.7311 0.5050
0.3027 1.7428 0.5050
0.2398 1.7523 0.5049
0.1765 1.7596 0.5049
0.1131 1.7647 0.5049
0.0495 1.7675 0.5049
-0.0142 1.7682 0.5049
-0.0778 1.7666 0.5049
-0.1414 1.7627 0.5050
-0.2048 1.7567 0.5050
-0.2679 1.7484 0.5051
-0.3307 1.7379 0.5051
-0.3931 1.7252 0.5052
-0.4551 1.7103 0.5053
-0.5165 1.6933 0.5054
-0.5773 1.6741 0.5055
-0.6374 1.6528 0.5057
-0.6967 1.6294 0.5058
-0.7552 1.6039 0.5059
-0.8128 1.5764 0.5061
-2.9149 5.1859 1.6974
-3.1001 5.0783 1.6974
-3.2813 4.9641 1.6974
-3.4584 4.8435 1.6974
-3.6311 4.7167 1.6974
-3.7992 4.5837 1.6974
-3.9624 4.4448 1.6974
-4.1206 4.3002 1.6974
-4.2735 4.1499 1.6974
-4.4211 3.9942 1.6974
-4.5629 3.8333 1.6974
-4.6990 3.6675 1.6974
-4.8290 3.4968 1.6974
-4.9529 3.3215 1.6974
-5.0705 3.1419 1.6974
-5.1816 2.9582 1.6974
-5.2861 2.7705 1.6974
-5.3303 2.5535 1.6805
-5.3339 2.3231 1.6537
-5.3404 2.1007 1.6308
-5.3484 1.8846 1.6110
-5.3580 1.6738 1.5943
-5.4163 1.4804 1.5943
-5.4676 1.2849 1.5943
-5.5120 1.0877 1.5943
-5.5492 0.8889 1.5943
-5.5793 0.6889 1.5943
-5.6022 0.4879 1.5943
-5.6178 0.2861 1.5943
-5.6262 0.0838 1.5943
-5.6273 -0.1187 1.5943
-5.6212 -0.3211 1.5943
-5.6077 -0.5233 1.5943
-5.5870 -0.7249 1.5943
-5.5763 -0.9286 1.5992
-5.5239 -1.1254 1.5943
-5.4815 -1.3238 1.5943
-5.4320 -1.5206 1.5943
-5.4064 -1.7254 1.6035
-5.4054 -1.9419 1.6223
-5.4039 -2.1638 1.6437
-5.4074 -2.3943 1.6694
-5.4084 -2.6313 1.6974
-5.3118 -2.8250 1.6974
-5.2082 -3.0150 1.6974
-5.0979 -3.2013 1.6974
-4.9808 -3.3835 1.6974
-4.8572 -3.5613 1.6974
-4.7273 -3.7347 1.6974
-4.5911 -3.9033 1.6974
-4.4489 -4.0669 1.6974
-4.3008 -4.2253 1.6974
-4.1471 -4.3782 1.6974
-3.9879 -4.5255 1.6974
-3.8234 -4.6670 1.6974
-3.6539 -4.8025 1.6974
-3.4796 -4.9318 1.6974
-3.3007 -5.0547 1.6974
-3.1174 -5.1711 1.6974
-2.9300 -5.2808 1.6974
-2.7387 -5.3836 1.6974
-2.5437 -5.4795 1.6974
-2.3454 -5.5682 1.6974
-2.1440 -5.6497 1.6974
-1.9398 -5.7239 1.6974
-1.7329 -5.7907 1.6974
-1.5238 -5.8499 1.6974
-1.3126 -5.9014 1.6974
-1.0997 -5.9453 1.6974
-0.8853 -5.9815 1.6974
-0.6698 -6.0098 1.6974
-0.4533 -6.0304 1.6974
-0.2362 -6.0430 1.6974
-0.0188 -6.0478 1.6974
0.1986 -6.0447 1.6974
0.4158 -6.0337 1.6974
0.6324 -6.0149 1.6974
0.8483 -5.9882 1.6974
1.0630 -5.9537 1.6974
1.2763 -5.9114 1.6974
1.4879 -5.8614 1.6974
1.6976 -5.8038 1.6974
1.9050 -5.7386 1.6974
2.1099 -5.6660 1.6974
2.3120 -5.5860 1.6974
2.5111 -5.4987 1.6974
2.6062 -5.2033 1.6343
2.7705 4.3410 1.5941
0.8301 1.4101 0.5066
0.7785 1.4385 0.5065
0.7259 1.4649 0.5063
0.6724 1.4896 0.5062
0.6182 1.5123 0.5061
0.5631 1.5331 0.5060
0.5074 1.5519 0.5059
0.4511 1.5687 0.5059
0.3943 1.5836 0.5058
0.3370 1.5964 0.5057
0.2792 1.6073 0.5057
0.2212 1.6161 0.5057
0.1628 1.6228 0.5056
0.1043 1.6275 0.5056
0.0456 1.6302 0.5056
-0.0131 1.6307 0.5056
-0.0718 1.6292 0.5056
-0.1304 1.6257 0.5057
-0.1888 1.6201 0.5057
-0.2471 1.6124 0.5058
-0.3050 1.6027 0.5058
-0.3626 1.5910 0.5059
-0.4197 1.5773 0.5060
-0.4763 1.5615 0.5061
-0.5324 1.5438 0.5062
-0.5878 1.5241 0.5063
-0.6425 1.5025 0.5065
-0.6964 1.4789 0.5066
-0.7495 1.4535 0.5067
-0.8017 1.4262 0.5069
-2.8549 4.6764 1.6974
-3.0218 4.5712 1.6974
-3.1848 4.4601 1.6974
-3.3438 4.3432 1.6974
-3.4985 4.2207 1.6974
-3.6488 4.0928 1.6974
-3.7944 3.9595 1.6974
-3.9352 3.8211 1.6974
-4.0710 3.6777 1.6974
-4.2015 3.5295 1.6974
-4.3267 3.3767 1.6974
-4.4464 3.2194 1.6974
-4.5604 3.0580 1.6974
-4.6686 2.8926 1.6974
-4.7708 2.7233 1.6974
-4.8669 2.5505 1.6974
-4.9567 2.3743 1.6974
-5.0402 2.1949 1.6974
-5.1173 2.0127 1.6974
-5.1877 1.8277 1.6974
-5.2515 1.6403 1.6974
-5.3086 1.4507 1.6974
-5.3505 1.2571 1.6947
-5.3536 1.0561 1.6821
-5.3567 0.8578 1.6718
-5.3598 0.6615 1.6638
-5.3628 0.4667 1.6580
-5.3658 0.2730 1.6543
-5.3688 0.0797 1.6528
-5.3718 -0.1136 1.6535
-5.3749 -0.3074 1.6562
-5.3779 -0.5021 1.6612
-5.3810 -0.6985 1.6683
-5.3840 -0.8969 1.6777
-5.3872 -1.0979 1.6894
-5.3708 -1.2974 1.6974
-5.3222 -1.4901 1.6974
-5.2666 -1.6811 1.6974
-5.2042 -1.8699 1.6974
-5.1351 -2.0565 1.6974
-5.0592 -2.2404 1.6974
-4.9767 -2.4216 1.6974
-4.8877 -2.5997 1.6974
-4.7923 -2.7745 1.6974
-4.6906 -2.9459 1.6974
-4.5828 -3.1135 1.6974
-4.4690 -3.2770 1.6974
-4.3494 -3.4365 1.6974
-4.2240 -3.5915 1.6974
-4.0931 -3.7420 1.6974
-3.9568 -3.8876 1.6974
-3.8153 -4.0283 1.6974
-3.6688 -4.1637 1.6974
-3.5174 -4.2938 1.6974
-3.3614 -4.4184 1.6974
-3.2010 -4.5373 1.6974
-3.0363 -4.6503 1.6974
-2.8677 -4.7573 1.6974
-2.6953 -4.8581 1.6974
-2.5192 -4.9527 1.6974
-2.3399 -5.0408 1.6974
-2.1575 -5.1224 1.6974
-1.9722 -5.1973 1.6974
-1.7843 -5.2655 1.6974
-1.5940 -5.3268 1.6974
-1.4016 -5.3812 1.6974
-1.2074 -5.4286 1.6974
-1.0115 -5.4690 1.6974
-0.8143 -5.5022 1.6974
-0.6160 -5.5282 1.6974
-0.4169 -5.5471 1.6974
-0.2173 -5.5587 1.6974
-0.0173 -5.5631 1.6974
0.1827 -5.5603 1.6974
0.3825 -5.5501 1.6974
0.5818 -5.5328 1.6974
0.7803 -5.5083 1.6974
0.9778 -5.4765 1.6974
1.1740 -5.4376 1.6974
1.3686 -5.3917 1.6974
1.5615 -5.3387 1.6974
1.7523 -5.2788 1.6974
1.9408 -5.2120 1.6974
2.1267 -5.1385 1.6974
2.3098 -5.0582 1.6974
2.4899 -4.9714 1.6974
0.8162 1.2788 0.5073
0.7693 1.3068 0.5072
0.7215 1.3331 0.5070
0.6728 1.3577 0.5069
0.6232 1.3805 0.5068
0.5730 1.4016 0.5067
0.5220 1.4209 0.5066
0.4704 1.4384 0.5065
0.4182 1.4540 0.5065
0.3655 1.4678 0.5064
0.3124 1.4797 0.5064
0.2588 1.4898 0.5063
0.2050 1.4979 0.5063
0.1509 1.5042 0.5063
0.0967 1.5086 0.5063
0.0423 1.5110 0.5063
-0.0121 1.5116 0.5063
-0.0665 1.5102 0.5063
-0.1209 1.5069 0.5063
-0.1750 1.5017 0.5064
-0.2290 1.4946 0.5064
-0.2827 1.4856 0.5065
-0.3361 1.4747 0.5065
-0.3890 1.4619 0.5066
-0.4415 1.4473 0.5067
-0.4934 1.4309 0.5068
-0.5448 1.4126 0.5069
-0.5955 1.3925 0.5070
-0.6454 1.3706 0.5072
-0.6946 1.3470 0.5073
-0.7429 1.3216 0.5074
-0.7904 1.2946 0.5076
-0.8368 1.2658 0.5078
-2.9483 4.1286 1.6974
-3.0955 4.0204 1.6974
-3.2386 3.9070 1.6974
-3.3777 3.7884 1.6974
-3.5125 3.6650 1.6974
-3.6428 3.5368 1.6974
-3.7684 3.4041 1.6974
-3.8892 3.2668 1.6974
-4.0050 3.1253 1.6974
-4.1158 2.9798 1.6974
-4.2212 2.8303 1.6974
-4.3213 2.6771 1.6974
-4.4158 2.5204 1.6974
-4.5047 2.3604 1.6974
-4.5878 2.1973 1.6974
-4.6650 2.0312 1.6974
-4.7362 1.8625 1.6974
-4.8013 1.6913 1.6974
-4.8603 1.5178 1.6974
-4.9130 1.3423 1.6974
-4.9594 1.1649 1.6974
-4.9994 0.9860 1.6974
