ply
format ascii 1.0
element vertex 2121
property float32 x
property float32 y
property float32 z
end_header
-24.6584 -1.9456 1.2528
-24.4445 -2.8131 1.2455
-24.1515 -3.6603 1.2356
-23.7571 -4.4766 1.2220
-23.4756 -5.3010 1.2158
-23.1461 -6.1059 1.2085
-22.8400 -6.9093 1.2039
-22.6041 -7.7322 1.2045
-22.3737 -8.5605 1.2070
-22.2311 -9.4323 1.2160
-22.1953 -10.3706 1.2328
-22.2054 -11.3617 1.2544
-22.3702 -12.4769 1.2874
-22.5584 -13.6638 1.3248
-22.3063 -14.6285 1.3392
-21.9121 -15.5205 1.3473
-21.4568 -16.3833 1.3538
-21.0183 -17.2748 1.3636
-20.5161 -18.1318 1.3716
-19.9729 -18.9688 1.3791
-19.4370 -19.8320 1.3896
-18.9552 -20.7800 1.4069
-18.4624 -21.7567 1.4266
-18.0739 -22.9150 1.4585
-17.8327 -24.3556 1.5079
-6.6089 -9.7401 0.5877
-17.2095 -27.4293 1.6163
-16.2216 -28.0384 1.6163
-15.2117 -28.6112 1.6163
-14.1813 -29.1471 1.6163
-13.1319 -29.6452 1.6163
-12.0647 -30.1049 1.6163
-10.9810 -30.5253 1.6163
-9.8827 -30.9063 1.6163
-8.6455 -30.8006 1.5932
-7.5379 -31.0961 1.5932
-6.4200 -31.3513 1.5932
-5.4962 -32.7752 1.6543
-4.2164 -32.1724 1.6150
-3.2154 -33.9317 1.6963
-1.9977 -34.0271 1.6963
-0.7774 -34.0782 1.6963
0.4440 -34.0845 1.6963
1.6649 -34.0463 1.6963
2.7082 -31.8985 1.5931
2.2761 -18.7921 0.9421
4.9848 -31.6189 1.5932
6.1138 -31.4166 1.5932
5.9106 -25.4687 1.3017
5.0132 -18.5559 0.9571
5.3075 -17.1757 0.8953
5.6659 -16.2475 0.8571
5.9932 -15.3892 0.8228
5.5158 -12.7882 0.6941
5.6513 -11.9100 0.6572
5.6153 -10.8156 0.6077
5.6945 -10.0687 0.5770
6.0560 -9.8655 0.5776
5.7700 -8.6855 0.5205
5.5339 -7.7153 0.4741
5.5515 -7.1818 0.4534
5.5546 -6.6770 0.4340
5.5704 -6.2279 0.4177
5.6179 -5.8453 0.4055
1.5144 21.3948 1.5930
0.7952 22.8239 1.6963
-0.0231 22.8374 1.6963
-0.8414 22.8220 1.6963
-1.6587 22.7776 1.6963
-2.4738 22.7044 1.6963
-3.2859 22.6024 1.6963
-4.0940 22.4716 1.6963
-4.8970 22.3124 1.6963
-5.6939 22.1249 1.6963
-6.4837 21.9092 1.6963
-6.9006 20.5775 1.6111
-7.5499 20.0944 1.5932
-8.2664 19.8143 1.5932
-8.9727 19.5088 1.5932
-9.6678 19.1786 1.5932
-10.3510 18.8238 1.5932
-11.1810 18.7123 1.6163
-11.8471 18.3040 1.6163
-12.4986 17.8723 1.6163
-13.1344 17.4176 1.6163
-13.7539 16.9406 1.6163
-14.3562 16.4417 1.6163
-14.9407 15.9216 1.6163
-15.5065 15.3810 1.6163
-16.0220 14.7917 1.6132
-16.5072 14.1785 1.6092
-16.9438 13.5294 1.6029
-17.1944 12.7480 1.5818
-17.4814 12.0148 1.5670
-17.6282 11.2074 1.5425
-17.6213 10.3357 1.5080
-17.6382 9.5132 1.4787
-17.6818 8.7338 1.4545
-17.7564 7.9925 1.4356
-17.8380 7.2723 1.4196
-17.9436 6.5759 1.4077
-18.1471 5.9221 1.4055
-18.3704 5.2746 1.4066
-18.6054 4.6274 1.4104
-18.8653 3.9802 1.4177
-19.1113 3.3218 1.4257
-19.4207 2.6627 1.4401
-19.7272 1.9877 1.4559
-19.9752 1.2919 1.4692
-20.3283 0.5846 1.4919
-20.6771 -0.1466 1.5162
-20.8580 -0.8959 1.5302
-20.9155 -1.6508 1.5370
-20.9217 -2.4081 1.5421
-20.7985 -3.1526 1.5396
-20.7697 -3.9142 1.5462
-20.7315 -4.6818 1.5541
-20.5972 -5.4339 1.5570
-20.4882 -6.1983 1.5638
-20.3001 -6.9445 1.5668
-20.0927 -7.6882 1.5703
-19.8198 -8.4097 1.5708
-19.5300 -9.1257 1.5721
-19.2522 -9.8511 1.5765
-18.9865 -10.5901 1.5842
-18.6835 -11.3173 1.5911
-18.3134 -12.0104 1.5946
-17.9521 -12.7161 1.6011
-17.5965 -13.4362 1.6107
-17.1692 -14.1118 1.6163
-16.6586 -14.7231 1.6163
-16.1261 -15.3159 1.6163
-15.5724 -15.8892 1.6163
-14.9980 -16.4423 1.6163
-14.4039 -16.9745 1.6163
-13.7906 -17.4849 1.6163
-13.1592 -17.9730 1.6163
-6.6073 -9.7380 0.8536
-6.3119 -10.0604 0.8613
-6.2634 -10.8264 0.9068
-6.2515 -11.7586 0.9653
-6.2407 -12.8269 1.0337
-6.1816 -13.9554 1.1059
-8.1811 -20.4147 1.5932
-7.4457 -20.6983 1.5932
-6.7005 -20.9550 1.5932
-5.9462 -21.1846 1.5932
-5.5196 -22.7706 1.6963
-4.7007 -22.9562 1.6963
-3.8756 -23.1120 1.6963
-3.0454 -23.2378 1.6963
-2.2110 -23.3334 1.6963
-1.3737 -23.3986 1.6963
-0.5345 -23.4333 1.6963
0.3053 -23.4376 1.6963
1.1448 -23.4115 1.6963
1.9828 -23.3548 1.6963
2.6466 -21.8515 1.5930
2.1741 -13.7910 1.0105
2.2241 -11.4289 0.8428
4.9747 -21.4365 1.5930
5.2892 -19.5780 1.4682
5.2860 -17.1066 1.2964
5.7097 -16.3736 1.2558
5.4667 -14.0375 1.0911
5.4199 -12.5662 0.9914
5.6131 -11.8297 0.9487
5.4425 -10.4830 0.8560
5.6620 -10.0115 0.8337
5.9745 -9.7328 0.8280
5.6418 -8.4927 0.7394
5.4618 -7.6149 0.6798
5.5106 -7.1291 0.6538
5.5154 -6.6301 0.6259
5.5218 -6.1739 0.6013
5.5704 -5.7961 0.5838
1.2353 17.4510 1.6963
0.6091 17.4837 1.6963
-0.0177 17.4941 1.6963
-0.6446 17.4823 1.6963
-1.2706 17.4482 1.6963
-1.8950 17.3920 1.6963
-2.5171 17.3136 1.6963
-3.1360 17.2132 1.6963
-3.7511 17.0909 1.6963
-4.3614 16.9469 1.6963
-4.9663 16.7812 1.6963
-5.5650 16.5942 1.6963
-6.1567 16.3860 1.6963
-6.7407 16.1569 1.6963
-6.8717 14.9405 1.5932
-7.4037 14.6868 1.5932
-7.9265 14.4145 1.5932
-8.4394 14.1236 1.5932
-8.9417 13.8147 1.5932
-9.4328 13.4880 1.5932
-9.9120 13.1441 1.5932
-6.7920 8.3655 1.0426
-6.7775 7.7618 0.9968
-6.7401 7.1824 0.9526
-6.7206 6.6659 0.9152
-6.7157 6.1998 0.8835
-6.7297 5.7801 0.8573
-6.8163 5.4425 0.8427
-13.4428 9.9663 1.6163
-13.7953 9.4809 1.6163
-14.1303 8.9832 1.6163
-14.4474 8.4737 1.6163
-14.6193 7.8845 1.6024
-14.7835 7.3018 1.5901
-14.9375 6.7233 1.5793
-15.1355 6.1702 1.5753
-15.3552 5.6270 1.5756
-15.5201 5.0645 1.5724
-15.6584 4.4956 1.5685
-15.8108 3.9320 1.5681
-15.9506 3.3649 1.5684
-16.0777 2.7942 1.5695
-16.2194 2.2234 1.5740
-16.4132 1.6534 1.5855
-16.5337 1.0689 1.5919
-16.6019 0.4770 1.5952
-16.6573 -0.1184 1.5993
-16.6132 -0.7139 1.5959
-16.6150 -1.3117 1.5990
-16.5801 -1.9088 1.6007
-16.5984 -2.5163 1.6095
-16.5417 -3.1177 1.6133
-16.4471 -3.7146 1.6154
-16.3179 -4.3054 1.6163
-16.1588 -4.8889 1.6163
-15.9787 -5.4666 1.6163
-15.7780 -6.0376 1.6163
-15.5567 -6.6012 1.6163
-15.3153 -7.1567 1.6163
-15.0539 -7.7033 1.6163
-14.7730 -8.2403 1.6163
-14.4728 -8.7670 1.6163
-14.1537 -9.2828 1.6163
-13.8162 -9.7868 1.6163
-13.4606 -10.2785 1.6163
-13.0875 -10.7572 1.6163
-12.6972 -11.2223 1.6163
-12.2903 -11.6732 1.6163
-6.3950 -6.5254 0.8710
-6.3640 -6.9771 0.9000
-6.3507 -7.4844 0.9353
-6.3544 -8.0568 0.9775
-6.3493 -8.6722 1.0236
-6.3158 -9.3087 1.0711
-6.2845 -10.0172 1.1258
-6.4856 -11.2108 1.2328
-7.8588 -14.7822 1.5932
-7.3254 -15.0567 1.5932
-6.7824 -15.3119 1.5932
-6.2303 -15.5473 1.5932
-5.9250 -16.4712 1.6648
-5.4325 -16.9901 1.6963
-4.8209 -17.1757 1.6963
-4.2029 -17.3390 1.6963
-3.5793 -17.4799 1.6963
-2.9510 -17.5982 1.6963
-2.3187 -17.6936 1.6963
-1.6834 -17.7661 1.6963
-1.0459 -17.8156 1.6963
-0.4070 -17.8420 1.6963
0.2325 -17.8452 1.6963
0.8716 -17.8253 1.6963
1.5096 -17.7823 1.6963
2.1457 -17.7162 1.6963
2.6097 -16.5542 1.5930
2.0928 -10.7547 1.0415
2.0443 -8.8092 0.8597
2.2972 -8.5031 0.8374
4.9461 -16.0067 1.5930
5.5157 -15.8176 1.5930
5.4328 -13.9507 1.4239
5.3795 -12.4728 1.2921
5.5994 -11.8010 1.2427
5.3139 -10.2355 1.0973
5.6298 -9.9548 1.0884
5.9477 -9.6895 1.0822
5.5223 -8.3130 0.9501
5.4105 -7.5437 0.8839
5.4634 -7.0682 0.8508
5.4767 -6.5837 0.8158
5.4811 -6.1285 0.7834
5.5235 -5.7475 0.7597
1.0002 14.1304 1.6963
0.4932 14.1569 1.6963
-0.0143 14.1654 1.6963
-0.5219 14.1558 1.6963
-1.0288 14.1281 1.6963
-1.5345 14.0825 1.6963
-2.0382 14.0190 1.6963
-2.5393 13.9375 1.6963
-3.0373 13.8383 1.6963
-3.5314 13.7215 1.6963
-4.0211 13.5871 1.6963
-4.5057 13.4354 1.6963
-4.9847 13.2666 1.6963
-5.4575 13.0808 1.6963
-5.9234 12.8783 1.6963
-6.3818 12.6593 1.6963
-6.6725 12.1338 1.6566
-6.8471 11.4585 1.5967
-7.2383 11.1828 1.5932
-7.6356 10.9179 1.5932
-8.0232 10.6391 1.5932
-8.4008 10.3466 1.5932
-6.9299 7.9362 1.2592
-9.1236 9.7220 1.5932
-6.7206 6.6657 1.1309
-6.7110 6.1953 1.0910
-6.7168 5.7689 1.0574
-6.7161 5.3623 1.0261
-6.7042 4.9702 0.9962
-6.6798 4.5906 0.9673
-6.6573 4.2322 0.9412
-6.6483 3.8992 0.9194
-6.6399 3.5809 0.8996
-6.6399 3.2794 0.8829
-6.6459 2.9912 0.8687
-12.5604 5.1201 1.6163
-12.7392 4.6681 1.6163
-12.9018 4.2098 1.6163
-13.0480 3.7458 1.6163
-13.1775 3.2769 1.6163
-6.8751 1.4502 0.8361
-13.3859 2.3261 1.6163
-13.4645 1.8455 1.6163
-13.5259 1.3623 1.6163
-13.5699 0.8770 1.6163
-13.5965 0.3904 1.6163
-13.6058 -0.0970 1.6163
-13.5975 -0.5846 1.6163
-13.5717 -1.0717 1.6163
-13.5286 -1.5578 1.6163
-13.4679 -2.0420 1.6163
-13.3900 -2.5240 1.6163
-13.2947 -3.0030 1.6163
-13.1823 -3.4784 1.6163
-13.0529 -3.9495 1.6163
-12.9066 -4.4159 1.6163
-12.7436 -4.8768 1.6163
-12.5641 -5.3317 1.6163
-6.5164 -3.0452 0.8516
-6.4869 -3.3196 0.8625
-6.4664 -3.6071 0.8761
-6.4443 -3.9039 0.8913
-6.4360 -4.2213 0.9103
-6.4274 -4.5530 0.9313
-6.4258 -4.9069 0.9557
-6.4299 -5.2853 0.9837
-6.4275 -5.6811 1.0136
-6.4131 -6.0913 1.0449
-6.3856 -6.5159 1.0775
-6.3640 -6.9773 1.1151
-6.3652 -7.5017 1.1615
-6.5069 -8.2504 1.2403
-7.9747 -10.8925 1.5932
-6.5441 -9.6454 1.3753
-7.1767 -11.4394 1.5932
-6.4855 -11.2108 1.5278
-6.3410 -11.9275 1.5932
-6.0350 -12.4048 1.6268
-5.8262 -13.1536 1.6963
-5.3518 -13.3554 1.6963
-4.8705 -13.5400 1.6963
-4.3827 -13.7071 1.6963
-3.8892 -13.8566 1.6963
-3.3905 -13.9881 1.6963
-2.8874 -14.1015 1.6963
-2.3805 -14.1967 1.6963
-1.8705 -14.2736 1.6963
-1.3580 -14.3319 1.6963
-0.8437 -14.3717 1.6963
-0.3283 -14.3930 1.6963
0.1875 -14.3956 1.6963
0.7031 -14.3795 1.6963
1.2178 -14.3449 1.6963
1.7309 -14.2917 1.6963
2.1052 -13.3544 1.5930
2.5822 -13.2698 1.5930
2.0317 -8.7551 1.0592
1.9752 -7.3115 0.8926
2.1108 -6.8311 0.8427
4.4498 -12.7612 1.5930
4.9037 -12.5923 1.5930
5.3511 -12.4072 1.5930
5.4496 -11.4856 1.4990
5.2834 -10.1771 1.3522
5.6085 -9.9174 1.3438
5.9359 -9.6704 1.3385
5.4216 -8.1616 1.1559
5.3600 -7.4734 1.0852
5.4142 -7.0049 1.0448
5.4382 -6.5377 1.0037
5.4441 -6.0873 0.9641
5.4773 -5.6996 0.9334
0.2433 3.4366 0.4915
0.1200 3.4428 0.4914
-0.0035 3.4448 0.4914
-0.1269 3.4426 0.4914
-0.2502 3.4362 0.4915
-0.3733 3.4257 0.4916
-0.4959 3.4109 0.4917
-0.6180 3.3920 0.4918
-0.7394 3.3689 0.4920
-2.9643 11.5175 1.6963
-3.3753 11.4046 1.6963
-3.7820 11.2772 1.6963
-4.1840 11.1353 1.6963
-4.5807 10.9792 1.6963
-4.9717 10.8090 1.6963
-5.3564 10.6250 1.6963
-5.7343 10.4274 1.6963
-6.1050 10.2164 1.6963
-6.4680 9.9924 1.6963
-6.6025 9.4406 1.6415
-6.7333 8.9284 1.5932
-7.0499 8.6826 1.5932
-6.9299 7.9359 1.5006
-7.6561 8.1580 1.5932
-6.9014 6.8449 1.3840
-8.2235 7.5913 1.5932
-8.4917 7.2931 1.5932
-8.7492 6.9854 1.5932
-8.9957 6.6687 1.5932
-6.6716 4.5848 1.1515
-6.6569 4.2318 1.1218
-6.6485 3.8992 1.0959
-6.6513 3.5869 1.0743
-6.6532 3.2859 1.0547
-6.6542 2.9947 1.0369
-6.6467 2.7093 1.0197
-6.6395 2.4328 1.0043
-6.6277 2.1624 0.9900
-6.6143 1.8987 0.9769
-6.6018 1.6415 0.9656
-6.5903 1.3900 0.9557
-6.5797 1.1432 0.9474
-6.5699 0.9003 0.9405
-6.5636 0.6609 0.9354
-6.5574 0.4237 0.9315
-6.5513 0.1880 0.9289
-6.5451 -0.0468 0.9274
-6.5390 -0.2813 0.9272
-6.5329 -0.5160 0.9281
-6.5267 -0.7517 0.9302
-6.5205 -0.9888 0.9336
-6.5143 -1.2281 0.9381
-6.5098 -1.4706 0.9443
-6.5073 -1.7172 0.9520
-6.5053 -1.9685 0.9612
-6.5040 -2.2254 0.9719
-6.5033 -2.4889 0.9843
-6.5033 -2.7599 0.9984
-6.4966 -3.0361 1.0132
-6.4891 -3.3209 1.0297
-6.4766 -3.6129 1.0474
-6.4592 -3.9131 1.0663
-6.4405 -4.2244 1.0873
-6.4274 -4.5532 1.1117
-6.4183 -4.9013 1.1396
-6.4363 -5.2907 1.1755
-8.4626 -7.4802 1.5932
-8.1907 -7.7800 1.5932
-6.6458 -6.7817 1.3389
-7.6153 -8.3494 1.5932
-7.3125 -8.6183 1.5932
-6.5069 -8.2507 1.4809
-6.6787 -9.1226 1.5932
-6.3485 -9.3573 1.5932
-6.1067 -9.7341 1.6188
-6.0302 -10.4240 1.6963
-5.6536 -10.6346 1.6963
-5.2695 -10.8316 1.6963
-4.8786 -11.0146 1.6963
-4.4814 -11.1834 1.6963
-4.0782 -11.3378 1.6963
-3.6697 -11.4776 1.6963
-3.2564 -11.6025 1.6963
-2.8389 -11.7125 1.6963
-2.4176 -11.8073 1.6963
-1.9932 -11.8869 1.6963
-1.5661 -11.9512 1.6963
-1.1370 -12.0000 1.6963
-0.7064 -12.0333 1.6963
-0.2749 -12.0510 1.6963
0.1570 -12.0532 1.6963
0.5887 -12.0398 1.6963
1.0196 -12.0108 1.6963
1.4492 -11.9663 1.6963
1.8769 -11.9063 1.6963
2.1620 -11.1108 1.5930
2.1854 -9.4179 1.3607
1.9883 -7.3599 1.0731
1.9490 -6.3077 0.9293
3.7260 -10.6855 1.5930
4.1060 -10.5442 1.5930
4.4807 -10.3894 1.5930
4.8496 -10.2212 1.5930
5.2121 -10.0399 1.5930
5.5678 -9.8456 1.5930
5.8211 -9.4837 1.5674
5.3476 -8.0504 1.3615
5.3101 -7.4041 1.2837
5.3657 -6.9423 1.2364
5.4000 -6.4920 1.1901
5.4074 -6.0464 1.1434
5.4316 -5.6521 1.1051
0.2107 2.9768 0.4945
0.1039 2.9823 0.4945
-0.0030 2.9840 0.4945
-0.1100 2.9821 0.4945
-0.2168 2.9765 0.4946
-0.3233 2.9673 0.4946
-0.4295 2.9544 0.4947
-0.5353 2.9379 0.4948
-0.6404 2.9178 0.4950
-0.7449 2.8940 0.4951
-2.9056 9.8175 1.6963
-3.2557 9.7077 1.6963
-3.6018 9.5854 1.6963
-3.9432 9.4509 1.6963
-4.2797 9.3043 1.6963
-4.6108 9.1458 1.6963
-4.9360 8.9756 1.6963
-5.2550 8.7938 1.6963
-5.5674 8.6008 1.6963
-5.8727 8.3968 1.6963
-6.1705 8.1819 1.6963
-6.4606 7.9566 1.6963
-6.5515 7.5023 1.6482
-6.5894 7.0212 1.5932
-6.8377 6.7815 1.5932
-7.0774 6.5331 1.5932
-7.3081 6.2763 1.5932
-7.5295 6.0114 1.5932
-7.7414 5.7387 1.5932
-7.9434 5.4586 1.5932
-6.9465 4.4157 1.3604
-8.3169 4.8774 1.5932
-8.4878 4.5771 1.5932
-8.6480 4.2708 1.5932
-8.7972 3.9589 1.5932
-8.9351 3.6419 1.5932
-6.6285 2.4286 1.1654
-6.6032 2.1543 1.1464
-6.5958 1.8932 1.1324
-6.5892 1.6382 1.1202
-6.5826 1.3882 1.1097
-6.5762 1.1424 1.1008
-6.5713 0.9004 1.0936
-6.5678 0.6612 1.0882
-6.5637 0.4239 1.0840
-6.5589 0.1880 1.0812
-6.5536 -0.0470 1.0797
-6.5475 -0.2818 1.0794
-6.5409 -0.5168 1.0805
-6.5336 -0.7526 1.0828
-6.5255 -0.9897 1.0864
-6.5168 -1.2287 1.0914
-6.5079 -1.4703 1.0978
-6.5015 -1.7158 1.1061
-6.4950 -1.9655 1.1161
-6.4883 -2.2202 1.1276
-6.4815 -2.4807 1.1410
-6.4862 -2.7527 1.1582
-6.4984 -3.0371 1.1788
-8.6317 -4.4176 1.5932
-8.4695 -4.7249 1.5932
-8.2963 -5.0262 1.5932
-8.1124 -5.3212 1.5932
-6.6003 -4.6759 1.3281
-7.7133 -5.8905 1.5932
-7.4986 -6.1641 1.5932
-7.2741 -6.4298 1.5932
-7.0402 -6.6873 1.5932
-6.6456 -6.7817 1.5577
-6.5453 -7.1764 1.5932
-6.2849 -7.4074 1.5932
-6.1546 -7.8042 1.6298
-6.1113 -8.3478 1.6963
-5.8090 -8.5624 1.6963
-5.4992 -8.7661 1.6963
-5.1822 -8.9585 1.6963
-4.8585 -9.1393 1.6963
-4.5284 -9.3084 1.6963
-4.1924 -9.4656 1.6963
-3.8510 -9.6105 1.6963
-3.5045 -9.7430 1.6963
-3.1534 -9.8630 1.6963
-2.7983 -9.9703 1.6963
-2.4395 -10.0647 1.6963
-2.0774 -10.1461 1.6963
-1.7127 -10.2145 1.6963
-1.3457 -10.2696 1.6963
-0.9770 -10.3115 1.6963
-0.6070 -10.3401 1.6963
-0.2362 -10.3553 1.6963
0.1349 -10.3572 1.6963
0.5059 -10.3456 1.6963
0.8761 -10.3208 1.6963
1.2453 -10.2826 1.6963
1.6128 -10.2311 1.6963
1.9559 -10.0520 1.6772
2.1832 -9.4085 1.5819
2.2972 -8.5037 1.4428
1.9553 -6.3283 1.0850
1.9429 -5.5722 0.9667
1.9318 -4.9611 0.8722
2.0404 -4.7312 0.8442
4.1675 -8.7838 1.5930
4.4790 -8.6281 1.5930
4.7848 -8.4612 1.5930
5.0843 -8.2835 1.5930
5.3772 -8.0951 1.5930
5.3644 -7.4800 1.5090
5.3786 -6.9592 1.4421
5.3837 -6.4725 1.3805
5.3709 -6.0058 1.3214
5.3867 -5.6057 1.2752
0.1857 2.6233 0.4969
0.0916 2.6281 0.4969
-0.0027 2.6296 0.4968
-0.0969 2.6279 0.4969
-0.1910 2.6230 0.4969
-0.2849 2.6148 0.4970
-0.3785 2.6034 0.4970
-0.4717 2.5888 0.4971
-0.5643 2.5709 0.4973
-0.6563 2.5499 0.4974
-0.7475 2.5257 0.4976
-2.8554 8.5139 1.6963
-3.1589 8.4066 1.6963
-3.4583 8.2885 1.6963
-3.7534 8.1599 1.6963
-4.0437 8.0208 1.6963
-4.3289 7.8714 1.6963
-4.6086 7.7119 1.6963
-4.8825 7.5425 1.6963
-5.1501 7.3635 1.6963
-5.4113 7.1750 1.6963
-5.6656 6.9773 1.6963
-5.9126 6.7706 1.6963
-6.1522 6.5552 1.6963
-6.3840 6.3313 1.6963
-6.5125 6.0115 1.6719
-6.5073 5.5884 1.6178
-6.6023 5.2709 1.5932
-6.7879 5.0317 1.5932
-6.9649 4.7859 1.5932
-6.9468 4.4157 1.5516
-7.2920 4.2762 1.5932
-7.4418 4.0128 1.5932
-7.5820 3.7442 1.5932
-7.7126 3.4707 1.5932
-7.8334 3.1926 1.5932
-7.9441 2.9104 1.5932
-8.0447 2.6244 1.5932
-8.1350 2.3349 1.5932
-8.2149 2.0423 1.5932
-6.8751 1.4497 1.3222
-8.3431 1.4492 1.5932
-8.3912 1.1496 1.5932
-8.4286 0.8483 1.5932
-8.4552 0.5459 1.5932
-8.4709 0.2427 1.5932
-8.4757 -0.0610 1.5932
-8.4697 -0.3647 1.5932
-8.4528 -0.6681 1.5932
-8.4250 -0.9707 1.5932
-8.3864 -1.2721 1.5932
-6.6896 -1.2614 1.2784
-8.2768 -1.8701 1.5932
-8.2060 -2.1658 1.5932
-8.1246 -2.4589 1.5932
-8.0327 -2.7489 1.5932
-7.9305 -3.0354 1.5932
-7.8180 -3.3182 1.5932
-6.6414 -3.1041 1.3750
-7.5629 -3.8708 1.5932
-7.4206 -4.1400 1.5932
-7.2687 -4.4039 1.5932
-7.1074 -4.6622 1.5932
-6.6003 -4.6761 1.5159
-6.7575 -5.1607 1.5932
-6.5692 -5.4003 1.5932
-6.3724 -5.6330 1.5932
-6.2103 -5.8992 1.6043
-6.1903 -6.3173 1.6563
-6.1046 -6.6935 1.6963
-5.8617 -6.9088 1.6963
-5.6111 -7.1152 1.6963
-5.3532 -7.3125 1.6963
-5.0884 -7.5004 1.6963
-4.8169 -7.6787 1.6963
-4.5392 -7.8471 1.6963
-4.2556 -8.0054 1.6963
-3.9664 -8.1534 1.6963
-3.6721 -8.2909 1.6963
-3.3730 -8.4178 1.6963
-3.0695 -8.5338 1.6963
-2.7620 -8.6388 1.6963
-2.4509 -8.7327 1.6963
-2.1366 -8.8154 1.6963
-1.8195 -8.8866 1.6963
-1.5000 -8.9464 1.6963
-1.1786 -8.9947 1.6963
-0.8557 -9.0314 1.6963
-0.5316 -9.0564 1.6963
-0.2069 -9.0697 1.6963
0.1182 -9.0713 1.6963
0.4430 -9.0612 1.6963
0.7674 -9.0394 1.6963
1.0907 -9.0060 1.6963
1.4125 -8.9609 1.6963
1.7326 -8.9043 1.6963
1.9256 -8.2983 1.5930
2.2215 -8.2237 1.5930
2.1414 -6.9309 1.3567
1.9291 -5.5325 1.0958
1.9442 -4.9929 1.0022
1.8992 -4.4040 0.8971
3.6502 -7.6938 1.5930
3.9232 -7.5575 1.5930
4.1910 -7.4114 1.5930
4.4534 -7.2559 1.5930
4.7100 -7.0910 1.5930
4.9605 -6.9170 1.5930
5.2045 -6.7341 1.5930
5.4418 -6.5425 1.5930
5.4311 -6.0733 1.5254
5.4405 -5.6618 1.4702
0.1658 2.3426 0.4987
0.0818 2.3469 0.4987
-0.0024 2.3483 0.4987
-0.0865 2.3468 0.4987
-0.1706 2.3424 0.4988
-0.2544 2.3350 0.4988
-0.3380 2.3248 0.4989
-0.4212 2.3117 0.4990
-0.5039 2.2957 0.4991
-0.5860 2.2768 0.4992
-0.6675 2.2551 0.4994
-0.7481 2.2306 0.4995
-0.8279 2.2033 0.4997
-3.0768 7.3739 1.6963
-3.3392 7.2594 1.6963
-3.5975 7.1355 1.6963
-3.8512 7.0026 1.6963
-4.1000 6.8606 1.6963
-4.3436 6.7099 1.6963
-4.5817 6.5505 1.6963
-4.8139 6.3827 1.6963
-5.0401 6.2068 1.6963
-5.2598 6.0228 1.6963
-5.4728 5.8311 1.6963
-5.6789 5.6319 1.6963
-5.8778 5.4254 1.6963
-6.0692 5.2120 1.6963
-6.2529 4.9918 1.6963
-6.4286 4.7652 1.6963
-6.4716 4.4468 1.6643
-6.4673 4.1107 1.6240
-6.4860 3.8033 1.5932
-6.6408 3.5807 1.5984
-6.7437 3.3300 1.5932
-6.8597 3.0867 1.5932
-6.9670 2.8394 1.5932
-7.0654 2.5883 1.5932
-7.1547 2.3339 1.5932
-7.2349 2.0763 1.5932
-7.3058 1.8161 1.5932
-6.8751 1.4496 1.4867
-7.4195 1.2886 1.5932
-7.4622 1.0221 1.5932
-7.4953 0.7542 1.5932
-7.5187 0.4853 1.5932
-7.5326 0.2156 1.5932
-7.5367 -0.0544 1.5932
-7.5312 -0.3245 1.5932
-7.5160 -0.5942 1.5932
-7.4911 -0.8632 1.5932
-7.4566 -1.1313 1.5932
-6.6895 -1.2616 1.4378
-7.3589 -1.6629 1.5932
-7.2958 -1.9258 1.5932
-7.2233 -2.1863 1.5932
-7.1415 -2.4441 1.5932
-7.0505 -2.6988 1.5932
-6.9504 -2.9501 1.5932
-6.6414 -3.1043 1.5466
-6.7233 -3.4413 1.5932
-6.5967 -3.6805 1.5932
-6.4616 -3.9150 1.5932
-6.3181 -4.1446 1.5932
-6.2465 -4.4256 1.6139
-6.2311 -4.7589 1.6527
-6.2172 -5.1111 1.6963
-6.0309 -5.3312 1.6963
-5.8368 -5.5446 1.6963
-5.6351 -5.7508 1.6963
-5.4261 -5.9497 1.6963
-5.2100 -6.1409 1.6963
-4.9872 -6.3243 1.6963
-4.7580 -6.4996 1.6963
-4.5225 -6.6665 1.6963
-4.2812 -6.8249 1.6963
-4.0344 -6.9745 1.6963
-3.7822 -7.1151 1.6963
-3.5252 -7.2466 1.6963
-3.2636 -7.3688 1.6963
-2.9977 -7.4815 1.6963
-2.7280 -7.5845 1.6963
-2.4547 -7.6778 1.6963
-2.1782 -7.7612 1.6963
-1.8988 -7.8346 1.6963
-1.6170 -7.8979 1.6963
-1.3331 -7.9510 1.6963
-1.0475 -7.9939 1.6963
-0.7605 -8.0265 1.6963
-0.4724 -8.0487 1.6963
-0.1838 -8.0605 1.6963
0.1050 -8.0619 1.6963
0.3937 -8.0530 1.6963
0.6820 -8.0336 1.6963
0.9693 -8.0039 1.6963
1.2554 -7.9639 1.6963
1.5398 -7.9136 1.6963
1.8222 -7.8531 1.6963
1.9743 -7.3088 1.5930
2.1415 -6.9310 1.5265
2.4923 -7.1480 1.5930
1.9125 -4.9116 1.1093
1.9307 -4.4771 1.0262
1.8882 -3.9799 0.9272
1.9013 -3.6627 0.8687
3.7249 -6.5872 1.5930
3.9581 -6.4490 1.5930
4.1862 -6.3025 1.5930
4.4089 -6.1480 1.5930
4.6258 -5.9855 1.5930
4.8368 -5.8153 1.5930
5.0415 -5.6377 1.5930
5.2396 -5.4529 1.5930
0.1497 2.1143 0.5003
0.0738 2.1182 0.5002
-0.0021 2.1194 0.5002
-0.0781 2.1181 0.5003
-0.1540 2.1141 0.5003
-0.2296 2.1074 0.5003
-0.3051 2.0981 0.5004
-0.3801 2.0862 0.5005
-0.4548 2.0718 0.5006
-0.5289 2.0547 0.5007
-0.6023 2.0350 0.5008
-0.6751 2.0128 0.5010
-0.7471 1.9881 0.5012
-0.8182 1.9609 0.5013
-3.0046 6.5316 1.6963
-3.2369 6.4201 1.6963
-3.4651 6.3005 1.6963
-3.6890 6.1727 1.6963
-3.9081 6.0370 1.6963
-4.1223 5.8936 1.6963
-4.3312 5.7426 1.6963
-4.5346 5.5842 1.6963
-4.7323 5.4186 1.6963
-4.9239 5.2461 1.6963
-5.1093 5.0668 1.6963
-5.2881 4.8810 1.6963
-5.4603 4.6889 1.6963
-5.6254 4.4907 1.6963
-5.7834 4.2868 1.6963
-5.9341 4.0773 1.6963
-6.0771 3.8625 1.6963
-6.2124 3.6428 1.6963
-6.3398 3.4183 1.6963
-6.4385 3.1792 1.6909
-6.4310 2.8937 1.6604
-6.4261 2.6188 1.6336
-6.4245 2.3534 1.6105
-6.4359 2.0992 1.5932
-6.5079 1.8676 1.5932
-6.5902 1.6380 1.5977
-6.6269 1.3971 1.5932
-6.6737 1.1589 1.5932
-6.7120 0.9192 1.5932
-6.7416 0.6782 1.5932
-6.7626 0.4363 1.5932
-6.7749 0.1938 1.5932
-6.7785 -0.0491 1.5932
-6.7735 -0.2920 1.5932
-6.7597 -0.5346 1.5932
-6.7372 -0.7765 1.5932
-6.7061 -1.0176 1.5932
-6.6663 -1.2574 1.5932
-6.6180 -1.4956 1.5932
-6.5612 -1.7320 1.5932
-6.4970 -1.9666 1.5935
-6.4222 -2.1980 1.5932
-6.3402 -2.4270 1.5932
-6.2945 -2.6719 1.6045
-6.2824 -2.9366 1.6270
-6.2715 -3.2102 1.6527
-6.2641 -3.4950 1.6824
-6.1862 -3.7483 1.6963
-6.0487 -3.9680 1.6963
-5.9034 -4.1827 1.6963
-5.7505 -4.3921 1.6963
-5.5902 -4.5958 1.6963
-5.4226 -4.7937 1.6963
-5.2480 -4.9854 1.6963
-5.0666 -5.1708 1.6963
-4.8786 -5.3495 1.6963
-4.6843 -5.5214 1.6963
-4.4840 -5.6863 1.6963
-4.2778 -5.8438 1.6963
-4.0661 -5.9938 1.6963
-3.8491 -6.1361 1.6963
-3.6271 -6.2706 1.6963
-3.4004 -6.3970 1.6963
-3.1693 -6.5151 1.6963
-2.9341 -6.6249 1.6963
-2.6950 -6.7262 1.6963
-2.4525 -6.8188 1.6963
-2.2068 -6.9026 1.6963
-1.9582 -6.9776 1.6963
-1.7071 -7.0435 1.6963
-1.4537 -7.1004 1.6963
-1.1985 -7.1481 1.6963
-0.9417 -7.1866 1.6963
-0.6836 -7.2159 1.6963
-0.4247 -7.2359 1.6963
-0.1653 -7.2465 1.6963
0.0944 -7.2478 1.6963
0.3540 -7.2397 1.6963
0.6131 -7.2223 1.6963
0.8714 -7.1956 1.6963
1.1286 -7.1597 1.6963
1.3843 -7.1145 1.6963
1.6382 -7.0601 1.6963
1.8746 -6.9399 1.6825
2.0091 -6.5027 1.5930
2.2406 -6.4263 1.5930
2.4692 -6.3416 1.5930
1.8992 -4.4042 1.1228
1.9150 -4.0366 1.0460
1.8890 -3.6392 0.9600
1.8715 -3.3097 0.8903
1.9935 -3.2482 0.8924
2.1600 -3.2520 0.9142
3.9639 -5.5276 1.5930
4.1590 -5.3815 1.5930
4.3487 -5.2286 1.5930
4.5327 -5.0690 1.5930
4.7109 -4.9028 1.5930
0.1363 1.9247 0.5015
0.0672 1.9282 0.5015
-0.0019 1.9294 0.5015
-0.0711 1.9281 0.5015
-0.1402 1.9245 0.5015
-0.2091 1.9184 0.5016
-0.2777 1.9099 0.5017
-0.3460 1.8991 0.5017
-0.4140 1.8858 0.5018
-0.4814 1.8702 0.5019
-0.5483 1.8523 0.5020
-0.6145 1.8321 0.5022
-0.6800 1.8095 0.5023
-0.7447 1.7847 0.5025
-0.8085 1.7576 0.5027
-2.9392 5.8294 1.6963
-3.1464 5.7207 1.6963
-3.3496 5.6047 1.6963
-3.5486 5.4814 1.6963
-3.7430 5.3512 1.6963
-3.9327 5.2140 1.6963
-4.1173 5.0702 1.6963
-4.2968 4.9198 1.6963
-4.4707 4.7631 1.6963
-4.6390 4.6003 1.6963
-4.8013 4.4315 1.6963
-4.9576 4.2571 1.6963
-5.1075 4.0771 1.6963
-5.2509 3.8919 1.6963
-5.3876 3.7017 1.6963
-5.5174 3.5066 1.6963
-5.6402 3.3071 1.6963
-5.7558 3.1032 1.6963
-5.8640 2.8953 1.6963
-5.9647 2.6837 1.6963
-6.0578 2.4685 1.6963
-6.1432 2.2502 1.6963
-6.2207 2.0289 1.6963
-6.2902 1.8049 1.6963
-6.3517 1.5786 1.6963
-6.3906 1.3471 1.6925
-6.3844 1.1086 1.6790
-6.3782 0.8734 1.6678
-6.3722 0.6409 1.6589
-6.3662 0.4106 1.6522
-6.3602 0.1818 1.6477
-6.3542 -0.0462 1.6453
-6.3483 -0.2738 1.6450
-6.3423 -0.5017 1.6468
-6.3363 -0.7305 1.6508
-6.3303 -0.9607 1.6569
-6.3242 -1.1930 1.6652
-6.3181 -1.4280 1.6758
-6.3119 -1.6664 1.6886
-6.2772 -1.9002 1.6963
-6.2060 -2.1242 1.6963
-6.1267 -2.3455 1.6963
-6.0395 -2.5638 1.6963
-5.9446 -2.7789 1.6963
-5.8419 -2.9904 1.6963
-5.7318 -3.1982 1.6963
-5.6142 -3.4019 1.6963
-5.4894 -3.6013 1.6963
-5.3575 -3.7960 1.6963
-5.2187 -3.9860 1.6963
-5.0731 -4.1708 1.6963
-4.9209 -4.3504 1.6963
-4.7624 -4.5243 1.6963
-4.5978 -4.6925 1.6963
-4.4272 -4.8547 1.6963
-4.2508 -5.0106 1.6963
-4.0690 -5.1601 1.6963
-3.8818 -5.3030 1.6963
-3.6897 -5.4391 1.6963
-3.4928 -5.5683 1.6963
-3.2913 -5.6902 1.6963
-3.0856 -5.8049 1.6963
-2.8758 -5.9121 1.6963
-2.6624 -6.0116 1.6963
-2.4455 -6.1035 1.6963
-2.2254 -6.1875 1.6963
-2.0024 -6.2635 1.6963
-1.7768 -6.3315 1.6963
-1.5490 -6.3913 1.6963
-1.3191 -6.4429 1.6963
-1.0875 -6.4862 1.6963
-0.8544 -6.5211 1.6963
-0.6203 -6.5477 1.6963
-0.3854 -6.5658 1.6963
-0.1500 -6.5754 1.6963
0.0857 -6.5766 1.6963
0.3212 -6.5693 1.6963
0.5563 -6.5535 1.6963
0.7907 -6.5293 1.6963
1.0240 -6.4967 1.6963
1.2561 -6.4557 1.6963
1.4864 -6.4064 1.6963
1.7149 -6.3488 1.6963
1.8557 -6.0065 1.6216
2.0331 -5.8313 1.5930
2.2406 -5.7544 1.5930
2.0868 -4.8392 1.3596
1.8882 -3.9801 1.1365
1.8968 -3.6542 1.0623
1.8998 -3.3599 0.9960
1.8635 -3.0364 0.9193
1.8741 -2.8217 0.8742
3.5970 -5.0160 1.5930
3.7740 -4.8836 1.5930
3.9462 -4.7448 1.5930
4.1133 -4.6000 1.5930
4.2750 -4.4493 1.5930
0.1249 1.7646 0.5026
0.0616 1.7678 0.5026
-0.0018 1.7689 0.5026
-0.0652 1.7677 0.5026
-0.1285 1.7644 0.5026
-0.1917 1.7588 0.5027
-0.2546 1.7510 0.5027
-0.3172 1.7410 0.5028
-0.3795 1.7289 0.5029
-0.4413 1.7145 0.5030
-0.5026 1.6981 0.5031
-0.5633 1.6794 0.5032
-0.6233 1.6587 0.5033
-0.6826 1.6359 0.5035
-0.7411 1.6110 0.5037
-0.7987 1.5841 0.5038
-2.8785 5.2335 1.6963
-3.0644 5.1273 1.6963
-3.2464 5.0145 1.6963
-3.4242 4.8953 1.6963
-3.5977 4.7698 1.6963
-3.7666 4.6382 1.6963
-3.9308 4.5006 1.6963
-4.0899 4.3572 1.6963
-4.2438 4.2082 1.6963
-4.3923 4.0538 1.6963
-4.5351 3.8942 1.6963
-4.6722 3.7295 1.6963
-4.8034 3.5601 1.6963
-4.9284 3.3860 1.6963
-5.0471 3.2076 1.6963
-5.1594 3.0250 1.6963
-5.2650 2.8385 1.6963
-5.3640 2.6483 1.6963
-5.4561 2.4547 1.6963
-5.5412 2.2579 1.6963
-5.6192 2.0581 1.6963
-5.6900 1.8557 1.6963
-5.7536 1.6508 1.6963
-5.8098 1.4438 1.6963
-5.8585 1.2348 1.6963
-5.8997 1.0243 1.6963
-5.9334 0.8123 1.6963
-5.9595 0.5993 1.6963
-5.9779 0.3854 1.6963
-5.9886 0.1710 1.6963
-5.9917 -0.0437 1.6963
-5.9871 -0.2584 1.6963
-5.9747 -0.4728 1.6963
-5.9547 -0.6866 1.6963
-5.9271 -0.8996 1.6963
-5.8918 -1.1115 1.6963
-5.8489 -1.3221 1.6963
-5.7985 -1.5310 1.6963
-5.7407 -1.7379 1.6963
-5.6754 -1.9427 1.6963
-5.6029 -2.1451 1.6963
-5.5231 -2.3447 1.6963
-5.4362 -2.5414 1.6963
-5.3423 -2.7348 1.6963
-5.2415 -2.9248 1.6963
-5.1340 -3.1110 1.6963
-5.0198 -3.2933 1.6963
-4.8991 -3.4714 1.6963
-4.7721 -3.6451 1.6963
-4.6389 -3.8141 1.6963
-4.4998 -3.9782 1.6963
-4.3548 -4.1372 1.6963
-4.2042 -4.2910 1.6963
-4.0482 -4.4392 1.6963
-3.8869 -4.5818 1.6963
-3.7206 -4.7185 1.6963
-3.5494 -4.8491 1.6963
-3.3737 -4.9735 1.6963
-3.1936 -5.0915 1.6963
-3.0094 -5.2030 1.6963
-2.8213 -5.3078 1.6963
-2.6295 -5.4058 1.6963
-2.4343 -5.4968 1.6963
-2.2360 -5.5808 1.6963
-2.0347 -5.6576 1.6963
-1.8309 -5.7271 1.6963
-1.6246 -5.7892 1.6963
-1.4162 -5.8439 1.6963
-1.2060 -5.8910 1.6963
-0.9943 -5.9306 1.6963
-0.7812 -5.9625 1.6963
-0.5672 -5.9868 1.6963
-0.3524 -6.0033 1.6963
-0.1371 -6.0122 1.6963
0.0783 -6.0132 1.6963
0.2937 -6.0065 1.6963
0.5086 -5.9921 1.6963
0.7229 -5.9700 1.6963
0.9363 -5.9402 1.6963
1.1484 -5.9027 1.6963
1.3591 -5.8576 1.6963
1.5680 -5.8050 1.6963
1.7749 -5.7449 1.6963
1.8589 -5.3319 1.5930
2.0486 -5.2616 1.5930
2.0868 -4.8393 1.4869
2.4198 -5.1009 1.5930
1.8915 -3.6441 1.1586
1.8803 -3.3255 1.0781
1.8944 -3.0868 1.0221
1.8622 -2.8038 0.9500
1.8516 -2.5822 0.8968
1.8728 -2.4235 0.8646
3.6083 -4.3387 1.5930
3.7611 -4.2063 1.5930
3.9091 -4.0685 1.5930
0.1152 1.6274 0.5035
0.0568 1.6305 0.5035
-0.0016 1.6314 0.5035
-0.0601 1.6304 0.5035
-0.1185 1.6272 0.5035
-0.1768 1.6221 0.5036
-0.2348 1.6149 0.5036
-0.2926 1.6057 0.5037
-0.3500 1.5944 0.5038
-0.4070 1.5812 0.5038
-0.4635 1.5660 0.5039
-0.5195 1.5488 0.5041
-0.5748 1.5296 0.5042
-0.6295 1.5085 0.5043
-0.6834 1.4855 0.5045
-0.7365 1.4606 0.5047
-0.7887 1.4339 0.5048
-2.8211 4.7201 1.6963
-2.9886 4.6163 1.6963
-3.1523 4.5065 1.6963
-3.3120 4.3909 1.6963
-3.4675 4.2697 1.6963
-3.6186 4.1430 1.6963
-3.7650 4.0110 1.6963
-3.9067 3.8738 1.6963
-4.0433 3.7317 1.6963
-4.1748 3.5847 1.6963
-4.3010 3.4331 1.6963
-4.4217 3.2771 1.6963
-4.5367 3.1168 1.6963
-4.6460 2.9525 1.6963
-4.7493 2.7845 1.6963
-4.8465 2.6127 1.6963
-4.9376 2.4377 1.6963
-5.0223 2.2594 1.6963
-5.1006 2.0782 1.6963
-5.1724 1.8943 1.6963
-5.2375 1.7080 1.6963
-5.2960 1.5194 1.6963
-5.3476 1.3288 1.6963
-5.3924 1.1365 1.6963
-5.4303 0.9426 1.6963
-5.4613 0.7476 1.6963
-5.4852 0.5515 1.6963
-5.5021 0.3546 1.6963
-5.5119 0.1573 1.6963
-5.5147 -0.0403 1.6963
-5.5104 -0.2379 1.6963
-5.4990 -0.4352 1.6963
-5.4805 -0.6321 1.6963
-5.4550 -0.8281 1.6963
-5.4225 -1.0231 1.6963
-5.3830 -1.2169 1.6963
-5.3366 -1.4091 1.6963
-5.2833 -1.5996 1.6963
-5.2232 -1.7881 1.6963
-5.1564 -1.9743 1.6963
-5.0829 -2.1580 1.6963
-5.0029 -2.3389 1.6963
-4.9164 -2.5169 1.6963
-4.8236 -2.6917 1.6963
-4.7246 -2.8631 1.6963
-4.6195 -3.0308 1.6963
-4.5084 -3.1947 1.6963
-4.3915 -3.3545 1.6963
-4.2689 -3.5100 1.6963
-4.1408 -3.6610 1.6963
-4.0074 -3.8073 1.6963
-3.8688 -3.9488 1.6963
-3.7252 -4.0852 1.6963
-3.5767 -4.2163 1.6963
-3.4237 -4.3421 1.6963
-3.2662 -4.4623 1.6963
-3.1045 -4.5767 1.6963
-2.9387 -4.6853 1.6963
-2.7692 -4.7879 1.6963
-2.5961 -4.8843 1.6963
-2.4196 -4.9744 1.6963
-2.2400 -5.0581 1.6963
-2.0575 -5.1354 1.6963
-1.8723 -5.2060 1.6963
-1.6847 -5.2700 1.6963
-1.4949 -5.3271 1.6963
-1.3032 -5.3774 1.6963
-1.1098 -5.4208 1.6963
-0.9149 -5.4572 1.6963
-0.7189 -5.4866 1.6963
-0.5219 -5.5089 1.6963
-0.3242 -5.5241 1.6963
-0.1262 -5.5322 1.6963
0.0721 -5.5332 1.6963
0.2702 -5.5270 1.6963
0.4680 -5.5138 1.6963
0.6652 -5.4934 1.6963
0.8615 -5.4660 1.6963
1.0567 -5.4315 1.6963
1.2506 -5.3900 1.6963
1.4428 -5.3416 1.6963
1.6331 -5.2863 1.6963
1.8214 -5.2243 1.6963
1.8851 -4.8417 1.5930
2.0572 -4.7708 1.5930
2.2267 -4.6938 1.5930
2.3932 -4.6108 1.5930
2.5567 -4.5219 1.5930
1.8650 -3.0391 1.0936
1.8843 -2.8373 1.0446
1.8762 -2.6165 0.9876
1.8466 -2.3896 0.9264
1.8470 -2.2209 0.8861
1.8684 -2.0897 0.8600
3.5972 -3.7440 1.5930
0.1068 1.5086 0.5043
0.0527 1.5114 0.5043
-0.0015 1.5123 0.5043
-0.0557 1.5113 0.5043
-0.1099 1.5084 0.5043
-0.1639 1.5036 0.5043
-0.2177 1.4969 0.5044
-0.2712 1.4883 0.5045
-0.3244 1.4779 0.5045
-0.3773 1.4656 0.5046
-0.4296 1.4515 0.5047
-0.4815 1.4355 0.5048
-0.5328 1.4177 0.5049
-0.5834 1.3981 0.5051
-0.6334 1.3768 0.5052
-0.6826 1.3537 0.5054
-0.7309 1.3289 0.5055
-0.7784 1.3023 0.5057
-0.8249 1.2742 0.5059
-2.9174 4.1706 1.6963
-3.0652 4.0636 1.6963
-3.2091 3.9514 1.6963
-3.3489 3.8341 1.6963
-3.4844 3.7119 1.6963
-3.6155 3.5850 1.6963
-3.7419 3.4534 1.6963
-3.8636 3.3173 1.6963
-3.9804 3.1770 1.6963
-4.0920 3.0326 1.6963
-4.1984 2.8843 1.6963
-4.2995 2.7322 1.6963
-4.3951 2.5767 1.6963
-4.4850 2.4178 1.6963
-4.5693 2.2557 1.6963
-4.6476 2.0907 1.6963
-4.7200 1.9231 1.6963
-4.7864 1.7529 1.6963
-4.8467 1.5804 1.6963
-4.9007 1.4059 1.6963
-4.9485 1.2295 1.6963
-4.9899 1.0515 1.6963
-5.0250 0.8722 1.6963
-5.0535 0.6916 1.6963
-5.0757 0.5102 1.6963
-5.0913 0.3280 1.6963
-5.1003 0.1454 1.6963
-5.1028 -0.0374 1.6963
-5.0988 -0.2203 1.6963
-5.0882 -0.4028 1.6963
-5.0711 -0.5849 1.6963
-5.0474 -0.7663 1.6963
-5.0173 -0.9468 1.6963
-4.9807 -1.1261 1.6963
-4.9377 -1.3039 1.6963
-4.8884 -1.4802 1.6963
-4.8327 -1.6545 1.6963
-4.7709 -1.8268 1.6963
-4.7029 -1.9967 1.6963
-4.6288 -2.1641 1.6963
-4.5488 -2.3288 1.6963
-4.4629 -2.4905 1.6963
-4.3712 -2.6491 1.6963
-4.2739 -2.8042 1.6963
-4.1711 -2.9558 1.6963
-4.0629 -3.1036 1.6963
-3.9495 -3.2475 1.6963
-3.8310 -3.3872 1.6963
-3.7075 -3.5225 1.6963
-3.5792 -3.6533 1.6963
-3.4464 -3.7795 1.6963
-3.3090 -3.9008 1.6963
-3.1674 -4.0172 1.6963
-3.0217 -4.1283 1.6963
-2.8721 -4.2342 1.6963
-2.7187 -4.3346 1.6963
-2.5619 -4.4295 1.6963
-2.4017 -4.5187 1.6963
-2.2384 -4.6020 1.6963
-2.0722 -4.6795 1.6963
-1.9034 -4.7509 1.6963
-1.7321 -4.8163 1.6963
-1.5585 -4.8754 1.6963
-1.3829 -4.9283 1.6963
-1.2056 -4.9748 1.6963
-1.0266 -5.0149 1.6963
-0.8464 -5.0486 1.6963
-0.6650 -5.0757 1.6963
-0.4828 -5.0964 1.6963
-0.2999 -5.1104 1.6963
-0.1167 -5.1179 1.6963
0.0667 -5.1188 1.6963
0.2500 -5.1132 1.6963
0.4330 -5.1009 1.6963
0.6154 -5.0821 1.6963
0.7970 -5.0567 1.6963
0.9776 -5.0248 1.6963
1.1569 -4.9864 1.6963
1.3347 -4.9417 1.6963
1.5108 -4.8906 1.6963
1.6850 -4.8331 1.6963
1.8151 -4.6620 1.6580
1.9031 -4.4137 1.5930
2.0599 -4.3425 1.5930
2.2140 -4.2657 1.5930
2.3653 -4.1834 1.5930
2.0475 -3.3365 1.2977
1.8572 -2.7965 1.1129
1.8689 -2.6065 1.0633
1.8772 -2.4293 1.0179
1.8525 -2.2276 0.9607
1.8379 -2.0555 0.9144
1.8428 -1.9182 0.8821
0.0994 1.4044 0.5050
0.0490 1.4070 0.5050
-0.0014 1.4079 0.5050
-0.0519 1.4069 0.5050
-0.1023 1.4042 0.5050
-0.1525 1.3998 0.5050
-0.2026 1.3936 0.5051
-0.2525 1.3856 0.5051
-0.3020 1.3758 0.5052
-0.3512 1.3644 0.5053
-0.4000 1.3512 0.5054
-0.4482 1.3363 0.5055
-0.4960 1.3197 0.5056
-0.5431 1.3015 0.5057
-0.5896 1.2816 0.5058
-0.6354 1.2600 0.5060
-0.6803 1.2369 0.5061
-0.7245 1.2122 0.5063
-0.7678 1.1859 0.5065
-0.8102 1.1581 0.5067
-2.8497 3.7777 1.6963
-2.9834 3.6734 1.6963
-3.1134 3.5644 1.6963
-3.2393 3.4507 1.6963
-3.3612 3.3327 1.6963
-3.4787 3.2103 1.6963
-3.5918 3.0839 1.6963
-3.7003 2.9534 1.6963
-3.8041 2.8191 1.6963
-3.9030 2.6812 1.6963
-3.9970 2.5399 1.6963
-4.0858 2.3952 1.6963
-4.1694 2.2475 1.6963
-4.2476 2.0968 1.6963
-4.3205 1.9435 1.6963
-4.3877 1.7876 1.6963
-4.4494 1.6293 1.6963
-4.5054 1.4690 1.6963
-4.5556 1.3068 1.6963
-4.6000 1.1428 1.6963
-4.6385 0.9774 1.6963
-4.6710 0.8106 1.6963
-4.6975 0.6428 1.6963
-4.7181 0.4741 1.6963
-4.7325 0.3048 1.6963
-4.7409 0.1350 1.6963
-4.7432 -0.0349 1.6963
-4.7394 -0.2048 1.6963
-4.7296 -0.3746 1.6963
-4.7136 -0.5438 1.6963
-4.6916 -0.7124 1.6963
-4.6635 -0.8802 1.6963
-4.6295 -1.0468 1.6963
-4.5895 -1.2121 1.6963
-4.5436 -1.3759 1.6963
-4.4919 -1.5379 1.6963
-4.4343 -1.6980 1.6963
-4.3711 -1.8560 1.6963
-4.3022 -2.0116 1.6963
-4.2278 -2.1646 1.6963
-4.1480 -2.3149 1.6963
-4.0628 -2.4622 1.6963
-3.9723 -2.6064 1.6963
-3.8767 -2.7473 1.6963
-3.7762 -2.8847 1.6963
-3.6707 -3.0183 1.6963
-3.5605 -3.1481 1.6963
-3.4458 -3.2739 1.6963
-3.3265 -3.3955 1.6963
-3.2030 -3.5128 1.6963
-3.0753 -3.6255 1.6963
-2.9437 -3.7336 1.6963
-2.8083 -3.8369 1.6963
-2.6692 -3.9353 1.6963
-2.5267 -4.0286 1.6963
-2.3809 -4.1167 1.6963
-2.2320 -4.1996 1.6963
-2.0803 -4.2771 1.6963
-1.9258 -4.3490 1.6963
-1.7689 -4.4154 1.6963
-1.6097 -4.4761 1.6963
-1.4484 -4.5311 1.6963
-1.2852 -4.5802 1.6963
-1.1204 -4.6234 1.6963
-0.9541 -4.6607 1.6963
-0.7866 -4.6920 1.6963
-0.6180 -4.7172 1.6963
-0.4487 -4.7364 1.6963
-0.2787 -4.7494 1.6963
-0.1085 -4.7564 1.6963
0.0620 -4.7573 1.6963
0.2323 -4.7520 1.6963
0.4024 -4.7406 1.6963
0.5719 -4.7231 1.6963
0.7407 -4.6995 1.6963
0.9085 -4.6699 1.6963
1.0752 -4.6342 1.6963
1.2404 -4.5926 1.6963
1.4041 -4.5451 1.6963
1.5659 -4.4918 1.6963
1.7257 -4.4327 1.6963
1.8068 -4.1903 1.6273
1.9144 -4.0358 1.5930
2.0576 -3.9645 1.5930
2.1982 -3.8880 1.5930
2.0475 -3.3366 1.3963
2.1600 -3.2525 1.3927
1.8516 -2.5824 1.1336
1.8542 -2.3996 1.0819
1.8696 -2.2483 1.0433
1.8683 -2.0897 1.0002
1.8369 -1.9121 0.9461
0.0929 1.3124 0.5056
0.0458 1.3148 0.5056
-0.0013 1.3156 0.5056
-0.0485 1.3147 0.5056
-0.0956 1.3122 0.5056
-0.1426 1.3080 0.5056
-0.1894 1.3022 0.5057
-0.2359 1.2947 0.5057
-0.2822 1.2856 0.5058
-0.3282 1.2749 0.5059
-0.3737 1.2625 0.5060
-0.4188 1.2486 0.5061
-0.4634 1.2331 0.5062
-0.5075 1.2160 0.5063
-0.5509 1.1974 0.5064
-0.5936 1.1772 0.5065
-0.6357 1.1556 0.5067
-0.6769 1.1325 0.5068
-0.7173 1.1079 0.5070
-0.7569 1.0819 0.5072
-0.7955 1.0545 0.5074
-0.8331 1.0258 0.5076
-2.9057 3.3265 1.6963
-3.0232 3.2204 1.6963
-3.1369 3.1102 1.6963
-3.2466 2.9960 1.6963
-3.3522 2.8780 1.6963
-3.4534 2.7562 1.6963
-3.5502 2.6309 1.6963
-3.6426 2.5022 1.6963
-3.7302 2.3702 1.6963
-3.8131 2.2352 1.6963
-3.8911 2.0973 1.6963
-3.9641 1.9567 1.6963
-4.0320 1.8136 1.6963
-4.0948 1.6681 1.6963
-4.1523 1.5204 1.6963
-4.2046 1.3708 1.6963
-4.2514 1.2194 1.6963
-4.2928 1.0664 1.6963
-4.3286 0.9120 1.6963
-4.3590 0.7563 1.6963
-4.3837 0.5997 1.6963
-4.4028 0.4423 1.6963
-4.4163 0.2843 1.6963
-4.4241 0.1259 1.6963
-4.4262 -0.0327 1.6963
-4.4227 -0.1913 1.6963
-4.4134 -0.3496 1.6963
-4.3985 -0.5076 1.6963
-4.3779 -0.6649 1.6963
-4.3517 -0.8214 1.6963
-4.3200 -0.9769 1.6963
-4.2826 -1.1311 1.6963
-4.2397 -1.2840 1.6963
-4.1914 -1.4352 1.6963
-4.1377 -1.5846 1.6963
-4.0787 -1.7319 1.6963
-4.0144 -1.8771 1.6963
-3.9450 -2.0199 1.6963
-3.8704 -2.1601 1.6963
-3.7909 -2.2976 1.6963
-3.7065 -2.4321 1.6963
-3.6173 -2.5636 1.6963
-3.5234 -2.6917 1.6963
-3.4250 -2.8164 1.6963
-3.3222 -2.9375 1.6963
-3.2151 -3.0549 1.6963
-3.1038 -3.1683 1.6963
-2.9886 -3.2777 1.6963
-2.8694 -3.3829 1.6963
-2.7466 -3.4837 1.6963
-2.6202 -3.5801 1.6963
-2.4905 -3.6718 1.6963
-2.3575 -3.7589 1.6963
-2.2214 -3.8411 1.6963
-2.0826 -3.9184 1.6963
-1.9410 -3.9907 1.6963
-1.7968 -4.0578 1.6963
-1.6504 -4.1198 1.6963
-1.5019 -4.1764 1.6963
-1.3514 -4.2276 1.6963
-1.1991 -4.2735 1.6963
-1.0453 -4.3138 1.6963
-0.8902 -4.3485 1.6963
-0.7339 -4.3777 1.6963
-0.5766 -4.4013 1.6963
-0.4186 -4.4192 1.6963
-0.2601 -4.4314 1.6963
-0.1012 -4.4379 1.6963
0.0578 -4.4386 1.6963
0.2168 -4.4337 1.6963
0.3754 -4.4231 1.6963
0.5336 -4.4068 1.6963
0.6911 -4.3848 1.6963
0.8477 -4.3571 1.6963
1.0031 -4.3239 1.6963
1.1573 -4.2851 1.6963
1.3100 -4.2408 1.6963
1.4610 -4.1910 1.6963
1.6102 -4.1358 1.6963
1.7572 -4.0754 1.6963
1.8018 -3.7984 1.6069
1.9198 -3.6990 1.5930
2.0510 -3.6277 1.5930
2.0475 -3.3367 1.4966
2.1600 -3.2526 1.4927
2.4279 -3.3862 1.5930
1.8696 -2.4196 1.1691
1.8420 -2.2152 1.1016
1.8546 -2.0744 1.0641
1.8644 -1.9408 1.0292
0.0871 1.2303 0.5062
0.0430 1.2326 0.5061
-0.0012 1.2333 0.5061
-0.0454 1.2325 0.5061
-0.0896 1.2301 0.5062
-0.1336 1.2262 0.5062
-0.1775 1.2207 0.5062
-0.2212 1.2137 0.5063
-0.2646 1.2052 0.5063
-0.3077 1.1951 0.5064
-0.3504 1.1835 0.5065
-0.3926 1.1704 0.5066
-0.4344 1.1559 0.5067
-0.4757 1.1399 0.5068
-0.5164 1.1224 0.5069
-0.5564 1.1035 0.5070
-0.5958 1.0832 0.5072
-0.6345 1.0615 0.5073
-0.6724 1.0384 0.5075
-0.7094 1.0140 0.5076
-0.7456 0.9883 0.5078
-0.7809 0.9614 0.5080
-0.8152 0.9332 0.5082
-2.8311 3.0157 1.6963
-2.9375 2.9125 1.6963
-3.0402 2.8055 1.6963
-3.1391 2.6949 1.6963
-3.2339 2.5809 1.6963
-3.3245 2.4635 1.6963
-3.4109 2.3430 1.6963
-3.4930 2.2194 1.6963
-3.5706 2.0930 1.6963
-3.6436 1.9639 1.6963
-3.7120 1.8322 1.6963
-3.7756 1.6981 1.6963
-3.8343 1.5619 1.6963
-3.8882 1.4236 1.6963
-3.9371 1.2835 1.6963
-3.9809 1.1417 1.6963
-4.0196 0.9984 1.6963
-4.0532 0.8538 1.6963
-4.0816 0.7081 1.6963
-4.1047 0.5615 1.6963
-4.1226 0.4141 1.6963
-4.1352 0.2661 1.6963
-4.1425 0.1178 1.6963
-4.1444 -0.0307 1.6963
-4.1411 -0.1792 1.6963
-4.1324 -0.3275 1.6963
-4.1184 -0.4754 1.6963
-4.0991 -0.6227 1.6963
-4.0746 -0.7692 1.6963
-4.0448 -0.9148 1.6963
-4.0098 -1.0592 1.6963
-3.9697 -1.2023 1.6963
-3.9244 -1.3438 1.6963
-3.8741 -1.4837 1.6963
-3.8188 -1.6217 1.6963
-3.7586 -1.7576 1.6963
-3.6935 -1.8913 1.6963
-3.6237 -2.0225 1.6963
-3.5492 -2.1512 1.6963
-3.4702 -2.2772 1.6963
-3.3867 -2.4002 1.6963
-3.2988 -2.5202 1.6963
-3.2066 -2.6369 1.6963
-3.1104 -2.7503 1.6963
-3.0101 -2.8602 1.6963
-2.9059 -2.9664 1.6963
-2.7980 -3.0688 1.6963
-2.6864 -3.1672 1.6963
-2.5714 -3.2616 1.6963
-2.4531 -3.3518 1.6963
-2.3316 -3.4377 1.6963
-2.2071 -3.5192 1.6963
-2.0797 -3.5962 1.6963
-1.9497 -3.6686 1.6963
-1.8171 -3.7362 1.6963
-1.6822 -3.7990 1.6963
-1.5451 -3.8570 1.6963
-1.4060 -3.9100 1.6963
-1.2651 -3.9580 1.6963
-1.1226 -4.0009 1.6963
-0.9786 -4.0386 1.6963
-0.8334 -4.0712 1.6963
-0.6870 -4.0985 1.6963
-0.5398 -4.1205 1.6963
-0.3919 -4.1373 1.6963
-0.2435 -4.1487 1.6963
-0.0947 -4.1548 1.6963
0.0541 -4.1555 1.6963
0.2029 -4.1509 1.6963
0.3515 -4.1409 1.6963
0.4995 -4.1256 1.6963
0.6470 -4.1051 1.6963
0.7936 -4.0792 1.6963
0.9391 -4.0481 1.6963
1.0835 -4.0118 1.6963
1.2264 -3.9703 1.6963
1.3678 -3.9237 1.6963
1.5074 -3.8721 1.6963
1.6451 -3.8154 1.6963
1.7806 -3.7539 1.6963
1.7973 -3.4631 1.5930
1.9201 -3.3964 1.5930
2.0405 -3.3253 1.5930
2.1581 -3.2499 1.5930
2.2730 -3.1703 1.5930
2.3850 -3.0867 1.5930
2.4939 -2.9991 1.5930
1.8379 -2.0557 1.1263
1.8400 -1.9154 1.0849
0.0819 1.1566 0.5066
0.0404 1.1588 0.5066
-0.0012 1.1595 0.5066
-0.0427 1.1587 0.5066
-0.0842 1.1565 0.5067
-0.1256 1.1528 0.5067
-0.1669 1.1476 0.5067
-0.2079 1.1410 0.5068
-0.2487 1.1330 0.5068
-0.2892 1.1235 0.5069
-0.3294 1.1126 0.5070
-0.3691 1.1003 0.5070
-0.4084 1.0866 0.5071
-0.4472 1.0715 0.5072
-0.4854 1.0551 0.5073
-0.5231 1.0373 0.5075
-0.5601 1.0182 0.5076
-0.5964 0.9977 0.5077
-0.6320 0.9761 0.5079
-0.6668 0.9531 0.5080
-0.7008 0.9290 0.5082
-0.7339 0.9036 0.5084
-0.7662 0.8771 0.5085
-0.7974 0.8494 0.5087
-0.8277 0.8206 0.5089
-2.8554 2.6348 1.6963
-2.9482 2.5309 1.6963
-3.0372 2.4238 1.6963
-3.1223 2.3136 1.6963
-3.2035 2.2004 1.6963
-3.2805 2.0843 1.6963
-3.3534 1.9656 1.6963
-3.4219 1.8443 1.6963
-3.4861 1.7206 1.6963
-3.5458 1.5947 1.6963
-3.6010 1.4668 1.6963
-3.6516 1.3369 1.6963
-3.6975 1.2053 1.6963
-3.7386 1.0721 1.6963
-3.7750 0.9375 1.6963
-3.8065 0.8018 1.6963
-3.8331 0.6649 1.6963
-3.8548 0.5272 1.6963
-3.8716 0.3888 1.6963
-3.8834 0.2498 1.6963
-3.8902 0.1105 1.6963
-3.8920 -0.0289 1.6963
-3.8889 -0.1684 1.6963
-3.8807 -0.3076 1.6963
-3.8675 -0.4465 1.6963
-3.8494 -0.5848 1.6963
-3.8263 -0.7224 1.6963
-3.7983 -0.8591 1.6963
-3.7655 -0.9947 1.6963
-3.7277 -1.1291 1.6963
-3.6852 -1.2620 1.6963
-3.6380 -1.3934 1.6963
-3.5860 -1.5229 1.6963
-3.5295 -1.6506 1.6963
-3.4684 -1.7761 1.6963
-3.4028 -1.8993 1.6963
-3.3329 -2.0202 1.6963
-3.2586 -2.1384 1.6963
-3.1802 -2.2540 1.6963
-3.0976 -2.3666 1.6963
-3.0111 -2.4762 1.6963
-2.9207 -2.5827 1.6963
-2.8265 -2.6858 1.6963
-2.7286 -2.7855 1.6963
-2.6273 -2.8817 1.6963
-2.5225 -2.9741 1.6963
-2.4146 -3.0627 1.6963
-2.3034 -3.1474 1.6963
-2.1893 -3.2281 1.6963
-2.0724 -3.3046 1.6963
-1.9528 -3.3769 1.6963
-1.8307 -3.4448 1.6963
-1.7062 -3.5083 1.6963
-1.5796 -3.5673 1.6963
-1.4508 -3.6217 1.6963
-1.3202 -3.6715 1.6963
-1.1879 -3.7165 1.6963
-1.0541 -3.7568 1.6963
-0.9189 -3.7922 1.6963
-0.7825 -3.8228 1.6963
-0.6451 -3.8484 1.6963
-0.5069 -3.8691 1.6963
-0.3680 -3.8849 1.6963
-0.2286 -3.8956 1.6963
-0.0889 -3.9013 1.6963
0.0508 -3.9020 1.6963
0.1905 -3.8976 1.6963
0.3300 -3.8883 1.6963
0.4691 -3.8739 1.6963
0.6075 -3.8546 1.6963
0.7451 -3.8303 1.6963
0.8818 -3.8011 1.6963
1.0174 -3.7670 1.6963
1.1516 -3.7281 1.6963
1.2843 -3.6843 1.6963
1.4154 -3.6359 1.6963
1.5447 -3.5827 1.6963
1.6719 -3.5250 1.6963
1.7830 -3.4357 1.6831
1.8030 -3.1892 1.5930
1.9160 -3.1225 1.5930
2.0265 -3.0517 1.5930
2.1344 -2.9770 1.5930
2.2395 -2.8985 1.5930
2.3417 -2.8163 1.5930
2.4410 -2.7304 1.5930
1.8488 -1.9246 1.1609
0.0772 1.0900 0.5071
0.0381 1.0921 0.5071
-0.0011 1.0927 0.5071
-0.0403 1.0920 0.5071
-0.0794 1.0899 0.5071
-0.1184 1.0864 0.5071
-0.1573 1.0816 0.5072
-0.1960 1.0753 0.5072
-0.2344 1.0677 0.5072
-0.2726 1.0588 0.5073
-0.3104 1.0485 0.5074
-0.3479 1.0369 0.5075
-0.3849 1.0240 0.5075
-0.4214 1.0098 0.5076
-0.4575 0.9942 0.5077
-0.4929 0.9775 0.5079
-0.5278 0.9594 0.5080
-0.5620 0.9402 0.5081
-0.5955 0.9197 0.5083
-0.6283 0.8981 0.5084
-0.6603 0.8753 0.5086
-0.6916 0.8514 0.5087
-0.7219 0.8264 0.5089
-0.7514 0.8003 0.5091
-0.7799 0.7732 0.5092
-0.8074 0.7450 0.5094
-0.8340 0.7160 0.5096
-2.8598 2.2822 1.6963
-2.9400 2.1784 1.6963
-3.0164 2.0718 1.6963
-3.0889 1.9625 1.6963
-3.1575 1.8507 1.6963
-3.2220 1.7365 1.6963
-3.2825 1.6200 1.6963
-3.3387 1.5015 1.6963
-3.3906 1.3810 1.6963
-3.4382 1.2587 1.6963
-3.4814 1.1348 1.6963
-3.5201 1.0094 1.6963
-3.5543 0.8827 1.6963
-3.5840 0.7548 1.6963
-3.6090 0.6259 1.6963
-3.6295 0.4963 1.6963
-3.6452 0.3659 1.6963
-3.6563 0.2351 1.6963
-3.6627 0.1040 1.6963
-3.6644 -0.0273 1.6963
-3.6614 -0.1586 1.6963
-3.6537 -0.2897 1.6963
-3.6413 -0.4205 1.6963
-3.6242 -0.5507 1.6963
-3.6025 -0.6803 1.6963
-3.5761 -0.8090 1.6963
-3.5452 -0.9366 1.6963
-3.5096 -1.0631 1.6963
-3.4696 -1.1883 1.6963
-3.4251 -1.3119 1.6963
-3.3762 -1.4339 1.6963
-3.3229 -1.5541 1.6963
-3.2654 -1.6722 1.6963
-3.2036 -1.7883 1.6963
-3.1378 -1.9020 1.6963
-3.0678 -2.0133 1.6963
-2.9940 -2.1221 1.6963
-2.9163 -2.2281 1.6963
-2.8348 -2.3313 1.6963
-2.7496 -2.4315 1.6963
-2.6610 -2.5286 1.6963
-2.5688 -2.6225 1.6963
-2.4734 -2.7130 1.6963
-2.3748 -2.8000 1.6963
-2.2731 -2.8834 1.6963
-2.1685 -2.9632 1.6963
-2.0611 -3.0391 1.6963
-1.9510 -3.1111 1.6963
-1.8384 -3.1791 1.6963
-1.7235 -3.2431 1.6963
-1.6063 -3.3029 1.6963
-1.4870 -3.3584 1.6963
-1.3658 -3.4096 1.6963
-1.2429 -3.4565 1.6963
-1.1183 -3.4989 1.6963
-0.9923 -3.5368 1.6963
-0.8651 -3.5701 1.6963
-0.7366 -3.5989 1.6963
-0.6073 -3.6230 1.6963
-0.4772 -3.6425 1.6963
-0.3464 -3.6573 1.6963
-0.2152 -3.6674 1.6963
-0.0837 -3.6728 1.6963
0.0478 -3.6734 1.6963
0.1794 -3.6693 1.6963
0.3107 -3.6605 1.6963
0.4416 -3.6470 1.6963
0.5719 -3.6288 1.6963
0.7015 -3.6060 1.6963
0.8301 -3.5785 1.6963
0.9578 -3.5464 1.6963
1.0841 -3.5097 1.6963
1.2091 -3.4686 1.6963
1.3325 -3.4229 1.6963
1.4542 -3.3729 1.6963
1.5740 -3.3185 1.6963
1.6918 -3.2599 1.6963
1.7753 -3.1404 1.6662
1.8037 -2.9396 1.5930
1.9078 -2.8730 1.5930
2.0093 -2.8027 1.5930
2.1083 -2.7288 1.5930
2.2046 -2.6514 1.5930
2.2980 -2.5706 1.5930
2.3885 -2.4865 1.5930
0.0729 1.0295 0.5075
0.0360 1.0315 0.5075
-0.0010 1.0321 0.5075
-0.0380 1.0314 0.5075
-0.0750 1.0294 0.5075
-0.1118 1.0261 0.5075
-0.1486 1.0215 0.5076
-0.1851 1.0156 0.5076
-0.2214 1.0085 0.5076
-0.2575 1.0000 0.5077
-0.2932 0.9903 0.5078
-0.3285 0.9793 0.5078
-0.3635 0.9671 0.5079
-0.3980 0.9536 0.5080
-0.4320 0.9390 0.5081
-0.4655 0.9231 0.5082
-0.4985 0.9061 0.5083
-0.5308 0.8879 0.5085
-0.5624 0.8685 0.5086
-0.5934 0.8481 0.5087
-0.6236 0.8266 0.5089
-0.6531 0.8040 0.5090
-0.6817 0.7803 0.5092
-0.7095 0.7557 0.5093
-0.7364 0.7300 0.5095
-0.7624 0.7035 0.5097
-0.7875 0.6760 0.5099
-0.8116 0.6476 0.5101
-0.8346 0.6184 0.5103
-2.8466 1.9551 1.6963
-2.9151 1.8519 1.6963
-2.9798 1.7464 1.6963
-3.0407 1.6386 1.6963
-3.0977 1.5287 1.6963
-3.1507 1.4168 1.6963
-3.1997 1.3031 1.6963
-3.2446 1.1877 1.6963
-3.2853 1.0708 1.6963
-3.3219 0.9524 1.6963
-3.3542 0.8329 1.6963
-3.3821 0.7122 1.6963
-3.4058 0.5906 1.6963
-3.4250 0.4682 1.6963
-3.4399 0.3452 1.6963
-3.4504 0.2218 1.6963
-3.4564 0.0980 1.6963
-3.4580 -0.0259 1.6963
-3.4551 -0.1498 1.6963
-3.4478 -0.2735 1.6963
-3.4361 -0.3969 1.6963
-3.4200 -0.5198 1.6963
-3.3994 -0.6420 1.6963
-3.3745 -0.7635 1.6963
-3.3453 -0.8839 1.6963
-3.3118 -1.0033 1.6963
-3.2740 -1.1214 1.6963
-3.2320 -1.2380 1.6963
-3.1858 -1.3531 1.6963
-3.1355 -1.4665 1.6963
-3.0812 -1.5780 1.6963
-3.0230 -1.6875 1.6963
-2.9608 -1.7948 1.6963
-2.8948 -1.8999 1.6963
-2.8251 -2.0025 1.6963
-2.7518 -2.1025 1.6963
-2.6749 -2.1999 1.6963
-2.5945 -2.2945 1.6963
-2.5108 -2.3861 1.6963
-2.4239 -2.4746 1.6963
-2.3339 -2.5600 1.6963
-2.2408 -2.6421 1.6963
-2.1449 -2.7208 1.6963
-2.0461 -2.7960 1.6963
-1.9448 -2.8677 1.6963
-1.8409 -2.9356 1.6963
-1.7347 -2.9998 1.6963
-1.6262 -3.0601 1.6963
-1.5156 -3.1165 1.6963
-1.4031 -3.1689 1.6963
-1.2887 -3.2173 1.6963
-1.1727 -3.2615 1.6963
-1.0552 -3.3015 1.6963
-0.9363 -3.3372 1.6963
-0.8162 -3.3687 1.6963
-0.6951 -3.3958 1.6963
-0.5730 -3.4186 1.6963
-0.4502 -3.4370 1.6963
-0.3269 -3.4509 1.6963
-0.2031 -3.4605 1.6963
-0.0790 -3.4655 1.6963
0.0451 -3.4661 1.6963
0.1693 -3.4623 1.6963
0.2931 -3.4540 1.6963
0.4166 -3.4412 1.6963
0.5396 -3.4241 1.6963
0.6619 -3.4025 1.6963
0.7833 -3.3766 1.6963
0.9037 -3.3463 1.6963
1.0229 -3.3117 1.6963
1.1408 -3.2729 1.6963
1.2573 -3.2298 1.6963
1.3721 -3.1826 1.6963
1.4852 -3.1313 1.6963
1.5963 -3.0760 1.6963
1.7054 -3.0167 1.6963
1.7686 -2.8825 1.6554
1.8001 -2.7110 1.5930
1.8959 -2.6446 1.5930
1.9893 -2.5749 1.5930
2.0802 -2.5019 1.5930
2.1683 -2.4256 1.5930
2.2537 -2.3463 1.5930
0.0690 0.9742 0.5079
0.0340 0.9761 0.5078
-0.0010 0.9766 0.5078
-0.0360 0.9760 0.5078
-0.0710 0.9741 0.5079
-0.1058 0.9710 0.5079
-0.1406 0.9666 0.5079
-0.1752 0.9611 0.5080
-0.2095 0.9543 0.5080
-0.2436 0.9463 0.5081
-0.2774 0.9371 0.5081
-0.3109 0.9267 0.5082
-0.3440 0.9151 0.5083
-0.3766 0.9024 0.5084
-0.4088 0.8885 0.5084
-0.4405 0.8734 0.5086
-0.4717 0.8573 0.5087
-0.5022 0.8401 0.5088
-0.5321 0.8218 0.5089
-0.5614 0.8024 0.5090
-0.5900 0.7820 0.5092
-0.6179 0.7606 0.5093
-0.6450 0.7383 0.5095
-0.6713 0.7149 0.5096
-0.6967 0.6907 0.5098
-0.7213 0.6655 0.5099
-0.7450 0.6395 0.5101
-0.7678 0.6126 0.5103
-0.7895 0.5850 0.5105
-0.8104 0.5565 0.5107
-0.8302 0.5274 0.5109
-2.8176 1.6513 1.6963
-2.8752 1.5494 1.6963
-2.9291 1.4454 1.6963
-2.9792 1.3396 1.6963
-3.0255 1.2321 1.6963
-3.0680 1.1230 1.6963
-3.1065 1.0124 1.6963
-3.1410 0.9005 1.6963
-3.1715 0.7874 1.6963
-3.1980 0.6733 1.6963
