ply
format ascii 1.0
element vertex 2204
property float32 x
property float32 y
property float32 z
end_header
5.1810 -12.3038 1.5913
5.6211 -12.1098 1.5913
6.2370 -12.2598 1.6394
5.9057 -10.6420 1.4505
6.1416 -10.1843 1.4172
6.2104 -9.5063 1.3530
6.4203 -9.0944 1.3264
6.6460 -8.7290 1.3071
7.0469 -8.5948 1.3241
7.2083 -8.1725 1.2981
7.2902 -7.6884 1.2620
7.2816 -7.1454 1.2150
7.3545 -6.7144 1.1859
7.4241 -6.3029 1.1596
7.4908 -5.9088 1.1359
7.5549 -5.5298 1.1146
7.6167 -5.1643 1.0954
7.6765 -4.8107 1.0783
5.8106 -3.3561 0.7986
5.8453 -3.1009 0.7874
5.8867 -2.8561 0.7785
5.9273 -2.6164 0.7708
5.9671 -2.3811 0.7642
6.0063 -2.1493 0.7587
6.0450 -1.9205 0.7543
6.0833 -1.6941 0.7509
6.1213 -1.4693 0.7484
6.1591 -1.2456 0.7470
6.1969 -1.0225 0.7465
6.2346 -0.7992 0.7470
6.2725 -0.5754 0.7485
6.3106 -0.3503 0.7509
6.3490 -0.1233 0.7544
6.3878 0.1061 0.7588
6.4271 0.3385 0.7644
6.4670 0.5748 0.7710
6.5079 0.8156 0.7787
6.5620 1.0637 0.7892
6.5720 1.3098 0.7954
6.5803 1.5598 0.8026
6.6251 1.8248 0.8155
6.6714 2.0988 0.8298
6.7195 2.3831 0.8459
6.7696 2.6791 0.8636
6.8808 3.0141 0.8910
6.9511 3.3482 0.9150
6.9930 3.6844 0.9373
7.0545 4.0479 0.9644
7.1197 4.4336 0.9944
7.1893 4.8447 1.0277
7.2638 5.2851 1.0647
7.3439 5.7591 1.1061
7.4307 6.2722 1.1523
7.5417 6.8459 1.2069
7.6288 7.4435 1.2628
9.5501 10.0144 1.6394
9.1841 10.3528 1.6394
8.8061 10.6778 1.6394
8.4165 10.9889 1.6394
8.0159 11.2858 1.6394
7.6048 11.5681 1.6394
7.1838 11.8353 1.6394
6.7533 12.0872 1.6394
6.3141 12.3234 1.6394
5.6944 12.1756 1.5913
5.2525 12.3734 1.5913
4.8037 12.5552 1.5913
4.3486 12.7207 1.5913
3.8878 12.8696 1.5913
3.4219 13.0017 1.5913
2.9515 13.1170 1.5913
2.4773 13.2151 1.5913
1.9998 13.2961 1.5913
1.6181 14.2252 1.6944
1.1048 14.2745 1.6944
0.5900 14.3051 1.6944
0.0744 14.3171 1.6944
-0.4413 14.3105 1.6944
-0.9564 14.2852 1.6944
-1.4702 14.2414 1.6944
-1.9822 14.1790 1.6944
-2.4915 14.0981 1.6944
-2.9975 13.9988 1.6944
-3.4996 13.8814 1.6944
-3.9972 13.7459 1.6944
-4.4895 13.5925 1.6944
-4.9759 13.4214 1.6944
-5.4557 13.2328 1.6944
-5.9284 13.0271 1.6944
-6.2348 12.4866 1.6523
-6.4430 11.8185 1.5937
-6.8529 11.5592 1.5911
-7.2642 11.3041 1.5911
-7.6661 11.0344 1.5911
-8.0579 10.7503 1.5911
-3.4674 4.2945 0.6537
-3.4748 3.9999 0.6276
-3.4816 3.7276 0.6042
-3.3629 -11.4382 1.6944
-2.9486 -11.5516 1.6944
-2.5306 -11.6500 1.6944
-2.1093 -11.7333 1.6944
-1.6852 -11.8015 1.6944
-1.2590 -11.8543 1.6944
-0.8312 -11.8918 1.6944
-0.4024 -11.9140 1.6944
0.0270 -11.9207 1.6944
0.4564 -11.9120 1.6944
0.8851 -11.8879 1.6944
1.3128 -11.8485 1.6944
1.7387 -11.7936 1.6944
2.0309 -11.0103 1.5913
2.4262 -10.9302 1.5913
2.8184 -10.8360 1.5913
3.2069 -10.7278 1.5913
3.5914 -10.6057 1.5913
3.9712 -10.4699 1.5913
4.3459 -10.3204 1.5913
4.7150 -10.1577 1.5913
5.0781 -9.9818 1.5913
5.4346 -9.7929 1.5913
5.7841 -9.5913 1.5913
6.1131 -9.3573 1.5879
6.2031 -8.7867 1.5279
6.6461 -8.7290 1.5584
7.0469 -8.5947 1.5786
7.2083 -8.1724 1.5477
7.2902 -7.6883 1.5047
7.2817 -7.1453 1.4487
7.3546 -6.7143 1.4140
7.4785 -6.3490 1.3928
7.5794 -5.9786 1.3705
7.6443 -5.5951 1.3448
7.6167 -5.1643 1.3062
7.1314 -4.4689 1.1945
5.8106 -3.3560 0.9523
5.8453 -3.1009 0.9389
5.8867 -2.8561 0.9284
5.9273 -2.6164 0.9192
5.9671 -2.3810 0.9114
6.0063 -2.1493 0.9048
6.0450 -1.9205 0.8996
6.0833 -1.6940 0.8955
6.1213 -1.4692 0.8926
6.1591 -1.2456 0.8909
6.1969 -1.0224 0.8904
6.2346 -0.7992 0.8910
6.2725 -0.5753 0.8927
6.3106 -0.3502 0.8957
6.3490 -0.1233 0.8998
6.3878 0.1061 0.9052
6.4271 0.3386 0.9118
6.4671 0.5749 0.9197
6.5079 0.8157 0.9290
6.5620 1.0637 0.9414
6.6072 1.3169 0.9540
6.5803 1.5599 0.9575
6.6639 1.8355 0.9786
6.6146 2.0810 0.9816
6.6623 2.3629 1.0006
6.7120 2.6564 1.0216
6.7638 2.9629 1.0450
6.9511 3.3483 1.0917
6.9930 3.6845 1.1183
7.0545 4.0480 1.1506
7.2320 4.5036 1.2051
7.1893 4.8448 1.2262
7.2638 5.2852 1.2705
7.4597 5.8500 1.3406
7.5479 6.3712 1.3967
7.5416 6.8459 1.4401
7.6289 7.4436 1.5069
8.0030 8.3922 1.6394
7.6961 8.6756 1.6394
7.3792 8.9478 1.6394
7.0527 9.2084 1.6394
6.7169 9.4571 1.6394
6.3724 9.6935 1.6394
5.8429 9.6264 1.5913
5.4928 9.8311 1.5913
5.1354 10.0231 1.5913
4.7714 10.2021 1.5913
4.4010 10.3678 1.5913
4.0250 10.5200 1.5913
3.6042 10.5433 1.5741
3.2539 10.7714 1.5895
2.8671 10.8939 1.5913
0.7573 3.3654 0.4873
0.6353 3.3893 0.4871
0.5127 3.4090 0.4869
0.3895 3.4244 0.4868
0.2659 3.4357 0.4867
0.1420 3.4427 0.4867
0.0179 3.4454 0.4867
-0.1062 3.4440 0.4867
-0.2302 3.4382 0.4867
-0.3539 3.4283 0.4868
-0.4773 3.4141 0.4869
-0.6001 3.3957 0.4871
-0.7223 3.3731 0.4873
-2.9322 11.6309 1.6944
-3.3491 11.5174 1.6944
-3.7616 11.3890 1.6944
-4.1692 11.2457 1.6944
-4.5713 11.0878 1.6944
-4.9674 10.9155 1.6944
-5.3571 10.7290 1.6944
-5.7397 10.5285 1.6944
-6.1148 10.3144 1.6944
-6.2191 9.6779 1.6257
-6.4256 9.2490 1.5916
-6.7521 9.0083 1.5911
-3.4674 4.2946 0.7802
-3.4748 3.9999 0.7489
-3.4816 3.7276 0.7210
-2.8936 -9.8418 1.6944
-2.5371 -9.9393 1.6944
-2.1774 -10.0240 1.6944
-1.8149 -10.0958 1.6944
-1.4501 -10.1544 1.6944
-1.0833 -10.1999 1.6944
-0.7152 -10.2322 1.6944
-0.3462 -10.2513 1.6944
0.0233 -10.2571 1.6944
0.3927 -10.2496 1.6944
0.7616 -10.2289 1.6944
1.1296 -10.1949 1.6944
1.4961 -10.1477 1.6944
1.8606 -10.0874 1.6944
2.0876 -9.4048 1.5913
2.4250 -9.3237 1.5913
2.7594 -9.2305 1.5913
3.0901 -9.1254 1.5913
3.4169 -9.0085 1.5913
3.7393 -8.8799 1.5913
4.0569 -8.7398 1.5913
4.3693 -8.5883 1.5913
4.6760 -8.4258 1.5913
4.9767 -8.2523 1.5913
5.2710 -8.0681 1.5913
5.5584 -7.8734 1.5913
5.8388 -7.6685 1.5913
6.2962 -7.6790 1.6394
6.5692 -7.4477 1.6394
6.8336 -7.2067 1.6394
7.0892 -6.9564 1.6394
7.3357 -6.6970 1.6394
7.4786 -6.3490 1.6190
7.5794 -5.9785 1.5930
7.6443 -5.5951 1.5631
6.1591 -4.1759 1.2278
6.3989 -4.0098 1.2458
5.8106 -3.3560 1.1069
5.8453 -3.1008 1.0915
5.8867 -2.8560 1.0792
5.9273 -2.6163 1.0685
5.9671 -2.3809 1.0595
6.0063 -2.1492 1.0519
6.0450 -1.9204 1.0458
6.0833 -1.6939 1.0411
6.1213 -1.4692 1.0377
6.1591 -1.2455 1.0358
6.1969 -1.0223 1.0351
6.2347 -0.7991 1.0359
6.2725 -0.5753 1.0379
6.3106 -0.3501 1.0414
6.3490 -0.1232 1.0462
6.3878 0.1062 1.0524
6.4271 0.3387 1.0601
6.4671 0.5749 1.0693
6.5079 0.8157 1.0801
6.5620 1.0638 1.0947
6.4812 1.2918 1.0881
6.5243 1.5467 1.1039
6.5551 1.8056 1.1193
6.4864 2.0408 1.1193
6.4093 2.2733 1.1193
6.3239 2.5028 1.1193
6.3404 2.7775 1.1391
6.4414 3.1029 1.1765
6.9931 3.6846 1.3005
7.1657 4.1119 1.3592
7.2320 4.5037 1.4015
7.1893 4.8449 1.4260
7.2638 5.2853 1.4775
7.4597 5.8501 1.5591
7.5479 6.3713 1.6244
7.3816 6.7008 1.6394
7.1360 6.9628 1.6394
6.8811 7.2158 1.6394
6.6172 7.4594 1.6394
6.3446 7.6934 1.6394
6.0638 7.9174 1.6394
5.6057 7.8926 1.5913
5.3181 8.0898 1.5913
5.0236 8.2765 1.5913
4.7225 8.4525 1.5913
4.4152 8.6175 1.5913
4.1022 8.7713 1.5913
3.7837 8.9137 1.5913
3.4604 9.0445 1.5913
3.1325 9.1636 1.5913
2.8006 9.2708 1.5913
0.7607 2.8904 0.4911
0.6559 2.9149 0.4909
0.5503 2.9357 0.4907
0.4441 2.9528 0.4906
0.3374 2.9663 0.4905
0.2303 2.9761 0.4904
0.1230 2.9822 0.4904
0.0155 2.9847 0.4904
-0.0920 2.9834 0.4904
-0.1994 2.9784 0.4904
-0.3066 2.9697 0.4905
-0.4134 2.9573 0.4906
-0.5198 2.9413 0.4907
-0.6256 2.9215 0.4909
-0.7306 2.8982 0.4911
-2.8793 9.9019 1.6944
-3.2340 9.7916 1.6944
-3.5844 9.6684 1.6944
-3.9301 9.5327 1.6944
-4.2707 9.3846 1.6944
-4.6058 9.2244 1.6944
-4.9347 9.0521 1.6944
-5.2573 8.8680 1.6944
-5.5730 8.6725 1.6944
-5.8814 8.4657 1.6944
-6.1821 8.2479 1.6944
-3.4674 4.2947 0.9074
-3.4748 4.0000 0.8711
-3.4816 3.7277 0.8386
-2.5369 -8.6285 1.6944
-2.2244 -8.7140 1.6944
-1.9090 -8.7883 1.6944
-1.5912 -8.8512 1.6944
-1.2713 -8.9027 1.6944
-0.9498 -8.9426 1.6944
-0.6271 -8.9709 1.6944
-0.3035 -8.9877 1.6944
0.0204 -8.9928 1.6944
0.3443 -8.9862 1.6944
0.6677 -8.9680 1.6944
0.9903 -8.9382 1.6944
1.3117 -8.8968 1.6944
1.6313 -8.8439 1.6944
1.9488 -8.7796 1.6944
2.1455 -8.2488 1.6058
2.4192 -8.0926 1.5913
2.7092 -8.0004 1.5913
2.9957 -7.8979 1.5913
3.2783 -7.7851 1.5913
3.5567 -7.6622 1.5913
3.8306 -7.5294 1.5913
4.0995 -7.3868 1.5913
4.3631 -7.2347 1.5913
4.6210 -7.0732 1.5913
4.8730 -6.9025 1.5913
5.1187 -6.7228 1.5913
5.3579 -6.5344 1.5913
5.5901 -6.3376 1.5913
5.8150 -6.1324 1.5913
6.2148 -6.0982 1.6394
6.4308 -5.8708 1.6394
6.6386 -5.6357 1.6394
6.8377 -5.3933 1.6394
7.0280 -5.1439 1.6394
6.1591 -4.1758 1.4006
6.3990 -4.0099 1.4212
5.8106 -3.3559 1.2628
5.8453 -3.1008 1.2451
5.8867 -2.8559 1.2311
5.9273 -2.6162 1.2190
6.0499 -2.4139 1.2254
6.1010 -2.1830 1.2189
6.1403 -1.9506 1.2119
6.1792 -1.7206 1.2064
6.2178 -1.4923 1.2026
6.2562 -1.2651 1.2003
6.1969 -1.0223 1.1810
6.2347 -0.7991 1.1818
6.2725 -0.5752 1.1842
6.3106 -0.3501 1.1881
6.4491 -0.1251 1.2125
6.4885 0.1079 1.2197
6.5284 0.3441 1.2286
6.5690 0.5841 1.2393
6.5079 0.8158 1.2324
6.5621 1.0639 1.2490
6.3057 1.2569 1.2080
6.1637 1.4612 1.1900
6.2057 1.7095 1.2091
6.2491 1.9662 1.2305
6.2942 2.2325 1.2543
6.3411 2.5097 1.2807
6.3901 2.7993 1.3100
6.3642 3.0657 1.3264
6.2554 3.2960 1.3275
7.1657 4.1120 1.5510
7.2320 4.5038 1.5994
7.1893 4.8450 1.6274
7.0624 5.1388 1.6394
6.8732 5.3902 1.6394
6.6750 5.6346 1.6394
6.4682 5.8717 1.6394
6.2530 6.1013 1.6394
5.8526 6.1374 1.5913
5.6282 6.3446 1.5913
5.3963 6.5436 1.5913
5.1574 6.7340 1.5913
4.9118 6.9157 1.5913
4.6598 7.0885 1.5913
4.4017 7.2520 1.5913
4.1378 7.4062 1.5913
3.8686 7.5507 1.5913
3.5943 7.6854 1.5913
3.3153 7.8102 1.5913
3.0320 7.9248 1.5913
2.7447 8.0291 1.5913
0.7618 2.5220 0.4940
0.6703 2.5468 0.4938
0.5779 2.5684 0.4937
0.4849 2.5869 0.4935
0.3914 2.6021 0.4934
0.2973 2.6140 0.4933
0.2030 2.6227 0.4933
0.1084 2.6281 0.4932
0.0137 2.6303 0.4932
-0.0811 2.6291 0.4932
-0.1757 2.6247 0.4933
-0.2702 2.6170 0.4933
-0.3643 2.6060 0.4934
-0.4580 2.5918 0.4935
-0.5512 2.5743 0.4937
-0.6438 2.5536 0.4938
-0.7356 2.5298 0.4940
-0.8266 2.5027 0.4943
-3.1406 8.4714 1.6944
-3.4435 8.3525 1.6944
-3.7420 8.2228 1.6944
-4.0355 8.0824 1.6944
-4.3238 7.9315 1.6944
-4.6065 7.7703 1.6944
-4.8831 7.5991 1.6944
-5.1534 7.4179 1.6944
-5.4169 7.2271 1.6944
-3.4674 4.2947 1.0356
-3.4748 4.0001 0.9941
-3.4816 3.7278 0.9571
-2.2564 -7.6743 1.6944
-1.9784 -7.7505 1.6944
-1.6979 -7.8165 1.6944
-1.4153 -7.8725 1.6944
-1.1308 -7.9183 1.6944
-0.8448 -7.9538 1.6944
-0.5578 -7.9790 1.6944
-0.2700 -7.9939 1.6944
0.0181 -7.9984 1.6944
0.3062 -7.9926 1.6944
0.5939 -7.9764 1.6944
0.8808 -7.9499 1.6944
1.1666 -7.9131 1.6944
1.4509 -7.8660 1.6944
1.7334 -7.8087 1.6944
1.9508 -7.5000 1.6415
2.1517 -7.1977 1.5913
2.4096 -7.1157 1.5913
2.6644 -7.0245 1.5913
2.9158 -6.9241 1.5913
3.1634 -6.8148 1.5913
3.4070 -6.6967 1.5913
3.6461 -6.5698 1.5913
3.8805 -6.4345 1.5913
4.1099 -6.2908 1.5913
4.3340 -6.1389 1.5913
4.5526 -5.9791 1.5913
4.7652 -5.8115 1.5913
4.9717 -5.6364 1.5913
5.1718 -5.4540 1.5913
5.3651 -5.2644 1.5913
5.5516 -5.0681 1.5913
5.7309 -4.8651 1.5913
5.9027 -4.6558 1.5913
6.2503 -4.5746 1.6394
6.1591 -4.1758 1.5748
6.3992 -4.0099 1.5981
5.8106 -3.3558 1.4199
5.8453 -3.1007 1.4001
5.8868 -2.8559 1.3844
5.9273 -2.6162 1.3707
6.0502 -2.4140 1.3780
6.1010 -2.1830 1.3707
6.1403 -1.9506 1.3628
6.1792 -1.7205 1.3566
6.2178 -1.4922 1.3523
6.2563 -1.2650 1.3498
6.1969 -1.0222 1.3281
6.2347 -0.7990 1.3290
6.2725 -0.5751 1.3317
6.3106 -0.3500 1.3362
6.4491 -0.1250 1.3635
6.4885 0.1080 1.3717
6.5284 0.3441 1.3818
6.5690 0.5841 1.3938
6.5079 0.8159 1.3861
6.5621 1.0640 1.4047
6.3055 1.2570 1.3585
6.1087 1.4483 1.3264
6.0530 1.6675 1.3264
6.0182 1.8936 1.3328
6.0616 2.1500 1.3585
6.1560 2.4365 1.3984
6.2035 2.7177 1.4304
6.2534 3.0124 1.4659
6.3059 3.3227 1.5051
6.7338 3.8642 1.6394
6.5907 4.1045 1.6394
6.4390 4.3395 1.6394
6.2790 4.5689 1.6394
6.1107 4.7923 1.6394
5.7604 4.8626 1.5913
5.5819 5.0672 1.5913
5.3961 5.2653 1.5913
5.2033 5.4565 1.5913
5.0036 5.6407 1.5913
4.7975 5.8175 1.5913
4.5851 5.9868 1.5913
4.3667 6.1483 1.5913
4.1426 6.3019 1.5913
3.9132 6.4472 1.5913
3.6786 6.5843 1.5913
3.4392 6.7127 1.5913
3.1953 6.8325 1.5913
2.9473 6.9433 1.5913
0.8412 2.1988 0.4966
0.7612 2.2267 0.4964
0.6802 2.2519 0.4962
0.5985 2.2742 0.4960
0.5161 2.2936 0.4959
0.4330 2.3101 0.4958
0.3495 2.3237 0.4957
0.2655 2.3344 0.4956
0.1813 2.3422 0.4955
0.0968 2.3471 0.4955
0.0122 2.3490 0.4955
-0.0724 2.3480 0.4955
-0.1569 2.3440 0.4955
-0.2413 2.3371 0.4956
-0.3253 2.3272 0.4957
-0.4090 2.3145 0.4958
-0.4922 2.2988 0.4959
-0.5749 2.2803 0.4960
-0.6568 2.2588 0.4962
-0.7380 2.2346 0.4964
-0.8184 2.2075 0.4966
-3.0613 7.4255 1.6944
-3.3266 7.3102 1.6944
-3.5876 7.1854 1.6944
-3.8439 7.0513 1.6944
-4.0952 6.9080 1.6944
-4.3412 6.7557 1.6944
-4.5815 6.5948 1.6944
-4.8158 6.4252 1.6944
-3.4675 4.2948 1.1648
-3.4748 4.0001 1.1182
-3.1117 3.3318 0.9621
-2.0298 -6.9036 1.6944
-1.7797 -6.9721 1.6944
-1.5274 -7.0315 1.6944
-1.2731 -7.0819 1.6944
-1.0172 -7.1231 1.6944
-0.7600 -7.1550 1.6944
-0.5017 -7.1777 1.6944
-0.2429 -7.1911 1.6944
0.0163 -7.1952 1.6944
0.2755 -7.1899 1.6944
0.5343 -7.1754 1.6944
0.7924 -7.1515 1.6944
1.0495 -7.1184 1.6944
1.3052 -7.0760 1.6944
1.5593 -7.0245 1.6944
1.8113 -6.9639 1.6944
1.9524 -6.5308 1.6050
2.1677 -6.4010 1.5913
2.3969 -6.3190 1.5913
2.6230 -6.2287 1.5913
2.8457 -6.1303 1.5913
3.0648 -6.0240 1.5913
3.2799 -5.9099 1.5913
3.4908 -5.7882 1.5913
3.6971 -5.6589 1.5913
3.8987 -5.5222 1.5913
4.0953 -5.3784 1.5913
4.2865 -5.2277 1.5913
4.4722 -5.0701 1.5913
4.6522 -4.9060 1.5913
4.8261 -4.7355 1.5913
4.9938 -4.5588 1.5913
5.1550 -4.3762 1.5913
5.3096 -4.1879 1.5913
5.4573 -3.9941 1.5913
5.5980 -3.7952 1.5913
5.7314 -3.5913 1.5913
5.8106 -3.3558 1.5786
5.8454 -3.1006 1.5565
5.8868 -2.8558 1.5391
5.9273 -2.6161 1.5239
6.0505 -2.4140 1.5321
6.1010 -2.1829 1.5239
6.1403 -1.9505 1.5151
6.1792 -1.7205 1.5083
6.2178 -1.4921 1.5035
6.2563 -1.2649 1.5007
6.1969 -1.0222 1.4766
6.2347 -0.7989 1.4777
6.2725 -0.5751 1.4807
6.3106 -0.3500 1.4856
6.4491 -0.1250 1.5160
6.4885 0.1080 1.5251
6.5284 0.3442 1.5363
6.5690 0.5842 1.5497
6.5079 0.8159 1.5411
6.5621 1.0640 1.5619
6.3054 1.2570 1.5105
5.9838 1.4187 1.4447
6.0246 1.6597 1.4679
6.0667 1.9089 1.4939
6.1104 2.1674 1.5228
6.0491 2.3943 1.5279
5.9720 2.6163 1.5312
6.0701 2.9242 1.5822
6.1210 3.2253 1.6246
5.8781 3.3732 1.5913
5.7532 3.5830 1.5913
5.6207 3.7881 1.5913
5.4810 3.9883 1.5913
5.3341 4.1833 1.5913
5.1803 4.3730 1.5913
5.0197 4.5569 1.5913
4.8526 4.7350 1.5913
4.6791 4.9069 1.5913
4.4996 5.0725 1.5913
4.3142 5.2315 1.5913
4.1231 5.3837 1.5913
3.9268 5.5289 1.5913
3.7252 5.6670 1.5913
3.5189 5.7977 1.5913
3.3079 5.9209 1.5913
3.0926 6.0364 1.5913
2.8733 6.1440 1.5913
0.8304 1.9563 0.4986
0.7591 1.9841 0.4984
0.6869 2.0094 0.4982
0.6139 2.0322 0.4980
0.5401 2.0524 0.4978
0.4657 2.0699 0.4977
0.3908 2.0849 0.4976
0.3154 2.0972 0.4975
0.2397 2.1069 0.4974
0.1636 2.1140 0.4973
0.0874 2.1184 0.4973
0.0110 2.1201 0.4973
-0.0653 2.1192 0.4973
-0.1416 2.1156 0.4973
-0.2178 2.1093 0.4974
-0.2936 2.1004 0.4975
-0.3691 2.0888 0.4976
-0.4442 2.0747 0.4977
-0.5188 2.0579 0.4978
-0.5927 2.0385 0.4980
-0.6660 2.0165 0.4982
-0.7385 1.9919 0.4984
-0.8100 1.9649 0.4986
-2.9914 6.5736 1.6944
-3.2261 6.4614 1.6944
-3.4566 6.3408 1.6944
-3.6826 6.2120 1.6944
-3.9038 6.0751 1.6944
-4.1199 5.9304 1.6944
-4.3306 5.7779 1.6944
-3.4675 4.2949 1.2953
-3.4748 4.0002 1.2435
-3.0333 3.2478 1.0429
-1.8428 -6.2674 1.6944
-1.6158 -6.3296 1.6944
-1.3867 -6.3836 1.6944
-1.1558 -6.4293 1.6944
-0.9235 -6.4668 1.6944
-0.6900 -6.4958 1.6944
-0.4555 -6.5164 1.6944
-0.2205 -6.5285 1.6944
0.0148 -6.5322 1.6944
0.2501 -6.5275 1.6944
0.4851 -6.5142 1.6944
0.7194 -6.4926 1.6944
0.9528 -6.4625 1.6944
1.1850 -6.4240 1.6944
1.4156 -6.3773 1.6944
1.6444 -6.3222 1.6944
1.8711 -6.2590 1.6944
1.9679 -5.8112 1.5913
2.1760 -5.7366 1.5913
2.3813 -5.6547 1.5913
2.5835 -5.5654 1.5913
2.7824 -5.4689 1.5913
2.9776 -5.3653 1.5913
3.1691 -5.2547 1.5913
3.3564 -5.1373 1.5913
3.5394 -5.0132 1.5913
3.6776 -4.8299 1.5741
3.8493 -4.6945 1.5741
4.0161 -4.5529 1.5741
4.1771 -4.4050 1.5739
4.3813 -4.2989 1.5913
4.5335 -4.1385 1.5913
4.6798 -3.9727 1.5913
4.8201 -3.8017 1.5913
4.9542 -3.6258 1.5913
5.0818 -3.4452 1.5913
5.2029 -3.2601 1.5913
5.3172 -3.0708 1.5913
5.4247 -2.8774 1.5913
5.5251 -2.6803 1.5913
5.6184 -2.4797 1.5913
5.7044 -2.2759 1.5913
5.7831 -2.0691 1.5913
5.8542 -1.8595 1.5913
5.9177 -1.6476 1.5913
6.1542 -1.4768 1.6394
6.2037 -1.2542 1.6394
6.1969 -1.0221 1.6267
6.2347 -0.7989 1.6279
6.2726 -0.5750 1.6312
6.3106 -0.3499 1.6366
6.3301 -0.1226 1.6394
6.3308 0.1055 1.6394
6.3233 0.3335 1.6394
6.3076 0.5610 1.6394
6.2837 0.7879 1.6394
6.2517 1.0138 1.6394
6.2115 1.2384 1.6394
5.7605 1.3659 1.5322
5.7998 1.5978 1.5569
5.8656 1.8457 1.5913
5.7957 2.0558 1.5913
5.7182 2.2634 1.5913
5.6333 2.4680 1.5913
5.5411 2.6695 1.5913
5.4417 2.8674 1.5913
5.3352 3.0617 1.5913
5.2218 3.2521 1.5913
5.1015 3.4382 1.5913
4.9747 3.6199 1.5913
4.8413 3.7969 1.5913
4.7017 3.9690 1.5913
4.5559 4.1360 1.5913
4.4042 4.2976 1.5913
4.2468 4.4536 1.5913
4.0838 4.6038 1.5913
3.9155 4.7481 1.5913
3.7421 4.8863 1.5913
3.5639 5.0180 1.5913
3.3810 5.1433 1.5913
3.1937 5.2619 1.5913
3.0022 5.3737 1.5913
2.8068 5.4785 1.5913
0.8198 1.7529 0.5002
0.7558 1.7806 0.5000
0.6909 1.8059 0.4998
0.6252 1.8290 0.4996
0.5588 1.8498 0.4995
0.4917 1.8682 0.4993
0.4240 1.8843 0.4992
0.3558 1.8979 0.4991
0.2871 1.9092 0.4990
0.2182 1.9180 0.4989
0.1489 1.9245 0.4989
0.0795 1.9285 0.4988
0.0100 1.9301 0.4988
-0.0595 1.9292 0.4988
-0.1289 1.9259 0.4989
-0.1982 1.9202 0.4989
-0.2673 1.9120 0.4990
-0.3360 1.9015 0.4991
-0.4044 1.8886 0.4992
-0.4722 1.8732 0.4993
-0.5395 1.8555 0.4995
-0.6062 1.8354 0.4996
-0.6721 1.8130 0.4998
-0.7373 1.7883 0.5000
-0.8015 1.7613 0.5002
-2.9279 5.8643 1.6944
-3.1371 5.7548 1.6944
-3.3422 5.6380 1.6944
-3.5430 5.5137 1.6944
-3.7391 5.3824 1.6944
-3.9304 5.2440 1.6944
-4.1165 5.0989 1.6944
-3.0411 3.5009 1.1991
-2.9916 3.2033 1.1333
-1.6856 -5.7329 1.6944
-1.4780 -5.7898 1.6944
-1.2685 -5.8393 1.6944
-1.0573 -5.8811 1.6944
-0.8448 -5.9153 1.6944
-0.6311 -5.9418 1.6944
-0.4167 -5.9607 1.6944
-0.2017 -5.9718 1.6944
0.0135 -5.9752 1.6944
0.2288 -5.9708 1.6944
0.4437 -5.9587 1.6944
0.6581 -5.9389 1.6944
0.8716 -5.9114 1.6944
1.0839 -5.8762 1.6944
1.2949 -5.8334 1.6944
1.5042 -5.7831 1.6944
1.7116 -5.7252 1.6944
1.9167 -5.6600 1.6944
1.9905 -5.2474 1.5913
2.1782 -5.1724 1.5913
2.3632 -5.0907 1.5913
2.5451 -5.0024 1.5913
2.7237 -4.9076 1.5913
2.8988 -4.8065 1.5913
3.0702 -4.6991 1.5913
3.2375 -4.5856 1.5913
3.3727 -4.4295 1.5782
3.5210 -4.2940 1.5741
3.6735 -4.1645 1.5741
3.8558 -4.0660 1.5883
4.0075 -3.9321 1.5913
4.1467 -3.7854 1.5913
4.2806 -3.6337 1.5913
4.4089 -3.4773 1.5913
4.5315 -3.3164 1.5913
4.6482 -3.1512 1.5913
4.7590 -2.9819 1.5913
4.8635 -2.8087 1.5913
4.9618 -2.6318 1.5913
5.0536 -2.4515 1.5913
5.1389 -2.2680 1.5913
5.2176 -2.0816 1.5913
5.2895 -1.8924 1.5913
5.3545 -1.7008 1.5913
5.4126 -1.5069 1.5913
5.4637 -1.3110 1.5913
5.5077 -1.1135 1.5913
5.5445 -0.9144 1.5913
5.5742 -0.7142 1.5913
5.5966 -0.5130 1.5913
5.6118 -0.3111 1.5913
5.6197 -0.1088 1.5913
5.6203 0.0937 1.5913
5.6137 0.2961 1.5913
5.5997 0.4981 1.5913
5.5784 0.6995 1.5913
5.5500 0.9000 1.5913
5.5143 1.0994 1.5913
5.4714 1.2974 1.5913
5.4215 1.4937 1.5913
5.3645 1.6880 1.5913
5.3005 1.8803 1.5913
5.2296 2.0701 1.5913
5.1520 2.2572 1.5913
5.0676 2.4414 1.5913
4.9767 2.6224 1.5913
4.8792 2.8001 1.5913
4.7755 2.9742 1.5913
4.6655 3.1444 1.5913
4.5495 3.3106 1.5913
4.4275 3.4724 1.5913
4.2998 3.6298 1.5913
4.1664 3.7825 1.5913
4.0277 3.9302 1.5913
3.8837 4.0729 1.5913
3.7347 4.2103 1.5913
3.5807 4.3422 1.5913
3.4222 4.4685 1.5913
3.2592 4.5891 1.5913
3.0919 4.7036 1.5913
2.9206 4.8120 1.5913
2.7455 4.9143 1.5913
0.8091 1.5793 0.5016
0.7514 1.6068 0.5014
0.6928 1.6322 0.5012
0.6334 1.6555 0.5010
0.5732 1.6767 0.5008
0.5123 1.6958 0.5007
0.4507 1.7127 0.5006
0.3887 1.7275 0.5004
0.3262 1.7400 0.5003
0.2632 1.7504 0.5003
0.2000 1.7585 0.5002
0.1365 1.7644 0.5002
0.0729 1.7681 0.5001
0.0092 1.7696 0.5001
-0.0545 1.7688 0.5001
-0.1182 1.7657 0.5002
-0.1817 1.7605 0.5002
-0.2450 1.7530 0.5003
-0.3081 1.7433 0.5003
-0.3707 1.7314 0.5004
-0.4329 1.7173 0.5006
-0.4946 1.7010 0.5007
-0.5557 1.6826 0.5008
-0.6161 1.6620 0.5010
-0.6758 1.6393 0.5012
-0.7347 1.6145 0.5014
-0.7927 1.5877 0.5016
-2.8689 5.2628 1.6944
-3.0564 5.1559 1.6944
-3.2400 5.0423 1.6944
-3.4194 4.9222 1.6944
-3.5943 4.7957 1.6944
-3.7646 4.6630 1.6944
-3.0129 3.4685 1.2990
-2.9720 3.1823 1.2312
-1.5516 -5.2771 1.6944
-1.3605 -5.3295 1.6944
-1.1676 -5.3750 1.6944
-0.9732 -5.4135 1.6944
-0.7776 -5.4450 1.6944
-0.5810 -5.4694 1.6944
-0.3836 -5.4868 1.6944
-0.1857 -5.4970 1.6944
0.0125 -5.5001 1.6944
0.2106 -5.4961 1.6944
0.4084 -5.4850 1.6944
0.6057 -5.4667 1.6944
0.8023 -5.4414 1.6944
0.9978 -5.4090 1.6944
1.1920 -5.3696 1.6944
1.3846 -5.3233 1.6944
1.5755 -5.2700 1.6944
1.7644 -5.2100 1.6944
1.9340 -5.0985 1.6797
2.0051 -4.7611 1.5913
2.1753 -4.6859 1.5913
2.3427 -4.6047 1.5913
2.5072 -4.5174 1.5913
2.6683 -4.4243 1.5913
2.8260 -4.3254 1.5913
2.9801 -4.2209 1.5913
3.1303 -4.1110 1.5913
3.2765 -3.9957 1.5913
3.4184 -3.8752 1.5913
3.5559 -3.7497 1.5913
3.6888 -3.6193 1.5913
3.8169 -3.4843 1.5913
3.9401 -3.3447 1.5913
4.0582 -3.2007 1.5913
4.1711 -3.0526 1.5913
4.2785 -2.9005 1.5913
4.3804 -2.7446 1.5913
4.4766 -2.5852 1.5913
4.5671 -2.4224 1.5913
4.6516 -2.2564 1.5913
4.7301 -2.0875 1.5913
4.8025 -1.9159 1.5913
4.8686 -1.7418 1.5913
4.9284 -1.5654 1.5913
4.9819 -1.3869 1.5913
5.0289 -1.2067 1.5913
5.0694 -1.0248 1.5913
5.1033 -0.8416 1.5913
5.1305 -0.6573 1.5913
5.1512 -0.4721 1.5913
5.1651 -0.2863 1.5913
5.1724 -0.1001 1.5913
5.1729 0.0863 1.5913
5.1667 0.2726 1.5913
5.1539 0.4585 1.5913
5.1343 0.6439 1.5913
5.1080 0.8284 1.5913
5.0752 1.0119 1.5913
5.0357 1.1941 1.5913
4.9897 1.3748 1.5913
4.9372 1.5537 1.5913
4.8783 1.7305 1.5913
4.8131 1.9052 1.5913
4.7416 2.0774 1.5913
4.6639 2.2470 1.5913
4.5802 2.4136 1.5913
4.4905 2.5771 1.5913
4.3950 2.7373 1.5913
4.2938 2.8940 1.5913
4.1870 3.0469 1.5913
4.0747 3.1958 1.5913
3.9572 3.3406 1.5913
3.8344 3.4811 1.5913
3.7067 3.6171 1.5913
3.5742 3.7484 1.5913
3.4370 3.8748 1.5913
3.2954 3.9962 1.5913
3.1494 4.1125 1.5913
2.9994 4.2234 1.5913
2.8454 4.3288 1.5913
2.6878 4.4286 1.5913
0.7984 1.4291 0.5028
0.7461 1.4564 0.5026
0.6929 1.4817 0.5024
0.6389 1.5052 0.5022
0.5841 1.5267 0.5021
0.5286 1.5463 0.5019
0.4724 1.5639 0.5018
0.4157 1.5796 0.5016
0.3585 1.5932 0.5015
0.3008 1.6048 0.5014
0.2428 1.6144 0.5014
0.1845 1.6219 0.5013
0.1259 1.6274 0.5013
0.0672 1.6308 0.5012
0.0085 1.6321 0.5012
-0.0503 1.6314 0.5012
-0.1090 1.6286 0.5013
-0.1676 1.6237 0.5013
-0.2260 1.6168 0.5014
-0.2841 1.6078 0.5014
-0.3419 1.5969 0.5015
-0.3993 1.5838 0.5016
-0.4561 1.5688 0.5018
-0.5125 1.5517 0.5019
-0.5682 1.5327 0.5020
-0.6232 1.5117 0.5022
-0.6775 1.4888 0.5024
-0.7309 1.4640 0.5026
-0.7835 1.4373 0.5028
-0.8351 1.4088 0.5031
-2.9818 4.6405 1.6944
-3.1469 4.5300 1.6944
-3.3079 4.4136 1.6944
-3.4645 4.2914 1.6944
-3.6167 4.1637 1.6944
-2.9734 3.1839 1.3384
-1.4359 -4.8834 1.6944
-1.2590 -4.9319 1.6944
-1.0805 -4.9740 1.6944
-0.9006 -5.0096 1.6944
-0.7196 -5.0388 1.6944
-0.5376 -5.0614 1.6944
-0.3549 -5.0775 1.6944
-0.1718 -5.0869 1.6944
0.0115 -5.0898 1.6944
0.1949 -5.0861 1.6944
0.3780 -5.0758 1.6944
0.5606 -5.0589 1.6944
0.7424 -5.0355 1.6944
0.9233 -5.0055 1.6944
1.1031 -4.9690 1.6944
1.2814 -4.9261 1.6944
1.4580 -4.8768 1.6944
1.6327 -4.8212 1.6944
1.8054 -4.7594 1.6944
1.9304 -4.5839 1.6555
2.0130 -4.3363 1.5913
2.1680 -4.2611 1.5913
2.3201 -4.1803 1.5913
2.4693 -4.0941 1.5913
2.6152 -4.0027 1.5913
2.7578 -3.9060 1.5913
2.8968 -3.8042 1.5913
3.0320 -3.6975 1.5913
3.1633 -3.5860 1.5913
3.2906 -3.4699 1.5913
3.4135 -3.3492 1.5913
3.5321 -3.2242 1.5913
3.6461 -3.0950 1.5913
3.7554 -2.9618 1.5913
3.8598 -2.8247 1.5913
3.9592 -2.6840 1.5913
4.0535 -2.5397 1.5913
4.1425 -2.3922 1.5913
4.2262 -2.2415 1.5913
4.3044 -2.0880 1.5913
4.3770 -1.9316 1.5913
4.4439 -1.7728 1.5913
4.5051 -1.6117 1.5913
4.5605 -1.4485 1.5913
4.6099 -1.2833 1.5913
4.6534 -1.1165 1.5913
4.6908 -0.9482 1.5913
4.7222 -0.7787 1.5913
4.7474 -0.6081 1.5913
4.7665 -0.4368 1.5913
4.7794 -0.2648 1.5913
4.7861 -0.0925 1.5913
4.7865 0.0799 1.5913
4.7808 0.2523 1.5913
4.7689 0.4243 1.5913
4.7507 0.5958 1.5913
4.7264 0.7666 1.5913
4.6960 0.9364 1.5913
4.6595 1.1049 1.5913
4.6169 1.2721 1.5913
4.5683 1.4376 1.5913
4.5138 1.6013 1.5913
4.4534 1.7629 1.5913
4.3873 1.9222 1.5913
4.3154 2.0791 1.5913
4.2379 2.2333 1.5913
4.1549 2.3846 1.5913
4.0665 2.5328 1.5913
3.9729 2.6777 1.5913
3.8740 2.8192 1.5913
3.7701 2.9570 1.5913
3.6614 3.0910 1.5913
3.5478 3.2209 1.5913
3.4296 3.3467 1.5913
3.3070 3.4682 1.5913
3.1801 3.5852 1.5913
3.0490 3.6975 1.5913
2.9140 3.8050 1.5913
2.7751 3.9076 1.5913
0.8340 1.2688 0.5041
0.7875 1.2975 0.5039
0.7399 1.3245 0.5037
0.6915 1.3498 0.5035
0.6422 1.3733 0.5033
0.5922 1.3951 0.5031
0.5414 1.4151 0.5029
0.4899 1.4333 0.5028
0.4379 1.4497 0.5027
0.3853 1.4642 0.5026
0.3323 1.4768 0.5025
0.2788 1.4876 0.5024
0.2251 1.4965 0.5023
0.1710 1.5035 0.5023
0.1167 1.5085 0.5022
0.0623 1.5117 0.5022
0.0079 1.5129 0.5022
-0.0466 1.5123 0.5022
-0.1011 1.5097 0.5022
-0.1554 1.5052 0.5023
-0.2095 1.4988 0.5023
-0.2634 1.4904 0.5024
-0.3169 1.4802 0.5025
-0.3701 1.4681 0.5026
-0.4228 1.4541 0.5027
-0.4750 1.4383 0.5028
-0.5266 1.4207 0.5029
-0.5776 1.4012 0.5031
-0.6279 1.3799 0.5033
-0.6774 1.3569 0.5035
-0.7261 1.3321 0.5037
-0.7740 1.3056 0.5039
-0.8208 1.2774 0.5041
-2.9116 4.1913 1.6944
-3.0605 4.0836 1.6944
-3.2055 3.9707 1.6944
-3.3463 3.8525 1.6944
-3.0063 3.2192 1.4626
-1.3348 -4.5396 1.6944
-1.1704 -4.5847 1.6944
-1.0045 -4.6238 1.6944
-0.8372 -4.6570 1.6944
-0.6689 -4.6841 1.6944
-0.4998 -4.7051 1.6944
-0.3300 -4.7200 1.6944
-0.1597 -4.7288 1.6944
0.0107 -4.7315 1.6944
0.1812 -4.7281 1.6944
0.3514 -4.7185 1.6944
0.5211 -4.7028 1.6944
0.6902 -4.6810 1.6944
0.8584 -4.6531 1.6944
1.0254 -4.6192 1.6944
1.1912 -4.5793 1.6944
1.3554 -4.5335 1.6944
1.5178 -4.4818 1.6944
1.6783 -4.4243 1.6944
1.8366 -4.3611 1.6944
1.9279 -4.1528 1.6393
2.0154 -3.9611 1.5913
2.1568 -3.8860 1.5913
2.2954 -3.8059 1.5913
2.4311 -3.7208 1.5913
2.5636 -3.6309 1.5913
2.6928 -3.5363 1.5913
2.8185 -3.4371 1.5913
2.9406 -3.3335 1.5913
3.0589 -3.2255 1.5913
3.1732 -3.1133 1.5913
3.2834 -2.9971 1.5913
3.3893 -2.8770 1.5913
3.4909 -2.7532 1.5913
3.5880 -2.6257 1.5913
3.6804 -2.4949 1.5913
3.7680 -2.3608 1.5913
3.8507 -2.2237 1.5913
3.9285 -2.0836 1.5913
4.0012 -1.9408 1.5913
4.0687 -1.7955 1.5913
4.1309 -1.6479 1.5913
4.1878 -1.4981 1.5913
4.2392 -1.3464 1.5913
4.2852 -1.1929 1.5913
4.3255 -1.0378 1.5913
4.3603 -0.8814 1.5913
4.3895 -0.7238 1.5913
4.4129 -0.5653 1.5913
4.4306 -0.4060 1.5913
4.4426 -0.2461 1.5913
4.4488 -0.0860 1.5913
4.4492 0.0743 1.5913
4.4439 0.2345 1.5913
4.4328 0.3945 1.5913
4.4159 0.5539 1.5913
4.3933 0.7126 1.5913
4.3650 0.8704 1.5913
4.3310 1.0271 1.5913
4.2914 1.1825 1.5913
4.2463 1.3363 1.5913
4.1956 1.4885 1.5913
4.1394 1.6387 1.5913
4.0779 1.7868 1.5913
4.0111 1.9326 1.5913
3.9391 2.0759 1.5913
3.8619 2.2165 1.5913
3.7798 2.3542 1.5913
3.6927 2.4889 1.5913
3.6008 2.6204 1.5913
3.5042 2.7485 1.5913
3.4031 2.8730 1.5913
3.2976 2.9938 1.5913
3.1877 3.1107 1.5913
3.0737 3.2236 1.5913
2.9558 3.3324 1.5913
2.8339 3.4367 1.5913
2.7084 3.5367 1.5913
0.8187 1.1527 0.5050
0.7763 1.1810 0.5048
0.7330 1.2077 0.5046
0.6887 1.2329 0.5044
0.6437 1.2564 0.5042
0.5978 1.2784 0.5040
0.5512 1.2987 0.5039
0.5040 1.3173 0.5037
0.4561 1.3343 0.5036
0.4076 1.3496 0.5035
0.3587 1.3631 0.5034
0.3093 1.3749 0.5033
0.2596 1.3849 0.5032
0.2095 1.3932 0.5031
0.1592 1.3997 0.5031
0.1087 1.4044 0.5031
0.0580 1.4074 0.5030
0.0073 1.4086 0.5030
-0.0434 1.4079 0.5030
-0.0941 1.4055 0.5031
-0.1447 1.4013 0.5031
-0.1950 1.3953 0.5031
-0.2452 1.3875 0.5032
-0.2950 1.3780 0.5033
-0.3445 1.3667 0.5034
-0.3936 1.3537 0.5035
-0.4422 1.3390 0.5036
-0.4903 1.3225 0.5037
-0.5377 1.3043 0.5039
-0.5845 1.2845 0.5040
-0.6306 1.2631 0.5042
-0.6759 1.2400 0.5044
-0.7204 1.2153 0.5046
-0.7640 1.1890 0.5048
-0.8066 1.1612 0.5050
-2.8446 3.7956 1.6944
-2.9794 3.6906 1.6944
-3.1103 3.5808 1.6944
-3.2371 3.4664 1.6944
-1.2457 -4.2365 1.6944
-1.0923 -4.2786 1.6944
-0.9374 -4.3151 1.6944
-0.7814 -4.3460 1.6944
-0.6243 -4.3713 1.6944
-0.4664 -4.3909 1.6944
-0.3079 -4.4049 1.6944
-0.1491 -4.4131 1.6944
0.0100 -4.4156 1.6944
0.1691 -4.4124 1.6944
0.3279 -4.4034 1.6944
0.4863 -4.3888 1.6944
0.6441 -4.3684 1.6944
0.8011 -4.3424 1.6944
0.9570 -4.3108 1.6944
1.1116 -4.2736 1.6944
1.2649 -4.2308 1.6944
1.4165 -4.1826 1.6944
1.5663 -4.1289 1.6944
1.7140 -4.0699 1.6944
1.8595 -4.0055 1.6944
1.9273 -3.7880 1.6306
2.0128 -3.6265 1.5913
2.1422 -3.5517 1.5913
2.2688 -3.4723 1.5913
2.3924 -3.3885 1.5913
2.5130 -3.3002 1.5913
2.6303 -3.2076 1.5913
2.7443 -3.1109 1.5913
2.8546 -3.0101 1.5913
2.9613 -2.9054 1.5913
3.0641 -2.7969 1.5913
3.1630 -2.6848 1.5913
3.2578 -2.5693 1.5913
3.3483 -2.4503 1.5913
3.4345 -2.3282 1.5913
3.5163 -2.2031 1.5913
3.5935 -2.0751 1.5913
3.6661 -1.9444 1.5913
3.7339 -1.8112 1.5913
3.7969 -1.6756 1.5913
3.8549 -1.5378 1.5913
3.9080 -1.3980 1.5913
3.9560 -1.2564 1.5913
3.9989 -1.1131 1.5913
4.0365 -0.9684 1.5913
4.0690 -0.8224 1.5913
4.0962 -0.6754 1.5913
4.1180 -0.5274 1.5913
4.1345 -0.3788 1.5913
4.1457 -0.2296 1.5913
4.1515 -0.0802 1.5913
4.1519 0.0694 1.5913
4.1469 0.2189 1.5913
4.1365 0.3681 1.5913
4.1207 0.5169 1.5913
4.0996 0.6650 1.5913
4.0732 0.8123 1.5913
4.0415 0.9585 1.5913
4.0045 1.1035 1.5913
3.9624 1.2470 1.5913
3.9151 1.3890 1.5913
3.8627 1.5292 1.5913
3.8053 1.6673 1.5913
3.7429 1.8034 1.5913
3.6757 1.9371 1.5913
3.6037 2.0683 1.5913
3.5270 2.1968 1.5913
3.4457 2.3225 1.5913
3.3600 2.4452 1.5913
3.2699 2.5647 1.5913
3.1755 2.6809 1.5913
3.0770 2.7936 1.5913
2.9745 2.9027 1.5913
2.8682 3.0081 1.5913
2.7581 3.1095 1.5913
2.6444 3.2069 1.5913
0.8034 1.0491 0.5059
0.7648 1.0770 0.5057
0.7253 1.1034 0.5054
0.6848 1.1284 0.5052
0.6435 1.1519 0.5051
0.6014 1.1739 0.5049
0.5586 1.1945 0.5047
0.5150 1.2135 0.5046
0.4709 1.2309 0.5044
0.4262 1.2468 0.5043
0.3809 1.2610 0.5042
0.3352 1.2737 0.5041
0.2891 1.2848 0.5040
0.2426 1.2942 0.5039
0.1958 1.3019 0.5039
0.1488 1.3080 0.5038
0.1016 1.3124 0.5038
0.0542 1.3152 0.5038
0.0068 1.3163 0.5038
-0.0406 1.3157 0.5038
-0.0879 1.3134 0.5038
-0.1352 1.3095 0.5038
-0.1823 1.3039 0.5039
-0.2291 1.2966 0.5039
-0.2757 1.2877 0.5040
-0.3219 1.2771 0.5041
-0.3678 1.2649 0.5042
-0.4132 1.2512 0.5043
-0.4581 1.2357 0.5044
-0.5024 1.2188 0.5046
-0.5461 1.2002 0.5047
-0.5892 1.1801 0.5049
-0.6315 1.1585 0.5051
-0.6730 1.1354 0.5052
-0.7138 1.1108 0.5054
-0.7536 1.0848 0.5057
-0.7925 1.0574 0.5059
-0.8304 1.0287 0.5061
-2.9022 3.3413 1.6944
-3.0206 3.2345 1.6944
-1.1665 -3.9670 1.6944
-1.0228 -4.0064 1.6944
-0.8778 -4.0406 1.6944
-0.7317 -4.0696 1.6944
-0.5846 -4.0933 1.6944
-0.4368 -4.1116 1.6944
-0.2884 -4.1247 1.6944
-0.1396 -4.1324 1.6944
0.0094 -4.1347 1.6944
0.1583 -4.1317 1.6944
0.3070 -4.1233 1.6944
0.4554 -4.1096 1.6944
0.6031 -4.0906 1.6944
0.7501 -4.0662 1.6944
0.8961 -4.0366 1.6944
1.0409 -4.0017 1.6944
1.1844 -3.9617 1.6944
1.3264 -3.9165 1.6944
1.4666 -3.8662 1.6944
1.6050 -3.8109 1.6944
1.7413 -3.7507 1.6944
1.8753 -3.6856 1.6944
1.9261 -3.4703 1.6262
2.0059 -3.3258 1.5913
2.1245 -3.2514 1.5913
2.2403 -3.1729 1.5913
2.3532 -3.0902 1.5913
2.4630 -3.0035 1.5913
2.5697 -2.9129 1.5913
2.6730 -2.8186 1.5913
2.7729 -2.7205 1.5913
2.8692 -2.6190 1.5913
2.9618 -2.5140 1.5913
3.0505 -2.4058 1.5913
3.1353 -2.2944 1.5913
3.2160 -2.1800 1.5913
3.2926 -2.0629 1.5913
3.3649 -1.9430 1.5913
3.4328 -1.8206 1.5913
3.4963 -1.6959 1.5913
3.5553 -1.5689 1.5913
3.6096 -1.4399 1.5913
3.6593 -1.3090 1.5913
3.7042 -1.1764 1.5913
3.7443 -1.0422 1.5913
3.7796 -0.9067 1.5913
3.8100 -0.7700 1.5913
3.8354 -0.6323 1.5913
3.8559 -0.4938 1.5913
3.8713 -0.3546 1.5913
3.8818 -0.2150 1.5913
3.8872 -0.0750 1.5913
3.8875 0.0650 1.5913
3.8828 0.2050 1.5913
3.8731 0.3447 1.5913
3.8583 0.4840 1.5913
3.8386 0.6227 1.5913
3.8138 0.7606 1.5913
3.7841 0.8975 1.5913
3.7495 1.0332 1.5913
3.7100 1.1677 1.5913
3.6657 1.3006 1.5913
3.6167 1.4318 1.5913
3.5629 1.5612 1.5913
3.5045 1.6886 1.5913
3.4416 1.8138 1.5913
3.3741 1.9366 1.5913
3.3023 2.0569 1.5913
3.2262 2.1746 1.5913
3.1459 2.2895 1.5913
3.0616 2.4014 1.5913
2.9732 2.5102 1.5913
2.8810 2.6157 1.5913
2.7850 2.7178 1.5913
2.6854 2.8165 1.5913
0.8225 0.9274 0.5069
0.7883 0.9560 0.5066
0.7530 0.9833 0.5064
0.7169 1.0094 0.5062
0.6798 1.0342 0.5060
0.6419 1.0577 0.5058
0.6032 1.0797 0.5056
0.5637 1.1004 0.5055
0.5236 1.1197 0.5053
0.4828 1.1375 0.5052
0.4414 1.1539 0.5051
0.3995 1.1688 0.5049
0.3571 1.1822 0.5048
0.3142 1.1941 0.5047
0.2710 1.2044 0.5047
0.2274 1.2133 0.5046
0.1835 1.2205 0.5045
0.1395 1.2262 0.5045
0.0952 1.2304 0.5045
0.0508 1.2330 0.5044
0.0064 1.2340 0.5044
-0.0380 1.2335 0.5044
-0.0824 1.2313 0.5045
-0.1267 1.2276 0.5045
-0.1709 1.2224 0.5045
-0.2148 1.2156 0.5046
-0.2585 1.2072 0.5047
-0.3018 1.1973 0.5047
-0.3448 1.1858 0.5048
-0.3873 1.1729 0.5049
-0.4294 1.1584 0.5051
-0.4710 1.1425 0.5052
-0.5119 1.1251 0.5053
-0.5523 1.1062 0.5055
-0.5919 1.0860 0.5056
-0.6309 1.0643 0.5058
-0.6690 1.0412 0.5060
-0.7063 1.0168 0.5062
-0.7428 0.9911 0.5064
-0.7783 0.9641 0.5066
-0.8129 0.9359 0.5069
-2.8281 3.0285 1.6944
-1.0955 -3.7256 1.6944
-0.9606 -3.7626 1.6944
-0.8244 -3.7947 1.6944
-0.6872 -3.8219 1.6944
-0.5490 -3.8442 1.6944
-0.4102 -3.8614 1.6944
-0.2708 -3.8737 1.6944
-0.1311 -3.8809 1.6944
0.0088 -3.8831 1.6944
0.1487 -3.8803 1.6944
0.2884 -3.8724 1.6944
0.4277 -3.8595 1.6944
0.5664 -3.8417 1.6944
0.7045 -3.8188 1.6944
0.8416 -3.7910 1.6944
0.9776 -3.7582 1.6944
1.1124 -3.7206 1.6944
1.2457 -3.6782 1.6944
1.3774 -3.6310 1.6944
1.5073 -3.5790 1.6944
1.6353 -3.5225 1.6944
1.7612 -3.4613 1.6944
1.8847 -3.3957 1.6944
1.9244 -3.1905 1.6255
1.9952 -3.0535 1.5913
2.1110 -2.9897 1.5966
2.2100 -2.9021 1.5913
2.3131 -2.8207 1.5913
2.4133 -2.7356 1.5913
2.5103 -2.6470 1.5913
2.6041 -2.5549 1.5913
2.6946 -2.4595 1.5913
2.7815 -2.3609 1.5913
2.8648 -2.2593 1.5913
2.9445 -2.1547 1.5913
3.0203 -2.0473 1.5913
3.0922 -1.9373 1.5913
3.1601 -1.8247 1.5913
3.2239 -1.7097 1.5913
3.2835 -1.5926 1.5913
3.3388 -1.4733 1.5913
3.3899 -1.3522 1.5913
3.4365 -1.2292 1.5913
3.4787 -1.1047 1.5913
3.5164 -0.9787 1.5913
3.5495 -0.8515 1.5913
3.5780 -0.7231 1.5913
3.6019 -0.5938 1.5913
3.6211 -0.4637 1.5913
3.6356 -0.3330 1.5913
3.6454 -0.2018 1.5913
3.6504 -0.0704 1.5913
3.6508 0.0611 1.5913
3.6464 0.1926 1.5913
3.6372 0.3238 1.5913
3.6233 0.4546 1.5913
3.6048 0.5848 1.5913
3.5815 0.7143 1.5913
3.5536 0.8429 1.5913
3.5211 0.9703 1.5913
3.4840 1.0966 1.5913
3.4424 1.2214 1.5913
3.3963 1.3446 1.5913
3.3458 1.4661 1.5913
3.2910 1.5857 1.5913
3.2319 1.7033 1.5913
3.1686 1.8186 1.5913
3.1011 1.9316 1.5913
3.0296 2.0421 1.5913
2.9542 2.1500 1.5913
2.8750 2.2551 1.5913
2.7920 2.3572 1.5913
2.7054 2.4563 1.5913
2.6153 2.5522 1.5913
0.8043 0.8436 0.5075
0.7731 0.8716 0.5073
0.7409 0.8985 0.5071
0.7078 0.9243 0.5069
0.6738 0.9488 0.5067
0.6390 0.9722 0.5065
0.6034 0.9942 0.5063
0.5670 1.0150 0.5062
0.5299 1.0344 0.5060
0.4922 1.0526 0.5059
0.4539 1.0694 0.5057
0.4150 1.0848 0.5056
0.3756 1.0988 0.5055
0.3357 1.1114 0.5054
0.2954 1.1226 0.5053
0.2548 1.1323 0.5052
0.2138 1.1406 0.5052
0.1726 1.1475 0.5051
0.1311 1.1529 0.5051
0.0895 1.1568 0.5050
0.0478 1.1592 0.5050
0.0060 1.1601 0.5050
-0.0358 1.1596 0.5050
-0.0775 1.1576 0.5050
-0.1191 1.1542 0.5051
-0.1606 1.1492 0.5051
-0.2019 1.1428 0.5052
-0.2430 1.1349 0.5052
-0.2837 1.1256 0.5053
-0.3241 1.1148 0.5054
-0.3641 1.1026 0.5055
-0.4037 1.0890 0.5056
-0.4427 1.0740 0.5057
-0.4812 1.0576 0.5059
-0.5192 1.0399 0.5060
-0.5564 1.0208 0.5062
-0.5930 1.0004 0.5063
-0.6289 0.9787 0.5065
-0.6639 0.9558 0.5067
-0.6982 0.9316 0.5069
-0.7315 0.9062 0.5071
-0.7640 0.8796 0.5073
-0.7955 0.8519 0.5075
-1.0315 -3.5079 1.6944
-0.9044 -3.5427 1.6944
-0.7762 -3.5730 1.6944
-0.6470 -3.5986 1.6944
-0.5169 -3.6196 1.6944
-0.3862 -3.6358 1.6944
-0.2550 -3.6473 1.6944
-0.1234 -3.6542 1.6944
0.0083 -3.6562 1.6944
0.1400 -3.6536 1.6944
0.2715 -3.6461 1.6944
0.4027 -3.6340 1.6944
0.5333 -3.6172 1.6944
0.6633 -3.5956 1.6944
0.7924 -3.5694 1.6944
0.9205 -3.5386 1.6944
1.0474 -3.5032 1.6944
1.1729 -3.4632 1.6944
1.2969 -3.4188 1.6944
1.4193 -3.3699 1.6944
1.5398 -3.3166 1.6944
1.6583 -3.2591 1.6944
1.7746 -3.1973 1.6944
1.8887 -3.1313 1.6944
1.9220 -2.9415 1.6280
1.9810 -2.8056 1.5913
2.0808 -2.7325 1.5913
2.1780 -2.6558 1.5913
2.2723 -2.5757 1.5913
2.3636 -2.4922 1.5913
2.4520 -2.4056 1.5913
2.5371 -2.3157 1.5913
2.6189 -2.2229 1.5913
2.6974 -2.1272 1.5913
2.7724 -2.0287 1.5913
2.8437 -1.9276 1.5913
2.9114 -1.8240 1.5913
2.9754 -1.7180 1.5913
3.0354 -1.6098 1.5913
3.0915 -1.4995 1.5913
3.1437 -1.3872 1.5913
3.1917 -1.2731 1.5913
3.2356 -1.1573 1.5913
3.2753 -1.0401 1.5913
3.3108 -0.9215 1.5913
3.3420 -0.8017 1.5913
3.3688 -0.6808 1.5913
3.3913 -0.5590 1.5913
3.4094 -0.4365 1.5913
3.4230 -0.3135 1.5913
3.4322 -0.1900 1.5913
3.4370 -0.0662 1.5913
3.4373 0.0576 1.5913
3.4331 0.1814 1.5913
3.4245 0.3049 1.5913
3.4114 0.4280 1.5913
3.3939 0.5507 1.5913
3.3721 0.6726 1.5913
3.3458 0.7936 1.5913
3.3152 0.9136 1.5913
3.2802 1.0325 1.5913
3.2410 1.1500 1.5913
3.1977 1.2660 1.5913
3.1501 1.3804 1.5913
3.0985 1.4930 1.5913
3.0428 1.6037 1.5913
2.9832 1.7123 1.5913
2.9197 1.8187 1.5913
2.8524 1.9227 1.5913
2.7814 2.0243 1.5913
2.7068 2.1232 1.5913
2.6287 2.2193 1.5913
0.8137 0.7388 0.5084
0.7863 0.7673 0.5081
0.7578 0.7948 0.5079
0.7284 0.8213 0.5077
0.6981 0.8467 0.5075
0.6669 0.8710 0.5073
0.6349 0.8941 0.5071
0.6021 0.9161 0.5070
0.5686 0.9369 0.5068
0.5343 0.9565 0.5066
0.4994 0.9749 0.5065
0.4638 0.9920 0.5064
0.4277 1.0078 0.5062
0.3911 1.0223 0.5061
0.3539 1.0355 0.5060
0.3164 1.0474 0.5059
0.2784 1.0580 0.5058
0.2401 1.0672 0.5058
0.2015 1.0750 0.5057
0.1626 1.0815 0.5056
0.1236 1.0865 0.5056
0.0844 1.0902 0.5056
0.0450 1.0925 0.5056
0.0057 1.0934 0.5056
-0.0337 1.0929 0.5056
-0.0730 1.0910 0.5056
-0.1123 1.0878 0.5056
-0.1514 1.0831 0.5056
-0.1903 1.0770 0.5057
-0.2290 1.0696 0.5058
-0.2674 1.0608 0.5058
-0.3055 1.0506 0.5059
-0.3432 1.0392 0.5060
-0.3804 1.0263 0.5061
-0.4172 1.0122 0.5062
-0.4535 0.9967 0.5064
-0.4892 0.9800 0.5065
-0.5244 0.9620 0.5066
-0.5588 0.9427 0.5068
-0.5926 0.9223 0.5070
-0.6256 0.9007 0.5071
-0.6579 0.8778 0.5073
-0.6893 0.8539 0.5075
-0.7199 0.8288 0.5077
-0.7495 0.8027 0.5079
-0.9734 -3.3104 1.6944
-0.8535 -3.3433 1.6944
-0.7325 -3.3718 1.6944
-0.6106 -3.3960 1.6944
-0.4878 -3.4158 1.6944
-0.3645 -3.4311 1.6944
-0.2406 -3.4420 1.6944
-0.1165 -3.4484 1.6944
0.0078 -3.4504 1.6944
0.1321 -3.4478 1.6944
0.2562 -3.4409 1.6944
0.3800 -3.4294 1.6944
0.5033 -3.4135 1.6944
0.6260 -3.3932 1.6944
0.7478 -3.3684 1.6944
0.8687 -3.3394 1.6944
0.9884 -3.3059 1.6944
1.1069 -3.2682 1.6944
1.2239 -3.2262 1.6944
1.3394 -3.1801 1.6944
1.4531 -3.1299 1.6944
1.5649 -3.0755 1.6944
1.6747 -3.0172 1.6944
1.7824 -2.9550 1.6944
1.8877 -2.8889 1.6944
1.9192 -2.7180 1.6336
1.9637 -2.5786 1.5913
2.0553 -2.5063 1.5913
2.1443 -2.4306 1.5913
2.2306 -2.3519 1.5913
2.3139 -2.2701 1.5913
2.3942 -2.1853 1.5913
2.4715 -2.0977 1.5913
2.5455 -2.0074 1.5913
2.6162 -1.9144 1.5913
2.6836 -1.8190 1.5913
2.7475 -1.7212 1.5913
2.8078 -1.6212 1.5913
2.8645 -1.5191 1.5913
2.9174 -1.4150 1.5913
2.9666 -1.3090 1.5913
3.0119 -1.2013 1.5913
3.0534 -1.0921 1.5913
3.0908 -0.9815 1.5913
3.1243 -0.8695 1.5913
3.1537 -0.7565 1.5913
3.1790 -0.6424 1.5913
3.2002 -0.5275 1.5913
3.2173 -0.4119 1.5913
3.2302 -0.2958 1.5913
3.2388 -0.1793 1.5913
3.2433 -0.0625 1.5913
3.2436 0.0544 1.5913
3.2397 0.1712 1.5913
3.2315 0.2878 1.5913
3.2192 0.4040 1.5913
3.2027 0.5197 1.5913
3.1820 0.6347 1.5913
3.1572 0.7489 1.5913
3.1283 0.8622 1.5913
3.0954 0.9743 1.5913
3.0584 1.0852 1.5913
3.0174 1.1947 1.5913
2.9725 1.3026 1.5913
2.9238 1.4089 1.5913
2.8713 1.5133 1.5913
2.8150 1.6158 1.5913
2.7551 1.7162 1.5913
2.6916 1.8144 1.5913
2.6246 1.9102 1.5913
0.8173 0.6411 0.5092
0.7933 0.6698 0.5089
0.7684 0.6976 0.5087
0.7425 0.7246 0.5085
0.7156 0.7506 0.5083
0.6879 0.7756 0.5081
0.6593 0.7995 0.5079
0.6298 0.8225 0.5077
0.5996 0.8444 0.5075
0.5686 0.8651 0.5074
0.5370 0.8848 0.5072
0.5046 0.9033 0.5071
0.4716 0.9207 0.5069
0.4381 0.9368 0.5068
0.4040 0.9518 0.5067
0.3694 0.9655 0.5066
0.3343 0.9780 0.5065
0.2988 0.9893 0.5064
0.2629 0.9993 0.5063
0.2268 1.0080 0.5062
0.1903 1.0154 0.5062
0.1536 1.0214 0.5061
0.1167 1.0262 0.5061
0.0797 1.0297 0.5061
0.0425 1.0319 0.5060
0.0054 1.0328 0.5060
-0.0318 1.0323 0.5060
-0.0690 1.0305 0.5061
-0.1061 1.0274 0.5061
-0.1430 1.0230 0.5061
-0.1797 1.0173 0.5062
-0.2163 1.0103 0.5062
-0.2526 1.0019 0.5063
-0.2885 0.9923 0.5064
-0.3241 0.9815 0.5065
-0.3593 0.9693 0.5066
-0.3941 0.9559 0.5067
-0.4283 0.9414 0.5068
-0.4620 0.9255 0.5069
-0.4952 0.9085 0.5071
-0.5277 0.8903 0.5072
-0.5596 0.8710 0.5074
-0.5908 0.8505 0.5075
-0.6213 0.8290 0.5077
-0.6509 0.8064 0.5079
-0.6798 0.7827 0.5081
-0.7078 0.7580 0.5083
-0.9204 -3.1302 1.6944
-0.8071 -3.1613 1.6944
-0.6927 -3.1883 1.6944
-0.5774 -3.2111 1.6944
-0.4613 -3.2298 1.6944
-0.3446 -3.2443 1.6944
-0.2275 -3.2546 1.6944
-0.1101 -3.2607 1.6944
0.0074 -3.2625 1.6944
0.1249 -3.2602 1.6944
0.2423 -3.2536 1.6944
0.3593 -3.2427 1.6944
0.4759 -3.2277 1.6944
0.5919 -3.2085 1.6944
0.7071 -3.1851 1.6944
0.8214 -3.1576 1.6944
0.9346 -3.1260 1.6944
1.0466 -3.0903 1.6944
1.1573 -3.0506 1.6944
1.2665 -3.0070 1.6944
1.3740 -2.9595 1.6944
1.4797 -2.9081 1.6944
1.5836 -2.8530 1.6944
1.6853 -2.7941 1.6944
1.7849 -2.7316 1.6944
1.8822 -2.6656 1.6944
1.9160 -2.5160 1.6420
1.9435 -2.3698 1.5913
2.0276 -2.2983 1.5913
2.1091 -2.2238 1.5913
2.1879 -2.1465 1.5913
2.2639 -2.0663 1.5913
2.3369 -1.9835 1.5913
2.4069 -1.8981 1.5913
2.4738 -1.8102 1.5913
2.5375 -1.7200 1.5913
2.5979 -1.6275 1.5913
2.6549 -1.5329 1.5913
2.7085 -1.4363 1.5913
2.7586 -1.3379 1.5913
2.8051 -1.2377 1.5913
2.8479 -1.1359 1.5913
2.8871 -1.0326 1.5913
2.9225 -0.9280 1.5913
2.9542 -0.8221 1.5913
2.9820 -0.7152 1.5913
3.0059 -0.6074 1.5913
3.0260 -0.4987 1.5913
3.0421 -0.3894 1.5913
3.0542 -0.2796 1.5913
3.0624 -0.1694 1.5913
3.0667 -0.0590 1.5913
3.0669 0.0514 1.5913
3.0632 0.1619 1.5913
3.0555 0.2721 1.5913
3.0438 0.3820 1.5913
3.0282 0.4914 1.5913
3.0087 0.6002 1.5913
2.9852 0.7082 1.5913
2.9579 0.8152 1.5913
2.9267 0.9213 1.5913
2.8918 1.0261 1.5913
2.8530 1.1296 1.5913
2.8106 1.2317 1.5913
2.7645 1.3322 1.5913
2.7148 1.4309 1.5913
2.6616 1.5278 1.5913
2.6050 1.6227 1.5913
0.8155 0.5497 0.5099
0.7948 0.5785 0.5097
0.7732 0.6065 0.5094
0.7505 0.6337 0.5092
0.7269 0.6600 0.5090
0.7024 0.6855 0.5088
0.6770 0.7101 0.5086
0.6508 0.7338 0.5084
0.6237 0.7565 0.5082
0.5959 0.7782 0.5081
0.5673 0.7989 0.5079
0.5380 0.8186 0.5077
0.5081 0.8372 0.5076
0.4775 0.8548 0.5075
0.4463 0.8712 0.5073
0.4145 0.8865 0.5072
0.3823 0.9007 0.5071
0.3495 0.9137 0.5070
0.3163 0.9255 0.5069
0.2828 0.9362 0.5068
0.2488 0.9456 0.5067
0.2146 0.9538 0.5067
0.1801 0.9608 0.5066
0.1454 0.9666 0.5066
0.1105 0.9712 0.5065
0.0754 0.9745 0.5065
0.0403 0.9765 0.5065
0.0051 0.9773 0.5065
-0.0301 0.9769 0.5065
-0.0653 0.9752 0.5065
-0.1004 0.9723 0.5065
-0.1353 0.9681 0.5066
-0.1701 0.9627 0.5066
-0.2047 0.9560 0.5067
-0.2390 0.9481 0.5067
-0.2730 0.9390 0.5068
-0.3067 0.9287 0.5069
-0.3400 0.9173 0.5070
-0.3729 0.9046 0.5071
-0.4053 0.8908 0.5072
-0.4372 0.8758 0.5073
-0.4686 0.8597 0.5075
-0.4994 0.8425 0.5076
-0.5295 0.8242 0.5077
-0.5590 0.8048 0.5079
-0.5878 0.7844 0.5081
-0.6159 0.7629 0.5082
-0.6432 0.7405 0.5084
-0.6696 0.7171 0.5086
-0.8719 -2.9650 1.6944
-0.7645 -2.9944 1.6944
-0.6561 -3.0200 1.6944
-0.5469 -3.0416 1.6944
-0.4370 -3.0594 1.6944
-0.3265 -3.0731 1.6944
-0.2155 -3.0828 1.6944
-0.1043 -3.0886 1.6944
0.0070 -3.0904 1.6944
0.1183 -3.0881 1.6944
0.2295 -3.0818 1.6944
0.3404 -3.0716 1.6944
0.4508 -3.0573 1.6944
0.5607 -3.0391 1.6944
0.6698 -3.0170 1.6944
0.7781 -2.9909 1.6944
0.8853 -2.9610 1.6944
0.9914 -2.9272 1.6944
1.0962 -2.8896 1.6944
1.1996 -2.8483 1.6944
1.3015 -2.8033 1.6944
1.4016 -2.7546 1.6944
1.5000 -2.7024 1.6944
1.5964 -2.6466 1.6944
1.6907 -2.5875 1.6944
1.7829 -2.5249 1.6944
1.8727 -2.4591 1.6944
1.9147 -2.3347 1.6551
1.9245 -2.1814 1.5945
1.9978 -2.1064 1.5913
2.0725 -2.0331 1.5913
2.1444 -1.9572 1.5913
2.2136 -1.8787 1.5913
2.2799 -1.7978 1.5913
2.3432 -1.7146 1.5913
0.7833 -0.5309 0.5186
0.8016 -0.5022 0.5183
0.8188 -0.4727 0.5181
2.5655 -1.3605 1.5913
2.6129 -1.2672 1.5913
2.6570 -1.1723 1.5913
2.6976 -1.0759 1.5913
2.7347 -0.9781 1.5913
2.7682 -0.8789 1.5913
2.7982 -0.7787 1.5913
2.8245 -0.6774 1.5913
2.8472 -0.5753 1.5913
2.8662 -0.4724 1.5913
2.8814 -0.3688 1.5913
2.8930 -0.2648 1.5913
2.9007 -0.1605 1.5913
2.9047 -0.0559 1.5913
2.9050 0.0488 1.5913
2.9014 0.1534 1.5913
2.8941 0.2578 1.5913
2.8831 0.3619 1.5913
2.8683 0.4655 1.5913
2.8498 0.5685 1.5913
2.8275 0.6708 1.5913
2.8017 0.7722 1.5913
2.7721 0.8727 1.5913
2.7390 0.9720 1.5913
2.7023 1.0700 1.5913
2.6621 1.1667 1.5913
2.6185 1.2618 1.5913
0.8255 0.4351 0.5108
0.8089 0.4643 0.5106
0.7913 0.4930 0.5103
0.7727 0.5209 0.5101
0.7532 0.5482 0.5099
0.7327 0.5747 0.5097
0.7112 0.6005 0.5095
0.6889 0.6255 0.5093
0.6657 0.6497 0.5091
0.6416 0.6730 0.5089
0.6168 0.6955 0.5087
0.5912 0.7170 0.5086
0.5648 0.7376 0.5084
0.5377 0.7572 0.5082
0.5100 0.7759 0.5081
0.4816 0.7936 0.5079
0.4526 0.8102 0.5078
0.4230 0.8258 0.5077
0.3929 0.8403 0.5076
0.3623 0.8537 0.5075
0.3313 0.8661 0.5074
0.2998 0.8773 0.5073
0.2680 0.8874 0.5072
0.2359 0.8963 0.5071
0.2034 0.9041 0.5071
0.1707 0.9108 0.5070
0.1378 0.9163 0.5070
0.1047 0.9206 0.5069
0.0715 0.9237 0.5069
0.0382 0.9257 0.5069
0.0048 0.9264 0.5069
-0.0286 0.9260 0.5069
-0.0619 0.9244 0.5069
-0.0951 0.9216 0.5069
-0.1283 0.9177 0.5070
-0.1612 0.9125 0.5070
-0.1940 0.9062 0.5071
-0.2265 0.8987 0.5071
-0.2588 0.8901 0.5072
-0.2907 0.8804 0.5073
-0.3223 0.8695 0.5074
-0.3534 0.8574 0.5075
-0.3842 0.8443 0.5076
-0.4144 0.8301 0.5077
-0.4441 0.8148 0.5078
-0.4733 0.7985 0.5079
-0.5019 0.7811 0.5081
-0.5298 0.7628 0.5082
-0.5571 0.7434 0.5084
-0.5837 0.7231 0.5086
-0.6095 0.7018 0.5087
-0.6346 0.6796 0.5089
-0.8271 -2.8128 1.6944
-0.7253 -2.8407 1.6944
-0.6224 -2.8650 1.6944
-0.5188 -2.8855 1.6944
-0.4145 -2.9023 1.6944
-0.3097 -2.9154 1.6944
-0.2045 -2.9246 1.6944
-0.0990 -2.9301 1.6944
0.0066 -2.9317 1.6944
0.1123 -2.9296 1.6944
0.2177 -2.9237 1.6944
0.3229 -2.9139 1.6944
0.4277 -2.9004 1.6944
0.5319 -2.8831 1.6944
0.6354 -2.8621 1.6944
0.7381 -2.8374 1.6944
0.8399 -2.8090 1.6944
0.9405 -2.7769 1.6944
1.0400 -2.7413 1.6944
1.1381 -2.7021 1.6944
1.2347 -2.6594 1.6944
1.3297 -2.6132 1.6944
1.4230 -2.5637 1.6944
1.5145 -2.5108 1.6944
1.6040 -2.4546 1.6944
1.6914 -2.3953 1.6944
1.7766 -2.3329 1.6944
1.8595 -2.2674 1.6944
1.9136 -2.1690 1.6712
1.9194 -2.0237 1.6115
1.9661 -1.9288 1.5913
2.0344 -1.8567 1.5913
2.1033 -1.7851 1.5938
2.1629 -1.7055 1.5913
0.7244 -0.5301 0.5186
0.7428 -0.5034 0.5184
0.7601 -0.4762 0.5181
0.7765 -0.4483 0.5179
0.7918 -0.4199 0.5177
0.8061 -0.3909 0.5175
0.8193 -0.3615 0.5172
2.5591 -1.0206 1.5913
2.5943 -0.9278 1.5913
2.6261 -0.8338 1.5913
2.6545 -0.7387 1.5913
2.6795 -0.6426 1.5913
2.7010 -0.5457 1.5913
2.7190 -0.4481 1.5913
2.7335 -0.3499 1.5913
2.7444 -0.2512 1.5913
2.7518 -0.1522 1.5913
2.7556 -0.0530 1.5913
2.7558 0.0463 1.5913
2.7524 0.1455 1.5913
2.7455 0.2446 1.5913
2.7350 0.3433 1.5913
2.7210 0.4416 1.5913
2.7034 0.5393 1.5913
2.6823 0.6364 1.5913
2.6578 0.7326 1.5913
2.6297 0.8279 1.5913
2.5983 0.9221 1.5913
0.8243 0.3264 0.5117
0.8117 0.3557 0.5115
0.7980 0.3846 0.5112
0.7833 0.4129 0.5110
0.7676 0.4407 0.5108
0.7510 0.4678 0.5106
0.7334 0.4944 0.5103
0.7148 0.5203 0.5101
0.6954 0.5455 0.5099
0.6750 0.5700 0.5097
0.6538 0.5937 0.5095
0.6318 0.6166 0.5094
0.6090 0.6388 0.5092
0.5854 0.6601 0.5090
0.5611 0.6806 0.5089
0.5361 0.7001 0.5087
0.5104 0.7188 0.5085
0.4841 0.7365 0.5084
0.4571 0.7533 0.5083
0.4296 0.7690 0.5081
0.4015 0.7839 0.5080
0.3730 0.7977 0.5079
0.3439 0.8104 0.5078
0.3145 0.8221 0.5077
0.2846 0.8328 0.5076
0.2544 0.8424 0.5076
0.2239 0.8509 0.5075
0.1931 0.8583 0.5074
0.1621 0.8646 0.5074
0.1308 0.8698 0.5073
0.0994 0.8739 0.5073
0.0679 0.8769 0.5073
0.0362 0.8788 0.5073
0.0046 0.8795 0.5073
-0.0271 0.8791 0.5073
-0.0587 0.8776 0.5073
-0.0903 0.8749 0.5073
-0.1218 0.8712 0.5073
-0.1531 0.8663 0.5074
-0.1842 0.8603 0.5074
-0.2151 0.8532 0.5075
-0.2457 0.8450 0.5076
-0.2760 0.8357 0.5076
-0.3059 0.8254 0.5077
-0.3355 0.8139 0.5078
-0.3647 0.8015 0.5079
-0.3934 0.7880 0.5080
-0.4216 0.7735 0.5081
-0.4493 0.7580 0.5083
-0.4764 0.7415 0.5084
-0.5029 0.7240 0.5085
-0.5288 0.7056 0.5087
-0.5540 0.6863 0.5088
-0.5785 0.6662 0.5090
-0.6023 0.6451 0.5092
