ply
format ascii 1.0
element vertex 2169
property float32 x
property float32 y
property float32 z
end_header
21.1745 10.8921 0.9102
23.3723 13.1083 1.0416
22.8682 13.9316 1.0577
22.2671 14.6908 1.0701
21.5049 15.3279 1.0752
20.9379 16.0921 1.0905
20.8758 17.2757 1.1343
20.6915 18.4188 1.1748
20.2041 19.3340 1.2008
19.2975 19.8471 1.2028
18.3641 20.3022 1.2029
17.4419 20.7384 1.2035
16.5137 21.1365 1.2033
15.5109 21.4001 1.1970
14.5253 21.6408 1.1909
13.5984 21.9284 1.1889
12.7148 22.2564 1.1902
4.4422 8.4707 0.4474
4.0934 8.5406 0.4459
3.7969 8.7148 0.4503
9.2725 23.5682 1.2063
8.4116 23.8717 1.2115
7.4466 23.8422 1.2009
6.5188 23.8623 1.1939
5.6414 24.0263 1.1950
4.8068 24.3926 1.2071
3.9754 24.8686 1.2255
3.1201 25.3515 1.2449
2.2523 26.0018 1.2734
1.3614 27.0164 1.3206
0.4101 28.6874 1.4006
-0.7606 34.9484 1.7055
-2.1039 36.3505 1.7745
-3.6466 38.7339 1.8929
-5.0919 38.9702 1.9079
-6.5114 38.8690 1.9079
-7.9346 38.7380 1.9079
-9.3621 38.5764 1.9079
-10.7943 38.3837 1.9079
-12.2318 38.1601 1.9079
-13.6750 37.9043 1.9079
-15.1245 37.6161 1.9079
-16.5808 37.2948 1.9079
-18.1508 37.1574 1.9191
-19.6310 36.7652 1.9191
-20.5250 35.3142 1.8651
-20.4811 32.4845 1.7379
-20.4421 29.9712 1.6262
-20.4071 27.7186 1.5274
-20.3755 25.6830 1.4393
-20.3468 23.8300 1.3603
-20.3204 22.1317 1.2889
-21.0065 21.2857 1.2670
-22.5520 21.2617 1.2961
-23.6868 20.7716 1.2996
-24.2031 19.7280 1.2698
-26.0298 19.6997 1.3079
-28.0331 19.6686 1.3509
-30.2461 19.6342 1.3998
-32.7101 19.5960 1.4556
-41.9699 23.1310 1.7979
-43.1521 21.7941 1.7813
-44.4293 20.4651 1.7691
-45.9846 19.2051 1.7679
-33.4282 7.3173 1.0915
-44.2945 1.5683 1.2498
-44.0107 -0.0275 1.2083
-32.0818 -2.3352 0.8354
-5.3093 -23.4114 0.7302
-4.4776 -23.6628 0.7295
-3.6394 -23.9161 0.7303
-2.2014 -19.0546 0.5777
-1.5251 -19.2590 0.5809
-0.8381 -19.4666 0.5855
-0.1383 -19.6781 0.5914
0.5764 -19.8941 0.5988
1.3086 -20.1154 0.6077
0.9075 -8.9583 0.2722
0.8660 -6.2838 0.1925
0.8434 -4.8279 0.1494
0.7052 -3.3256 0.1042
0.7785 -3.1146 0.0990
0.8608 -2.9829 0.0964
0.9778 -2.9811 0.0982
1.0974 -2.9793 0.1002
1.2201 -2.9774 0.1025
1.3464 -2.9754 0.1051
1.4766 -2.9734 0.1080
1.6114 -2.9713 0.1112
1.7513 -2.9691 0.1147
1.8971 -2.9669 0.1186
2.0496 -2.9645 0.1230
2.2096 -2.9620 0.1278
2.3781 -2.9594 0.1331
2.5563 -2.9566 0.1389
2.7457 -2.9537 0.1454
2.9477 -2.9506 0.1526
3.1643 -2.9472 0.1606
3.3979 -2.9436 0.1696
3.6510 -2.9397 0.1796
3.9271 -2.9354 0.1908
4.2302 -2.9307 0.2034
4.5654 -2.9255 0.2178
4.9391 -2.9197 0.2341
5.2971 -2.8792 0.2500
5.6803 -2.8275 0.2674
6.2150 -2.8192 0.2922
6.8822 -2.8277 0.3238
7.5750 -2.7981 0.3571
20.6653 -6.7985 0.9774
20.3105 -5.8805 0.9652
19.7459 -4.9539 0.9440
19.6312 -4.1801 0.9454
19.6864 -3.4561 0.9562
19.8931 -2.7582 0.9756
20.1655 -2.0590 0.9997
20.4862 -1.3487 1.0278
21.0837 -0.6268 1.0717
21.5112 0.1355 1.1090
21.5876 0.9142 1.1300
20.3680 1.5990 1.0836
19.6070 2.2522 1.0614
18.9943 2.8783 1.0473
18.5061 3.4904 1.0404
3.9183 0.8863 0.2248
3.9160 1.0354 0.2296
3.9137 1.1871 0.2347
3.9113 1.3421 0.2402
3.9088 1.5007 0.2461
20.2317 8.6162 1.3078
19.8894 9.3308 1.3213
19.4391 9.9894 1.3288
18.8805 10.5792 1.3298
18.5110 11.2673 1.3452
18.3345 12.0863 1.3767
18.1489 12.9257 1.4102
17.8562 13.7134 1.4382
17.8329 14.7470 1.4913
19.8679 17.6736 1.7283
19.4509 18.6011 1.7635
18.6222 19.1405 1.7635
17.7875 19.6529 1.7635
16.9474 20.1386 1.7635
16.1021 20.5980 1.7635
15.2352 21.0081 1.7616
14.2022 21.1482 1.7396
13.2505 21.3564 1.7259
12.3698 21.6416 1.7208
11.4675 21.8565 1.7121
4.0954 8.5406 0.6600
3.7970 8.7108 0.6649
8.8145 22.3937 1.6901
7.9089 22.4351 1.6763
6.9790 22.3352 1.6539
6.0886 22.2782 1.6366
5.2481 22.3424 1.6300
4.4423 22.5338 1.6343
3.6380 22.7500 1.6418
2.8317 23.0003 1.6533
2.0209 23.3237 1.6714
1.2006 23.8217 1.7035
0.3489 24.4225 1.7444
-0.5485 25.1729 1.7976
-1.6387 28.2905 2.0215
-2.5113 26.6574 1.9079
-3.4764 26.5899 1.9079
-4.4414 26.4975 1.9079
-5.4064 26.3801 1.9079
-6.3711 26.2375 1.9079
-7.3353 26.0694 1.9079
-8.2987 25.8758 1.9079
-9.2613 25.6564 1.9079
-10.2227 25.4110 1.9079
-11.1828 25.1393 1.9079
-12.1412 24.8410 1.9079
-13.0977 24.5157 1.9079
-14.0520 24.1632 1.9079
-15.0038 23.7832 1.9079
-15.9527 23.3751 1.9079
-16.9979 23.0740 1.9191
-16.4903 20.7729 1.7635
-17.3573 20.3158 1.7635
-18.2201 19.8312 1.7635
-19.1256 19.3667 1.7679
-19.9808 18.8245 1.7679
-20.8303 18.2534 1.7679
-21.6736 17.6529 1.7679
-22.5100 17.0224 1.7679
-23.3389 16.3615 1.7679
-24.1596 15.6695 1.7679
-24.9713 14.9460 1.7679
-25.7732 14.1905 1.7679
-26.5644 13.4024 1.7679
-27.3635 12.5900 1.7691
-28.1310 11.7343 1.7691
-28.8849 10.8445 1.7691
-29.2373 9.7904 1.7460
-29.9509 8.8431 1.7460
-30.6473 7.8604 1.7460
-31.3254 6.8420 1.7460
-24.7131 4.4719 1.3491
-23.5550 3.3913 1.2608
-22.3827 2.4034 1.1760
-22.1656 1.5752 1.1443
-21.7073 0.7585 1.1023
-21.3017 -0.0232 1.0652
-35.4209 -1.3150 1.7460
-35.8912 -2.6291 1.7460
-8.4978 -32.0858 1.7635
-5.3073 -23.4121 1.2718
-4.4759 -23.6633 1.2728
-3.6382 -23.9165 1.2761
-2.2007 -19.0548 1.0104
-1.5247 -19.2591 1.0168
-0.8380 -19.4666 1.0251
-0.1386 -19.6780 1.0354
0.5758 -19.8939 1.0478
1.3076 -20.1151 1.0625
0.9076 -8.9649 0.4757
0.8661 -6.2879 0.3358
0.8435 -4.8309 0.2601
0.7052 -3.3275 0.1810
0.7781 -3.1146 0.1715
0.8603 -2.9830 0.1665
0.9773 -2.9811 0.1690
1.0968 -2.9793 0.1719
1.2195 -2.9774 0.1751
1.3456 -2.9754 0.1788
1.4758 -2.9734 0.1829
1.6105 -2.9713 0.1874
1.7503 -2.9691 0.1925
1.8961 -2.9669 0.1981
2.0484 -2.9645 0.2043
2.2082 -2.9620 0.2111
2.3766 -2.9594 0.2187
2.5547 -2.9567 0.2271
2.7439 -2.9537 0.2364
2.9457 -2.9506 0.2467
3.1622 -2.9472 0.2581
3.3954 -2.9436 0.2709
3.6483 -2.9397 0.2852
3.9240 -2.9354 0.3013
4.2267 -2.9307 0.3194
4.5615 -2.9255 0.3400
4.9347 -2.9197 0.3634
5.2972 -2.8821 0.3862
5.6745 -2.8276 0.4103
6.2081 -2.8193 0.4459
6.8822 -2.8312 0.4919
7.5651 -2.7982 0.5388
20.4408 -6.7348 1.4531
19.9308 -5.7803 1.4160
19.4982 -4.9012 1.3865
19.4308 -4.1467 1.3847
19.4521 -3.4242 1.3911
19.6417 -2.7326 1.4114
19.8612 -2.0373 1.4359
20.1772 -1.3378 1.4694
20.5173 -0.6195 1.5069
20.5644 0.1200 1.5251
20.4794 0.8577 1.5354
20.2526 1.5805 1.5368
20.1622 2.3066 1.5502
19.5533 2.9539 1.5252
18.8286 3.5424 1.4917
3.9184 0.8844 0.3157
3.9161 1.0335 0.3212
3.9137 1.1852 0.3272
3.9113 1.3402 0.3338
3.9088 1.4988 0.3408
19.1697 8.1544 1.7103
18.8685 8.8423 1.7248
18.6245 9.5612 1.7467
18.3015 10.2452 1.7635
17.7864 10.8167 1.7635
17.2589 11.3678 1.7635
16.7197 11.8985 1.7635
16.1695 12.4088 1.7635
15.6089 12.8987 1.7635
15.0384 13.3684 1.7635
14.4586 13.8179 1.7635
13.8701 14.2472 1.7635
13.2734 14.6565 1.7635
12.6689 15.0457 1.7635
12.0573 15.4151 1.7635
11.4388 15.7646 1.7635
10.8140 16.0943 1.7635
10.1834 16.4045 1.7635
9.5472 16.6950 1.7635
8.9060 16.9660 1.7635
4.0973 8.5407 0.8748
3.7970 8.7069 0.8799
6.9555 17.6626 1.7635
6.2976 17.8563 1.7635
5.6365 18.0308 1.7635
4.9724 18.1861 1.7635
4.3056 18.3223 1.7635
3.6366 18.4394 1.7635
2.9655 18.5375 1.7635
2.2928 18.6166 1.7635
1.6187 18.6767 1.7635
0.9435 18.7177 1.7635
0.2675 18.7398 1.7635
-0.4089 18.7429 1.7635
-1.0855 18.7269 1.7635
-1.7620 18.6919 1.7635
-2.4381 18.6377 1.7635
-3.1134 18.5645 1.7635
-3.7877 18.4720 1.7635
-4.4607 18.3603 1.7635
-5.1320 18.2293 1.7635
-5.8013 18.0790 1.7635
-6.4682 17.9091 1.7635
-7.1324 17.7198 1.7635
-7.7936 17.5108 1.7635
-8.4514 17.2821 1.7635
-9.1054 17.0336 1.7635
-9.7552 16.7651 1.7635
-10.4004 16.4767 1.7635
-11.0406 16.1680 1.7635
-11.6753 15.8392 1.7635
-12.3042 15.4899 1.7635
-12.9266 15.1202 1.7635
-13.5422 14.7300 1.7635
-14.1503 14.3190 1.7635
-14.7506 13.8872 1.7635
-15.3423 13.4345 1.7635
-15.9249 12.9608 1.7635
-16.4979 12.4660 1.7635
-17.0405 11.9361 1.7614
-17.5684 11.3846 1.7591
-18.1070 10.8275 1.7591
-18.6332 10.2492 1.7591
-19.1464 9.6496 1.7591
-19.6455 9.0288 1.7591
-20.1301 8.3866 1.7591
-20.5991 7.7233 1.7591
-21.0517 7.0389 1.7591
-21.4869 6.3335 1.7591
-21.8001 5.5807 1.7508
-22.1893 4.8358 1.7503
-22.5573 4.0710 1.7497
-22.8976 3.2858 1.7486
-22.3946 2.3942 1.6857
-24.9063 1.7583 1.8501
-25.2163 0.8693 1.8508
-25.4995 -0.0397 1.8514
-25.7539 -0.9681 1.8520
-25.9715 -1.9146 1.8520
-5.9583 -22.5069 1.7635
-5.1557 -22.7527 1.7635
-4.3416 -22.9620 1.7635
-3.5179 -23.1341 1.7635
-2.2000 -19.0550 1.4442
-1.5243 -19.2592 1.4536
-0.8379 -19.4666 1.4657
-0.1388 -19.6779 1.4804
0.5752 -19.8937 1.4979
1.3067 -20.1148 1.5183
0.8461 -8.3626 0.6338
0.8661 -6.2920 0.4797
0.8435 -4.8339 0.3713
0.7052 -3.3295 0.2581
0.7777 -3.1146 0.2440
0.8599 -2.9830 0.2367
0.9767 -2.9811 0.2399
1.0963 -2.9793 0.2437
1.2188 -2.9774 0.2479
1.3449 -2.9754 0.2526
1.4750 -2.9734 0.2579
1.6096 -2.9713 0.2638
1.7493 -2.9692 0.2704
1.8950 -2.9669 0.2777
2.0472 -2.9645 0.2857
2.2069 -2.9621 0.2946
2.3752 -2.9595 0.3045
2.5531 -2.9567 0.3154
2.7421 -2.9538 0.3275
2.9437 -2.9506 0.3409
3.1600 -2.9473 0.3559
3.3930 -2.9437 0.3725
3.6455 -2.9397 0.3911
3.9209 -2.9355 0.4120
4.2233 -2.9308 0.4356
4.5575 -2.9256 0.4624
4.9302 -2.9198 0.4929
5.2972 -2.8850 0.5229
5.6686 -2.8277 0.5534
6.2012 -2.8194 0.5998
6.8823 -2.8348 0.6606
7.5552 -2.7984 0.7207
18.5721 -6.1284 1.7635
18.6313 -5.4125 1.7635
18.6643 -4.7007 1.7635
18.6716 -3.9937 1.7635
18.6538 -3.2925 1.7635
18.6114 -2.5981 1.7635
18.5453 -1.9111 1.7635
18.4560 -1.2323 1.7635
18.3441 -0.5625 1.7635
18.2103 0.0977 1.7635
18.0554 0.7477 1.7635
17.8798 1.3869 1.7635
17.6844 2.0148 1.7635
17.4698 2.6309 1.7635
17.2367 3.2347 1.7635
3.9184 0.8826 0.4068
3.9161 1.0316 0.4131
3.9137 1.1834 0.4200
3.9113 1.3383 0.4276
3.9089 1.4969 0.4358
15.4853 6.5793 1.7635
15.1405 7.0875 1.7635
14.7822 7.5810 1.7635
14.4110 8.0597 1.7635
14.0275 8.5232 1.7635
13.6322 8.9716 1.7635
13.2257 9.4046 1.7635
12.8085 9.8221 1.7635
12.3811 10.2241 1.7635
11.9440 10.6104 1.7635
11.4977 10.9810 1.7635
11.0427 11.3358 1.7635
10.5795 11.6748 1.7635
10.1085 11.9978 1.7635
9.6301 12.3049 1.7635
9.1448 12.5961 1.7635
8.6530 12.8713 1.7635
8.1552 13.1304 1.7635
7.6517 13.3735 1.7635
7.1429 13.6006 1.7635
4.0993 8.5407 1.0905
3.7971 8.7029 1.0958
5.5887 14.1854 1.7635
5.0626 14.3481 1.7635
4.5331 14.4948 1.7635
4.0005 14.6254 1.7635
3.4652 14.7399 1.7635
2.9275 14.8383 1.7635
2.3878 14.9205 1.7635
1.8464 14.9867 1.7635
1.3036 15.0367 1.7635
0.7598 15.0706 1.7635
0.2153 15.0883 1.7635
-0.3296 15.0899 1.7635
-0.8745 15.0753 1.7635
-1.4191 15.0446 1.7635
-1.9631 14.9976 1.7635
-2.5061 14.9344 1.7635
-3.0478 14.8550 1.7635
-3.5878 14.7594 1.7635
-4.1259 14.6475 1.7635
-4.6616 14.5193 1.7635
-5.1945 14.3748 1.7635
-5.7244 14.2139 1.7635
-6.2508 14.0368 1.7635
-6.7735 13.8433 1.7635
-7.2919 13.6334 1.7635
-7.8057 13.4071 1.7635
-8.3145 13.1644 1.7635
-8.8179 12.9053 1.7635
-9.3154 12.6299 1.7635
-9.8066 12.3380 1.7635
-10.2911 12.0298 1.7635
-10.7684 11.7052 1.7635
-11.2381 11.3643 1.7635
-11.6995 11.0070 1.7635
-12.1524 10.6335 1.7635
-12.5961 10.2438 1.7635
-13.0301 9.8379 1.7635
-13.4539 9.4160 1.7635
-13.8669 8.9781 1.7635
-14.2686 8.5243 1.7635
-14.6584 8.0549 1.7635
-15.0356 7.5698 1.7635
-15.3998 7.0694 1.7635
-15.7502 6.5537 1.7635
-16.0862 6.0231 1.7635
-16.4073 5.4778 1.7635
-16.7126 4.9180 1.7635
-16.9594 4.3332 1.7591
-17.2306 3.7469 1.7591
-17.4842 3.1471 1.7591
-17.7195 2.5343 1.7591
-17.9356 1.9090 1.7591
-18.1320 1.2716 1.7591
-18.1717 0.6179 1.7460
-18.3253 -0.0371 1.7460
-18.4571 -0.7024 1.7460
-18.5665 -1.3774 1.7460
-4.5830 -17.3190 1.7635
-3.9638 -17.5000 1.7635
-3.3366 -17.6540 1.7635
-2.7028 -17.7809 1.7635
-2.0636 -17.8800 1.7635
-1.4204 -17.9514 1.7635
-0.7745 -17.9945 1.7635
-0.1273 -18.0096 1.7635
0.5199 -17.9963 1.7635
1.1656 -17.9550 1.7635
0.8462 -8.3688 0.8252
0.7603 -5.5268 0.5479
0.8436 -4.8369 0.4829
0.7053 -3.3315 0.3355
0.7773 -3.1146 0.3169
0.8594 -2.9830 0.3071
0.9762 -2.9812 0.3111
1.0957 -2.9793 0.3157
1.2182 -2.9774 0.3209
1.3442 -2.9754 0.3267
1.4741 -2.9734 0.3332
1.6087 -2.9713 0.3405
1.7483 -2.9692 0.3486
1.8939 -2.9669 0.3575
2.0460 -2.9646 0.3675
2.2056 -2.9621 0.3784
2.3737 -2.9595 0.3906
2.5515 -2.9567 0.4040
2.7403 -2.9538 0.4189
2.9418 -2.9507 0.4355
3.1578 -2.9473 0.4538
3.3905 -2.9437 0.4743
3.6428 -2.9398 0.4973
3.9179 -2.9355 0.5231
4.2198 -2.9308 0.5521
4.5536 -2.9257 0.5851
4.9257 -2.9199 0.6228
5.2973 -2.8879 0.6602
5.6627 -2.8278 0.6969
6.1943 -2.8195 0.7540
6.8823 -2.8384 0.8300
7.5453 -2.7985 0.9030
14.8284 -4.9004 1.7635
14.8994 -4.3357 1.7635
14.9494 -3.7724 1.7635
14.9787 -3.2111 1.7635
14.9878 -2.6527 1.7635
14.9770 -2.0978 1.7635
14.9466 -1.5473 1.7635
14.8971 -1.0017 1.7635
14.8289 -0.4617 1.7635
14.7424 0.0722 1.7635
14.6382 0.5993 1.7635
14.5165 1.1192 1.7635
14.3780 1.6313 1.7635
14.2231 2.1352 1.7635
14.0522 2.6304 1.7635
3.9184 0.8807 0.4984
3.9161 1.0297 0.5054
3.9138 1.1815 0.5132
3.9114 1.3364 0.5218
3.9089 1.4949 0.5313
12.7188 5.3975 1.7635
12.4497 5.8216 1.7635
12.1684 6.2343 1.7635
11.8755 6.6354 1.7635
11.5714 7.0247 1.7635
11.2566 7.4019 1.7635
10.9314 7.7669 1.7635
10.5963 8.1196 1.7635
10.2518 8.4597 1.7635
9.8984 8.7871 1.7635
9.5363 9.1017 1.7635
9.1661 9.4034 1.7635
8.7881 9.6920 1.7635
8.4028 9.9674 1.7635
8.0105 10.2296 1.7635
7.6116 10.4785 1.7635
7.2066 10.7139 1.7635
6.7958 10.9359 1.7635
6.3795 11.1443 1.7635
5.9582 11.3392 1.7635
4.1013 8.5407 1.3074
3.7971 8.6989 1.3125
4.6675 11.8416 1.7635
4.2295 11.9816 1.7635
3.7882 12.1078 1.7635
3.3440 12.2201 1.7635
2.8972 12.3186 1.7635
2.4481 12.4031 1.7635
1.9970 12.4738 1.7635
1.5443 12.5305 1.7635
1.0904 12.5733 1.7635
0.6354 12.6021 1.7635
0.1799 12.6169 1.7635
-0.2759 12.6178 1.7635
-0.7317 12.6046 1.7635
-1.1871 12.5774 1.7635
-1.6419 12.5362 1.7635
-2.0956 12.4810 1.7635
-2.5479 12.4118 1.7635
-2.9986 12.3286 1.7635
-3.4472 12.2314 1.7635
-3.8934 12.1201 1.7635
-4.3369 11.9949 1.7635
-4.7773 11.8557 1.7635
-5.2143 11.7026 1.7635
-5.6475 11.5355 1.7635
-6.0765 11.3545 1.7635
-6.5010 11.1597 1.7635
-6.9206 10.9510 1.7635
-7.3349 10.7285 1.7635
-7.7435 10.4923 1.7635
-8.1460 10.2424 1.7635
-8.5421 9.9788 1.7635
-8.9312 9.7018 1.7635
-9.3131 9.4112 1.7635
-9.6872 9.1073 1.7635
-10.0532 8.7902 1.7635
-10.4106 8.4599 1.7635
-10.7589 8.1166 1.7635
-11.0977 7.7605 1.7635
-11.4266 7.3916 1.7635
-11.7451 7.0102 1.7635
-12.0526 6.6164 1.7635
-12.3488 6.2105 1.7635
-12.6331 5.7927 1.7635
-12.9051 5.3632 1.7635
-13.1642 4.9223 1.7635
-13.4100 4.4704 1.7635
-13.6419 4.0076 1.7635
-13.8595 3.5344 1.7635
-14.0621 3.0510 1.7635
-14.2495 2.5580 1.7635
-14.4210 2.0557 1.7635
-14.5761 1.5445 1.7635
-14.7143 1.0249 1.7635
-14.8352 0.4975 1.7635
-14.9382 -0.0372 1.7635
-15.0229 -0.5788 1.7635
-15.0889 -1.1265 1.7635
-3.7199 -14.0632 1.7635
-3.2164 -14.2059 1.7635
-2.7069 -14.3275 1.7635
-2.1923 -14.4276 1.7635
-1.6736 -14.5059 1.7635
-1.1519 -14.5625 1.7635
-0.6282 -14.5969 1.7635
-0.1034 -14.6093 1.7635
0.4213 -14.5995 1.7635
0.9450 -14.5676 1.7635
0.8463 -8.3751 1.0176
0.8075 -5.8728 0.7173
0.7405 -4.2485 0.5224
0.7053 -3.3335 0.4134
0.7768 -3.1146 0.3900
0.8589 -2.9830 0.3779
0.9757 -2.9812 0.3826
1.0951 -2.9793 0.3880
1.2175 -2.9774 0.3942
1.3434 -2.9755 0.4011
1.4733 -2.9734 0.4089
1.6078 -2.9714 0.4175
1.7473 -2.9692 0.4271
1.8928 -2.9669 0.4378
2.0448 -2.9646 0.4495
2.2042 -2.9621 0.4626
2.3722 -2.9595 0.4770
2.5499 -2.9567 0.4930
2.7385 -2.9538 0.5107
2.9398 -2.9507 0.5304
3.1555 -2.9473 0.5522
3.3881 -2.9437 0.5766
3.6400 -2.9398 0.6039
3.9148 -2.9356 0.6345
4.2163 -2.9309 0.6691
4.5496 -2.9257 0.7083
4.9211 -2.9200 0.7531
5.2973 -2.8908 0.7982
5.6568 -2.8278 0.8408
6.1874 -2.8196 0.9087
6.8824 -2.8419 1.0004
7.5354 -2.7987 1.0857
12.3296 -4.0808 1.7635
12.4018 -3.6151 1.7635
12.4566 -3.1494 1.7635
12.4943 -2.6845 1.7635
12.5150 -2.2211 1.7635
12.5190 -1.7596 1.7635
12.5066 -1.3007 1.7635
12.4779 -0.8450 1.7635
12.4335 -0.3930 1.7635
12.3734 0.0548 1.7635
12.2980 0.4977 1.7635
12.2078 0.9355 1.7635
12.1029 1.3675 1.7635
11.9838 1.7934 1.7635
11.8509 2.2127 1.7635
3.9255 0.8804 0.5914
3.9161 1.0279 0.5982
3.9138 1.1796 0.6069
3.9114 1.3344 0.6166
3.9089 1.4930 0.6272
10.7822 4.5702 1.7635
10.5624 4.9336 1.7635
10.3317 5.2879 1.7635
10.0906 5.6327 1.7635
9.8393 5.9678 1.7635
9.5783 6.2930 1.7635
9.3079 6.6082 1.7635
9.0285 6.9130 1.7635
8.7405 7.2074 1.7635
8.4443 7.4911 1.7635
8.1401 7.7640 1.7635
7.8285 8.0260 1.7635
7.5096 8.2769 1.7635
7.1840 8.5166 1.7635
6.8519 8.7450 1.7635
6.5137 8.9620 1.7635
6.1697 9.1674 1.7635
5.8203 9.3612 1.7635
5.4658 9.5433 1.7635
4.8007 9.1318 1.6579
4.1034 8.5408 1.5257
3.7972 8.6949 1.5305
3.7640 9.5451 1.6579
3.4117 9.6603 1.6579
3.1587 10.0911 1.7134
2.8704 10.4848 1.7635
0.7877 3.3477 0.5585
0.6659 3.3726 0.5587
0.5435 3.3934 0.5589
0.4204 3.4099 0.5590
0.2969 3.4222 0.5591
0.1730 3.4303 0.5592
0.0489 3.4341 0.5591
-0.0752 3.4337 0.5590
-0.1992 3.4291 0.5589
-0.3230 3.4202 0.5587
-0.4465 3.4071 0.5584
-0.5695 3.3898 0.5581
-0.6918 3.3682 0.5578
-0.8134 3.3425 0.5574
-2.9581 10.4900 1.7635
-3.3401 10.3921 1.7635
-3.7196 10.2819 1.7635
-4.0960 10.1594 1.7635
-4.4692 10.0249 1.7635
-4.8388 9.8782 1.7635
-5.2044 9.7194 1.7635
-5.5657 9.5487 1.7635
-5.9224 9.3660 1.7635
-6.2741 9.1714 1.7635
-6.6204 8.9650 1.7635
-6.9610 8.7469 1.7635
-7.2955 8.5171 1.7635
-7.6237 8.2758 1.7635
-7.9450 8.0232 1.7635
-8.2591 7.7592 1.7635
-8.5657 7.4840 1.7635
-8.8644 7.1979 1.7635
-9.1547 6.9008 1.7635
-9.4364 6.5931 1.7635
-9.7089 6.2749 1.7635
-9.9720 5.9463 1.7635
-10.2253 5.6076 1.7635
-10.4682 5.2591 1.7635
-10.7005 4.9009 1.7635
-10.9217 4.5333 1.7635
-11.1314 4.1566 1.7635
-11.3293 3.7710 1.7635
-11.5149 3.3770 1.7635
-11.6879 2.9748 1.7635
-11.8478 2.5648 1.7635
-11.9942 2.1474 1.7635
-12.1269 1.7228 1.7635
-12.2453 1.2917 1.7635
-12.3492 0.8543 1.7635
-12.4381 0.4112 1.7635
-12.5118 -0.0371 1.7635
-12.5698 -0.4902 1.7635
-12.6119 -0.9475 1.7635
-3.1272 -11.8277 1.7635
-2.7034 -11.9452 1.7635
-2.2748 -12.0454 1.7635
-1.8422 -12.1279 1.7635
-1.4063 -12.1926 1.7635
-0.9679 -12.2393 1.7635
-0.4963 -11.5330 1.6579
-0.0819 -11.5429 1.6579
0.3325 -11.5357 1.6579
0.7462 -11.5114 1.6579
0.8464 -8.3814 1.2114
0.8075 -5.8768 0.8537
0.7406 -4.2511 0.6217
0.7053 -3.3356 0.4917
0.7764 -3.1146 0.4636
0.8585 -2.9830 0.4490
0.9751 -2.9812 0.4545
1.0945 -2.9793 0.4608
1.2168 -2.9774 0.4679
1.3427 -2.9755 0.4759
1.4725 -2.9735 0.4849
1.6069 -2.9714 0.4949
1.7463 -2.9692 0.5060
1.8917 -2.9670 0.5184
2.0435 -2.9646 0.5320
2.2029 -2.9621 0.5472
2.3707 -2.9595 0.5639
2.5482 -2.9568 0.5824
2.7367 -2.9538 0.6030
2.9378 -2.9507 0.6258
3.1533 -2.9474 0.6511
3.3856 -2.9438 0.6794
3.6373 -2.9399 0.7110
3.9117 -2.9356 0.7465
4.2128 -2.9309 0.7866
4.5457 -2.9258 0.8321
4.9166 -2.9200 0.8839
5.2974 -2.8937 0.9372
5.6509 -2.8279 0.9854
6.1804 -2.8197 1.0641
6.8824 -2.8456 1.1718
7.5254 -2.7989 1.2691
10.5417 -3.4944 1.7635
10.6115 -3.0985 1.7635
10.6666 -2.7021 1.7635
10.7070 -2.3058 1.7635
10.7328 -1.9100 1.7635
10.7443 -1.5153 1.7635
10.7417 -1.1223 1.7635
10.7251 -0.7314 1.7635
10.6947 -0.3431 1.7635
10.6508 0.0421 1.7635
10.5936 0.4237 1.7635
10.5233 0.8014 1.7635
10.4403 1.1746 1.7635
10.3447 1.5431 1.7635
10.2369 1.9064 1.7635
3.9346 0.8806 0.6858
3.9162 1.0259 0.6916
3.9138 1.1776 0.7012
3.9114 1.3325 0.7119
3.9090 1.4910 0.7238
9.3494 3.9581 1.7635
9.1642 4.2758 1.7635
8.9692 4.5858 1.7635
8.7647 4.8879 1.7635
8.5511 5.1818 1.7635
8.3286 5.4673 1.7635
8.0976 5.7443 1.7635
7.8584 6.0124 1.7635
7.6113 6.2716 1.7635
7.3566 6.5217 1.7635
7.0947 6.7624 1.7635
6.8259 6.9937 1.7635
6.5505 7.2153 1.7635
6.2688 7.4273 1.7635
5.9812 7.6293 1.7635
5.6879 7.8214 1.7635
5.3892 8.0034 1.7635
4.7809 7.6854 1.6579
4.4910 7.8373 1.6579
4.1970 7.9793 1.6579
3.8991 8.1116 1.6579
3.5976 8.2339 1.6579
3.2929 8.3463 1.6579
3.1753 8.9870 1.7635
2.8451 9.0852 1.7635
0.7868 2.8727 0.5523
0.6821 2.8980 0.5526
0.5768 2.9198 0.5528
0.4707 2.9378 0.5529
0.3641 2.9523 0.5531
0.2571 2.9630 0.5531
0.1498 2.9701 0.5531
0.0423 2.9734 0.5531
-0.0652 2.9731 0.5530
-0.1726 2.9690 0.5529
-0.2799 2.9612 0.5527
-0.3868 2.9498 0.5525
-0.4933 2.9347 0.5523
-0.5993 2.9159 0.5519
-0.7045 2.8935 0.5516
-0.8090 2.8674 0.5512
-2.9222 9.0869 1.7635
-3.2535 8.9886 1.7635
-3.5820 8.8795 1.7635
-3.9074 8.7597 1.7635
-4.2294 8.6292 1.7635
-4.5476 8.4880 1.7635
-4.8619 8.3362 1.7635
-5.1718 8.1740 1.7635
-5.4770 8.0013 1.7635
-5.7772 7.8183 1.7635
-6.0721 7.6251 1.7635
-6.3614 7.4217 1.7635
-6.6447 7.2083 1.7635
-6.9217 6.9850 1.7635
-7.1921 6.7519 1.7635
-7.4555 6.5092 1.7635
-7.7117 6.2571 1.7635
-7.9603 5.9956 1.7635
-8.2009 5.7250 1.7635
-8.4332 5.4455 1.7635
-8.6569 5.1572 1.7635
-8.8716 4.8604 1.7635
-9.0770 4.5553 1.7635
-9.2728 4.2421 1.7635
-9.4587 3.9211 1.7635
-9.6342 3.5926 1.7635
-9.7992 3.2568 1.7635
-9.9532 2.9140 1.7635
-10.0959 2.5647 1.7635
-10.2270 2.2090 1.7635
-10.3463 1.8473 1.7635
-10.4534 1.4800 1.7635
-10.5479 1.1076 1.7635
-10.6297 0.7303 1.7635
-10.6985 0.3486 1.7635
-10.7539 -0.0370 1.7635
-10.7958 -0.4261 1.7635
-10.8238 -0.8183 1.7635
-1.1237 -4.2517 0.7354
-2.3292 -10.2962 1.7635
-1.9597 -10.3812 1.7635
-1.5869 -10.4513 1.7635
-1.2113 -10.5062 1.7635
-0.8338 -10.5460 1.7635
-0.4276 -9.9372 1.6579
-0.0707 -9.9458 1.6579
0.2862 -9.9399 1.6579
0.6425 -9.9195 1.6579
0.8465 -8.3877 1.4068
0.8076 -5.8808 0.9912
0.7406 -4.2538 0.7216
0.7054 -3.3376 0.5707
0.7760 -3.1146 0.5376
0.8580 -2.9830 0.5206
0.9746 -2.9812 0.5268
1.0939 -2.9793 0.5340
1.2161 -2.9774 0.5421
1.3419 -2.9755 0.5512
1.4717 -2.9735 0.5614
1.6059 -2.9714 0.5728
1.7453 -2.9692 0.5855
1.8905 -2.9670 0.5995
2.0423 -2.9646 0.6151
2.2015 -2.9621 0.6323
2.3692 -2.9595 0.6513
2.5466 -2.9568 0.6724
2.7349 -2.9539 0.6958
2.9358 -2.9508 0.7217
3.1511 -2.9474 0.7506
3.3831 -2.9438 0.7828
3.6345 -2.9399 0.8188
3.9085 -2.9357 0.8592
4.2093 -2.9310 0.9048
4.5417 -2.9258 0.9565
4.9120 -2.9201 1.0156
5.2974 -2.8967 1.0771
5.6450 -2.8280 1.1307
6.1735 -2.8198 1.2202
6.8825 -2.8492 1.3446
7.5153 -2.7990 1.4534
9.1980 -3.0537 1.7635
9.2642 -2.7098 1.7635
9.3176 -2.3650 1.7635
9.3582 -2.0199 1.7635
9.3862 -1.6749 1.7635
9.4016 -1.3305 1.7635
9.4047 -0.9871 1.7635
9.3954 -0.6452 1.7635
9.3740 -0.3053 1.7635
9.3407 0.0324 1.7635
9.2957 0.3673 1.7635
9.2390 0.6991 1.7635
9.1710 1.0274 1.7635
9.0919 1.3519 1.7635
9.0018 1.6721 1.7635
3.9439 0.8807 0.7814
3.9162 1.0240 0.7857
3.9139 1.1757 0.7962
3.9115 1.3306 0.8080
3.9090 1.4891 0.8211
8.2455 3.4865 1.7635
8.0858 3.7685 1.7635
7.9173 4.0438 1.7635
7.7401 4.3123 1.7635
7.5546 4.5738 1.7635
7.3610 4.8280 1.7635
7.1596 5.0748 1.7635
6.9508 5.3139 1.7635
6.7347 5.5452 1.7635
6.5116 5.7685 1.7635
6.2819 5.9837 1.7635
6.0459 6.1904 1.7635
5.8037 6.3888 1.7635
5.5558 6.5785 1.7635
4.9847 6.3546 1.6579
4.7415 6.5164 1.6579
4.4937 6.6698 1.6579
4.2415 6.8146 1.6579
3.9852 6.9509 1.6579
3.7250 7.0784 1.6579
3.4612 7.1972 1.6579
3.2016 7.3240 1.6617
3.1104 7.8801 1.7635
2.8201 7.9779 1.7635
0.7846 2.5042 0.5475
0.6932 2.5298 0.5478
0.6010 2.5523 0.5480
0.5082 2.5716 0.5482
0.4147 2.5876 0.5483
0.3208 2.6004 0.5484
0.2265 2.6099 0.5485
0.1320 2.6161 0.5485
0.0373 2.6191 0.5485
-0.0575 2.6188 0.5484
-0.1522 2.6152 0.5483
-0.2467 2.6083 0.5482
-0.3409 2.5981 0.5480
-0.4347 2.5847 0.5477
-0.5281 2.5681 0.5475
-0.6208 2.5482 0.5471
-0.7128 2.5251 0.5468
-0.8041 2.4989 0.5464
-2.8889 7.9768 1.7635
-3.1800 7.8786 1.7635
-3.4682 7.7707 1.7635
-3.7532 7.6532 1.7635
-4.0347 7.5263 1.7635
-4.3125 7.3899 1.7635
-4.5862 7.2441 1.7635
-4.8555 7.0891 1.7635
-5.1202 6.9249 1.7635
-5.3800 6.7516 1.7635
-5.6345 6.5694 1.7635
-5.8836 6.3783 1.7635
-6.1267 6.1784 1.7635
-6.3638 5.9700 1.7635
-6.5945 5.7532 1.7635
-6.8185 5.5280 1.7635
-7.0355 5.2947 1.7635
-7.2452 5.0535 1.7635
-7.4473 4.8045 1.7635
-7.6416 4.5480 1.7635
-7.8277 4.2841 1.7635
-8.0053 4.0130 1.7635
-8.1742 3.7351 1.7635
-8.3341 3.4505 1.7635
-8.4846 3.1595 1.7635
-8.6256 2.8623 1.7635
-8.7567 2.5593 1.7635
-8.8777 2.2508 1.7635
-8.9884 1.9370 1.7635
-9.0883 1.6182 1.7635
-9.1775 1.2949 1.7635
-9.2555 0.9674 1.7635
-9.3221 0.6360 1.7635
-9.3772 0.3011 1.7635
-9.4205 -0.0369 1.7635
-9.4519 -0.3776 1.7635
-9.4710 -0.7206 1.7635
-1.1048 -4.1823 0.8239
-2.0440 -9.0389 1.7635
-1.7196 -9.1127 1.7635
-1.3924 -9.1735 1.7635
-1.0628 -9.2212 1.7635
-0.7316 -9.2558 1.7635
-0.3752 -8.7214 1.6579
-0.0621 -8.7289 1.6579
0.2510 -8.7239 1.6579
0.5635 -8.7065 1.6579
0.8385 -8.3142 1.5886
0.8077 -5.8848 1.1299
0.7406 -4.2566 0.8225
0.7054 -3.3397 0.6504
0.7755 -3.1146 0.6122
0.8575 -2.9830 0.5927
0.9741 -2.9812 0.5997
1.0933 -2.9793 0.6077
1.2155 -2.9774 0.6168
1.3412 -2.9755 0.6270
1.4708 -2.9735 0.6385
1.6050 -2.9714 0.6513
1.7443 -2.9692 0.6655
1.8894 -2.9670 0.6813
2.0411 -2.9646 0.6987
2.2002 -2.9622 0.7180
2.3677 -2.9596 0.7394
2.5449 -2.9568 0.7631
2.7330 -2.9539 0.7893
2.9337 -2.9508 0.8184
3.1488 -2.9474 0.8508
3.3806 -2.9439 0.8869
3.6317 -2.9400 0.9273
3.9054 -2.9357 0.9726
4.2057 -2.9311 1.0238
4.5376 -2.9259 1.0819
4.9074 -2.9202 1.1481
5.2975 -2.8997 1.2183
5.6390 -2.8281 1.2770
6.1664 -2.8199 1.3774
6.8825 -2.8529 1.5188
7.5927 -2.8318 1.6579
7.6620 -2.5477 1.6579
7.7206 -2.2622 1.6579
7.7686 -1.9757 1.6579
7.8059 -1.6887 1.6579
7.8328 -1.4016 1.6579
8.3493 -1.1857 1.7635
8.3557 -0.8811 1.7635
8.3512 -0.5776 1.7635
8.3358 -0.2755 1.7635
8.3098 0.0248 1.7635
8.2733 0.3229 1.7635
8.2264 0.6185 1.7635
8.1693 0.9113 1.7635
8.1022 1.2008 1.7635
8.0253 1.4868 1.7635
3.9532 0.8808 0.8782
3.9162 1.0221 0.8806
3.9139 1.1738 0.8921
3.9115 1.3286 0.9049
3.9090 1.4871 0.9192
7.3681 3.1117 1.7635
7.2280 3.3649 1.7635
7.0798 3.6123 1.7635
6.9238 3.8537 1.7635
6.7601 4.0890 1.7635
6.5890 4.3179 1.7635
6.4107 4.5403 1.7635
6.2256 4.7558 1.7635
6.0338 4.9644 1.7635
5.8356 5.1660 1.7635
5.6313 5.3602 1.7635
5.4211 5.5471 1.7635
4.8934 5.3833 1.6579
4.6855 5.5446 1.6579
4.4727 5.6985 1.6579
4.2554 5.8450 1.6579
4.0338 5.9839 1.6579
3.8081 6.1151 1.6579
3.5786 6.2385 1.6579
3.3455 6.3541 1.6579
3.2117 6.6749 1.7126
3.0525 6.9795 1.7635
2.7947 7.0769 1.7635
0.7812 2.2090 0.5436
0.7005 2.2348 0.5439
0.6189 2.2578 0.5442
0.5367 2.2780 0.5444
0.4537 2.2952 0.5446
0.3703 2.3096 0.5447
0.2865 2.3211 0.5448
0.2023 2.3296 0.5448
0.1178 2.3352 0.5449
0.0332 2.3378 0.5448
-0.0514 2.3376 0.5448
-0.1359 2.3343 0.5447
-0.2203 2.3282 0.5445
-0.3045 2.3191 0.5444
-0.3883 2.3070 0.5442
-0.4716 2.2921 0.5439
-0.5544 2.2743 0.5436
-0.6365 2.2536 0.5433
-0.7179 2.2300 0.5429
-0.7985 2.2036 0.5425
-2.8567 7.0735 1.7635
-3.1151 6.9755 1.7635
-3.3705 6.8689 1.7635
-3.6227 6.7537 1.7635
-3.8713 6.6300 1.7635
-4.1162 6.4978 1.7635
-4.3570 6.3573 1.7635
-4.5934 6.2086 1.7635
-4.8253 6.0517 1.7635
-5.0524 5.8867 1.7635
-5.2743 5.7139 1.7635
-5.4908 5.5332 1.7635
-5.7017 5.3449 1.7635
-5.9066 5.1491 1.7635
-6.1054 4.9459 1.7635
-6.2977 4.7356 1.7635
-6.4833 4.5182 1.7635
-6.6620 4.2939 1.7635
-6.8334 4.0630 1.7635
-6.9973 3.8257 1.7635
-7.1535 3.5821 1.7635
-7.3017 3.3325 1.7635
-7.4417 3.0771 1.7635
-7.5733 2.8161 1.7635
-7.6961 2.5499 1.7635
-7.8099 2.2786 1.7635
-7.9146 2.0026 1.7635
-8.0100 1.7221 1.7635
-8.0957 1.4375 1.7635
-8.1716 1.1490 1.7635
-8.2375 0.8570 1.7635
-8.2933 0.5618 1.7635
-8.3386 0.2637 1.7635
-8.3735 -0.0369 1.7635
-8.3976 -0.3395 1.7635
-7.9849 -0.6114 1.6742
-1.0994 -4.1636 0.9211
-1.8191 -8.0478 1.7635
-1.5303 -8.1129 1.7635
-1.2390 -8.1665 1.7635
-0.9458 -8.2086 1.7635
-0.6120 -7.7456 1.6579
-0.3340 -7.7633 1.6579
-0.0554 -7.7701 1.6579
0.2232 -7.7658 1.6579
0.5013 -7.7505 1.6579
0.7785 -7.7243 1.6579
0.8077 -5.8888 1.2700
0.7407 -4.2593 0.9244
0.7054 -3.3417 0.7308
0.7751 -3.1146 0.6874
0.8570 -2.9830 0.6655
0.9735 -2.9812 0.6732
1.0926 -2.9793 0.6821
1.2148 -2.9775 0.6922
1.3404 -2.9755 0.7035
1.4700 -2.9735 0.7163
1.6041 -2.9714 0.7304
1.7433 -2.9693 0.7462
1.8883 -2.9670 0.7637
2.0398 -2.9647 0.7830
2.1988 -2.9622 0.8045
2.3662 -2.9596 0.8282
2.5432 -2.9568 0.8545
2.7312 -2.9539 0.8836
2.9317 -2.9508 0.9159
3.1466 -2.9475 0.9518
3.3780 -2.9439 0.9918
3.6289 -2.9400 1.0367
3.9022 -2.9358 1.0870
4.2021 -2.9311 1.1438
4.5336 -2.9260 1.2081
4.9028 -2.9202 1.2816
5.2975 -2.9027 1.3608
5.6330 -2.8282 1.4244
6.1593 -2.8201 1.5357
6.7331 -2.7945 1.6579
6.8071 -2.5424 1.6579
6.8717 -2.2885 1.6579
6.9267 -2.0331 1.6579
6.9723 -1.7768 1.6579
7.0084 -1.5197 1.6579
7.4833 -1.3428 1.7635
7.5016 -1.0690 1.7635
7.5100 -0.7956 1.7635
7.5086 -0.5230 1.7635
7.4975 -0.2514 1.7635
7.4768 0.0187 1.7635
7.4465 0.2870 1.7635
7.4069 0.5533 1.7635
7.3580 0.8172 1.7635
7.3000 1.0783 1.7635
7.2331 1.3364 1.7635
3.9627 0.8810 0.9764
3.9163 1.0202 0.9764
3.9139 1.1718 0.9888
3.9115 1.3266 1.0027
3.9091 1.4851 1.0182
6.6533 2.8064 1.7635
6.5288 3.0359 1.7635
6.3967 3.2603 1.7635
6.2575 3.4794 1.7635
6.1112 3.6931 1.7635
5.9581 3.9011 1.7635
5.7984 4.1032 1.7635
5.6323 4.2992 1.7635
5.4601 4.4891 1.7635
4.9655 4.3926 1.6579
4.7927 4.5589 1.6579
4.6148 4.7189 1.6579
4.4320 4.8726 1.6579
4.2445 5.0196 1.6579
4.0525 5.1600 1.6579
3.8563 5.2937 1.6579
3.6561 5.4204 1.6579
3.4520 5.5402 1.6579
3.2445 5.6530 1.6579
3.2204 6.1132 1.7600
2.9992 6.2301 1.7635
2.7685 6.3270 1.7635
0.7769 1.9664 0.5405
0.7049 1.9923 0.5408
0.6321 2.0157 0.5410
0.5585 2.0365 0.5413
0.4843 2.0548 0.5414
0.4095 2.0704 0.5416
0.3342 2.0834 0.5417
0.2585 2.0938 0.5418
0.1825 2.1015 0.5419
0.1063 2.1066 0.5419
0.0300 2.1090 0.5419
-0.0464 2.1087 0.5418
-0.1227 2.1058 0.5417
-0.1989 2.1002 0.5416
-0.2748 2.0920 0.5414
-0.3504 2.0811 0.5412
-0.4256 2.0676 0.5410
-0.5004 2.0514 0.5408
-0.5745 2.0327 0.5405
-0.6479 2.0113 0.5401
-0.7206 1.9874 0.5398
-0.7924 1.9610 0.5394
-2.8248 6.3218 1.7635
-3.0560 6.2243 1.7635
-3.2841 6.1189 1.7635
-3.5090 6.0058 1.7635
-3.7303 5.8850 1.7635
-3.9478 5.7567 1.7635
-4.1613 5.6208 1.7635
-4.3705 5.4776 1.7635
-4.5752 5.3272 1.7635
-4.7751 5.1695 1.7635
-4.9700 5.0049 1.7635
-5.1597 4.8333 1.7635
-5.3439 4.6550 1.7635
-5.5223 4.4700 1.7635
-5.6948 4.2787 1.7635
-5.8611 4.0810 1.7635
-6.0210 3.8772 1.7635
-6.1742 3.6675 1.7635
-6.3205 3.4521 1.7635
-6.4597 3.2311 1.7635
-6.5915 3.0048 1.7635
-6.7158 2.7733 1.7635
-6.8324 2.5370 1.7635
-6.9410 2.2961 1.7635
-7.0414 2.0508 1.7635
-7.1334 1.8013 1.7635
-7.2169 1.5480 1.7635
-7.2917 1.2911 1.7635
-7.3576 1.0309 1.7635
-7.4143 0.7677 1.7635
-7.4619 0.5018 1.7635
-7.5001 0.2335 1.7635
-7.5287 -0.0368 1.7635
-7.5477 -0.3089 1.7635
-7.5570 -0.5823 1.7635
-1.0790 -4.0882 1.0045
-1.6371 -7.2457 1.7635
-1.3771 -7.3038 1.7635
-1.1150 -7.3517 1.7635
-0.8511 -7.3894 1.7635
-0.5508 -6.9724 1.6579
-0.3006 -6.9883 1.6579
-0.0500 -6.9944 1.6579
0.2007 -6.9906 1.6579
0.4509 -6.9771 1.6579
0.7004 -6.9538 1.6579
0.8078 -5.8929 1.4117
0.7407 -4.2621 1.0273
0.7054 -3.3438 0.8122
0.7747 -3.1146 0.7634
0.8565 -2.9830 0.7389
0.9730 -2.9812 0.7474
1.0920 -2.9794 0.7572
1.2141 -2.9775 0.7683
1.3396 -2.9755 0.7808
1.4691 -2.9735 0.7947
1.6031 -2.9714 0.8103
1.7422 -2.9693 0.8277
1.8871 -2.9670 0.8469
2.0386 -2.9647 0.8682
2.1974 -2.9622 0.8918
2.3647 -2.9596 0.9178
2.5415 -2.9569 0.9467
2.7293 -2.9540 0.9787
2.9296 -2.9508 1.0142
3.1443 -2.9475 1.0537
3.3755 -2.9439 1.0978
3.6260 -2.9400 1.1470
3.8990 -2.9358 1.2024
4.1985 -2.9312 1.2648
4.5295 -2.9260 1.3356
4.8981 -2.9203 1.4163
5.2975 -2.9058 1.5048
5.6269 -2.8283 1.5730
6.0165 -2.7579 1.6579
6.0939 -2.5325 1.6579
6.1627 -2.3050 1.6579
6.2230 -2.0757 1.6579
6.2747 -1.8450 1.6579
6.3178 -1.6132 1.6579
6.4343 -1.3985 1.6793
6.7848 -1.2209 1.7635
6.8035 -0.9729 1.7635
6.8131 -0.7252 1.7635
6.8139 -0.4780 1.7635
6.8058 -0.2316 1.7635
6.7889 0.0136 1.7635
6.7634 0.2574 1.7635
6.7293 0.4994 1.7635
6.6868 0.7393 1.7635
6.6359 0.9769 1.7635
6.5769 1.2119 1.7635
3.9723 0.8811 1.0761
3.9163 1.0182 1.0733
3.9139 1.1698 1.0866
3.9115 1.3246 1.1016
3.9091 1.4831 1.1183
6.0593 2.5526 1.7635
5.9473 2.7623 1.7635
5.8284 2.9674 1.7635
5.7028 3.1679 1.7635
5.5707 3.3633 1.7635
5.4324 3.5537 1.7635
4.9711 3.5148 1.6579
4.8297 3.6837 1.6579
4.6830 3.8472 1.6579
4.5311 4.0054 1.6579
4.3742 4.1579 1.6579
4.2126 4.3047 1.6579
4.0463 4.4457 1.6579
3.8758 4.5807 1.6579
3.7010 4.7097 1.6579
3.5224 4.8325 1.6579
3.3399 4.9489 1.6579
3.2347 5.1886 1.7003
3.1536 5.4917 1.7635
2.9489 5.5949 1.7635
0.8355 1.7346 0.5375
0.7717 1.7628 0.5378
0.7071 1.7888 0.5381
0.6416 1.8125 0.5384
0.5753 1.8338 0.5386
0.5084 1.8528 0.5388
0.4408 1.8695 0.5390
0.3727 1.8837 0.5391
0.3042 1.8956 0.5393
0.2353 1.9051 0.5393
0.1661 1.9121 0.5394
0.0967 1.9168 0.5394
0.0272 1.9190 0.5394
-0.0423 1.9187 0.5393
-0.1117 1.9160 0.5392
-0.1811 1.9109 0.5391
-0.2502 1.9034 0.5390
-0.3190 1.8935 0.5388
-0.3875 1.8811 0.5386
-0.4555 1.8664 0.5384
-0.5229 1.8493 0.5381
-0.5898 1.8298 0.5378
-0.6559 1.8080 0.5375
-0.7213 1.7839 0.5371
-0.7857 1.7575 0.5367
-2.7926 5.6845 1.7635
-3.0007 5.5875 1.7635
-3.2057 5.4835 1.7635
-3.4074 5.3724 1.7635
-3.6056 5.2544 1.7635
-3.7999 5.1295 1.7635
-3.9903 4.9979 1.7635
-4.1765 4.8597 1.7635
-4.3582 4.7149 1.7635
-4.5353 4.5638 1.7635
-4.7075 4.4064 1.7635
-4.8745 4.2428 1.7635
-5.0363 4.0733 1.7635
-5.1925 3.8979 1.7635
-5.3429 3.7169 1.7635
-5.4874 3.5303 1.7635
-5.6257 3.3384 1.7635
-5.7576 3.1414 1.7635
-5.8830 2.9393 1.7635
-6.0016 2.7325 1.7635
-6.1132 2.5212 1.7635
-6.2177 2.3055 1.7635
-6.3148 2.0857 1.7635
-6.4044 1.8620 1.7635
-6.4864 1.6346 1.7635
-6.5605 1.4039 1.7635
-6.6266 1.1700 1.7635
-6.6846 0.9333 1.7635
-6.7342 0.6939 1.7635
-6.7755 0.4523 1.7635
-6.8081 0.2086 1.7635
-6.8322 -0.0368 1.7635
-6.8474 -0.2836 1.7635
-6.8538 -0.5315 1.7635
-1.0472 -3.9694 1.0735
-1.4866 -6.5826 1.7635
-1.2505 -6.6350 1.7635
-1.0124 -6.6783 1.7635
-0.7728 -6.7122 1.7635
-0.5001 -6.3333 1.6579
-0.2730 -6.3477 1.6579
-0.0455 -6.3533 1.6579
0.1821 -6.3500 1.6579
0.4093 -6.3378 1.6579
0.6358 -6.3169 1.6579
0.8079 -5.8971 1.5550
0.7408 -4.2649 1.1315
0.7055 -3.3459 0.8945
0.7742 -3.1147 0.8402
0.8561 -2.9830 0.8131
0.9724 -2.9812 0.8224
1.0914 -2.9794 0.8331
1.2134 -2.9775 0.8452
1.3389 -2.9755 0.8588
1.4683 -2.9735 0.8741
1.6022 -2.9714 0.8911
1.7412 -2.9693 0.9100
1.8860 -2.9670 0.9310
2.0373 -2.9647 0.9542
2.1960 -2.9622 0.9799
2.3631 -2.9596 1.0084
2.5398 -2.9569 1.0399
2.7274 -2.9540 1.0748
2.9275 -2.9509 1.1136
3.1419 -2.9476 1.1567
3.3729 -2.9440 1.2048
3.6231 -2.9401 1.2585
3.8958 -2.9359 1.3189
4.1949 -2.9312 1.3870
4.5253 -2.9261 1.4642
4.8934 -2.9204 1.5523
5.3069 -2.9140 1.6535
5.4083 -2.7215 1.6579
5.4879 -2.5187 1.6579
5.5598 -2.3136 1.6579
5.6240 -2.1065 1.6579
5.6804 -1.8977 1.6579
5.7290 -1.6876 1.6579
5.7698 -1.4763 1.6579
6.1726 -1.3448 1.7635
6.1994 -1.1187 1.7635
6.2180 -0.8923 1.7635
6.2284 -0.6661 1.7635
6.2306 -0.4402 1.7635
6.2247 -0.2149 1.7635
6.2108 0.0094 1.7635
6.1889 0.2324 1.7635
6.1592 0.4540 1.7635
6.1217 0.6738 1.7635
6.0766 0.8915 1.7635
6.0240 1.1070 1.7635
3.9821 0.8813 1.1775
3.9163 1.0162 1.1713
3.9140 1.1678 1.1855
3.9116 1.3226 1.2016
3.9091 1.4810 1.2196
5.5572 2.3381 1.7635
5.4556 2.5310 1.7635
5.0273 2.5568 1.6579
4.9200 2.7302 1.6579
4.8069 2.8994 1.6579
4.6884 3.0643 1.6579
4.5645 3.2246 1.6579
4.4355 3.3803 1.6579
4.3014 3.5311 1.6579
4.1626 3.6769 1.6579
4.0191 3.8177 1.6579
3.8712 3.9532 1.6579
3.7189 4.0834 1.6579
3.5627 4.2080 1.6579
3.4025 4.3271 1.6579
3.2462 4.4509 1.6617
3.2408 4.7993 1.7494
3.0854 4.9463 1.7635
2.9005 5.0482 1.7635
0.8233 1.5611 0.5352
0.7658 1.5891 0.5356
0.7074 1.6150 0.5359
0.6482 1.6389 0.5361
0.5881 1.6606 0.5364
0.5274 1.6803 0.5366
0.4660 1.6977 0.5368
0.4041 1.7130 0.5369
0.3417 1.7261 0.5371
0.2789 1.7370 0.5372
0.2157 1.7457 0.5372
0.1523 1.7522 0.5373
0.0887 1.7565 0.5373
0.0250 1.7585 0.5373
-0.0388 1.7583 0.5372
-0.1025 1.7558 0.5372
-0.1660 1.7511 0.5371
-0.2294 1.7442 0.5369
-0.2925 1.7351 0.5368
-0.3553 1.7237 0.5366
-0.4176 1.7102 0.5364
-0.4794 1.6944 0.5361
-0.5407 1.6765 0.5358
-0.6013 1.6565 0.5355
-0.6612 1.6343 0.5352
-0.7203 1.6101 0.5349
-0.7785 1.5837 0.5345
-0.8358 1.5554 0.5341
-2.9480 5.0395 1.7635
-3.1331 4.9368 1.7635
-3.3149 4.8276 1.7635
-3.4931 4.7122 1.7635
-3.6676 4.5906 1.7635
-3.8382 4.4629 1.7635
-4.0046 4.3293 1.7635
-4.1666 4.1897 1.7635
-4.3241 4.0444 1.7635
-4.4767 3.8936 1.7635
-4.6245 3.7372 1.7635
-4.7670 3.5755 1.7635
-4.9042 3.4087 1.7635
-5.0359 3.2368 1.7635
-5.1618 3.0601 1.7635
-5.2818 2.8787 1.7635
-5.3957 2.6928 1.7635
-5.5033 2.5026 1.7635
-5.6044 2.3083 1.7635
-5.6989 2.1101 1.7635
-5.7867 1.9081 1.7635
-5.8675 1.7028 1.7635
-5.9412 1.4941 1.7635
-6.0077 1.2825 1.7635
-6.0668 1.0681 1.7635
-6.1184 0.8511 1.7635
-6.1623 0.6319 1.7635
-6.1986 0.4107 1.7635
-6.2270 0.1877 1.7635
-6.2474 -0.0367 1.7635
-6.2598 -0.2623 1.7635
-6.2640 -0.4889 1.7635
-0.9882 -3.7476 1.1073
-1.3600 -6.0247 1.7635
-1.1440 -6.0724 1.7635
-0.9262 -6.1118 1.7635
-0.6647 -5.7748 1.6579
-0.4576 -5.7959 1.6579
-0.2498 -5.8090 1.6579
-0.0417 -5.8141 1.6579
0.1664 -5.8111 1.6579
0.3743 -5.8001 1.6579
0.5815 -5.7811 1.6579
0.7608 -5.5572 1.6011
0.7408 -4.2678 1.2371
0.7055 -3.3481 0.9778
0.7738 -3.1147 0.9178
0.8556 -2.9830 0.8882
0.9718 -2.9812 0.8983
1.0908 -2.9794 0.9099
1.2127 -2.9775 0.9230
1.3381 -2.9755 0.9378
1.4674 -2.9735 0.9543
1.6012 -2.9715 0.9728
1.7401 -2.9693 0.9933
1.8848 -2.9671 1.0160
2.0360 -2.9647 1.0413
2.1946 -2.9623 1.0691
2.3616 -2.9597 1.1000
2.5381 -2.9569 1.1342
2.7255 -2.9540 1.1721
2.9254 -2.9509 1.2141
3.1396 -2.9476 1.2609
3.3703 -2.9440 1.3130
3.6202 -2.9401 1.3713
3.8925 -2.9359 1.4368
4.1912 -2.9313 1.5106
4.5211 -2.9262 1.5943
4.7962 -2.8653 1.6579
4.8842 -2.6847 1.6579
4.9653 -2.5014 1.6579
5.0395 -2.3157 1.6579
5.1066 -2.1278 1.6579
5.1666 -1.9380 1.6579
5.2195 -1.7466 1.6579
5.2652 -1.5537 1.6579
5.5106 -1.4129 1.7225
5.6753 -1.2394 1.7635
5.7012 -1.0317 1.7635
5.7195 -0.8237 1.7635
5.7302 -0.6157 1.7635
5.7334 -0.4079 1.7635
5.7292 -0.2007 1.7635
5.7176 0.0057 1.7635
5.6987 0.2111 1.7635
5.6725 0.4152 1.7635
5.6391 0.6178 1.7635
5.5987 0.8186 1.7635
5.5513 1.0173 1.7635
3.9921 0.8814 1.2807
3.9164 1.0142 1.2705
3.9140 1.1658 1.2858
3.9116 1.3205 1.3030
3.9092 1.4789 1.3223
4.8198 2.0253 1.6579
4.7325 2.1929 1.6579
4.6397 2.3571 1.6579
4.5414 2.5176 1.6579
4.4378 2.6742 1.6579
4.3290 2.8268 1.6579
4.2153 2.9754 1.6579
4.0967 3.1196 1.6579
3.9735 3.2594 1.6579
3.8458 3.3946 1.6579
3.7137 3.5251 1.6579
3.5775 3.6508 1.6579
3.4372 3.7715 1.6579
3.2932 3.8873 1.6579
3.2511 4.1321 1.7136
3.1851 4.3646 1.7635
3.0208 4.4709 1.7635
2.8532 4.5714 1.7635
0.8112 1.4110 0.5333
0.7591 1.4387 0.5336
0.7061 1.4645 0.5339
0.6523 1.4885 0.5342
0.5977 1.5105 0.5344
0.5423 1.5306 0.5347
0.4863 1.5487 0.5349
0.4298 1.5649 0.5350
0.3727 1.5790 0.5352
0.3151 1.5912 0.5353
0.2571 1.6012 0.5354
0.1989 1.6093 0.5355
0.1404 1.6153 0.5355
0.0817 1.6192 0.5355
0.0230 1.6210 0.5355
-0.0358 1.6209 0.5355
-0.0945 1.6186 0.5354
-0.1532 1.6142 0.5353
-0.2116 1.6078 0.5352
-0.2698 1.5994 0.5350
-0.3277 1.5889 0.5348
-0.3852 1.5764 0.5346
-0.4422 1.5619 0.5344
-0.4987 1.5453 0.5342
-0.5546 1.5268 0.5339
-0.6098 1.5063 0.5336
-0.6642 1.4839 0.5333
-0.7179 1.4596 0.5329
-0.7707 1.4334 0.5325
-0.8226 1.4053 0.5321
-2.8969 4.5617 1.7635
-3.0646 4.4603 1.7635
-3.2290 4.3531 1.7635
-3.3900 4.2402 1.7635
-3.5471 4.1217 1.7635
-3.7004 3.9976 1.7635
-3.8496 3.8681 1.7635
-3.9946 3.7334 1.7635
-4.1350 3.5935 1.7635
-4.2708 3.4485 1.7635
-4.4018 3.2987 1.7635
-4.5277 3.1441 1.7635
-4.6485 2.9849 1.7635
-4.7639 2.8213 1.7635
-4.8738 2.6534 1.7635
-4.9780 2.4815 1.7635
-5.0764 2.3056 1.7635
-5.1687 2.1260 1.7635
-5.2549 1.9428 1.7635
-5.3348 1.7563 1.7635
-5.4082 1.5666 1.7635
-5.4751 1.3740 1.7635
-5.5353 1.1788 1.7635
-5.5886 0.9810 1.7635
-5.6350 0.7810 1.7635
-5.6743 0.5790 1.7635
-5.7065 0.3752 1.7635
-5.7314 0.1699 1.7635
-5.7490 -0.0367 1.7635
-5.7592 -0.2443 1.7635
-5.7619 -0.4526 1.7635
-0.9660 -3.6651 1.1758
-1.2519 -5.5484 1.7635
-1.0531 -5.5921 1.7635
-0.8526 -5.6282 1.7635
-0.6118 -5.3177 1.6579
-0.4212 -5.3371 1.6579
-0.2300 -5.3491 1.6579
-0.0385 -5.3538 1.6579
0.1531 -5.3511 1.6579
0.3444 -5.3411 1.6579
0.5351 -5.3237 1.6579
0.7250 -5.2991 1.6579
0.7409 -4.2707 1.3442
0.7055 -3.3503 1.0624
0.7733 -3.1147 0.9965
0.8551 -2.9830 0.9643
0.9713 -2.9812 0.9752
1.0901 -2.9794 0.9876
1.2120 -2.9775 1.0018
1.3373 -2.9756 1.0177
1.4665 -2.9735 1.0356
1.6002 -2.9715 1.0555
1.7391 -2.9693 1.0776
1.8836 -2.9671 1.1022
2.0347 -2.9647 1.1294
2.1932 -2.9623 1.1595
2.3600 -2.9597 1.1928
2.5364 -2.9569 1.2297
2.7236 -2.9540 1.2705
2.9233 -2.9509 1.3159
3.1372 -2.9476 1.3663
3.3677 -2.9441 1.4226
3.6173 -2.9402 1.4855
3.8892 -2.9360 1.5561
4.1874 -2.9313 1.6357
4.3386 -2.8107 1.6579
4.4269 -2.6473 1.6579
4.5089 -2.4811 1.6579
4.5846 -2.3123 1.6579
4.6539 -2.1412 1.6579
4.7167 -1.9680 1.6579
4.7729 -1.7930 1.6579
4.8227 -1.6164 1.6579
4.8658 -1.4385 1.6579
4.9024 -1.2595 1.6579
4.9324 -1.0798 1.6579
4.9558 -0.8994 1.6579
4.9726 -0.7187 1.6579
4.9828 -0.5380 1.6579
4.9865 -0.3574 1.6579
4.9838 -0.1772 1.6579
4.9746 0.0024 1.6579
4.9590 0.1812 1.6579
4.9371 0.3589 1.6579
4.9089 0.5353 1.6579
4.8746 0.7102 1.6579
4.8341 0.8834 1.6579
4.0023 0.8816 1.3859
3.9164 1.0121 1.3712
3.9140 1.1637 1.3874
3.9116 1.3184 1.4057
3.9092 1.4768 1.4263
4.4690 1.8754 1.6579
4.3887 2.0312 1.6579
4.3032 2.1837 1.6579
4.2127 2.3329 1.6579
4.1172 2.4786 1.6579
4.0168 2.6206 1.6579
3.9118 2.7587 1.6579
3.8023 2.8930 1.6579
3.6884 3.0231 1.6579
3.5703 3.1490 1.6579
3.4481 3.2706 1.6579
3.3219 3.3876 1.6579
3.2598 3.5744 1.6930
3.2535 3.8379 1.7635
3.1079 3.9475 1.7635
2.9588 4.0520 1.7635
2.8064 4.1511 1.7635
0.7990 1.2795 0.5316
0.7517 1.3069 0.5319
0.7035 1.3326 0.5322
0.6544 1.3566 0.5325
0.6046 1.3788 0.5327
0.5539 1.3993 0.5330
0.5027 1.4179 0.5332
0.4508 1.4348 0.5333
0.3983 1.4498 0.5335
0.3454 1.4629 0.5336
0.2920 1.4741 0.5338
0.2383 1.4835 0.5338
0.1843 1.4910 0.5339
0.1301 1.4965 0.5339
0.0758 1.5002 0.5340
0.0213 1.5019 0.5339
-0.0332 1.5017 0.5339
-0.0877 1.4996 0.5338
-0.1420 1.4956 0.5338
-0.1962 1.4896 0.5336
-0.2501 1.4818 0.5335
-0.3038 1.4721 0.5333
-0.3571 1.4604 0.5332
-0.4099 1.4469 0.5329
-0.4622 1.4316 0.5327
-0.5140 1.4144 0.5325
-0.5652 1.3954 0.5322
-0.6157 1.3746 0.5319
-0.6654 1.3520 0.5315
-0.7143 1.3276 0.5312
-0.7623 1.3016 0.5308
-0.8094 1.2738 0.5304
-2.8467 4.1405 1.7635
-2.9992 4.0405 1.7635
-3.1483 3.9352 1.7635
-3.2939 3.8247 1.7635
-3.4359 3.7091 1.7635
-3.5740 3.5884 1.7635
-3.7081 3.4629 1.7635
-3.8379 3.3326 1.7635
-3.9635 3.1977 1.7635
-4.0845 3.0582 1.7635
-4.2007 2.9144 1.7635
-4.3122 2.7663 1.7635
-4.4186 2.6141 1.7635
-4.5198 2.4581 1.7635
-4.6158 2.2982 1.7635
-4.7062 2.1348 1.7635
-4.7911 1.9679 1.7635
-4.8702 1.7979 1.7635
-4.9434 1.6247 1.7635
-5.0106 1.4487 1.7635
-5.0717 1.2701 1.7635
-5.1265 1.0890 1.7635
-5.1750 0.9057 1.7635
-5.2171 0.7204 1.7635
-5.2525 0.5332 1.7635
-5.2814 0.3445 1.7635
-5.3035 0.1545 1.7635
-5.3188 -0.0367 1.7635
-5.3273 -0.2287 1.7635
-5.3288 -0.4213 1.7635
-0.9722 -3.6901 1.2787
-1.1585 -5.1366 1.7635
-0.9744 -5.1769 1.7635
-0.7889 -5.2102 1.7635
-0.5662 -4.9227 1.6579
-0.3898 -4.9405 1.6579
-0.2129 -4.9516 1.6579
-0.0357 -4.9560 1.6579
0.1416 -4.9535 1.6579
0.3186 -4.9443 1.6579
0.4951 -4.9284 1.6579
0.6707 -4.9057 1.6579
0.7409 -4.2736 1.4530
0.7056 -3.3525 1.1483
0.7728 -3.1147 1.0763
0.8545 -2.9830 1.0415
0.9707 -2.9812 1.0531
1.0895 -2.9794 1.0665
1.2112 -2.9775 1.0817
1.3365 -2.9756 1.0988
1.4656 -2.9736 1.1180
1.5993 -2.9715 1.1394
1.7380 -2.9693 1.1632
1.8824 -2.9671 1.1895
2.0334 -2.9648 1.2188
2.1917 -2.9623 1.2511
2.3584 -2.9597 1.2869
2.5346 -2.9570 1.3265
2.7217 -2.9541 1.3703
2.9211 -2.9510 1.4190
3.1348 -2.9477 1.4732
3.3650 -2.9441 1.5336
3.6143 -2.9402 1.6011
3.8416 -2.9026 1.6579
3.9354 -2.7574 1.6579
4.0235 -2.6091 1.6579
4.1060 -2.4580 1.6579
4.1827 -2.3041 1.6579
4.2535 -2.1478 1.6579
4.3184 -1.9894 1.6579
4.3774 -1.8289 1.6579
4.4303 -1.6668 1.6579
4.4772 -1.5031 1.6579
4.5179 -1.3381 1.6579
4.5526 -1.1721 1.6579
4.5812 -1.0053 1.6579
4.6036 -0.8379 1.6579
4.6200 -0.6702 1.6579
4.6302 -0.5023 1.6579
4.6344 -0.3346 1.6579
4.6326 -0.1671 1.6579
4.6248 -0.0001 1.6579
4.6110 0.1661 1.6579
4.5913 0.3314 1.6579
4.5658 0.4955 1.6579
4.5346 0.6583 1.6579
4.4976 0.8195 1.6579
4.0126 0.8818 1.4932
3.9164 1.0101 1.4733
3.9141 1.1616 1.4905
3.9117 1.3163 1.5100
3.9092 1.4747 1.5319
4.1615 1.7440 1.6579
4.0873 1.8893 1.6579
4.0082 2.0317 1.6579
3.9244 2.1709 1.6579
3.8358 2.3069 1.6579
3.7428 2.4395 1.6579
3.6454 2.5686 1.6579
3.5437 2.6940 1.6579
3.4380 2.8156 1.6579
3.3282 2.9332 1.6579
3.2672 3.0967 1.6850
3.2636 3.3258 1.7469
3.1662 3.4695 1.7635
3.0341 3.5768 1.7635
2.8985 3.6793 1.7635
0.8289 1.1345 0.5297
0.7868 1.1631 0.5300
0.7437 1.1902 0.5304
0.6997 1.2157 0.5307
0.6548 1.2397 0.5309
0.6092 1.2621 0.5312
0.5627 1.2828 0.5314
0.5156 1.3019 0.5317
0.4679 1.3193 0.5319
0.4196 1.3350 0.5320
0.3708 1.3489 0.5322
0.3215 1.3611 0.5323
0.2719 1.3716 0.5324
0.2219 1.3804 0.5325
0.1716 1.3873 0.5325
0.1211 1.3925 0.5326
0.0705 1.3959 0.5326
0.0198 1.3975 0.5326
-0.0309 1.3973 0.5325
-0.0816 1.3954 0.5325
-0.1322 1.3916 0.5324
-0.1827 1.3861 0.5323
-0.2329 1.3788 0.5322
-0.2828 1.3697 0.5320
-0.3324 1.3589 0.5318
-0.3816 1.3463 0.5317
-0.4303 1.3320 0.5314
-0.4785 1.3159 0.5312
-0.5261 1.2982 0.5309
-0.5731 1.2788 0.5306
-0.6194 1.2577 0.5303
-0.6649 1.2350 0.5300
-0.7096 1.2108 0.5297
-0.7534 1.1849 0.5293
-0.7963 1.1575 0.5289
-0.8383 1.1286 0.5285
-2.9358 3.6671 1.7635
-3.0713 3.5637 1.7635
-3.2034 3.4556 1.7635
-3.3318 3.3428 1.7635
-3.4564 3.2254 1.7635
-3.5771 3.1036 1.7635
-3.6937 2.9775 1.7635
-3.8060 2.8471 1.7635
-3.9138 2.7128 1.7635
-4.0172 2.5745 1.7635
-4.1158 2.4324 1.7635
-4.2095 2.2868 1.7635
-4.2983 2.1376 1.7635
-4.3819 1.9851 1.7635
-4.4603 1.8295 1.7635
-4.5333 1.6709 1.7635
-4.6008 1.5096 1.7635
-4.6626 1.3456 1.7635
-4.7188 1.1792 1.7635
-4.7691 1.0105 1.7635
-4.8134 0.8399 1.7635
-4.8518 0.6674 1.7635
-4.8840 0.4932 1.7635
-4.9101 0.3177 1.7635
-4.9299 0.1410 1.7635
-4.9433 -0.0367 1.7635
-4.9504 -0.2151 1.7635
-4.9511 -0.3940 1.7635
-1.0008 -3.8005 1.4161
-1.0768 -4.7767 1.7635
-0.9057 -4.8140 1.7635
-0.6894 -4.5546 1.6579
-0.5263 -4.5774 1.6579
-0.3624 -4.5940 1.6579
-0.1979 -4.6043 1.6579
-0.0332 -4.6083 1.6579
0.1315 -4.6061 1.6579
0.2960 -4.5976 1.6579
0.4600 -4.5828 1.6579
0.6233 -4.5619 1.6579
0.7409 -4.2766 1.5635
0.7056 -3.3547 1.2356
0.7724 -3.1147 1.1573
0.8540 -2.9830 1.1198
0.9701 -2.9812 1.1322
1.0888 -2.9794 1.1466
1.2105 -2.9775 1.1628
1.3356 -2.9756 1.1811
1.4647 -2.9736 1.2017
1.5982 -2.9715 1.2245
1.7369 -2.9694 1.2500
1.8812 -2.9671 1.2782
2.0320 -2.9648 1.3094
2.1902 -2.9623 1.3440
2.3568 -2.9597 1.3823
2.5328 -2.9570 1.4247
2.7197 -2.9541 1.4716
2.9189 -2.9510 1.5237
3.1324 -2.9477 1.5817
3.3623 -2.9441 1.6463
3.4838 -2.8365 1.6579
3.5766 -2.7048 1.6579
3.6644 -2.5700 1.6579
3.7469 -2.4322 1.6579
3.8242 -2.2917 1.6579
3.8962 -2.1487 1.6579
3.9627 -2.0034 1.6579
4.0237 -1.8560 1.6579
4.0792 -1.7067 1.6579
4.1290 -1.5558 1.6579
4.1733 -1.4034 1.6579
4.2119 -1.2498 1.6579
4.2448 -1.0952 1.6579
4.2720 -0.9398 1.6579
4.2936 -0.7838 1.6579
4.3094 -0.6275 1.6579
4.3196 -0.4709 1.6579
4.3241 -0.3144 1.6579
4.3230 -0.1582 1.6579
4.3163 -0.0024 1.6579
4.3040 0.1528 1.6579
4.2863 0.3071 1.6579
4.2630 0.4604 1.6579
4.2344 0.6124 1.6579
4.2005 0.7631 1.6579
4.0232 0.8819 1.6029
3.9165 1.0079 1.5771
3.9141 1.1595 1.5954
3.9117 1.3142 1.6160
3.9092 1.4725 1.6392
3.8895 1.6279 1.6579
3.8206 1.7639 1.6579
3.7471 1.8972 1.6579
3.6691 2.0276 1.6579
3.5868 2.1550 1.6579
3.5002 2.2792 1.6579
3.4094 2.4002 1.6579
3.3147 2.5177 1.6579
3.2737 2.6788 1.6876
3.2705 2.8802 1.7414
3.1993 3.0301 1.7635
3.0829 3.1394 1.7635
2.9629 3.2444 1.7635
2.8395 3.3451 1.7635
0.8127 1.0310 0.5283
0.7744 1.0592 0.5287
0.7350 1.0859 0.5290
0.6948 1.1113 0.5293
0.6537 1.1352 0.5296
0.6118 1.1576 0.5298
0.5691 1.1785 0.5301
0.5258 1.1979 0.5303
0.4818 1.2157 0.5305
0.4372 1.2320 0.5307
0.3921 1.2467 0.5309
0.3465 1.2598 0.5310
0.3004 1.2712 0.5311
0.2540 1.2810 0.5312
0.2073 1.2892 0.5313
0.1603 1.2957 0.5313
0.1132 1.3006 0.5314
0.0659 1.3037 0.5314
0.0185 1.3052 0.5314
-0.0289 1.3051 0.5313
-0.0763 1.3033 0.5313
-0.1236 1.2997 0.5312
-0.1707 1.2946 0.5311
-0.2177 1.2877 0.5310
-0.2643 1.2792 0.5309
-0.3107 1.2691 0.5307
-0.3566 1.2573 0.5305
-0.4021 1.2439 0.5303
-0.4472 1.2289 0.5301
-0.4916 1.2123 0.5298
-0.5355 1.1942 0.5296
-0.5787 1.1744 0.5293
-0.6213 1.1532 0.5290
-0.6630 1.1305 0.5287
-0.7039 1.1063 0.5283
-0.7440 1.0807 0.5280
-0.7831 1.0536 0.5276
-0.8213 1.0252 0.5272
-2.8740 3.3323 1.7635
-2.9973 3.2308 1.7635
-3.1172 3.1250 1.7635
-3.2335 3.0149 1.7635
-3.3460 2.9007 1.7635
-3.4547 2.7824 1.7635
-3.5593 2.6602 1.7635
-3.6598 2.5343 1.7635
-3.7560 2.4047 1.7635
-3.8478 2.2716 1.7635
-3.9350 2.1352 1.7635
-4.0175 1.9955 1.7635
-4.0951 1.8528 1.7635
-4.1679 1.7071 1.7635
