ply
format ascii 1.0
element vertex 2178
property float32 x
property float32 y
property float32 z
end_header
17.3090 10.3457 0.4759
16.1821 10.4701 0.4919
3.3691 2.3538 0.1132
14.1974 10.6893 0.5266
13.3147 10.7867 0.5452
12.4921 10.8776 0.5645
11.3742 10.6377 0.5672
10.8072 10.8523 0.5948
10.9022 11.7548 0.6626
11.0078 12.7483 0.7393
11.1255 13.8501 0.8264
11.2569 15.0809 0.9261
11.4050 16.4689 1.0409
11.5739 18.0504 1.1744
14.6690 24.7720 1.6592
11.1646 20.4801 1.4122
11.3831 22.7704 1.6165
10.3564 22.6989 1.6592
9.1263 22.0451 1.6592
7.9842 21.4091 1.6592
6.5685 19.7278 1.5744
5.8507 19.9068 1.6361
4.9414 19.3284 1.6361
4.0924 18.7651 1.6361
2.3175 12.7975 1.1494
2.5559 17.6808 1.6361
1.9770 18.2399 1.7392
1.2829 17.6982 1.7392
0.6311 17.1692 1.7392
0.0185 16.6524 1.7392
-0.5578 16.1471 1.7392
-1.1004 15.6528 1.7392
-1.6118 15.1689 1.7392
-2.0940 14.6950 1.7392
-2.5490 14.2306 1.7392
-2.9787 13.7752 1.7392
-3.3847 13.3283 1.7392
-3.7685 12.8895 1.7392
-3.4888 10.5206 1.4687
-3.9157 10.5307 1.5219
-3.6971 8.9486 1.3396
-3.6793 8.0732 1.2528
-3.9530 7.9098 1.2734
-4.3333 7.9450 1.3280
-5.9364 10.0124 1.7392
-5.2023 8.0970 1.4631
-6.4184 9.2424 1.7392
-6.6404 8.8645 1.7392
-6.8427 8.4813 1.7372
-6.8941 7.9427 1.7009
-6.9461 7.4437 1.6691
-6.9978 6.9776 1.6412
-7.1338 6.6184 1.6361
-7.2829 6.2839 1.6361
-7.4234 5.9521 1.6361
-7.5557 5.6229 1.6361
-7.6800 5.2959 1.6361
-4.3335 2.7629 0.9093
-4.3538 2.5596 0.9010
-4.3735 2.3629 0.8935
-4.3926 2.1719 0.8869
-4.4112 1.9861 0.8810
-4.4293 1.8046 0.8759
-4.4471 1.6270 0.8715
-4.4646 1.4525 0.8678
-4.4817 1.2808 0.8647
-4.4987 1.1113 0.8622
-4.5155 0.9435 0.8604
-4.5321 0.7769 0.8591
-4.5487 0.6112 0.8584
-4.5652 0.4460 0.8583
-4.5818 0.2806 0.8588
-4.5984 0.1148 0.8598
-4.6150 -0.0518 0.8614
-4.6318 -0.2198 0.8637
-4.6488 -0.3896 0.8665
-4.6660 -0.5617 0.8700
-4.6835 -0.7365 0.8741
-4.7014 -0.9147 0.8789
-4.7195 -1.0967 0.8844
-4.7382 -1.2832 0.8907
-4.7574 -1.4749 0.8978
-4.7771 -1.6724 0.9057
-8.5830 -3.3574 1.6361
-8.5292 -3.6967 1.6361
-8.4684 -4.0393 1.6361
-8.4004 -4.3856 1.6361
-8.3248 -4.7356 1.6361
-8.2413 -5.0897 1.6361
-8.1773 -5.4666 1.6416
-8.2150 -5.9307 1.6697
-8.2581 -6.4262 1.7014
-8.3080 -6.9589 1.7375
-8.1805 -7.3684 1.7392
-8.0342 -7.7774 1.7392
-7.8768 -8.1931 1.7392
-7.7076 -8.6159 1.7392
-7.5260 -9.0461 1.7392
-7.3314 -9.4842 1.7392
-7.1229 -9.9307 1.7392
-6.8999 -10.3860 1.7392
27.3989 5.0585 0.8999
26.5949 5.8934 0.9047
25.4671 6.6000 0.9006
24.0589 7.1554 0.8876
22.7728 7.6627 0.8793
21.5914 8.1291 0.8752
20.4992 8.5603 0.8747
19.1774 8.8201 0.8636
18.5510 9.3433 0.8839
18.0371 9.9020 0.9113
17.3484 10.3413 0.9314
16.2199 10.4659 0.9273
3.3701 2.3480 0.2056
14.2324 10.6854 0.9281
13.3485 10.7830 0.9323
12.5247 10.8740 0.9388
11.4049 10.6343 0.9191
10.8032 10.8147 0.9380
10.8977 11.7123 1.0216
11.0026 12.7002 1.1161
11.1196 13.7951 1.2235
11.2501 15.0179 1.3463
11.3972 16.3959 1.4877
11.5648 17.9652 1.6520
10.5755 17.7850 1.6592
9.5887 17.5119 1.6592
8.6523 17.2266 1.6592
7.7639 16.9311 1.6592
6.9210 16.6271 1.6592
6.1213 16.3163 1.6592
5.2877 15.7772 1.6361
4.5774 15.4607 1.6361
3.9032 15.1408 1.6361
3.2630 14.8183 1.6361
2.3415 12.7827 1.4429
2.0775 14.1686 1.6361
1.6251 14.7148 1.7392
1.0708 14.3680 1.7392
0.5439 14.0216 1.7392
0.0429 13.6757 1.7392
-0.4336 13.3308 1.7392
-0.8868 12.9871 1.7392
-1.3181 12.6449 1.7392
-1.7284 12.3042 1.7392
-2.1190 11.9653 1.7392
-2.4908 11.6281 1.7392
-2.8447 11.2929 1.7392
-3.1817 10.9597 1.7392
-3.5025 10.6284 1.7392
-3.8080 10.2992 1.7392
-4.0988 9.9720 1.7392
-3.6611 8.0715 1.4552
-3.9488 7.9360 1.4804
-4.8901 9.0024 1.7392
-5.1288 8.6831 1.7392
-5.3558 8.3656 1.7392
-5.5716 8.0500 1.7392
-5.7767 7.7361 1.7392
-5.9716 7.4239 1.7392
-6.1565 7.1132 1.7392
-6.3319 6.8042 1.7392
-6.4982 6.4965 1.7392
-6.6555 6.1902 1.7392
-6.8043 5.8852 1.7392
-6.9449 5.5814 1.7392
-7.0774 5.2787 1.7392
-7.1787 4.9608 1.7335
-4.3329 2.7683 1.0296
-4.3533 2.5644 1.0192
-4.3730 2.3672 1.0098
-4.3922 2.1758 1.0016
-4.4108 1.9895 0.9943
-4.4290 1.8076 0.9879
-4.4468 1.6296 0.9824
-4.4643 1.4547 0.9777
-4.4816 1.2826 0.9738
-4.4985 1.1127 0.9707
-4.5154 0.9446 0.9683
-4.5320 0.7777 0.9667
-4.5487 0.6117 0.9658
-4.5652 0.4460 0.9657
-4.5818 0.2804 0.9662
-4.5984 0.1142 0.9675
-4.6151 -0.0528 0.9695
-4.6320 -0.2211 0.9722
-4.6490 -0.3913 0.9757
-4.6662 -0.5638 0.9800
-4.6838 -0.7390 0.9851
-4.7016 -0.9175 0.9910
-4.7199 -1.1000 0.9978
-4.7386 -1.2869 1.0056
-4.7578 -1.4791 1.0143
-4.7776 -1.6771 1.0241
-7.9509 -3.1186 1.7152
-7.9844 -3.4699 1.7350
-7.9380 -3.7965 1.7392
-7.8650 -4.1172 1.7392
-7.7844 -4.4403 1.7392
-7.6959 -4.7660 1.7392
-7.5993 -5.0945 1.7392
-7.4944 -5.4258 1.7392
-7.3808 -5.7601 1.7392
-7.2583 -6.0976 1.7392
-7.1264 -6.4384 1.7392
-6.9849 -6.7827 1.7392
-6.8333 -7.1305 1.7392
-6.6712 -7.4821 1.7392
-6.4982 -7.8375 1.7392
-6.3138 -8.1970 1.7392
-6.1174 -8.5606 1.7392
-5.9085 -8.9285 1.7392
27.3973 5.0427 1.5281
26.6188 5.8815 1.5203
25.0915 6.4844 1.4718
23.7065 7.0313 1.4322
22.4415 7.5308 1.4003
21.2788 7.9899 1.3750
20.2039 8.4145 1.3555
19.2047 8.8092 1.3411
18.5524 9.3191 1.3519
18.0775 9.8975 1.3778
17.3881 10.3370 1.3893
16.2579 10.4618 1.3650
3.3711 2.3422 0.2981
14.2675 10.6815 1.3317
13.3825 10.7793 1.3215
12.5576 10.8703 1.3150
11.4359 10.6309 1.2729
10.7993 10.7771 1.2808
10.8933 11.6699 1.3801
10.9975 12.6520 1.4923
11.1138 13.7403 1.6198
10.5666 14.0548 1.6592
9.7755 14.0101 1.6592
9.0109 13.9427 1.6592
8.2728 13.8546 1.6592
7.5610 13.7478 1.6592
6.8752 13.6240 1.6592
6.2149 13.4848 1.6592
5.5021 13.1463 1.6361
4.8999 12.9831 1.6361
4.3211 12.8089 1.6361
3.7652 12.6248 1.6361
0.8696 3.3456 0.4403
0.7496 3.3716 0.4510
0.6288 3.3936 0.4618
0.5073 3.4114 0.4726
0.3853 3.4251 0.4835
0.2630 3.4346 0.4944
0.1405 3.4400 0.5054
0.0178 3.4411 0.5163
-0.1048 3.4381 0.5272
-0.2273 3.4309 0.5382
-0.3495 3.4196 0.5490
-0.4713 3.4041 0.5599
-0.5925 3.3844 0.5707
-0.7130 3.3606 0.5814
-2.4458 9.7894 1.7392
-2.7455 9.5253 1.7392
-3.0324 9.2604 1.7392
-3.3067 8.9947 1.7392
-3.5691 8.7284 1.7392
-3.8199 8.4617 1.7392
-4.0597 8.1947 1.7392
-4.2887 7.9275 1.7392
-4.5073 7.6602 1.7392
-4.7160 7.3928 1.7392
-4.9150 7.1253 1.7392
-5.1047 6.8580 1.7392
-5.2853 6.5907 1.7392
-5.4572 6.3235 1.7392
-5.6206 6.0565 1.7392
-5.7758 5.7896 1.7392
-5.9229 5.5228 1.7392
-6.0623 5.2562 1.7392
-6.1942 4.9898 1.7392
-6.3186 4.7234 1.7392
-6.4358 4.4572 1.7392
-4.3324 2.7738 1.1511
-4.3528 2.5694 1.1385
-4.3726 2.3716 1.1273
-4.3918 2.1797 1.1174
-4.3318 1.9574 1.0888
-4.2911 1.7544 1.0667
-4.3739 1.6055 1.0764
-4.4641 1.4569 1.0886
-4.4814 1.2845 1.0840
-4.4984 1.1142 1.0802
-4.5153 0.9457 1.0774
-4.5320 0.7785 1.0754
-4.5486 0.6121 1.0743
-4.5652 0.4461 1.0741
-4.5818 0.2801 1.0747
-4.5985 0.1136 1.0762
-4.6152 -0.0538 1.0786
-4.6321 -0.2225 1.0818
-4.6492 -0.3930 1.0860
-4.6665 -0.5658 1.0911
-4.6840 -0.7415 1.0971
-4.6637 -0.9129 1.0953
-4.5661 -1.0673 1.0760
-4.5852 -1.2488 1.0852
-4.7582 -1.4833 1.1321
-4.7781 -1.6819 1.1438
-7.2142 -2.8373 1.7392
-7.1562 -3.1184 1.7392
-7.0914 -3.4009 1.7392
-7.0196 -3.6847 1.7392
-6.9407 -3.9699 1.7392
-6.8544 -4.2566 1.7392
-6.7605 -4.5449 1.7392
-6.6589 -4.8347 1.7392
-6.5493 -5.1261 1.7392
-6.4315 -5.4191 1.7392
-6.3052 -5.7138 1.7392
-6.1701 -6.0103 1.7392
-6.0260 -6.3084 1.7392
-5.8725 -6.6082 1.7392
-5.7093 -6.9098 1.7392
-5.5361 -7.2132 1.7392
-5.3524 -7.5182 1.7392
-5.1579 -7.8249 1.7392
21.0659 3.8655 1.6592
20.6719 4.5542 1.6592
20.2338 5.2142 1.6592
19.7555 5.8433 1.6592
19.2412 6.4393 1.6592
18.0819 6.7714 1.6048
17.5270 7.2802 1.6048
16.9491 7.7538 1.6048
16.3524 8.1920 1.6048
15.7404 8.5948 1.6048
15.1167 8.9623 1.6048
14.4846 9.2951 1.6048
3.3722 2.3364 0.3908
13.2014 9.8554 1.6041
12.5563 10.0845 1.6033
11.9155 10.2840 1.6028
11.2824 10.4564 1.6027
10.6619 10.6067 1.6035
10.0512 10.7332 1.6047
9.4583 10.8450 1.6074
8.8746 10.9340 1.6103
8.3056 11.0076 1.6143
7.7460 11.0597 1.6181
7.1983 11.0940 1.6223
6.6611 11.1089 1.6264
6.1343 11.1044 1.6302
5.6192 11.0826 1.6339
5.1120 11.0356 1.6361
4.6120 10.9594 1.6361
4.1270 10.8703 1.6361
3.6569 10.7691 1.6361
0.8624 2.8707 0.4407
0.7593 2.8970 0.4499
0.6554 2.9197 0.4592
0.5507 2.9389 0.4686
0.4455 2.9544 0.4779
0.3399 2.9664 0.4874
0.2340 2.9747 0.4968
0.1278 2.9793 0.5063
0.0215 2.9803 0.5158
-0.0847 2.9777 0.5252
-0.1908 2.9714 0.5347
-0.2966 2.9615 0.5441
-0.4021 2.9480 0.5535
-0.5070 2.9308 0.5629
-0.6114 2.9101 0.5722
-0.7150 2.8857 0.5814
-2.4083 8.4164 1.7392
-2.6672 8.1980 1.7392
-2.9158 7.9774 1.7392
-3.1544 7.7548 1.7392
-3.3831 7.5304 1.7392
-3.6025 7.3043 1.7392
-3.8126 7.0768 1.7392
-4.0139 6.8479 1.7392
-4.2064 6.6179 1.7392
-4.3905 6.3867 1.7392
-4.5663 6.1546 1.7392
-4.7341 5.9216 1.7392
-4.8941 5.6877 1.7392
-5.0465 5.4531 1.7392
-5.1915 5.2179 1.7392
-5.3292 4.9820 1.7392
-5.4598 4.7455 1.7392
-5.5835 4.5085 1.7392
-5.7004 4.2710 1.7392
-5.8106 4.0330 1.7392
-4.3318 2.7793 1.2739
-4.3523 2.5743 1.2592
-4.3722 2.3761 1.2461
-4.3914 2.1837 1.2344
-4.2101 1.9059 1.1686
-4.2043 1.7219 1.1536
-4.2802 1.5737 1.1623
-4.4639 1.4592 1.2008
-4.4812 1.2863 1.1953
-4.4983 1.1157 1.1909
-4.5151 0.9468 1.1876
-4.5319 0.7792 1.1852
-4.5486 0.6125 1.1839
-4.5652 0.4462 1.1837
-4.5819 0.2798 1.1844
-4.5986 0.1130 1.1861
-4.6153 -0.0547 1.1888
-4.6322 -0.2238 1.1926
-4.6493 -0.3947 1.1974
-4.6667 -0.5679 1.2033
-4.6843 -0.7440 1.2104
-4.5578 -0.8950 1.1812
-4.4778 -1.0497 1.1650
-4.4815 -1.2241 1.1715
-4.7587 -1.4877 1.2511
-4.7786 -1.6868 1.2647
-6.5210 -2.5717 1.7392
-6.4643 -2.8246 1.7392
-6.4012 -3.0783 1.7392
-6.3315 -3.3326 1.7392
-6.2551 -3.5877 1.7392
-6.1718 -3.8435 1.7392
-6.0815 -4.1000 1.7392
-5.9840 -4.3572 1.7392
-5.8792 -4.6151 1.7392
-5.7668 -4.8737 1.7392
-5.6466 -5.1328 1.7392
-5.5185 -5.3925 1.7392
-5.3822 -5.6528 1.7392
-5.2375 -5.9135 1.7392
-5.0841 -6.1746 1.7392
-4.9218 -6.4361 1.7392
-4.7503 -6.6978 1.7392
-4.5693 -6.9597 1.7392
16.2948 2.9808 1.6592
16.0328 3.5217 1.6592
15.7388 4.0443 1.6592
15.4152 4.5468 1.6592
15.0644 5.0277 1.6592
14.6887 5.4858 1.6592
13.8215 5.7256 1.6047
13.4148 6.1205 1.6044
12.9914 6.4908 1.6041
12.5522 6.8354 1.6037
12.1007 7.1546 1.6032
11.6408 7.4495 1.6028
3.3732 2.3305 0.4838
10.7048 7.9687 1.6029
10.2354 8.1966 1.6039
9.7635 8.4016 1.6049
9.2979 8.5909 1.6072
8.8317 8.7584 1.6095
8.3695 8.9085 1.6125
7.9102 9.0396 1.6157
7.4538 9.1516 1.6189
7.0018 9.2461 1.6224
6.5540 9.3223 1.6259
6.1106 9.3803 1.6292
5.6729 9.4214 1.6323
5.2437 9.4502 1.6361
4.8103 9.4425 1.6361
4.3861 9.4208 1.6361
3.9715 9.3859 1.6361
3.5667 9.3386 1.6361
0.8553 2.5024 0.4412
0.7653 2.5288 0.4492
0.6745 2.5521 0.4573
0.5829 2.5723 0.4655
0.4907 2.5892 0.4737
0.3981 2.6030 0.4820
0.3050 2.6136 0.4903
0.2116 2.6209 0.4987
0.1180 2.6251 0.5070
0.0244 2.6260 0.5153
-0.0692 2.6236 0.5237
-0.1627 2.6181 0.5320
-0.2560 2.6093 0.5403
-0.3489 2.5973 0.5486
-0.4414 2.5821 0.5569
-0.5333 2.5637 0.5651
-0.6246 2.5421 0.5732
-0.7151 2.5174 0.5812
-2.3752 7.3483 1.7392
-2.6021 7.1611 1.7392
-2.8205 6.9711 1.7392
-3.0305 6.7784 1.7392
-3.2323 6.5833 1.7392
-3.4262 6.3861 1.7392
-3.6122 6.1868 1.7392
-3.7905 5.9855 1.7392
-3.9614 5.7826 1.7392
-4.1250 5.5780 1.7392
-4.2813 5.3718 1.7392
-4.4307 5.1643 1.7392
-4.5731 4.9555 1.7392
-4.7088 4.7455 1.7392
-4.8379 4.5344 1.7392
-4.9604 4.3222 1.7392
-5.0766 4.1090 1.7392
-5.1865 3.8949 1.7392
-5.2901 3.6799 1.7392
-4.3313 2.7849 1.3982
-4.3519 2.5794 1.3813
-4.3717 2.3806 1.3663
-4.3910 2.1877 1.3529
-4.1547 1.8843 1.2635
-4.1560 1.7051 1.2490
-4.2298 1.5578 1.2575
-4.4010 1.4409 1.2958
-4.4810 1.2882 1.3079
-4.4981 1.1172 1.3029
-4.5150 0.9479 1.2990
-4.5318 0.7800 1.2964
-4.5486 0.6129 1.2949
-4.5652 0.4462 1.2945
-4.5819 0.2795 1.2953
-4.5986 0.1123 1.2972
-4.6154 -0.0557 1.3004
-4.6324 -0.2252 1.3047
-4.6495 -0.3965 1.3102
-4.6669 -0.5701 1.3169
-4.6845 -0.7465 1.3250
-4.5047 -0.8873 1.2783
-4.4292 -1.0415 1.2621
-4.4293 -1.2134 1.2687
-4.5907 -1.4392 1.3230
-4.7791 -1.6917 1.3872
-5.9430 -2.3503 1.7392
-5.8882 -2.5800 1.7392
-5.8272 -2.8100 1.7392
-5.7600 -3.0402 1.7392
-5.6865 -3.2707 1.7392
-5.6066 -3.5014 1.7392
-5.5202 -3.7323 1.7392
-5.4271 -3.9632 1.7392
-5.3271 -4.1942 1.7392
-5.2203 -4.4252 1.7392
-5.1063 -4.6561 1.7392
-4.9850 -4.8868 1.7392
-4.8563 -5.1173 1.7392
-4.7200 -5.3474 1.7392
-4.5760 -5.5771 1.7392
-4.4239 -5.8063 1.7392
-4.2636 -6.0347 1.7392
-4.0950 -6.2623 1.7392
13.2753 2.4208 1.6592
13.0839 2.8655 1.6592
12.8680 3.2972 1.6592
12.6290 3.7146 1.6592
12.3683 4.1166 1.6592
12.0876 4.5021 1.6592
11.7885 4.8702 1.6592
11.4726 5.2202 1.6592
11.1416 5.5515 1.6592
10.7972 5.8636 1.6592
10.1228 5.9687 1.6086
9.7423 6.2173 1.6044
3.3750 2.3252 0.5773
9.0282 6.7014 1.6076
8.6626 6.9168 1.6095
8.2945 7.1161 1.6118
7.9239 7.2988 1.6144
7.5503 7.4641 1.6171
7.1759 7.6131 1.6199
6.8009 7.7457 1.6229
6.4258 7.8619 1.6258
6.0512 7.9616 1.6286
5.6781 8.0456 1.6313
5.3074 8.1147 1.6341
4.9378 8.1660 1.6361
4.5667 8.1933 1.6361
4.2010 8.2074 1.6361
3.8414 8.2088 1.6361
3.4881 8.1983 1.6361
0.8481 2.2074 0.4417
0.7686 2.2339 0.4488
0.6883 2.2576 0.4560
0.6072 2.2785 0.4632
0.5254 2.2965 0.4705
0.4431 2.3118 0.4779
0.3604 2.3241 0.4853
0.2772 2.3336 0.4927
0.1938 2.3402 0.5001
0.1103 2.3439 0.5076
0.0267 2.3447 0.5150
-0.0569 2.3426 0.5225
-0.1404 2.3376 0.5299
-0.2237 2.3297 0.5373
-0.3067 2.3189 0.5447
-0.3893 2.3053 0.5521
-0.4713 2.2888 0.5594
-0.5528 2.2695 0.5667
-0.6336 2.2473 0.5739
-0.7136 2.2224 0.5810
-2.3446 6.4910 1.7392
-2.5457 6.3260 1.7392
-2.7395 6.1580 1.7392
-2.9262 5.9871 1.7392
-3.1058 5.8136 1.7392
-3.2785 5.6376 1.7392
-3.4444 5.4592 1.7392
-3.6036 5.2787 1.7392
-3.7562 5.0962 1.7392
-3.9024 4.9118 1.7392
-4.0421 4.7256 1.7392
-4.1756 4.5377 1.7392
-4.3029 4.3483 1.7392
-4.4241 4.1575 1.7392
-4.5393 3.9652 1.7392
-4.6486 3.7717 1.7392
-4.7521 3.5770 1.7392
-4.8498 3.3812 1.7392
-4.9418 3.1843 1.7392
-5.0282 2.9865 1.7392
-5.1091 2.7877 1.7392
-4.3906 2.1917 1.4729
-4.1365 1.8795 1.3692
-4.1360 1.7000 1.3524
-4.2100 1.5532 1.3615
-4.3860 1.4383 1.4044
-4.4808 1.2901 1.4220
-4.4980 1.1187 1.4163
-4.5149 0.9491 1.4119
-4.5318 0.7808 1.4089
-4.5485 0.6133 1.4072
-4.5652 0.4463 1.4068
-4.5819 0.2792 1.4076
-4.5987 0.1117 1.4098
-4.6156 -0.0568 1.4133
-4.6325 -0.2266 1.4182
-4.6497 -0.3982 1.4244
-4.6671 -0.5722 1.4320
-4.6848 -0.7491 1.4411
-4.4874 -0.8867 1.3852
-4.4106 -1.0402 1.3676
-4.4121 -1.2122 1.3756
-4.7596 -1.4964 1.4936
-4.7796 -1.6966 1.5112
-5.4534 -2.1627 1.7392
-5.4005 -2.3729 1.7392
-5.3418 -2.5831 1.7392
-5.2773 -2.7933 1.7392
-5.2069 -3.0033 1.7392
-5.1304 -3.2132 1.7392
-5.0479 -3.4228 1.7392
-4.9591 -3.6322 1.7392
-4.8641 -3.8411 1.7392
-4.7626 -4.0496 1.7392
-4.6545 -4.2575 1.7392
-4.5398 -4.4648 1.7392
-4.4183 -4.6712 1.7392
-4.2899 -4.8769 1.7392
-4.1544 -5.0815 1.7392
-4.0118 -5.2849 1.7392
-3.8617 -5.4871 1.7392
-3.7042 -5.6878 1.7392
11.1905 2.0343 1.6592
11.0422 2.4111 1.6592
10.8741 2.7782 1.6592
10.6871 3.1346 1.6592
10.4825 3.4793 1.6592
10.2612 3.8113 1.6592
10.0244 4.1301 1.6592
9.7733 4.4349 1.6592
9.5091 4.7251 1.6592
9.2330 5.0004 1.6592
8.9463 5.2604 1.6592
8.6501 5.5047 1.6592
3.3798 2.3219 0.6719
8.0340 5.9462 1.6592
7.7165 6.1432 1.6592
7.2794 6.2264 1.6335
6.9054 6.3410 1.6211
6.5937 6.4977 1.6235
6.2792 6.6399 1.6260
5.9624 6.7676 1.6284
5.6442 6.8813 1.6308
5.3256 6.9813 1.6331
5.0090 7.0704 1.6361
4.6847 7.1339 1.6361
4.3628 7.1846 1.6361
4.0440 7.2230 1.6361
3.7286 7.2497 1.6361
3.4171 7.2649 1.6361
0.8407 1.9650 0.4423
0.7698 1.9915 0.4486
0.6980 2.0155 0.4550
0.6256 2.0369 0.4615
0.5524 2.0558 0.4680
0.4786 2.0722 0.4746
0.4044 2.0860 0.4812
0.3297 2.0972 0.4879
0.2547 2.1057 0.4946
0.1794 2.1117 0.5013
0.1040 2.1151 0.5080
0.0285 2.1158 0.5148
-0.0469 2.1139 0.5215
-0.1223 2.1094 0.5282
-0.1974 2.1022 0.5349
-0.2723 2.0925 0.5416
-0.3468 2.0801 0.5482
-0.4209 2.0652 0.5548
-0.4944 2.0477 0.5614
-0.5673 2.0276 0.5679
-0.6395 2.0050 0.5743
-0.7109 1.9799 0.5806
-0.7814 1.9523 0.5869
-2.4951 5.6369 1.7392
-2.6686 5.4854 1.7392
-2.8357 5.3309 1.7392
-2.9967 5.1737 1.7392
-3.1516 5.0139 1.7392
-3.3004 4.8518 1.7392
-3.4433 4.6873 1.7392
-3.5802 4.5207 1.7392
-3.7114 4.3521 1.7392
-3.8368 4.1816 1.7392
-3.9565 4.0093 1.7392
-4.0706 3.8354 1.7392
-4.1791 3.6599 1.7392
-4.2822 3.4830 1.7392
-4.3798 3.3046 1.7392
-4.4720 3.1250 1.7392
-4.5590 2.9441 1.7392
-4.6406 2.7621 1.7392
-4.7170 2.5790 1.7392
-4.7882 2.3949 1.7392
-4.1616 1.8945 1.4910
-4.1467 1.7075 1.4673
-4.2237 1.5609 1.4777
-4.4653 1.4667 1.5464
-5.0677 1.4613 1.7392
-5.1084 1.2723 1.7392
-5.1442 1.0827 1.7392
-5.1750 0.8925 1.7392
-5.2007 0.7018 1.7392
-5.2215 0.5105 1.7392
-4.5820 0.2789 1.5215
-4.5988 0.1110 1.5240
-4.6157 -0.0578 1.5279
-4.6327 -0.2280 1.5333
-5.2507 -0.4517 1.7392
-5.2415 -0.6451 1.7392
-5.2272 -0.8386 1.7392
-4.5120 -0.8944 1.5068
-4.4256 -1.0469 1.4850
-4.4358 -1.2223 1.4970
-5.1186 -1.6140 1.7392
-5.0784 -1.8079 1.7392
-5.0329 -2.0016 1.7392
-4.9820 -2.1952 1.7392
-4.9256 -2.3886 1.7392
-4.8638 -2.5817 1.7392
-4.7964 -2.7745 1.7392
-4.7234 -2.9668 1.7392
-4.6446 -3.1586 1.7392
-4.5601 -3.3498 1.7392
-4.4697 -3.5404 1.7392
-4.3733 -3.7301 1.7392
-4.2709 -3.9190 1.7392
-4.1623 -4.1069 1.7392
-4.0475 -4.2936 1.7392
-3.9263 -4.4791 1.7392
-3.7988 -4.6633 1.7392
-3.6646 -4.8459 1.7392
-3.5239 -5.0268 1.7392
-3.3764 -5.2059 1.7392
9.6633 1.7511 1.6592
9.5435 2.0776 1.6592
9.4072 2.3965 1.6592
9.2552 2.7069 1.6592
9.0882 3.0080 1.6592
8.9071 3.2992 1.6592
8.7127 3.5798 1.6592
8.5058 3.8492 1.6592
8.2876 4.1068 1.6592
8.0587 4.3524 1.6592
7.8203 4.5854 1.6592
7.5732 4.8058 1.6592
3.3846 2.3185 0.7673
7.0566 5.2075 1.6592
6.7890 5.3887 1.6592
6.5162 5.5567 1.6592
6.2393 5.7116 1.6592
5.9590 5.8534 1.6592
5.6760 5.9823 1.6592
5.3912 6.0984 1.6592
5.1052 6.2021 1.6592
4.7516 6.2059 1.6361
4.4691 6.2841 1.6361
4.1873 6.3507 1.6361
3.9068 6.4062 1.6361
3.6279 6.4507 1.6361
3.3512 6.4846 1.6361
0.8329 1.7617 0.4429
0.7693 1.7881 0.4486
0.7048 1.8123 0.4543
0.6395 1.8341 0.4601
0.5735 1.8537 0.4660
0.5069 1.8710 0.4720
0.4398 1.8859 0.4780
0.3722 1.8985 0.4840
0.3042 1.9087 0.4901
0.2359 1.9166 0.4962
0.1674 1.9220 0.5023
0.0988 1.9251 0.5084
0.0301 1.9257 0.5145
-0.0386 1.9240 0.5207
-0.1072 1.9199 0.5268
-0.1756 1.9133 0.5329
-0.2438 1.9044 0.5389
-0.3116 1.8932 0.5450
-0.3790 1.8795 0.5510
-0.4459 1.8635 0.5570
-0.5123 1.8452 0.5629
-0.5780 1.8246 0.5687
-0.6429 1.8017 0.5745
-0.7070 1.7765 0.5802
-0.7703 1.7491 0.5858
-2.4486 5.0569 1.7392
-2.6047 4.9181 1.7392
-2.7553 4.7764 1.7392
-2.9004 4.6319 1.7392
-3.0399 4.4850 1.7392
-3.1740 4.3355 1.7392
-3.3028 4.1839 1.7392
-3.4262 4.0300 1.7392
-3.5443 3.8742 1.7392
-3.6571 3.7164 1.7392
-3.7648 3.5568 1.7392
-3.8672 3.3955 1.7392
-3.9646 3.2326 1.7392
-4.0569 3.0683 1.7392
-4.1441 2.9025 1.7392
-4.2263 2.7354 1.7392
-4.3036 2.5670 1.7392
-4.3759 2.3975 1.7392
-4.4434 2.2269 1.7392
-4.5060 2.0552 1.7392
-4.2137 1.7382 1.6058
-4.3068 1.5944 1.6225
-4.6646 1.5348 1.7392
-4.7079 1.3597 1.7392
-4.7464 1.1838 1.7392
-4.7802 1.0074 1.7392
-4.8091 0.8303 1.7392
-4.8334 0.6527 1.7392
-4.8528 0.4746 1.7392
-4.8675 0.2960 1.7392
-4.8775 0.1171 1.7392
-4.8826 -0.0622 1.7392
-4.8830 -0.2418 1.7392
-4.8786 -0.4216 1.7392
-4.8694 -0.6016 1.7392
-4.8553 -0.7817 1.7392
-4.8363 -0.9618 1.7392
-4.5064 -1.0694 1.6286
-4.7837 -1.3221 1.7392
-4.7500 -1.5021 1.7392
-4.7112 -1.6820 1.7392
-4.6674 -1.8616 1.7392
-4.6185 -2.0409 1.7392
-4.5645 -2.2198 1.7392
-4.5053 -2.3983 1.7392
-4.4408 -2.5763 1.7392
-4.3711 -2.7536 1.7392
-4.2960 -2.9302 1.7392
-4.2155 -3.1060 1.7392
-4.1294 -3.2809 1.7392
-4.0379 -3.4549 1.7392
-3.9407 -3.6277 1.7392
-3.8378 -3.7993 1.7392
-3.7292 -3.9695 1.7392
-3.6147 -4.1382 1.7392
-3.4944 -4.3053 1.7392
-3.3681 -4.4707 1.7392
-3.2357 -4.6341 1.7392
-3.0972 -4.7954 1.7392
8.4952 1.5345 1.6592
8.3955 1.8221 1.6592
8.2818 2.1035 1.6592
8.1545 2.3781 1.6592
8.0144 2.6452 1.6592
7.8620 2.9040 1.6592
7.6981 3.1542 1.6592
7.5233 3.3951 1.6592
7.3383 3.6263 1.6592
7.1439 3.8475 1.6592
6.9408 4.0582 1.6592
6.7297 4.2584 1.6592
3.3894 2.3151 0.8636
6.2868 4.6258 1.6592
5.7470 4.5479 1.5744
5.6569 4.8091 1.6124
5.5733 5.0858 1.6568
5.0867 4.9803 1.5810
5.0918 5.3486 1.6592
4.7758 5.3837 1.6361
4.5291 5.4825 1.6361
4.2811 5.5706 1.6361
4.0326 5.6482 1.6361
3.7840 5.7157 1.6361
3.5359 5.7731 1.6361
3.2885 5.8207 1.6361
0.8248 1.5882 0.4435
0.7673 1.6145 0.4487
0.7090 1.6388 0.4539
0.6499 1.6610 0.4591
0.5900 1.6811 0.4645
0.5296 1.6991 0.4699
0.4685 1.7149 0.4753
0.4070 1.7287 0.4808
0.3450 1.7402 0.4864
0.2827 1.7496 0.4919
0.2201 1.7568 0.4975
0.1573 1.7618 0.5031
0.0943 1.7646 0.5087
0.0314 1.7652 0.5143
-0.0316 1.7636 0.5200
-0.0945 1.7598 0.5256
-0.1572 1.7538 0.5312
-0.2197 1.7457 0.5367
-0.2819 1.7353 0.5423
-0.3437 1.7228 0.5478
-0.4050 1.7081 0.5532
-0.4658 1.6912 0.5587
-0.5260 1.6723 0.5640
-0.5855 1.6512 0.5693
-0.6443 1.6281 0.5745
-0.7023 1.6029 0.5797
-0.7593 1.5757 0.5848
-2.4047 4.5606 1.7392
-2.5460 4.4318 1.7392
-2.6823 4.3003 1.7392
-2.8135 4.1661 1.7392
-2.9398 4.0295 1.7392
-3.0611 3.8904 1.7392
-3.1775 3.7492 1.7392
-3.2889 3.6058 1.7392
-3.3955 3.4604 1.7392
-3.4973 3.3132 1.7392
-3.5943 3.1641 1.7392
-3.6864 3.0134 1.7392
-3.7738 2.8611 1.7392
-3.8565 2.7073 1.7392
-3.9344 2.5522 1.7392
-4.0077 2.3957 1.7392
-4.0763 2.2380 1.7392
-4.1403 2.0791 1.7392
-4.1996 1.9192 1.7392
-4.2543 1.7583 1.7392
-4.3045 1.5964 1.7392
-4.3501 1.4337 1.7392
-4.3911 1.2702 1.7392
-4.4275 1.1059 1.7392
-4.4594 0.9410 1.7392
-4.4868 0.7755 1.7392
-4.5096 0.6094 1.7392
-4.5279 0.4429 1.7392
-4.5416 0.2759 1.7392
-4.5508 0.1086 1.7392
-4.5554 -0.0591 1.7392
-4.5554 -0.2270 1.7392
-4.5508 -0.3950 1.7392
-4.5417 -0.5632 1.7392
-4.5279 -0.7315 1.7392
-4.5094 -0.8997 1.7392
-4.4863 -1.0679 1.7392
-4.4585 -1.2360 1.7392
-4.4260 -1.4039 1.7392
-4.3887 -1.5714 1.7392
-4.3466 -1.7387 1.7392
-4.2997 -1.9055 1.7392
-4.2479 -2.0719 1.7392
-4.1912 -2.2376 1.7392
-4.1296 -2.4027 1.7392
-4.0629 -2.5671 1.7392
-3.9913 -2.7306 1.7392
-3.9145 -2.8931 1.7392
-3.8326 -3.0546 1.7392
-3.7455 -3.2150 1.7392
-3.6532 -3.3741 1.7392
-3.5557 -3.5318 1.7392
-3.4527 -3.6879 1.7392
-3.3444 -3.8425 1.7392
-3.2307 -3.9952 1.7392
-3.1115 -4.1461 1.7392
-2.9867 -4.2948 1.7392
-2.8564 -4.4413 1.7392
7.5722 1.3633 1.6592
7.4873 1.6200 1.6592
7.3902 1.8715 1.6592
7.2814 2.1173 1.6592
7.1613 2.3568 1.6592
7.0304 2.5895 1.6592
6.8893 2.8148 1.6592
6.7385 3.0324 1.6592
6.5787 3.2418 1.6592
6.4103 3.4427 1.6592
6.2341 3.6347 1.6592
6.0506 3.8176 1.6592
3.3943 2.3117 0.9610
5.5893 4.1003 1.6372
5.4547 4.3036 1.6568
5.0143 4.2496 1.5828
5.0455 4.5895 1.6592
4.7640 4.6491 1.6361
4.5496 4.7629 1.6361
4.3327 4.8671 1.6361
4.1138 4.9618 1.6361
3.8934 5.0470 1.6361
3.6720 5.1230 1.6361
3.4501 5.1898 1.6361
0.8674 1.4101 0.4396
0.8162 1.4381 0.4442
0.7641 1.4642 0.4489
0.7111 1.4885 0.4536
0.6574 1.5109 0.4584
0.6028 1.5314 0.4633
0.5477 1.5500 0.4682
0.4919 1.5666 0.4732
0.4357 1.5813 0.4782
0.3789 1.5940 0.4833
0.3218 1.6047 0.4884
0.2643 1.6133 0.4935
0.2065 1.6200 0.4987
0.1486 1.6246 0.5038
0.0906 1.6272 0.5090
0.0325 1.6278 0.5142
-0.0256 1.6263 0.5194
-0.0836 1.6228 0.5245
-0.1415 1.6172 0.5297
-0.1991 1.6097 0.5348
-0.2564 1.6001 0.5399
-0.3134 1.5885 0.5450
-0.3700 1.5749 0.5501
-0.4260 1.5594 0.5550
-0.4815 1.5419 0.5600
-0.5364 1.5224 0.5649
-0.5906 1.5011 0.5697
-0.6440 1.4778 0.5744
-0.6966 1.4526 0.5791
-0.7483 1.4257 0.5837
-2.3626 4.1300 1.7392
-2.4910 4.0094 1.7392
-2.6147 3.8862 1.7392
-2.7339 3.7605 1.7392
-2.8485 3.6323 1.7392
-2.9585 3.5019 1.7392
-3.0639 3.3693 1.7392
-3.1648 3.2347 1.7392
-3.2612 3.0981 1.7392
-3.3531 2.9597 1.7392
-3.4405 2.8196 1.7392
-3.5234 2.6779 1.7392
-3.6019 2.5346 1.7392
-3.6759 2.3899 1.7392
-3.7455 2.2439 1.7392
-3.8106 2.0966 1.7392
-3.8714 1.9481 1.7392
-3.9278 1.7985 1.7392
-3.9798 1.6479 1.7392
-4.0275 1.4964 1.7392
-4.0707 1.3439 1.7392
-4.1097 1.1907 1.7392
-4.1442 1.0367 1.7392
-4.1745 0.8820 1.7392
-4.2004 0.7268 1.7392
-4.2219 0.5710 1.7392
-4.2391 0.4147 1.7392
-4.2520 0.2580 1.7392
-4.2605 0.1010 1.7392
-4.2646 -0.0563 1.7392
-4.2643 -0.2138 1.7392
-4.2597 -0.3715 1.7392
-4.2506 -0.5292 1.7392
-4.2372 -0.6870 1.7392
-4.2193 -0.8447 1.7392
-4.1969 -1.0022 1.7392
-4.1701 -1.1596 1.7392
-4.1387 -1.3167 1.7392
-4.1029 -1.4735 1.7392
-4.0624 -1.6298 1.7392
-4.0174 -1.7857 1.7392
-3.9677 -1.9409 1.7392
-3.9135 -2.0955 1.7392
-3.8545 -2.2494 1.7392
-3.7908 -2.4024 1.7392
-3.7224 -2.5544 1.7392
-3.6492 -2.7054 1.7392
-3.5712 -2.8553 1.7392
-3.4883 -3.0039 1.7392
-3.4005 -3.1511 1.7392
-3.3078 -3.2968 1.7392
-3.2101 -3.4409 1.7392
-3.1075 -3.5833 1.7392
-2.9998 -3.7237 1.7392
-2.8870 -3.8622 1.7392
-2.7692 -3.9985 1.7392
-2.6462 -4.1324 1.7392
6.8237 1.2245 1.6592
6.7501 1.4559 1.6592
6.6658 1.6830 1.6592
6.5711 1.9052 1.6592
6.4664 2.1220 1.6592
6.3522 2.3330 1.6592
6.2288 2.5377 1.6592
6.0967 2.7358 1.6592
5.9565 2.9268 1.6592
5.5118 2.9516 1.5744
5.5033 3.1994 1.6151
5.4836 3.4498 1.6568
3.3992 2.3082 1.0594
3.3796 2.4718 1.0888
4.9711 3.9100 1.6592
4.7212 3.9886 1.6361
4.5363 4.1131 1.6361
4.3479 4.2290 1.6361
4.1564 4.3365 1.6361
3.9623 4.4354 1.6361
3.7660 4.5258 1.6361
3.5681 4.6077 1.6361
3.3688 4.6813 1.6361
0.8537 1.2789 0.4408
0.8072 1.3065 0.4450
0.7598 1.3325 0.4492
0.7115 1.3567 0.4535
0.6624 1.3793 0.4579
0.6126 1.4001 0.4624
0.5621 1.4192 0.4669
0.5110 1.4364 0.4714
0.4593 1.4518 0.4760
0.4072 1.4655 0.4807
0.3546 1.4772 0.4854
0.3016 1.4872 0.4901
0.2483 1.4952 0.4949
0.1948 1.5014 0.4997
0.1411 1.5057 0.5044
0.0873 1.5081 0.5092
0.0334 1.5086 0.5141
-0.0204 1.5072 0.5189
-0.0742 1.5040 0.5236
-0.1278 1.4988 0.5284
-0.1812 1.4918 0.5332
-0.2344 1.4829 0.5379
-0.2872 1.4722 0.5426
-0.3396 1.4596 0.5473
-0.3916 1.4451 0.5519
-0.4430 1.4289 0.5565
-0.4938 1.4108 0.5610
-0.5441 1.3909 0.5655
-0.5935 1.3693 0.5699
-0.6423 1.3460 0.5742
-0.6902 1.3210 0.5785
-0.7372 1.2942 0.5827
-0.7833 1.2659 0.5868
-2.4386 3.6382 1.7392
-2.5513 3.5219 1.7392
-2.6598 3.4032 1.7392
-2.7640 3.2822 1.7392
-2.8639 3.1591 1.7392
-2.9596 3.0338 1.7392
-3.0511 2.9067 1.7392
-3.1383 2.7777 1.7392
-3.2213 2.6469 1.7392
-3.3001 2.5145 1.7392
-3.3747 2.3805 1.7392
-3.4451 2.2451 1.7392
-3.5113 2.1083 1.7392
-3.5733 1.9703 1.7392
-3.6311 1.8310 1.7392
-3.6848 1.6906 1.7392
-3.7343 1.5492 1.7392
-3.7796 1.4069 1.7392
-3.8208 1.2636 1.7392
-3.8578 1.1195 1.7392
-3.8906 0.9747 1.7392
-3.9194 0.8292 1.7392
-3.9439 0.6831 1.7392
-3.9643 0.5365 1.7392
-3.9806 0.3895 1.7392
-3.9926 0.2420 1.7392
-4.0005 0.0942 1.7392
-4.0043 -0.0538 1.7392
-4.0038 -0.2020 1.7392
-3.9991 -0.3504 1.7392
-3.9902 -0.4988 1.7392
-3.9771 -0.6471 1.7392
-3.9597 -0.7954 1.7392
-3.9381 -0.9435 1.7392
-3.9122 -1.0913 1.7392
-3.8821 -1.2388 1.7392
-3.8476 -1.3860 1.7392
-3.8087 -1.5326 1.7392
-3.7655 -1.6787 1.7392
-3.7179 -1.8242 1.7392
-3.6659 -1.9689 1.7392
-3.6095 -2.1128 1.7392
-3.5486 -2.2557 1.7392
-3.4832 -2.3977 1.7392
-3.4133 -2.5385 1.7392
-3.3389 -2.6782 1.7392
-3.2599 -2.8164 1.7392
-3.1763 -2.9533 1.7392
-3.0882 -3.0886 1.7392
-2.9953 -3.2222 1.7392
-2.8979 -3.3540 1.7392
-2.7957 -3.4838 1.7392
-2.6889 -3.6116 1.7392
-2.5774 -3.7371 1.7392
-2.4611 -3.8603 1.7392
6.2039 1.1096 1.6592
6.1392 1.3200 1.6592
6.0650 1.5266 1.6592
5.9815 1.7291 1.6592
5.8891 1.9269 1.6592
5.4923 2.0113 1.5744
5.4110 2.1982 1.5810
5.4299 2.4296 1.6199
5.4292 2.6601 1.6568
5.2978 2.8288 1.6568
4.9032 2.8422 1.5744
4.9013 3.0743 1.6190
3.4042 2.3046 1.1591
3.3717 2.4585 1.1858
4.4938 3.5236 1.6361
4.3315 3.6478 1.6361
4.1654 3.7645 1.6361
3.9957 3.8736 1.6361
3.8230 3.9750 1.6361
3.6478 4.0688 1.6361
3.4702 4.1549 1.6361
3.2909 4.2335 1.6361
0.8401 1.1628 0.4420
0.7978 1.1901 0.4457
0.7545 1.2158 0.4496
0.7104 1.2400 0.4536
0.6655 1.2626 0.4576
0.6198 1.2837 0.4617
0.5734 1.3031 0.4658
0.5264 1.3208 0.4700
0.4789 1.3369 0.4743
0.4308 1.3513 0.4785
0.3822 1.3640 0.4829
0.3332 1.3750 0.4873
0.2839 1.3842 0.4917
0.2343 1.3917 0.4961
0.1845 1.3975 0.5005
0.1345 1.4015 0.5050
0.0844 1.4037 0.5095
0.0343 1.4042 0.5139
-0.0159 1.4029 0.5184
-0.0659 1.3999 0.5229
-0.1158 1.3951 0.5273
-0.1656 1.3886 0.5317
-0.2151 1.3803 0.5362
-0.2642 1.3702 0.5405
-0.3130 1.3585 0.5449
-0.3614 1.3450 0.5492
-0.4092 1.3299 0.5534
-0.4566 1.3130 0.5577
-0.5033 1.2945 0.5618
-0.5494 1.2744 0.5659
-0.5947 1.2526 0.5700
-0.6393 1.2293 0.5739
-0.6830 1.2044 0.5778
-0.7259 1.1779 0.5816
-0.7678 1.1500 0.5853
-2.3882 3.3088 1.7392
-2.4910 3.1984 1.7392
-2.5899 3.0857 1.7392
-2.6848 2.9708 1.7392
-2.7757 2.8539 1.7392
-2.8627 2.7350 1.7392
-2.9456 2.6143 1.7392
-3.0246 2.4919 1.7392
-3.0996 2.3677 1.7392
-3.1706 2.2421 1.7392
-3.2376 2.1149 1.7392
-3.3007 1.9864 1.7392
-3.3598 1.8566 1.7392
-3.4149 1.7256 1.7392
-3.4660 1.5935 1.7392
-3.5132 1.4604 1.7392
-3.5563 1.3262 1.7392
-3.5956 1.1912 1.7392
-3.6308 1.0554 1.7392
-3.6621 0.9188 1.7392
-3.6894 0.7816 1.7392
-3.7127 0.6438 1.7392
-3.7321 0.5055 1.7392
-3.7474 0.3667 1.7392
-3.7588 0.2276 1.7392
-3.7662 0.0881 1.7392
-3.7696 -0.0516 1.7392
-3.7689 -0.1914 1.7392
-3.7643 -0.3314 1.7392
-3.7556 -0.4713 1.7392
-3.7428 -0.6112 1.7392
-3.7260 -0.7510 1.7392
-3.7051 -0.8906 1.7392
-3.6802 -1.0298 1.7392
-3.6511 -1.1688 1.7392
-3.6179 -1.3073 1.7392
-3.5806 -1.4452 1.7392
-3.5391 -1.5826 1.7392
-3.4935 -1.7193 1.7392
-3.4436 -1.8551 1.7392
-3.3896 -1.9902 1.7392
-3.3313 -2.1242 1.7392
-3.2688 -2.2572 1.7392
-3.2020 -2.3890 1.7392
-3.1310 -2.5196 1.7392
-3.0556 -2.6488 1.7392
-2.9760 -2.7765 1.7392
-2.8920 -2.9026 1.7392
-2.8036 -3.0270 1.7392
-2.7110 -3.1495 1.7392
-2.6140 -3.2700 1.7392
-2.5126 -3.3885 1.7392
-2.4068 -3.5047 1.7392
-2.2967 -3.6185 1.7392
5.3915 0.9610 1.5744
5.3369 1.1438 1.5744
5.3256 1.3363 1.5897
5.3450 1.5404 1.6172
5.3647 1.7501 1.6480
5.3032 1.9364 1.6568
5.2056 2.1086 1.6568
4.8472 2.1625 1.5744
4.8332 2.3612 1.6050
4.8546 2.5845 1.6511
4.6873 2.7090 1.6359
4.5592 2.8511 1.6359
3.4093 2.3011 1.2602
3.3637 2.4451 1.2835
4.1447 3.2396 1.6359
3.9982 3.3562 1.6361
3.8476 3.4658 1.6361
3.6936 3.5685 1.6361
3.5367 3.6644 1.6361
3.3772 3.7534 1.6361
0.8642 1.0309 0.4398
0.8265 1.0591 0.4431
0.7879 1.0860 0.4466
0.7483 1.1116 0.4501
0.7079 1.1357 0.4537
0.6667 1.1583 0.4574
0.6248 1.1795 0.4612
0.5821 1.1991 0.4650
0.5388 1.2173 0.4689
0.4949 1.2339 0.4728
0.4504 1.2489 0.4767
0.4055 1.2624 0.4808
0.3601 1.2743 0.4848
0.3144 1.2846 0.4889
0.2683 1.2932 0.4930
0.2220 1.3002 0.4971
0.1754 1.3056 0.5013
0.1287 1.3094 0.5055
0.0819 1.3115 0.5096
0.0350 1.3119 0.5138
-0.0118 1.3107 0.5180
-0.0586 1.3079 0.5222
-0.1053 1.3034 0.5263
-0.1517 1.2973 0.5305
-0.1980 1.2895 0.5346
-0.2439 1.2801 0.5387
-0.2895 1.2691 0.5427
-0.3347 1.2565 0.5468
-0.3794 1.2423 0.5507
-0.4236 1.2266 0.5547
-0.4673 1.2093 0.5586
-0.5103 1.1904 0.5624
-0.5526 1.1701 0.5662
-0.5943 1.1482 0.5699
-0.6351 1.1249 0.5735
-0.6752 1.1002 0.5771
-0.7143 1.0741 0.5805
-0.7525 1.0465 0.5839
-0.7898 1.0177 0.5872
-2.4331 2.9086 1.7392
-2.5233 2.8011 1.7392
-2.6099 2.6916 1.7392
-2.6926 2.5801 1.7392
-2.7716 2.4668 1.7392
-2.8469 2.3518 1.7392
-2.9183 2.2351 1.7392
-2.9860 2.1169 1.7392
-3.0500 1.9972 1.7392
-3.1101 1.8761 1.7392
-3.1665 1.7537 1.7392
-3.2190 1.6302 1.7392
-3.2678 1.5055 1.7392
-3.3128 1.3798 1.7392
-3.3540 1.2532 1.7392
-3.3914 1.1256 1.7392
-3.4251 0.9973 1.7392
-3.4548 0.8682 1.7392
-3.4809 0.7385 1.7392
-3.5031 0.6082 1.7392
-3.5215 0.4773 1.7392
-3.5360 0.3461 1.7392
-3.5468 0.2145 1.7392
-3.5537 0.0826 1.7392
-3.5567 -0.0495 1.7392
-3.5560 -0.1818 1.7392
-3.5513 -0.3141 1.7392
-3.5428 -0.4464 1.7392
-3.5304 -0.5787 1.7392
-3.5142 -0.7108 1.7392
-3.4940 -0.8426 1.7392
-3.4700 -0.9742 1.7392
-3.4420 -1.1053 1.7392
-3.4100 -1.2360 1.7392
-3.3742 -1.3661 1.7392
-3.3343 -1.4956 1.7392
-3.2905 -1.6244 1.7392
-3.2427 -1.7524 1.7392
-3.1910 -1.8794 1.7392
-3.1352 -2.0055 1.7392
-3.0753 -2.1305 1.7392
-3.0115 -2.2542 1.7392
-2.9436 -2.3767 1.7392
-2.8716 -2.4978 1.7392
-2.7956 -2.6174 1.7392
-2.7155 -2.7353 1.7392
-2.6313 -2.8515 1.7392
-2.5431 -2.9658 1.7392
-2.4508 -3.0782 1.7392
-2.3544 -3.1884 1.7392
-2.2540 -3.2965 1.7392
-2.1495 -3.4021 1.7392
5.2280 0.9287 1.6568
5.1764 1.1058 1.6568
5.1171 1.2800 1.6568
4.7991 1.3788 1.5744
4.7556 1.5467 1.5834
4.7738 1.7379 1.6159
4.7926 1.9355 1.6520
4.6526 2.0695 1.6359
4.5529 2.2176 1.6359
4.4473 2.3607 1.6359
4.3362 2.4985 1.6359
4.2199 2.6310 1.6359
3.4145 2.2974 1.3628
3.3557 2.4317 1.3818
3.8429 2.9942 1.6359
3.7091 3.1034 1.6359
3.5716 3.2065 1.6359
3.4310 3.3034 1.6359
3.2877 3.3944 1.6361
0.8472 0.9382 0.4412
0.8129 0.9659 0.4443
0.7776 0.9925 0.4475
0.7414 1.0177 0.4507
0.7043 1.0416 0.4540
0.6664 1.0642 0.4574
0.6278 1.0855 0.4609
0.5885 1.1053 0.4644
0.5485 1.1238 0.4679
0.5079 1.1408 0.4716
0.4668 1.1564 0.4753
0.4251 1.1705 0.4790
0.3830 1.1832 0.4827
0.3405 1.1943 0.4865
0.2976 1.2040 0.4904
0.2544 1.2121 0.4942
0.2109 1.2187 0.4981
0.1673 1.2238 0.5020
0.1235 1.2273 0.5059
0.0796 1.2292 0.5098
0.0357 1.2297 0.5137
-0.0082 1.2285 0.5176
-0.0521 1.2259 0.5216
-0.0958 1.2217 0.5254
-0.1394 1.2159 0.5293
-0.1827 1.2086 0.5332
-0.2258 1.1998 0.5370
-0.2685 1.1895 0.5408
-0.3109 1.1777 0.5446
-0.3528 1.1644 0.5483
-0.3942 1.1496 0.5520
-0.4351 1.1333 0.5557
-0.4755 1.1156 0.5593
-0.5152 1.0965 0.5628
-0.5542 1.0760 0.5663
-0.5925 1.0542 0.5697
-0.6300 1.0310 0.5730
-0.6666 1.0064 0.5763
-0.7025 0.9806 0.5794
-0.7374 0.9535 0.5825
-0.7713 0.9252 0.5856
-2.3768 2.6471 1.7392
-2.4593 2.5442 1.7392
-2.5382 2.4394 1.7392
-2.6135 2.3328 1.7392
-2.6853 2.2244 1.7392
-2.7535 2.1145 1.7392
-2.8181 2.0030 1.7392
-2.8792 1.8900 1.7392
-2.9366 1.7757 1.7392
-2.9904 1.6601 1.7392
-3.0407 1.5433 1.7392
-3.0873 1.4254 1.7392
-3.1302 1.3065 1.7392
-3.1696 1.1866 1.7392
-3.2053 1.0658 1.7392
-3.2374 0.9443 1.7392
-3.2659 0.8220 1.7392
-3.2907 0.6991 1.7392
-3.3119 0.5756 1.7392
-3.3294 0.4517 1.7392
-3.3432 0.3273 1.7392
-3.3534 0.2025 1.7392
-3.3599 0.0775 1.7392
-3.3627 -0.0477 1.7392
-3.3618 -0.1730 1.7392
-3.3572 -0.2984 1.7392
-3.3489 -0.4238 1.7392
-3.3369 -0.5490 1.7392
-3.3212 -0.6741 1.7392
-3.3017 -0.7989 1.7392
-3.2785 -0.9235 1.7392
-3.2515 -1.0475 1.7392
-3.2208 -1.1711 1.7392
-3.1863 -1.2942 1.7392
-3.1481 -1.4165 1.7392
-3.1060 -1.5382 1.7392
-3.0601 -1.6590 1.7392
-3.0105 -1.7788 1.7392
-2.9570 -1.8977 1.7392
-2.8997 -2.0154 1.7392
-2.8386 -2.1319 1.7392
-2.7736 -2.2471 1.7392
-2.7048 -2.3609 1.7392
-2.6322 -2.4732 1.7392
-2.5558 -2.5839 1.7392
-2.4755 -2.6928 1.7392
-2.3914 -2.7998 1.7392
-2.3034 -2.9049 1.7392
-2.2117 -3.0079 1.7392
-2.1161 -3.1086 1.7392
-2.0168 -3.2070 1.7392
4.6871 0.8297 1.6037
4.7035 1.0014 1.6249
4.7202 1.1769 1.6492
4.6881 1.3427 1.6592
4.5559 1.4772 1.6359
4.4830 1.6271 1.6359
4.4039 1.7732 1.6359
4.3188 1.9153 1.6359
4.2280 2.0531 1.6359
4.1317 2.1865 1.6359
4.0304 2.3152 1.6359
3.9241 2.4390 1.6359
3.4197 2.2937 1.4671
3.3476 2.4181 1.4809
3.5791 2.7795 1.6359
3.4563 2.8823 1.6359
3.3301 2.9795 1.6359
0.8608 0.8259 0.4400
0.8304 0.8543 0.4427
0.7991 0.8815 0.4455
0.7668 0.9077 0.4484
0.7336 0.9326 0.4514
0.6996 0.9563 0.4544
0.6648 0.9789 0.4575
0.6292 1.0001 0.4607
0.5929 1.0201 0.4639
0.5560 1.0388 0.4672
0.5184 1.0562 0.4706
0.4802 1.0722 0.4740
0.4416 1.0869 0.4775
0.4024 1.1002 0.4810
0.3628 1.1121 0.4845
0.3228 1.1226 0.4881
0.2825 1.1316 0.4917
0.2419 1.1393 0.4953
0.2011 1.1455 0.4989
0.1600 1.1502 0.5026
0.1188 1.1536 0.5063
0.0776 1.1554 0.5100
0.0363 1.1558 0.5136
-0.0050 1.1548 0.5173
-0.0462 1.1522 0.5210
-0.0874 1.1483 0.5247
-0.1283 1.1429 0.5283
-0.1690 1.1360 0.5319
-0.2095 1.1277 0.5355
-0.2497 1.1180 0.5391
-0.2895 1.1069 0.5427
-0.3289 1.0943 0.5462
-0.3679 1.0804 0.5496
-0.4063 1.0651 0.5531
-0.4442 1.0485 0.5564
-0.4815 1.0305 0.5598
-0.5182 1.0112 0.5630
-0.5542 0.9907 0.5662
-0.5894 0.9688 0.5694
-0.6239 0.9458 0.5724
-0.6575 0.9215 0.5754
-0.6903 0.8960 0.5783
-0.7222 0.8693 0.5812
-0.7531 0.8416 0.5839
-0.7831 0.8127 0.5866
-2.3972 2.3110 1.7392
-2.4691 2.2104 1.7392
-2.5377 2.1081 1.7392
-2.6029 2.0042 1.7392
-2.6646 1.8988 1.7392
-2.7230 1.7920 1.7392
-2.7779 1.6838 1.7392
-2.8294 1.5743 1.7392
-2.8774 1.4637 1.7392
-2.9220 1.3520 1.7392
-2.9630 1.2392 1.7392
-3.0007 1.1256 1.7392
-3.0349 1.0110 1.7392
-3.0655 0.8957 1.7392
-3.0927 0.7797 1.7392
-3.1164 0.6630 1.7392
-3.1366 0.5458 1.7392
-3.1533 0.4281 1.7392
-3.1664 0.3100 1.7392
-3.1761 0.1916 1.7392
-3.1822 0.0729 1.7392
-3.1848 -0.0460 1.7392
-3.1838 -0.1650 1.7392
-3.1793 -0.2840 1.7392
-3.1712 -0.4030 1.7392
-3.1596 -0.5219 1.7392
-3.1444 -0.6405 1.7392
-3.1256 -0.7590 1.7392
-3.1032 -0.8770 1.7392
-3.0772 -0.9947 1.7392
-3.0477 -1.1118 1.7392
-3.0145 -1.2283 1.7392
-2.9777 -1.3442 1.7392
-2.9373 -1.4593 1.7392
-2.8933 -1.5736 1.7392
-2.8456 -1.6869 1.7392
-2.7944 -1.7992 1.7392
-2.7394 -1.9104 1.7392
-2.6809 -2.0204 1.7392
-2.6187 -2.1290 1.7392
-2.5529 -2.2362 1.7392
-2.4834 -2.3419 1.7392
-2.4104 -2.4460 1.7392
-2.3337 -2.5484 1.7392
-2.2534 -2.6489 1.7392
-2.1695 -2.7474 1.7392
-2.0821 -2.8439 1.7392
-1.9910 -2.9382 1.7392
-1.8965 -3.0301 1.7392
4.4484 0.7846 1.6359
4.4065 0.9350 1.6359
4.3581 1.0831 1.6359
4.3035 1.2287 1.6359
4.2427 1.3714 1.6359
4.1760 1.5110 1.6359
4.1036 1.6472 1.6359
4.0257 1.7798 1.6359
3.9425 1.9086 1.6359
3.8543 2.0334 1.6359
3.7612 2.1539 1.6359
3.6636 2.2699 1.6359
3.4250 2.2900 1.5731
3.3413 2.4057 1.5817
3.3461 2.5900 1.6359
0.8681 0.7215 0.4393
0.8414 0.7502 0.4417
0.8137 0.7780 0.4441
0.7851 0.8047 0.4467
0.7556 0.8304 0.4494
0.7251 0.8550 0.4521
0.6939 0.8785 0.4549
0.6619 0.9009 0.4577
0.6291 0.9222 0.4607
0.5956 0.9422 0.4637
0.5614 0.9611 0.4667
0.5265 0.9787 0.4698
0.4911 0.9951 0.4730
0.4552 1.0102 0.4762
0.4188 1.0241 0.4795
0.3819 1.0366 0.4828
0.3445 1.0478 0.4861
0.3069 1.0577 0.4895
0.2689 1.0663 0.4929
0.2306 1.0735 0.4963
0.1921 1.0793 0.4997
0.1534 1.0838 0.5032
0.1146 1.0870 0.5066
0.0758 1.0887 0.5101
0.0368 1.0891 0.5136
-0.0021 1.0881 0.5170
-0.0409 1.0857 0.5205
-0.0797 1.0820 0.5240
-0.1183 1.0769 0.5274
-0.1567 1.0704 0.5308
-0.1948 1.0626 0.5342
-0.2327 1.0534 0.5376
-0.2702 1.0429 0.5409
-0.3073 1.0311 0.5442
-0.3441 1.0180 0.5475
-0.3803 1.0035 0.5507
-0.4160 0.9878 0.5539
-0.4511 0.9709 0.5570
-0.4857 0.9527 0.5601
-0.5196 0.9333 0.5631
-0.5528 0.9127 0.5661
-0.5852 0.8909 0.5689
-0.6169 0.8680 0.5718
-0.6478 0.8440 0.5745
-0.6778 0.8189 0.5772
-0.7070 0.7927 0.5798
-0.7352 0.7655 0.5823
-0.7624 0.7373 0.5847
-0.7887 0.7081 0.5870
-2.4022 2.0013 1.7392
-2.4645 1.9030 1.7392
-2.5236 1.8031 1.7392
-2.5794 1.7019 1.7392
-2.6320 1.5993 1.7392
-2.6812 1.4955 1.7392
-2.7272 1.3905 1.7392
-2.7698 1.2845 1.7392
-2.8092 1.1774 1.7392
-2.8452 1.0694 1.7392
-2.8779 0.9606 1.7392
-2.9073 0.8510 1.7392
-2.9333 0.7407 1.7392
-2.9559 0.6298 1.7392
-2.9752 0.5184 1.7392
-2.9911 0.4065 1.7392
-3.0037 0.2942 1.7392
-3.0128 0.1815 1.7392
-3.0186 0.0686 1.7392
-3.0210 -0.0444 1.7392
-3.0200 -0.1576 1.7392
-3.0155 -0.2707 1.7392
-3.0077 -0.3839 1.7392
-2.9964 -0.4969 1.7392
-2.9817 -0.6096 1.7392
-2.9635 -0.7222 1.7392
-2.9420 -0.8343 1.7392
-2.9169 -0.9460 1.7392
-2.8885 -1.0572 1.7392
-2.8565 -1.1678 1.7392
-2.8212 -1.2777 1.7392
-2.7823 -1.3869 1.7392
-2.7400 -1.4952 1.7392
-2.6943 -1.6026 1.7392
-2.6451 -1.7089 1.7392
-2.5924 -1.8141 1.7392
-2.5363 -1.9181 1.7392
-2.4767 -2.0207 1.7392
-2.4137 -2.1220 1.7392
-2.3472 -2.2218 1.7392
-2.2773 -2.3199 1.7392
-2.2040 -2.4163 1.7392
-2.1273 -2.5109 1.7392
-2.0472 -2.6036 1.7392
-1.9637 -2.6942 1.7392
-1.8769 -2.7827 1.7392
-1.7868 -2.8689 1.7392
4.1543 0.7301 1.6359
4.1159 0.8703 1.6359
4.0716 1.0085 1.6359
4.0214 1.1444 1.6359
3.9657 1.2777 1.6359
3.9044 1.4082 1.6359
3.8378 1.5357 1.6359
3.7661 1.6599 1.6359
3.6895 1.7806 1.6359
3.6082 1.8976 1.6359
3.5223 2.0107 1.6359
3.4323 2.1198 1.6359
3.3382 2.2247 1.6359
0.8697 0.6241 0.4391
0.8465 0.6530 0.4412
0.8222 0.6810 0.4433
0.7970 0.7082 0.4456
0.7709 0.7344 0.4479
0.7439 0.7596 0.4504
0.7160 0.7839 0.4529
0.6873 0.8072 0.4554
0.6578 0.8294 0.4581
0.6276 0.8506 0.4608
0.5966 0.8707 0.4635
0.5650 0.8896 0.4664
0.5327 0.9074 0.4693
0.4998 0.9241 0.4722
0.4664 0.9396 0.4752
0.4325 0.9539 0.4782
0.3980 0.9670 0.4813
0.3632 0.9788 0.4844
0.3280 0.9894 0.4876
0.2924 0.9988 0.4907
0.2565 1.0069 0.4939
0.2203 1.0137 0.4972
0.1840 1.0192 0.5004
0.1475 1.0235 0.5037
0.1108 1.0264 0.5069
0.0741 1.0281 0.5102
0.0373 1.0284 0.5135
0.0006 1.0275 0.5168
-0.0361 1.0252 0.5200
-0.0727 1.0217 0.5233
-0.1092 1.0169 0.5266
-0.1455 1.0108 0.5298
-0.1815 1.0034 0.5330
-0.2173 0.9947 0.5362
-0.2527 0.9848 0.5393
-0.2878 0.9736 0.5425
-0.3224 0.9612 0.5455
-0.3566 0.9476 0.5486
-0.3903 0.9327 0.5516
-0.4235 0.9167 0.5545
-0.4561 0.8995 0.5574
-0.4882 0.8812 0.5603
-0.5195 0.8617 0.5631
-0.5501 0.8411 0.5658
-0.5801 0.8195 0.5685
-0.6092 0.7968 0.5710
-0.6375 0.7730 0.5736
-0.6650 0.7483 0.5760
-0.6916 0.7226 0.5784
-0.7173 0.6960 0.5806
-0.7421 0.6684 0.5828
-0.7659 0.6400 0.5849
-0.7887 0.6107 0.5870
-2.3934 1.7148 1.7392
-2.4469 1.6187 1.7392
-2.4972 1.5213 1.7392
-2.5444 1.4227 1.7392
-2.5884 1.3229 1.7392
-2.6293 1.2221 1.7392
-2.6670 1.1203 1.7392
-2.7015 1.0175 1.7392
-2.7329 0.9140 1.7392
-2.7610 0.8097 1.7392
-2.7859 0.7047 1.7392
-2.8075 0.5991 1.7392
-2.8260 0.4930 1.7392
-2.8412 0.3864 1.7392
-2.8532 0.2795 1.7392
-2.8619 0.1722 1.7392
-2.8673 0.0647 1.7392
-2.8695 -0.0430 1.7392
-2.8684 -0.1507 1.7392
-2.8641 -0.2585 1.7392
-2.8565 -0.3662 1.7392
-2.8455 -0.4737 1.7392
-2.8313 -0.5811 1.7392
-2.8138 -0.6882 1.7392
-2.7930 -0.7949 1.7392
-2.7689 -0.9011 1.7392
-2.7415 -1.0068 1.7392
-2.7107 -1.1120 1.7392
-2.6767 -1.2164 1.7392
-2.6394 -1.3201 1.7392
-2.5987 -1.4229 1.7392
-2.5548 -1.5248 1.7392
-2.5075 -1.6256 1.7392
-2.4570 -1.7253 1.7392
-2.4031 -1.8238 1.7392
-2.3460 -1.9211 1.7392
-2.2856 -2.0169 1.7392
-2.2219 -2.1112 1.7392
-2.1550 -2.2039 1.7392
-2.0848 -2.2950 1.7392
-2.0115 -2.3842 1.7392
-1.9349 -2.4715 1.7392
-1.8551 -2.5569 1.7392
-1.7723 -2.6401 1.7392
-1.6863 -2.7211 1.7392
3.8925 0.6816 1.6359
3.8572 0.8127 1.6359
3.8163 0.9421 1.6359
3.7701 1.0693 1.6359
3.7187 1.1943 1.6359
3.6621 1.3166 1.6359
3.6006 1.4362 1.6359
3.5343 1.5527 1.6359
3.4634 1.6661 1.6359
3.3882 1.7762 1.6359
3.3087 1.8826 1.6359
0.8662 0.5332 0.4394
0.8462 0.5621 0.4412
0.8252 0.5902 0.4430
0.8032 0.6175 0.4450
0.7803 0.6441 0.4471
0.7565 0.6697 0.4492
0.7318 0.6946 0.4514
0.7063 0.7185 0.4537
0.6799 0.7415 0.4561
0.6528 0.7635 0.4585
0.6249 0.7846 0.4610
0.5963 0.8046 0.4635
0.5670 0.8236 0.4662
0.5371 0.8415 0.4688
0.5065 0.8584 0.4716
0.4754 0.8742 0.4744
0.4438 0.8889 0.4772
0.4117 0.9024 0.4801
0.3791 0.9148 0.4830
0.3461 0.9260 0.4859
0.3128 0.9361 0.4889
0.2791 0.9449 0.4919
0.2452 0.9526 0.4949
0.2110 0.9590 0.4980
0.1766 0.9643 0.5010
0.1420 0.9683 0.5041
0.1073 0.9711 0.5072
0.0725 0.9727 0.5103
0.0378 0.9730 0.5134
0.0030 0.9721 0.5165
-0.0318 0.9700 0.5196
-0.0664 0.9666 0.5227
-0.1009 0.9621 0.5258
-0.1352 0.9563 0.5288
-0.1693 0.9493 0.5319
-0.2031 0.9411 0.5349
-0.2367 0.9317 0.5379
-0.2698 0.9211 0.5408
-0.3026 0.9093 0.5438
-0.3350 0.8964 0.5466
-0.3669 0.8824 0.5495
-0.3983 0.8672 0.5523
-0.4292 0.8509 0.5550
-0.4594 0.8335 0.5577
-0.4891 0.8151 0.5603
-0.5181 0.7956 0.5629
-0.5464 0.7751 0.5654
-0.5739 0.7536 0.5679
-0.6007 0.7312 0.5703
-0.6267 0.7077 0.5726
-0.6519 0.6834 0.5748
-0.6762 0.6582 0.5770
-0.6996 0.6321 0.5790
-0.7221 0.6052 0.5810
-0.7436 0.5775 0.5829
-0.7642 0.5490 0.5848
-0.7837 0.5199 0.5865
-2.3723 1.4490 1.7392
-2.4175 1.3551 1.7392
-2.4598 1.2602 1.7392
-2.4990 1.1642 1.7392
-2.5351 1.0672 1.7392
-2.5682 0.9694 1.7392
-2.5982 0.8707 1.7392
-2.6252 0.7713 1.7392
-2.6490 0.6713 1.7392
-2.6698 0.5706 1.7392
-2.6875 0.4694 1.7392
-2.7020 0.3678 1.7392
-2.7134 0.2658 1.7392
-2.7217 0.1635 1.7392
-2.7269 0.0610 1.7392
-2.7289 -0.0416 1.7392
-2.7278 -0.1444 1.7392
-2.7235 -0.2471 1.7392
-2.7161 -0.3498 1.7392
-2.7055 -0.4523 1.7392
-2.6918 -0.5546 1.7392
-2.6749 -0.6566 1.7392
-2.6548 -0.7583 1.7392
-2.6316 -0.8595 1.7392
-2.6052 -0.9601 1.7392
-2.5756 -1.0602 1.7392
-2.5428 -1.1596 1.7392
-2.5069 -1.2582 1.7392
-2.4678 -1.3559 1.7392
-2.4255 -1.4527 1.7392
-2.3801 -1.5485 1.7392
-2.3316 -1.6432 1.7392
-2.2799 -1.7367 1.7392
-2.2251 -1.8289 1.7392
-2.1672 -1.9197 1.7392
-2.1061 -2.0091 1.7392
-2.0420 -2.0968 1.7392
-1.9748 -2.1829 1.7392
-1.9046 -2.2673 1.7392
-1.8313 -2.3498 1.7392
-1.7551 -2.4303 1.7392
-1.6759 -2.5087 1.7392
-1.5937 -2.5850 1.7392
3.6577 0.6380 1.6359
3.6251 0.7611 1.6359
3.5873 0.8825 1.6359
3.5445 1.0020 1.6359
3.4968 1.1193 1.6359
3.4444 1.2343 1.6359
3.3874 1.3467 1.6359
3.3259 1.4564 1.6359
3.2601 1.5632 1.6359
0.8581 0.4484 0.4400
0.8411 0.4770 0.4416
0.8232 0.5051 0.4432
0.8043 0.5324 0.4449
0.7844 0.5591 0.4467
0.7636 0.5850 0.4485
0.7419 0.6101 0.4505
0.7193 0.6345 0.4525
0.6959 0.6580 0.4546
0.6717 0.6807 0.4568
0.6468 0.7025 0.4590
0.6211 0.7234 0.4613
0.5946 0.7434 0.4637
0.5675 0.7624 0.4661
0.5398 0.7804 0.4686
0.5114 0.7974 0.4711
0.4825 0.8134 0.4737
0.4530 0.8284 0.4763
0.4230 0.8423 0.4790
0.3926 0.8551 0.4817
0.3617 0.8669 0.4845
0.3305 0.8775 0.4873
0.2989 0.8871 0.4901
0.2670 0.8955 0.4930
0.2348 0.9027 0.4958
0.2023 0.9089 0.4987
0.1697 0.9138 0.5016
0.1370 0.9176 0.5046
0.1041 0.9203 0.5075
0.0711 0.9218 0.5104
0.0382 0.9221 0.5134
0.0052 0.9212 0.5163
-0.0277 0.9192 0.5192
-0.0605 0.9161 0.5222
-0.0932 0.9117 0.5251
-0.1258 0.9062 0.5280
-0.1581 0.8996 0.5309
-0.1902 0.8918 0.5337
-0.2219 0.8829 0.5365
-0.2534 0.8728 0.5393
-0.2845 0.8617 0.5421
-0.3152 0.8495 0.5448
-0.3454 0.8361 0.5475
-0.3751 0.8217 0.5502
-0.4044 0.8063 0.5528
-0.4331 0.7898 0.5553
-0.4612 0.7723 0.5578
-0.4886 0.7539 0.5603
-0.5154 0.7344 0.5627
-0.5416 0.7140 0.5650
-0.5669 0.6927 0.5672
-0.5916 0.6705 0.5694
-0.6154 0.6475 0.5715
-0.6384 0.6235 0.5736
-0.6606 0.5988 0.5755
-0.6819 0.5733 0.5774
-0.7023 0.5470 0.5792
-0.7217 0.5201 0.5810
-0.7402 0.4924 0.5826
-0.7577 0.4641 0.5841
-0.7742 0.4351 0.5856
-0.7897 0.4056 0.5870
-2.3776 1.1103 1.7392
-2.4122 1.0179 1.7392
-2.4440 0.9245 1.7392
-2.4728 0.8304 1.7392
-2.4987 0.7356 1.7392
-2.5216 0.6401 1.7392
-2.5415 0.5440 1.7392
-2.5584 0.4475 1.7392
-2.5723 0.3505 1.7392
-2.5832 0.2531 1.7392
-2.5911 0.1555 1.7392
-2.5960 0.0576 1.7392
-2.5979 -0.0404 1.7392
-2.5968 -0.1384 1.7392
-2.5926 -0.2365 1.7392
-2.5854 -0.3345 1.7392
-2.5752 -0.4323 1.7392
-2.5619 -0.5299 1.7392
-2.5455 -0.6272 1.7392
-2.5262 -0.7242 1.7392
-2.5038 -0.8207 1.7392
-2.4783 -0.9166 1.7392
-2.4498 -1.0120 1.7392
-2.4183 -1.1067 1.7392
-2.3837 -1.2006 1.7392
-0.7915 -0.4364 0.5868
-0.7759 -0.4664 0.5854
-0.7593 -0.4958 0.5839
-0.7416 -0.5246 0.5823
-2.1655 -1.6558 1.7392
-2.1129 -1.7433 1.7392
-2.0573 -1.8295 1.7392
-1.9988 -1.9143 1.7392
-1.9373 -1.9975 1.7392
-1.8729 -2.0791 1.7392
-1.8056 -2.1590 1.7392
-1.7354 -2.2370 1.7392
-1.6625 -2.3131 1.7392
-1.5867 -2.3872 1.7392
-1.5081 -2.4592 1.7392
3.4458 0.5987 1.6359
3.4155 0.7144 1.6359
3.3804 0.8286 1.6359
3.3407 0.9411 1.6359
3.2964 1.0515 1.6359
0.8711 0.3111 0.4388
0.8590 0.3404 0.4399
0.8459 0.3692 0.4411
0.8318 0.3975 0.4424
0.8167 0.4253 0.4437
0.8006 0.4525 0.4452
0.7835 0.4791 0.4467
0.7656 0.5051 0.4483
0.7467 0.5304 0.4500
0.7270 0.5550 0.4518
0.7064 0.5789 0.4536
0.6850 0.6020 0.4555
0.6629 0.6243 0.4575
0.6399 0.6459 0.4596
0.6162 0.6666 0.4617
0.5918 0.6864 0.4639
0.5667 0.7054 0.4661
0.5410 0.7234 0.4684
0.5147 0.7406 0.4708
0.4878 0.7567 0.4732
0.4603 0.7719 0.4757
0.4323 0.7861 0.4782
0.4039 0.7994 0.4807
0.3750 0.8115 0.4833
0.3457 0.8227 0.4859
0.3160 0.8328 0.4886
0.2860 0.8419 0.4912
0.2557 0.8499 0.4939
0.2252 0.8568 0.4967
0.1944 0.8626 0.4994
0.1634 0.8673 0.5022
0.1324 0.8709 0.5049
0.1011 0.8734 0.5077
0.0699 0.8748 0.5105
0.0386 0.8752 0.5133
0.0073 0.8743 0.5161
-0.0240 0.8724 0.5189
-0.0552 0.8694 0.5217
-0.0862 0.8653 0.5244
-0.1171 0.8601 0.5272
-0.1478 0.8538 0.5299
-0.1782 0.8464 0.5326
-0.2084 0.8379 0.5353
-0.2382 0.8284 0.5380
-0.2677 0.8178 0.5406
-0.2969 0.8061 0.5432
-0.3255 0.7935 0.5457
-0.3538 0.7798 0.5483
-0.3815 0.7652 0.5507
-0.4088 0.7495 0.5531
-0.4354 0.7329 0.5555
-0.4615 0.7154 0.5578
-0.4869 0.6969 0.5601
-0.5117 0.6775 0.5623
-0.5358 0.6573 0.5644
-0.5591 0.6362 0.5665
-0.5818 0.6143 0.5685
-0.6036 0.5916 0.5705
-0.6246 0.5681 0.5723
-0.6448 0.5439 0.5741
-0.6642 0.5190 0.5758
-0.6826 0.4933 0.5775
-0.7001 0.4671 0.5790
-0.7168 0.4402 0.5805
-0.7324 0.4127 0.5819
-0.7471 0.3847 0.5832
-0.7608 0.3561 0.5844
-0.7734 0.3271 0.5855
-0.7851 0.2976 0.5865
-2.3556 0.7928 1.7392
-2.3804 0.7022 1.7392
-2.4024 0.6110 1.7392
-2.4215 0.5192 1.7392
-2.4377 0.4269 1.7392
