ply
format ascii 1.0
element vertex 2203
property float32 x
property float32 y
property float32 z
end_header
6.9520 -0.3128 0.5108
7.2509 -0.0665 0.5318
7.6616 0.2040 0.5617
7.6577 0.4786 0.5618
2.4688 0.2432 0.1815
7.6518 1.0315 0.5644
7.6503 1.3115 0.5669
7.6488 1.5949 0.5702
6.8143 1.6774 0.5117
5.8840 1.6739 0.4457
5.4563 1.7656 0.4175
6.2435 2.2701 0.4832
6.2421 2.5260 0.4894
6.2407 2.7893 0.4964
6.2392 3.0610 0.5043
6.2377 3.3423 0.5131
6.2361 3.6344 0.5229
6.2344 3.9389 0.5339
5.7902 3.9550 0.5073
5.4441 4.0116 0.4889
9.5524 7.5810 0.8810
8.8763 7.5775 0.8426
8.6757 7.9602 0.8495
8.3114 8.1927 0.8415
7.7341 8.1895 0.8117
7.1950 8.1866 0.7849
7.0542 8.6306 0.8023
7.0506 9.2854 0.8387
7.0669 10.0329 0.8824
6.7099 10.2893 0.8828
6.3441 10.5338 0.8833
6.2254 11.2270 0.9218
6.8742 13.5160 1.0883
6.2749 13.5136 1.0690
5.6954 13.5112 1.0516
5.1333 13.5089 1.0361
5.1012 15.0226 1.1371
5.0262 16.7474 1.2529
5.6133 21.4652 1.5895
4.8427 21.6568 1.5895
4.0655 21.8201 1.5895
3.2827 21.9548 1.5895
2.2809 20.1655 1.4529
1.8151 23.5737 1.6926
0.9705 23.6248 1.6926
0.1246 23.6449 1.6926
-0.7214 23.6341 1.6926
-1.5665 23.5922 1.6926
-2.4095 23.5194 1.6926
-3.2491 23.4158 1.6926
-4.0843 23.2815 1.6926
-4.9139 23.1167 1.6926
-5.7367 22.9216 1.6926
-6.1520 21.3120 1.5893
-6.9089 21.0729 1.5893
-7.6563 20.8064 1.5893
-8.3932 20.5127 1.5893
-6.9420 15.3725 1.2099
-9.8317 19.8459 1.5893
-10.5528 19.5135 1.5926
-11.2395 19.1153 1.5926
-11.9109 18.6925 1.5926
-12.5661 18.2457 1.5926
-13.2042 17.7755 1.5926
-13.8245 17.2826 1.5926
-14.4261 16.7676 1.5926
-15.0082 16.2314 1.5926
-15.5700 15.6747 1.5926
-16.1110 15.0982 1.5926
-16.6303 14.5028 1.5926
-17.1272 13.8893 1.5926
-17.6014 13.2586 1.5926
-18.0519 12.6115 1.5926
-18.4784 11.9490 1.5926
-18.0606 10.7826 1.5234
-19.2572 10.5813 1.5926
-17.7335 8.9334 1.4403
-19.9341 9.1629 1.5926
-18.2369 7.6046 1.4354
-20.5060 7.7016 1.5926
-18.2201 6.1086 1.3983
-20.9702 6.2053 1.5926
-21.1614 5.4465 1.5926
-21.3250 4.6819 1.5926
3.2547 -15.9366 1.5895
3.8236 -15.8121 1.5895
4.3738 -15.6180 1.5844
4.9309 -15.4543 1.5844
5.4819 -15.2710 1.5844
6.0263 -15.0684 1.5844
6.4070 -14.4930 1.5467
5.7607 -11.8637 1.2869
6.2935 -11.8608 1.3098
5.5638 -9.6361 1.0851
6.0321 -9.6336 1.1081
6.5216 -9.6309 1.1335
6.5180 -8.9205 1.0763
6.5145 -8.2767 1.0257
6.5113 -7.6896 0.9808
6.5084 -7.1507 0.9408
6.5057 -6.6530 0.9050
6.5031 -6.1908 0.8729
6.5008 -5.7594 0.8439
6.4986 -5.3549 0.8178
6.4965 -4.9737 0.7942
6.4946 -4.6132 0.7729
6.4927 -4.2707 0.7536
6.4909 -3.9442 0.7361
6.5044 -3.6403 0.7220
6.5135 -3.3451 0.7089
6.5117 -3.0548 0.6959
6.5099 -2.7742 0.6843
6.4331 -2.4734 0.6661
6.4816 -2.2292 0.6620
2.5083 -0.7635 0.2531
6.4788 -1.7213 0.6466
6.4775 -1.4749 0.6404
6.4762 -1.2327 0.6351
6.8411 -1.0500 0.6663
6.3321 -0.7411 0.6134
7.1534 -0.5786 0.6901
7.1520 -0.3215 0.6879
7.4280 -0.0678 0.7133
7.6617 0.2043 0.7355
7.6578 0.4789 0.7358
2.4688 0.2433 0.2378
7.6530 1.0319 0.7396
7.6515 1.3120 0.7431
7.6500 1.5955 0.7475
6.8158 1.6781 0.6710
5.8834 1.6739 0.5844
5.4563 1.7658 0.5475
6.2435 2.2704 0.6339
6.2421 2.5263 0.6421
6.2407 2.7895 0.6514
6.2392 3.0613 0.6619
6.2377 3.3426 0.6736
6.2361 3.6347 0.6867
6.2344 3.9392 0.7012
5.7897 3.9549 0.6663
5.4441 4.0119 0.6423
9.5518 7.5810 1.1575
8.8756 7.5774 1.1072
8.6758 7.9608 1.1166
8.3110 8.1927 1.1061
7.7337 8.1895 1.0671
7.1946 8.1866 1.0321
7.0542 8.6310 1.0551
7.0506 9.2858 1.1032
7.0483 10.0070 1.1577
6.6882 10.2565 1.1577
6.3439 10.5340 1.1622
6.2254 11.2275 1.2129
6.8739 13.5160 1.4322
6.0485 13.0267 1.3561
5.4896 13.0236 1.3341
5.1332 13.5092 1.3638
5.1008 15.0221 1.4968
2.2621 7.5378 0.7424
4.2636 16.3044 1.5895
3.6781 16.4491 1.5895
2.2592 12.1262 1.1630
2.4930 16.6741 1.5895
2.0179 17.8408 1.6926
1.3784 17.9027 1.6926
0.7370 17.9413 1.6926
0.0947 17.9565 1.6926
-0.5479 17.9483 1.6926
-1.1896 17.9166 1.6926
-1.8298 17.8617 1.6926
-2.4675 17.7834 1.6926
-3.1018 17.6819 1.6926
-3.7320 17.5575 1.6926
-4.3572 17.4101 1.6926
-4.9764 17.2402 1.6926
-5.5890 17.0478 1.6926
-6.0105 16.3345 1.6424
-6.3764 15.5845 1.5893
-6.9281 15.3424 1.5893
-7.4705 15.0805 1.5893
-8.0029 14.7990 1.5893
-8.5245 14.4985 1.5893
-9.0347 14.1794 1.5893
-9.5328 13.8420 1.5893
-10.0386 13.5145 1.5926
-10.5114 13.1414 1.5926
-10.9703 12.7516 1.5926
-11.4145 12.3455 1.5926
-11.8435 11.9237 1.5926
-12.2568 11.4869 1.5926
-12.6537 11.0356 1.5926
-13.0340 10.5705 1.5926
-13.3969 10.0922 1.5926
-13.7421 9.6012 1.5926
-14.0692 9.0984 1.5926
-14.3777 8.5844 1.5926
-14.6673 8.0599 1.5926
-14.9376 7.5255 1.5926
-9.7167 4.4668 1.0188
-15.4192 6.4303 1.5926
-15.6299 5.8709 1.5926
-15.8202 5.3046 1.5926
-15.9899 4.7322 1.5926
-16.5441 4.2588 1.6326
-16.6753 3.6617 1.6326
2.6393 -12.9228 1.5895
3.1005 -12.8215 1.5895
3.5579 -12.7040 1.5895
4.0109 -12.5704 1.5895
4.4590 -12.4208 1.5895
4.9015 -12.2555 1.5895
5.3381 -12.0747 1.5895
5.6059 -11.5445 1.5448
6.0222 -11.3491 1.5461
5.5641 -9.6361 1.3387
6.0324 -9.6335 1.3671
6.5219 -9.6309 1.3986
6.5180 -8.9200 1.3280
6.5145 -8.2763 1.2657
6.5113 -7.6892 1.2104
6.5084 -7.1503 1.1611
6.5057 -6.6526 1.1170
6.5031 -6.1904 1.0774
6.5008 -5.7591 1.0418
6.4986 -5.3545 1.0097
6.4965 -4.9734 0.9806
6.4946 -4.6129 0.9544
6.4927 -4.2704 0.9307
6.4909 -3.9439 0.9092
6.5064 -3.6411 0.8921
6.5144 -3.3452 0.8758
6.5133 -3.0553 0.8600
6.5123 -2.7750 0.8458
6.4331 -2.4731 0.8231
6.4816 -2.2290 0.8181
2.5080 -0.7633 0.3128
6.4788 -1.7210 0.7993
6.4775 -1.4747 0.7918
6.4762 -1.2324 0.7853
6.8428 -1.0500 0.8242
6.3321 -0.7408 0.7586
8.8189 -0.7130 1.0523
8.8172 -0.3960 1.0492
8.8154 -0.0801 1.0474
7.6618 0.2046 0.9101
7.6578 0.4792 0.9106
2.4689 0.2434 0.2943
7.6542 1.0324 0.9157
7.6528 1.3126 0.9201
7.6512 1.5961 0.9257
6.8173 1.6787 0.8311
5.8828 1.6740 0.7236
5.4563 1.7660 0.6782
6.2435 2.2706 0.7852
6.2421 2.5265 0.7955
6.2407 2.7898 0.8071
6.2392 3.0615 0.8202
6.2377 3.3428 0.8348
6.2361 3.6350 0.8511
6.2344 3.9395 0.8691
5.7892 3.9548 0.8259
5.4441 4.0122 0.7963
9.5512 7.5810 1.4352
8.8749 7.5773 1.3729
8.6759 7.9614 1.3848
8.3105 8.1927 1.3719
7.7333 8.1895 1.3236
7.1942 8.1866 1.2803
7.0542 8.6314 1.3090
7.0506 9.2863 1.3687
7.0664 10.0332 1.4402
6.7094 10.2896 1.4411
6.3438 10.5343 1.4422
6.0976 10.9976 1.4744
6.1736 12.1395 1.5965
5.7115 12.3012 1.5895
5.2688 12.5004 1.5895
2.2706 5.9760 0.7489
2.2668 6.6761 0.8258
3.9013 13.0001 1.5895
2.4989 9.5565 1.1566
2.2293 9.9702 1.1961
2.2592 12.1262 1.4439
2.0531 13.7323 1.6252
1.6252 14.3695 1.6926
1.1101 14.4192 1.6926
0.5936 14.4502 1.6926
0.0762 14.4624 1.6926
-0.4413 14.4558 1.6926
-0.9581 14.4304 1.6926
-1.4737 14.3862 1.6926
-1.9873 14.3234 1.6926
-2.4983 14.2420 1.6926
-3.0059 14.1421 1.6926
-3.5095 14.0238 1.6926
-4.0085 13.8874 1.6926
-4.5020 13.7329 1.6926
-4.9896 13.5607 1.6926
-5.4705 13.3709 1.6926
-5.9441 13.1639 1.6926
-6.0188 12.1505 1.5893
-6.4481 11.9244 1.5893
-6.8688 11.6830 1.5893
-7.2804 11.4266 1.5893
-7.6823 11.1556 1.5893
-8.0739 10.8702 1.5893
-8.4549 10.5709 1.5893
-8.8247 10.2582 1.5893
-9.1829 9.9323 1.5893
-9.5288 9.5939 1.5893
-9.8622 9.2433 1.5893
-10.2034 8.8992 1.5926
-10.5110 8.5249 1.5926
-10.8048 8.1400 1.5926
-11.0843 7.7448 1.5926
-11.3493 7.3400 1.5926
-11.5994 6.9262 1.5926
-11.8343 6.5037 1.5926
-12.0538 6.0732 1.5926
-9.6366 4.4304 1.2520
-12.4452 5.1906 1.5926
-12.6168 4.7396 1.5926
-13.0926 4.3906 1.6326
-13.2346 3.9174 1.6326
-13.3595 3.4395 1.6326
-13.4670 2.9578 1.6326
2.2177 -10.8581 1.5894
2.6052 -10.7728 1.5894
2.9895 -10.6739 1.5895
3.3700 -10.5614 1.5895
3.7464 -10.4355 1.5895
4.1181 -10.2963 1.5895
4.4848 -10.1441 1.5895
4.8459 -9.9789 1.5895
5.2010 -9.8010 1.5895
5.5496 -9.6106 1.5895
5.8913 -9.4079 1.5895
6.2452 -9.2220 1.5944
6.5180 -8.9196 1.5811
6.5145 -8.2759 1.5070
6.5113 -7.6888 1.4412
6.5084 -7.1499 1.3826
6.5057 -6.6522 1.3302
6.5031 -6.1901 1.2831
6.5008 -5.7587 1.2407
6.4986 -5.3542 1.2025
6.4965 -4.9731 1.1681
6.4946 -4.6125 1.1369
6.4927 -4.2701 1.1087
6.4909 -3.9436 1.0831
6.5064 -3.6408 1.0629
6.5093 -3.3423 1.0427
6.5084 -3.0527 1.0240
6.5074 -2.7726 1.0072
6.4331 -2.4729 0.9809
6.4816 -2.2287 0.9751
2.5078 -0.7631 0.3728
6.4788 -1.7207 0.9529
6.4775 -1.4744 0.9439
6.4761 -1.2322 0.9363
6.8445 -1.0500 0.9830
6.3321 -0.7406 0.9047
8.8189 -0.7127 1.2549
8.8172 -0.3956 1.2513
8.8154 -0.0798 1.2493
7.6618 0.2049 1.0857
7.6584 0.4795 1.0864
2.4689 0.2435 0.3511
7.6555 1.0329 1.0928
7.6540 1.3131 1.0981
7.6525 1.5966 1.1049
6.8189 1.6794 0.9921
5.8822 1.6741 0.8636
5.4563 1.7662 0.8095
6.2435 2.2709 0.9374
6.2421 2.5268 0.9497
6.2407 2.7901 0.9637
6.2392 3.0618 0.9794
6.2377 3.3431 0.9969
6.2361 3.6353 1.0164
6.2344 3.9398 1.0380
5.7886 3.9548 0.9864
5.4441 4.0124 0.9512
8.8938 7.0596 1.5965
8.6385 7.3759 1.5965
8.3719 7.6828 1.5965
8.0943 7.9800 1.5965
7.7328 8.1895 1.5815
7.1938 8.1866 1.5297
7.0541 8.6319 1.5643
6.8814 9.0639 1.5965
6.5545 9.3068 1.5965
6.2189 9.5378 1.5965
5.8493 9.7136 1.5895
5.4993 9.9189 1.5895
5.1420 10.1114 1.5895
2.2765 4.9033 0.7573
4.4075 10.4572 1.5895
2.7389 7.2086 1.0799
2.2668 6.6764 0.9872
2.2783 7.5921 1.1097
2.4988 9.5565 1.3827
0.7528 3.3670 0.4829
0.6316 3.3906 0.4827
0.5098 3.4100 0.4825
0.3874 3.4253 0.4824
0.2646 3.4364 0.4823
0.1414 3.4433 0.4822
0.0182 3.4461 0.4822
-0.1051 3.4446 0.4822
-0.2283 3.4390 0.4823
-0.3513 3.4292 0.4824
-0.4738 3.4152 0.4825
-0.5959 3.3970 0.4827
-0.7173 3.3748 0.4829
-2.9354 11.7302 1.6926
-3.3528 11.6163 1.6926
-3.7657 11.4874 1.6926
-4.1737 11.3437 1.6926
-4.5761 11.1853 1.6926
-4.9724 11.0125 1.6926
-5.3622 10.8254 1.6926
-5.7449 10.6245 1.6926
-5.9769 10.1664 1.6530
-6.0912 9.5607 1.5893
-6.4278 9.3344 1.5893
-6.7559 9.0961 1.5893
-7.0750 8.8461 1.5893
-7.3849 8.5849 1.5893
-7.6850 8.3127 1.5893
-7.9750 8.0299 1.5893
-8.2545 7.7370 1.5893
-8.5232 7.4342 1.5893
-8.7808 7.1221 1.5893
-9.0268 6.8009 1.5893
-9.2609 6.4713 1.5893
-9.4830 6.1335 1.5893
-9.6927 5.7881 1.5893
-9.8898 5.4355 1.5893
-10.0945 5.0865 1.5926
-9.7354 4.4762 1.5103
-10.6101 4.4257 1.6210
-10.8339 4.0704 1.6326
-10.9679 3.6786 1.6326
-11.0878 3.2824 1.6326
-11.1933 2.8823 1.6326
-11.2844 2.4788 1.6326
2.0345 -9.9608 1.6926
2.2444 -9.2805 1.5895
2.5754 -9.1951 1.5895
2.9032 -9.0980 1.5895
3.2273 -8.9893 1.5895
3.5475 -8.8693 1.5895
3.8633 -8.7379 1.5895
4.1742 -8.5954 1.5895
4.4800 -8.4419 1.5895
4.7802 -8.2777 1.5895
5.0744 -8.1029 1.5895
5.3622 -7.9177 1.5895
5.6434 -7.7224 1.5895
5.9176 -7.5172 1.5895
6.2036 -7.3252 1.5944
6.4635 -7.1002 1.5944
6.5057 -6.6518 1.5447
6.5031 -6.1897 1.4901
6.5008 -5.7584 1.4410
6.4986 -5.3538 1.3967
6.4965 -4.9727 1.3567
6.4946 -4.6122 1.3205
6.4927 -4.2698 1.2878
6.4909 -3.9433 1.2582
6.5051 -3.6398 1.2345
6.5042 -3.3394 1.2105
6.5033 -3.0500 1.1888
6.5024 -2.7702 1.1693
6.4331 -2.4726 1.1398
6.4816 -2.2284 1.1331
2.5076 -0.7629 0.4332
6.4788 -1.7205 1.1074
6.4775 -1.4741 1.0970
6.4762 -1.2319 1.0882
6.8463 -1.0500 1.1429
6.3321 -0.7403 1.0516
8.8189 -0.7123 1.4589
8.8172 -0.3953 1.4548
8.8154 -0.0794 1.4525
7.6619 0.2052 1.2624
7.6597 0.4799 1.2635
2.4690 0.2436 0.4083
7.6567 1.0334 1.2710
7.6552 1.3136 1.2773
7.6537 1.5972 1.2852
6.8204 1.6801 1.1542
5.8823 1.6744 1.0046
5.4563 1.7665 0.9417
6.2435 2.2712 1.0905
6.2421 2.5271 1.1049
6.2407 2.7904 1.1212
6.2392 3.0621 1.1395
6.2377 3.3434 1.1600
6.2361 3.6356 1.1827
6.2344 3.9401 1.2080
5.7881 3.9547 1.1478
5.4441 4.0127 1.1071
7.6412 6.0658 1.5965
7.4216 6.3372 1.5965
7.1922 6.6006 1.5965
6.9534 6.8556 1.5965
6.7055 7.1020 1.5965
6.4489 7.3392 1.5965
6.1837 7.5671 1.5965
5.8845 7.7512 1.5895
5.6047 7.9586 1.5895
5.3176 8.1558 1.5895
5.0234 8.3426 1.5895
2.2808 4.1140 0.7676
4.4157 8.6837 1.5895
2.2956 4.9446 0.8893
2.5714 6.1013 1.0799
2.2881 6.0225 1.0506
2.2668 6.6767 1.1497
2.4844 8.2793 1.4093
0.7562 2.8922 0.4873
0.6520 2.9163 0.4871
0.5471 2.9369 0.4869
0.4416 2.9538 0.4868
0.3356 2.9672 0.4866
0.2292 2.9768 0.4866
0.1225 2.9829 0.4865
0.0157 2.9853 0.4865
-0.0911 2.9840 0.4865
-0.1978 2.9791 0.4866
-0.3043 2.9705 0.4866
-0.4104 2.9583 0.4868
-0.5161 2.9425 0.4869
-0.6213 2.9230 0.4871
-0.7257 2.9000 0.4873
-2.8789 9.9748 1.6926
-3.2335 9.8643 1.6926
-3.5839 9.7411 1.6926
-3.9295 9.6053 1.6926
-4.2700 9.4571 1.6926
-4.6048 9.2968 1.6926
-4.9336 9.1244 1.6926
-5.2558 8.9404 1.6926
-5.5712 8.7449 1.6926
-5.8792 8.5382 1.6926
-5.9665 8.0337 1.6342
-6.0769 7.5985 1.5893
-6.3433 7.3744 1.5893
-6.6013 7.1409 1.5893
-6.8508 6.8983 1.5893
-7.0912 6.6469 1.5893
-7.3224 6.3872 1.5893
-7.5439 6.1193 1.5893
-7.7557 5.8437 1.5893
-7.9573 5.5607 1.5893
-8.1485 5.2708 1.5893
-8.3291 4.9742 1.5893
-8.4989 4.6714 1.5893
-8.6576 4.3629 1.5893
-8.8051 4.0489 1.5893
-8.9412 3.7299 1.5893
-9.0657 3.4064 1.5893
-9.1784 3.0787 1.5893
-9.2792 2.7473 1.5893
-9.3681 2.4127 1.5893
-9.4449 2.0751 1.5893
1.7854 -8.7408 1.6926
2.0973 -8.6720 1.6926
2.2600 -8.0687 1.5895
2.5476 -7.9834 1.5895
2.8321 -7.8880 1.5895
3.1130 -7.7825 1.5895
3.3900 -7.6671 1.5895
3.6628 -7.5419 1.5895
3.9310 -7.4071 1.5895
4.1943 -7.2628 1.5895
4.4523 -7.1092 1.5895
4.7048 -6.9466 1.5895
4.9514 -6.7751 1.5895
5.1918 -6.5948 1.5895
5.4257 -6.4062 1.5895
5.6527 -6.2092 1.5895
5.8727 -6.0043 1.5895
6.0853 -5.7917 1.5895
6.3099 -5.5890 1.5944
6.4986 -5.3535 1.5922
6.4965 -4.9724 1.5467
6.4945 -4.6119 1.5055
6.4927 -4.2695 1.4683
6.4909 -3.9430 1.4346
6.4999 -3.6365 1.4065
6.4991 -3.3365 1.3792
6.4983 -3.0474 1.3546
6.4975 -2.7678 1.3325
6.4350 -2.4730 1.3003
6.4816 -2.2281 1.2923
2.5073 -0.7628 0.4940
6.4788 -1.7202 1.2631
6.4775 -1.4739 1.2513
6.4762 -1.2316 1.2413
6.8480 -1.0500 1.3041
6.3321 -0.7401 1.1997
8.4484 -0.6820 1.5944
8.4703 -0.3794 1.5944
8.4814 -0.0761 1.5944
7.6624 0.2056 1.4404
7.6609 0.4803 1.4420
2.4690 0.2437 0.4659
7.6580 1.0338 1.4507
7.6565 1.3141 1.4579
7.6550 1.5978 1.4670
6.8220 1.6807 1.3176
5.8834 1.6749 1.1468
5.4563 1.7667 1.0749
6.2435 2.2714 1.2448
6.2421 2.5273 1.2613
6.2407 2.7906 1.2800
6.2392 3.0624 1.3009
6.2377 3.3437 1.3243
6.2361 3.6359 1.3503
6.2344 3.9403 1.3792
5.7876 3.9546 1.3105
5.4441 4.0130 1.2641
6.6918 5.3124 1.5965
6.4992 5.5499 1.5965
6.2981 5.7804 1.5965
6.0620 5.9771 1.5895
5.8457 6.1916 1.5895
5.6218 6.3983 1.5895
5.3905 6.5968 1.5895
5.1521 6.7869 1.5895
2.2855 3.2456 0.7403
2.2841 3.5034 0.7798
4.3979 7.3040 1.5895
4.1345 7.4580 1.5895
2.6354 5.1829 1.0836
2.2955 4.9446 1.0158
2.3522 5.5814 1.1285
2.3489 6.1829 1.2321
2.2668 6.6770 1.3134
0.7573 2.5239 0.4908
0.6663 2.5484 0.4905
0.5745 2.5698 0.4903
0.4821 2.5880 0.4902
0.3891 2.6030 0.4900
0.2957 2.6149 0.4899
0.2019 2.6234 0.4899
0.1080 2.6288 0.4898
0.0139 2.6309 0.4898
-0.0803 2.6298 0.4898
-0.1743 2.6254 0.4899
-0.2681 2.6178 0.4899
-0.3617 2.6070 0.4900
-0.4548 2.5930 0.4902
-0.5474 2.5757 0.4903
-0.6394 2.5553 0.4905
-0.7307 2.5318 0.4907
-0.8211 2.5050 0.4910
-3.1372 8.5275 1.6926
-3.4399 8.4087 1.6926
-3.7380 8.2792 1.6926
-4.0312 8.1390 1.6926
-4.3191 7.9883 1.6926
-4.6013 7.8274 1.6926
-4.8775 7.6564 1.6926
-5.1473 7.4756 1.6926
-5.4104 7.2852 1.6926
-5.6663 7.0855 1.6926
-5.9149 6.8768 1.6926
-5.9569 6.4442 1.6379
-5.9988 6.0408 1.5893
-6.2095 5.8209 1.5893
-6.4122 5.5936 1.5893
-6.6065 5.3592 1.5893
-6.7921 5.1180 1.5893
-6.9690 4.8704 1.5893
-7.1367 4.6166 1.5893
-7.2952 4.3571 1.5893
-7.4442 4.0921 1.5893
-7.5835 3.8219 1.5893
-7.7131 3.5471 1.5893
-7.8326 3.2678 1.5893
-7.9420 2.9845 1.5893
-8.0411 2.6976 1.5893
-8.1298 2.4074 1.5893
-8.2080 2.1142 1.5893
-8.2757 1.8186 1.5893
1.5892 -7.7798 1.6926
1.8668 -7.7185 1.6926
2.1421 -7.6473 1.6926
2.2676 -7.1055 1.5895
2.5207 -7.0204 1.5895
2.7707 -6.9264 1.5895
3.0172 -6.8236 1.5895
3.2599 -6.7121 1.5895
3.4986 -6.5920 1.5895
3.7329 -6.4635 1.5895
3.9624 -6.3267 1.5895
4.1871 -6.1819 1.5895
4.4064 -6.0291 1.5895
4.6203 -5.8686 1.5895
4.8283 -5.7005 1.5895
5.0302 -5.5252 1.5895
5.2259 -5.3427 1.5895
5.4149 -5.1533 1.5895
5.5971 -4.9573 1.5895
5.7723 -4.7549 1.5895
5.9402 -4.5463 1.5895
6.1006 -4.3319 1.5895
6.2728 -4.1246 1.5944
6.4181 -3.8985 1.5944
6.4946 -3.6333 1.5797
6.4940 -3.3336 1.5491
6.4932 -3.0447 1.5215
6.4925 -2.7654 1.4967
6.4370 -2.4735 1.4622
6.4816 -2.2279 1.4528
2.5071 -0.7626 0.5553
6.4788 -1.7199 1.4201
6.4775 -1.4736 1.4069
6.4762 -1.2314 1.3957
6.7559 -1.0356 1.4467
6.3321 -0.7398 1.3490
7.5131 -0.6062 1.5944
7.5323 -0.3371 1.5944
7.5418 -0.0674 1.5944
7.3929 0.1986 1.5630
7.3834 0.4632 1.5630
2.4690 0.2438 0.5240
7.3366 0.9908 1.5632
7.2993 1.2531 1.5633
7.2528 1.5141 1.5635
6.8235 1.6814 1.4825
5.8846 1.6755 1.2903
5.4563 1.7669 1.2092
6.2435 2.2717 1.4003
6.2421 2.5276 1.4190
6.2407 2.7909 1.4401
6.2392 3.0626 1.4637
6.2377 3.3440 1.4900
6.2361 3.6362 1.5194
6.2344 3.9406 1.5519
5.7871 3.9546 1.4745
5.4441 4.0132 1.4224
5.9205 4.7004 1.5895
5.7499 4.9104 1.5895
5.5718 5.1141 1.5895
5.3865 5.3114 1.5895
5.1942 5.5019 1.5895
2.3141 2.6339 0.7364
2.2879 2.8001 0.7593
4.5776 6.0303 1.5895
2.2855 3.2457 0.8333
2.2841 3.5036 0.8777
2.6546 4.4090 1.0799
2.4956 4.5018 1.0799
2.3641 4.6496 1.0942
2.2954 4.9446 1.1434
2.6888 6.3804 1.4520
0.8363 2.2013 0.4938
0.7567 2.2289 0.4935
0.6762 2.2537 0.4933
0.5950 2.2757 0.4931
0.5130 2.2949 0.4929
0.4305 2.3112 0.4928
0.3475 2.3247 0.4926
0.2641 2.3352 0.4925
0.1803 2.3429 0.4925
0.0964 2.3477 0.4924
0.0124 2.3496 0.4924
-0.0717 2.3486 0.4924
-0.1557 2.3447 0.4925
-0.2395 2.3379 0.4925
-0.3230 2.3282 0.4926
-0.4061 2.3156 0.4928
-0.4888 2.3002 0.4929
-0.5710 2.2818 0.4931
-0.6524 2.2607 0.4933
-0.7331 2.2367 0.4935
-0.8130 2.2100 0.4938
-3.0558 7.4703 1.6926
-3.3207 7.3553 1.6926
-3.5812 7.2309 1.6926
-3.8371 7.0972 1.6926
-4.0879 6.9543 1.6926
-4.3333 6.8025 1.6926
-4.5731 6.6420 1.6926
-4.8070 6.4730 1.6926
-5.0345 6.2958 1.6926
-5.2555 6.1104 1.6926
-5.4696 5.9173 1.6926
-5.6766 5.7166 1.6926
-5.8761 5.5087 1.6926
-5.9498 5.1905 1.6596
-5.9548 4.8308 1.6121
-6.0359 4.5485 1.5893
-6.1932 4.3285 1.5893
-6.3425 4.1032 1.5893
-6.4835 3.8726 1.5893
-6.6162 3.6372 1.5893
-6.7402 3.3972 1.5893
-6.8556 3.1530 1.5893
-6.9620 2.9049 1.5893
-7.0595 2.6532 1.5893
-7.1478 2.3982 1.5893
-7.2269 2.1403 1.5893
-7.2968 1.8798 1.5893
-7.3571 1.6170 1.5893
1.4305 -7.0025 1.6926
1.6803 -6.9472 1.6926
1.9281 -6.8831 1.6926
2.1614 -6.7727 1.6832
2.2689 -6.3188 1.5895
2.4939 -6.2341 1.5895
2.7157 -6.1415 1.5895
2.9342 -6.0411 1.5895
3.1489 -5.9329 1.5895
3.3597 -5.8172 1.5895
3.5663 -5.6940 1.5895
3.7684 -5.5635 1.5895
3.9658 -5.4259 1.5895
4.1581 -5.2813 1.5895
4.3453 -5.1300 1.5895
4.5269 -4.9721 1.5895
4.7029 -4.8078 1.5895
4.8729 -4.6373 1.5895
5.0368 -4.4608 1.5895
5.1944 -4.2785 1.5895
5.3453 -4.0907 1.5895
5.4896 -3.8977 1.5895
5.6268 -3.6995 1.5895
5.7570 -3.4966 1.5895
5.8798 -3.2891 1.5895
5.9952 -3.0773 1.5895
6.1031 -2.8615 1.5895
6.2225 -2.6501 1.5944
6.3150 -2.4264 1.5944
6.3994 -2.1994 1.5944
2.5069 -0.7624 0.6172
6.4788 -1.7196 1.5786
6.4775 -1.4733 1.5640
6.4762 -1.2311 1.5516
6.6978 -1.0264 1.5944
6.3321 -0.7395 1.4997
6.7577 -0.5450 1.5944
6.7748 -0.3029 1.5944
6.7832 -0.0603 1.5944
6.6557 0.1791 1.5645
6.6469 0.4173 1.5645
2.4691 0.2439 0.5827
6.6037 0.8921 1.5645
6.5693 1.1281 1.5645
6.5265 1.3628 1.5645
6.4754 1.5959 1.5645
5.8858 1.6761 1.4353
5.4563 1.7672 1.3447
6.2435 2.2720 1.5574
6.1976 2.5099 1.5669
6.1042 2.7302 1.5666
6.0029 2.9469 1.5663
5.8938 3.1599 1.5660
5.7770 3.3688 1.5656
5.6527 3.5732 1.5652
5.5210 3.7730 1.5648
5.4687 4.0317 1.5895
5.3221 4.2257 1.5895
5.1687 4.4143 1.5895
2.3203 2.1299 0.7364
2.2909 2.2591 0.7520
4.6183 4.8921 1.5723
4.4411 5.0551 1.5723
4.2582 5.2117 1.5723
2.2939 3.0221 0.8862
2.2855 3.2459 0.9271
2.2841 3.5038 0.9766
2.3887 3.9675 1.0812
2.2934 4.1373 1.1042
2.3574 4.6365 1.2140
2.2953 4.9446 1.2722
0.8255 1.9590 0.4960
0.7546 1.9864 0.4958
0.6828 2.0114 0.4956
0.6102 2.0339 0.4953
0.5369 2.0538 0.4952
0.4630 2.0712 0.4950
0.3885 2.0860 0.4949
0.3136 2.0981 0.4948
0.2383 2.1077 0.4947
0.1628 2.1147 0.4946
0.0870 2.1190 0.4946
0.0112 2.1208 0.4946
-0.0647 2.1198 0.4946
-0.1405 2.1163 0.4946
-0.2161 2.1101 0.4947
-0.2915 2.1013 0.4947
-0.3665 2.0899 0.4949
-0.4412 2.0759 0.4950
-0.5153 2.0594 0.4951
-0.5888 2.0402 0.4953
-0.6616 2.0185 0.4955
-0.7336 1.9943 0.4958
-0.8048 1.9676 0.4960
-2.9844 6.6107 1.6926
-3.2186 6.4989 1.6926
-3.4485 6.3788 1.6926
-3.6740 6.2505 1.6926
-3.8947 6.1142 1.6926
-4.1103 5.9701 1.6926
-4.3205 5.8183 1.6926
-4.5251 5.6590 1.6926
-4.7238 5.4925 1.6926
-4.9163 5.3191 1.6926
-5.1025 5.1388 1.6926
-5.2820 4.9520 1.6926
-5.4546 4.7589 1.6926
-5.6202 4.5597 1.6926
-5.7785 4.3548 1.6926
-5.9292 4.1443 1.6926
-5.9424 3.8446 1.6564
-5.9455 3.5515 1.6211
-5.9519 3.2723 1.5903
-6.0599 3.0546 1.5893
-6.1638 2.8351 1.5893
-6.2597 2.6121 1.5893
-6.3474 2.3859 1.5893
-6.4271 2.1567 1.5893
-6.4984 1.9248 1.5893
-6.5613 1.6906 1.5893
-6.6158 1.4544 1.5893
1.2993 -6.3602 1.6926
1.5263 -6.3100 1.6926
1.7513 -6.2517 1.6926
1.9741 -6.1854 1.6926
2.1573 -6.0077 1.6639
2.2651 -5.6621 1.5895
2.4666 -5.5779 1.5895
2.6650 -5.4866 1.5895
2.8600 -5.3883 1.5895
3.0515 -5.2831 1.5895
3.2390 -5.1712 1.5895
3.4225 -5.0526 1.5895
3.6018 -4.9276 1.5895
3.7764 -4.7962 1.5895
3.9463 -4.6587 1.5895
4.1112 -4.5152 1.5895
4.2710 -4.3659 1.5895
4.4253 -4.2110 1.5895
4.5741 -4.0507 1.5895
4.7170 -3.8851 1.5895
4.8540 -3.7145 1.5895
4.9849 -3.5391 1.5895
5.1094 -3.3591 1.5895
5.2275 -3.1748 1.5895
5.3390 -2.9863 1.5895
5.4437 -2.7939 1.5895
5.5414 -2.5979 1.5895
5.6322 -2.3985 1.5895
5.7158 -2.1959 1.5895
5.7921 -1.9904 1.5895
2.5066 -0.7622 0.6798
5.9225 -1.5717 1.5895
5.9764 -1.3591 1.5895
6.0227 -1.1446 1.5895
6.0614 -0.9286 1.5895
6.0922 -0.7113 1.5895
6.1154 -0.4929 1.5895
6.1306 -0.2739 1.5895
6.1381 -0.0543 1.5895
6.0414 0.1628 1.5645
6.0332 0.3790 1.5645
2.4691 0.2441 0.6420
5.9937 0.8099 1.5645
5.9624 1.0241 1.5645
5.9234 1.2371 1.5645
5.8768 1.4486 1.5645
5.8227 1.6584 1.5645
5.4563 1.7674 1.4818
5.6948 2.0725 1.5653
5.6174 2.2752 1.5651
5.5328 2.4748 1.5648
5.4514 2.6764 1.5675
5.4284 2.9107 1.5895
5.3220 3.1037 1.5895
5.2087 3.2928 1.5895
5.0886 3.4778 1.5895
4.9620 3.6584 1.5895
2.2933 1.8209 0.7548
2.2925 1.9581 0.7770
4.5442 4.1714 1.5895
4.3929 4.3321 1.5895
4.2359 4.4873 1.5895
2.8094 3.1980 1.0962
2.6535 3.2478 1.0799
2.5360 3.3412 1.0799
2.2855 3.2460 1.0219
2.2841 3.5039 1.0765
2.3613 3.9222 1.1781
2.3660 4.2686 1.2558
2.7460 5.4010 1.5588
0.8150 1.7557 0.4979
0.7513 1.7830 0.4977
0.6868 1.8081 0.4975
0.6215 1.8309 0.4972
0.5555 1.8514 0.4971
0.4888 1.8696 0.4969
0.4215 1.8854 0.4967
0.3537 1.8989 0.4966
0.2855 1.9101 0.4965
0.2170 1.9188 0.4964
0.1482 1.9252 0.4964
0.0792 1.9291 0.4963
0.0102 1.9307 0.4963
-0.0589 1.9299 0.4963
-0.1279 1.9266 0.4964
-0.1967 1.9210 0.4964
-0.2654 1.9130 0.4965
-0.3337 1.9026 0.4966
-0.4016 1.8898 0.4967
-0.4690 1.8746 0.4969
-0.5359 1.8572 0.4970
-0.6022 1.8374 0.4972
-0.6677 1.8152 0.4974
-0.7325 1.7909 0.4977
-0.7964 1.7642 0.4979
-2.9197 5.8958 1.6926
-3.1284 5.7869 1.6926
-3.3330 5.6706 1.6926
-3.5332 5.5470 1.6926
-3.7288 5.4163 1.6926
-3.9196 5.2787 1.6926
-4.1053 5.1343 1.6926
-4.2856 4.9833 1.6926
-4.4604 4.8260 1.6926
-4.6293 4.6626 1.6926
-4.7923 4.4931 1.6926
-4.9490 4.3180 1.6926
-5.0993 4.1374 1.6926
-5.2430 3.9515 1.6926
-5.3799 3.7607 1.6926
-5.5098 3.5650 1.6926
-5.6326 3.3649 1.6926
-5.7481 3.1605 1.6926
-5.8562 2.9522 1.6926
-5.9364 2.7308 1.6868
-5.9350 2.4769 1.6605
-5.9342 2.2308 1.6373
-5.9378 1.9928 1.6180
-5.9409 1.7600 1.6010
-5.9548 1.5346 1.5893
-6.0044 1.3202 1.5893
1.1890 -5.8201 1.6926
1.3967 -5.7741 1.6926
1.6026 -5.7207 1.6926
1.8065 -5.6600 1.6926
2.0081 -5.5921 1.6926
2.1539 -5.3838 1.6516
2.2571 -5.1040 1.5895
2.4386 -5.0204 1.5895
2.6171 -4.9304 1.5895
2.7922 -4.8341 1.5895
2.9639 -4.7316 1.5895
3.1317 -4.6231 1.5895
3.2957 -4.5086 1.5895
3.4555 -4.3884 1.5895
3.6109 -4.2625 1.5895
3.7617 -4.1312 1.5895
3.9078 -3.9945 1.5895
4.0490 -3.8527 1.5895
4.1850 -3.7059 1.5895
4.3158 -3.5544 1.5895
4.4411 -3.3983 1.5895
4.5607 -3.2377 1.5895
4.6746 -3.0730 1.5895
4.7825 -2.9043 1.5895
4.8844 -2.7318 1.5895
4.9801 -2.5558 1.5895
5.0694 -2.3764 1.5895
5.1524 -2.1939 1.5895
5.2287 -2.0085 1.5895
5.2984 -1.8205 1.5895
2.5064 -0.7620 0.7430
5.4175 -1.4375 1.5895
5.4668 -1.2430 1.5895
5.5090 -1.0468 1.5895
5.5442 -0.8491 1.5895
5.5724 -0.6503 1.5895
5.5934 -0.4506 1.5895
5.6073 -0.2502 1.5895
5.5259 -0.0487 1.5645
5.5254 0.1491 1.5645
5.5178 0.3468 1.5645
2.4692 0.2442 0.7020
5.4815 0.7409 1.5645
5.4608 0.9382 1.5669
5.4597 1.1405 1.5769
5.4586 1.3458 1.5891
5.4095 1.5409 1.5895
5.3521 1.7339 1.5895
5.2878 1.9247 1.5895
5.2167 2.1131 1.5895
5.1389 2.2989 1.5895
5.0545 2.4818 1.5895
2.2995 1.2331 0.7364
2.2959 1.3390 0.7499
2.2953 1.4511 0.7661
2.3018 1.5733 0.7864
4.5367 3.3451 1.5895
4.4150 3.5059 1.5895
2.2997 1.9643 0.8525
2.8226 2.5913 1.0799
2.7286 2.6910 1.0799
3.8725 4.1026 1.5895
2.8039 3.1920 1.1968
2.6068 3.1909 1.1605
2.4210 3.1899 1.1277
2.2855 3.2462 1.1178
2.2841 3.5041 1.1776
2.6549 4.4101 1.4490
2.4493 4.4190 1.4220
0.8044 1.5823 0.4996
0.7470 1.6094 0.4993
0.6887 1.6345 0.4991
0.6296 1.6576 0.4989
0.5698 1.6785 0.4987
0.5092 1.6973 0.4985
0.4481 1.7140 0.4983
0.3864 1.7286 0.4982
0.3243 1.7410 0.4981
0.2617 1.7512 0.4980
0.1989 1.7593 0.4979
0.1359 1.7651 0.4979
0.0726 1.7688 0.4978
0.0093 1.7702 0.4978
-0.0540 1.7694 0.4978
-0.1173 1.7665 0.4979
-0.1804 1.7613 0.4979
-0.2433 1.7539 0.4980
-0.3059 1.7443 0.4981
-0.3682 1.7326 0.4982
-0.4300 1.7187 0.4983
-0.4913 1.7026 0.4985
-0.5520 1.6844 0.4986
-0.6121 1.6641 0.4988
-0.6715 1.6417 0.4991
-0.7300 1.6172 0.4993
-0.7877 1.5907 0.4995
-2.8598 5.2903 1.6926
-3.0468 5.1840 1.6926
-3.2299 5.0711 1.6926
-3.4088 4.9517 1.6926
-3.5832 4.8259 1.6926
-3.7530 4.6940 1.6926
-3.9179 4.5560 1.6926
-4.0778 4.4123 1.6926
-4.2323 4.2629 1.6926
-4.3813 4.1081 1.6926
-4.5247 3.9480 1.6926
-4.6622 3.7830 1.6926
-4.7936 3.6131 1.6926
-4.9189 3.4386 1.6926
-5.0377 3.2598 1.6926
-5.1501 3.0769 1.6926
-5.2558 2.8901 1.6926
-5.3547 2.6996 1.6926
-5.4467 2.5058 1.6926
-5.5317 2.3088 1.6926
-5.6095 2.1090 1.6926
-5.6801 1.9065 1.6926
-5.7434 1.7017 1.6926
-5.7992 1.4948 1.6926
-5.8477 1.2860 1.6926
1.0949 -5.3590 1.6926
1.2861 -5.3167 1.6926
1.4757 -5.2675 1.6926
1.6635 -5.2116 1.6926
1.8491 -5.1491 1.6926
2.0324 -5.0800 1.6926
2.1511 -4.8639 1.6450
2.2455 -4.6226 1.5895
2.4098 -4.5397 1.5895
2.5710 -4.4510 1.5895
2.7290 -4.3565 1.5895
2.8836 -4.2566 1.5895
3.0345 -4.1511 1.5895
3.1816 -4.0404 1.5895
3.3247 -3.9244 1.5895
3.4635 -3.8034 1.5895
3.5980 -3.6776 1.5895
3.7279 -3.5470 1.5895
3.8531 -3.4118 1.5895
3.9734 -3.2722 1.5895
4.0887 -3.1284 1.5895
4.1988 -2.9806 1.5895
4.3036 -2.8289 1.5895
4.4029 -2.6736 1.5895
4.4967 -2.5147 1.5895
4.5847 -2.3526 1.5895
4.6668 -2.1874 1.5895
4.7431 -2.0194 1.5895
4.8133 -1.8487 1.5895
4.8774 -1.6756 1.5895
2.5061 -0.7619 0.8071
4.9869 -1.3230 1.5895
5.0321 -1.1439 1.5895
5.0709 -0.9633 1.5895
5.1033 -0.7814 1.5895
5.1291 -0.5984 1.5895
5.1483 -0.4146 1.5895
5.1610 -0.2301 1.5895
5.1671 -0.0453 1.5895
5.1665 0.1397 1.5895
5.1593 0.3245 1.5895
2.4692 0.2443 0.7627
5.1252 0.6930 1.5895
5.0982 0.8761 1.5895
5.0647 1.0582 1.5895
2.3278 0.5740 0.7364
2.3063 0.6571 0.7364
2.2991 0.7449 0.7420
2.2986 0.8368 0.7508
2.2981 0.9310 0.7609
2.2976 1.0279 0.7723
4.6511 2.2840 1.5895
4.5673 2.4494 1.5895
4.4776 2.6117 1.5895
2.3025 1.4558 0.8351
2.3036 1.5746 0.8553
2.8361 2.0913 1.0799
2.7600 2.1918 1.0799
2.6803 2.2895 1.0799
2.5971 2.3843 1.0799
2.2981 2.2665 0.9885
2.4207 2.5647 1.0799
2.2962 2.6141 1.0652
3.2849 4.0212 1.5895
2.4209 3.1899 1.2257
2.2855 3.2464 1.2150
2.2841 3.5043 1.2800
2.6548 4.4101 1.5749
0.7938 1.4322 0.5010
0.7418 1.4591 0.5007
0.6889 1.4842 0.5005
0.6351 1.5074 0.5003
0.5806 1.5287 0.5001
0.5254 1.5480 0.4999
0.4696 1.5654 0.4997
0.4132 1.5809 0.4996
0.3564 1.5943 0.4995
0.2991 1.6058 0.4994
0.2414 1.6152 0.4993
0.1835 1.6227 0.4992
0.1253 1.6281 0.4992
0.0670 1.6314 0.4991
0.0086 1.6327 0.4991
-0.0498 1.6320 0.4991
-0.1082 1.6293 0.4991
-0.1663 1.6245 0.4992
-0.2244 1.6177 0.4993
-0.2821 1.6088 0.4993
-0.3395 1.5980 0.4994
-0.3965 1.5851 0.4996
-0.4531 1.5703 0.4997
-0.5091 1.5535 0.4999
-0.5645 1.5347 0.5000
-0.6192 1.5140 0.5002
-0.6732 1.4914 0.5005
-0.7264 1.4669 0.5007
-0.7787 1.4405 0.5009
-0.8300 1.4124 0.5012
-2.9716 4.6657 1.6926
-3.1362 4.5559 1.6926
-3.2967 4.4402 1.6926
-3.4529 4.3189 1.6926
-3.6047 4.1920 1.6926
-3.7518 4.0598 1.6926
-3.8940 3.9224 1.6926
-4.0312 3.7800 1.6926
-4.1631 3.6328 1.6926
-4.2897 3.4810 1.6926
-4.4107 3.3247 1.6926
-4.5260 3.1642 1.6926
-4.6355 2.9998 1.6926
-4.7389 2.8315 1.6926
-4.8363 2.6596 1.6926
-4.9274 2.4844 1.6926
-5.0121 2.3061 1.6926
-5.0903 2.1249 1.6926
-5.1620 1.9410 1.6926
-5.2271 1.7547 1.6926
-5.2854 1.5662 1.6926
-5.3369 1.3758 1.6926
-5.3816 1.1837 1.6926
1.0135 -4.9606 1.6926
1.1905 -4.9214 1.6926
1.3660 -4.8758 1.6926
1.5398 -4.8241 1.6926
1.7117 -4.7662 1.6926
1.8814 -4.7022 1.6926
2.0487 -4.6322 1.6926
2.1487 -4.4230 1.6430
2.2306 -4.2019 1.5895
2.3799 -4.1198 1.5895
2.5261 -4.0324 1.5895
2.6692 -3.9398 1.5895
2.8088 -3.8422 1.5895
2.9449 -3.7396 1.5895
3.0773 -3.6323 1.5895
3.2058 -3.5203 1.5895
3.3303 -3.4037 1.5895
3.4505 -3.2828 1.5895
3.5663 -3.1576 1.5895
3.6776 -3.0284 1.5895
3.7843 -2.8953 1.5895
3.8862 -2.7585 1.5895
3.9831 -2.6180 1.5895
4.0750 -2.4742 1.5895
4.1617 -2.3272 1.5895
4.2431 -2.1771 1.5895
4.3191 -2.0242 1.5895
4.3896 -1.8687 1.5895
4.4545 -1.7107 1.5895
2.5887 -0.8892 0.9116
2.5059 -0.7617 0.8721
2.6467 -0.7020 0.9116
4.6567 -1.0584 1.5895
4.6926 -0.8912 1.5895
4.7224 -0.7229 1.5895
4.7462 -0.5535 1.5895
4.7640 -0.3834 1.5895
4.7756 -0.2127 1.5895
4.7812 -0.0417 1.5895
4.7806 0.1294 1.5895
2.3024 0.1449 0.7666
2.3019 0.2278 0.7685
2.3015 0.3113 0.7714
2.3010 0.3955 0.7754
4.6860 0.9793 1.5895
4.6489 1.1466 1.5895
4.6059 1.3124 1.5895
4.5568 1.4767 1.5895
4.5020 1.6391 1.5895
4.4413 1.7994 1.5895
4.3750 1.9575 1.5895
4.3029 2.1132 1.5895
4.2254 2.2662 1.5895
2.3031 1.3435 0.8837
2.7543 1.7416 1.0799
2.3035 1.5746 0.9245
2.6236 1.9348 1.0799
2.5532 2.0277 1.0799
2.4794 2.1181 1.0799
2.4024 2.2058 1.0799
2.3729 2.3405 1.1034
2.3083 2.4457 1.1132
2.2962 2.6142 1.1516
3.0386 3.7198 1.5895
2.6032 3.4302 1.4248
2.2855 3.2465 1.3135
0.8294 1.2725 0.5024
0.7830 1.3008 0.5022
0.7357 1.3274 0.5019
0.6875 1.3524 0.5017
0.6385 1.3757 0.5015
0.5887 1.3972 0.5013
0.5382 1.4169 0.5011
0.4870 1.4349 0.5009
0.4353 1.4511 0.5008
0.3830 1.4654 0.5007
0.3303 1.4779 0.5005
0.2772 1.4885 0.5004
0.2238 1.4973 0.5004
0.1701 1.5042 0.5003
0.1162 1.5092 0.5003
0.0621 1.5124 0.5002
0.0080 1.5136 0.5002
-0.0462 1.5129 0.5002
-0.1002 1.5104 0.5003
-0.1542 1.5059 0.5003
-0.2080 1.4996 0.5004
-0.2615 1.4914 0.5004
-0.3147 1.4813 0.5005
-0.3676 1.4694 0.5006
-0.4200 1.4556 0.5008
-0.4719 1.4400 0.5009
-0.5232 1.4225 0.5011
-0.5739 1.4033 0.5013
-0.6239 1.3823 0.5015
-0.6732 1.3596 0.5017
-0.7217 1.3351 0.5019
-0.7692 1.3090 0.5022
-0.8159 1.2811 0.5024
-2.9009 4.2144 1.6926
-3.0494 4.1074 1.6926
-3.1940 3.9952 1.6926
-3.3344 3.8779 1.6926
-3.4705 3.7556 1.6926
-3.6021 3.6286 1.6926
-3.7290 3.4969 1.6926
-3.8511 3.3607 1.6926
-3.9682 3.2203 1.6926
-4.0802 3.0758 1.6926
-4.1870 2.9274 1.6926
-4.2883 2.7753 1.6926
-4.3840 2.6196 1.6926
-4.4741 2.4607 1.6926
-4.5584 2.2986 1.6926
-4.6369 2.1337 1.6926
-4.7094 1.9661 1.6926
-4.7758 1.7960 1.6926
-4.8360 1.6236 1.6926
-4.8901 1.4493 1.6926
-4.9378 1.2732 1.6926
-4.9792 1.0955 1.6926
0.9424 -4.6125 1.6926
1.1070 -4.5759 1.6926
1.2702 -4.5336 1.6926
1.4318 -4.4855 1.6926
1.5916 -4.4316 1.6926
1.7494 -4.3721 1.6926
1.9049 -4.3069 1.6926
2.0581 -4.2363 1.6926
2.1466 -4.0434 1.6450
2.2129 -3.8305 1.5895
2.3488 -3.7492 1.5895
2.4818 -3.6631 1.5895
2.6116 -3.5723 1.5895
2.7382 -3.4769 1.5895
2.8613 -3.3771 1.5895
2.9807 -3.2729 1.5895
3.0964 -3.1645 1.5895
3.2081 -3.0520 1.5895
3.3158 -2.9356 1.5895
3.4193 -2.8155 1.5895
3.5184 -2.6917 1.5895
3.6131 -2.5644 1.5895
3.7032 -2.4338 1.5895
3.7885 -2.3001 1.5895
3.8691 -2.1634 1.5895
3.9447 -2.0238 1.5895
4.0153 -1.8817 1.5895
4.0808 -1.7371 1.5895
2.4276 -0.9322 0.9318
2.4275 -0.8338 0.9195
2.4350 -0.7400 0.9116
2.5655 -0.6804 0.9505
4.3289 -0.9837 1.5895
4.3622 -0.8283 1.5895
4.3899 -0.6718 1.5895
4.4119 -0.5143 1.5895
4.4284 -0.3562 1.5895
4.4391 -0.1975 1.5895
4.4442 -0.0386 1.5895
4.4436 0.1205 1.5895
4.4374 0.2795 1.5895
2.4693 0.2445 0.8869
2.3161 0.3134 0.8352
4.3844 0.7538 1.5895
4.3555 0.9104 1.5895
4.3209 1.0659 1.5895
4.2808 1.2200 1.5895
4.2352 1.3726 1.5895
4.1842 1.5236 1.5895
4.1278 1.6726 1.5895
2.7815 1.2447 1.0873
2.7170 1.3345 1.0799
2.3037 1.2357 0.9324
2.6155 1.5258 1.0799
2.5597 1.6187 1.0799
2.3033 1.5746 0.9947
2.4382 1.7982 1.0799
2.3872 1.8960 1.0865
2.3716 2.0261 1.1115
2.3708 2.1768 1.1467
2.3699 2.3377 1.1859
2.3689 2.5102 1.2294
2.9451 3.3532 1.5895
2.8237 3.4569 1.5895
2.6030 3.4302 1.5332
0.8141 1.1565 0.5035
0.7719 1.1844 0.5033
0.7288 1.2108 0.5030
0.6848 1.2357 0.5028
0.6399 1.2589 0.5026
0.5943 1.2806 0.5024
0.5480 1.3007 0.5022
0.5010 1.3191 0.5020
0.4534 1.3358 0.5019
0.4052 1.3509 0.5017
0.3566 1.3643 0.5016
0.3075 1.3759 0.5015
0.2581 1.3858 0.5014
0.2083 1.3940 0.5013
0.1583 1.4005 0.5013
0.1081 1.4051 0.5012
0.0578 1.4081 0.5012
0.0074 1.4092 0.5012
-0.0430 1.4086 0.5012
-0.0933 1.4062 0.5012
-0.1436 1.4021 0.5013
-0.1936 1.3962 0.5013
-0.2435 1.3885 0.5014
-0.2930 1.3791 0.5015
-0.3422 1.3680 0.5016
-0.3910 1.3551 0.5017
-0.4393 1.3406 0.5019
-0.4871 1.3243 0.5020
-0.5343 1.3064 0.5022
-0.5808 1.2868 0.5024
-0.6266 1.2656 0.5026
-0.6717 1.2428 0.5028
-0.7160 1.2184 0.5030
-0.7594 1.1925 0.5032
-0.8019 1.1651 0.5035
-2.8337 3.8170 1.6926
-2.9680 3.7128 1.6926
-3.0985 3.6038 1.6926
-3.2251 3.4902 1.6926
-3.3474 3.3722 1.6926
-3.4653 3.2498 1.6926
-3.5789 3.1234 1.6926
-3.6877 2.9929 1.6926
-3.7919 2.8586 1.6926
-3.8911 2.7207 1.6926
-3.9853 2.5794 1.6926
-4.0743 2.4348 1.6926
-4.1581 2.2871 1.6926
-4.2365 2.1365 1.6926
-4.3095 1.9832 1.6926
-4.3769 1.8275 1.6926
-4.4386 1.6694 1.6926
-4.4947 1.5092 1.6926
-4.5450 1.3472 1.6926
-4.5894 1.1835 1.6926
-4.6279 1.0184 1.6926
0.8797 -4.3054 1.6926
1.0334 -4.2713 1.6926
1.1857 -4.2317 1.6926
1.3365 -4.1868 1.6926
1.4857 -4.1365 1.6926
1.6329 -4.0809 1.6926
1.7781 -4.0201 1.6926
1.9211 -3.9542 1.6926
2.0616 -3.8832 1.6926
2.1448 -3.7124 1.6504
2.1924 -3.4994 1.5895
2.3335 -3.4440 1.6011
2.4377 -3.3342 1.5895
2.5558 -3.2452 1.5895
2.6707 -3.1520 1.5895
2.7822 -3.0547 1.5895
2.8901 -2.9535 1.5895
2.9944 -2.8485 1.5895
3.0949 -2.7399 1.5895
3.1914 -2.6277 1.5895
3.2839 -2.5121 1.5895
3.3722 -2.3933 1.5895
3.4563 -2.2714 1.5895
3.5359 -2.1465 1.5895
3.6111 -2.0189 1.5895
3.6816 -1.8887 1.5895
3.7475 -1.7560 1.5895
3.8086 -1.6210 1.5895
2.4248 -0.9310 0.9972
2.4248 -0.8327 0.9842
2.4248 -0.7368 0.9726
2.5559 -0.6777 1.0147
4.0399 -0.9178 1.5895
4.0709 -0.7728 1.5895
4.0967 -0.6267 1.5895
4.1172 -0.4798 1.5895
4.1325 -0.3322 1.5895
4.1425 -0.1842 1.5895
4.1472 -0.0358 1.5895
4.1466 0.1126 1.5895
4.1407 0.2610 1.5895
2.4693 0.2446 0.9505
4.1130 0.5567 1.5895
2.3082 0.3970 0.8968
4.0641 0.8497 1.5895
4.0318 0.9947 1.5895
3.9944 1.1385 1.5895
3.9518 1.2810 1.5895
3.9041 1.4218 1.5895
3.8514 1.5608 1.5895
2.7520 1.2316 1.1530
2.3042 1.1319 0.9816
2.4893 1.3353 1.0799
2.4403 1.4238 1.0799
2.3963 1.5155 1.0836
2.3031 1.5746 1.0660
2.3731 1.7503 1.1265
2.3724 1.8844 1.1573
2.3716 2.0263 1.1914
2.3708 2.1770 1.2291
2.2981 2.2670 1.2326
2.8574 3.0279 1.5895
2.7476 3.1286 1.5895
2.6343 3.2252 1.5895
0.7991 1.0531 0.5045
0.7606 1.0805 0.5042
0.7212 1.1066 0.5040
0.6809 1.1313 0.5038
0.6398 1.1546 0.5036
0.5979 1.1763 0.5033
0.5553 1.1966 0.5032
0.5120 1.2154 0.5030
0.4681 1.2326 0.5028
0.4236 1.2483 0.5027
0.3787 1.2624 0.5026
0.3332 1.2749 0.5024
0.2874 1.2858 0.5023
0.2412 1.2951 0.5023
0.1947 1.3027 0.5022
0.1480 1.3087 0.5021
0.1011 1.3131 0.5021
0.0540 1.3158 0.5021
0.0069 1.3169 0.5021
-0.0402 1.3163 0.5021
-0.0872 1.3141 0.5021
-0.1341 1.3102 0.5021
-0.1809 1.3047 0.5022
-0.2275 1.2975 0.5022
-0.2738 1.2887 0.5023
-0.3198 1.2783 0.5024
-0.3653 1.2663 0.5025
-0.4105 1.2527 0.5027
-0.4551 1.2375 0.5028
-0.4992 1.2207 0.5030
-0.5427 1.2024 0.5031
-0.5855 1.1826 0.5033
-0.6276 1.1612 0.5035
-0.6690 1.1384 0.5037
-0.7095 1.1142 0.5040
-0.7492 1.0885 0.5042
-0.7879 1.0614 0.5045
-0.8257 1.0330 0.5047
-2.8908 3.3623 1.6926
-3.0088 3.2564 1.6926
-3.1229 3.1463 1.6926
-3.2330 3.0322 1.6926
-3.3390 2.9142 1.6926
-3.4406 2.7925 1.6926
-3.5377 2.6673 1.6926
-3.6303 2.5386 1.6926
-3.7183 2.4068 1.6926
-3.8014 2.2719 1.6926
-3.8796 2.1341 1.6926
-3.9528 1.9936 1.6926
-4.0209 1.8506 1.6926
-4.0838 1.7053 1.6926
-4.1415 1.5578 1.6926
-4.1939 1.4084 1.6926
-4.2408 1.2573 1.6926
-4.2823 1.1045 1.6926
-4.3183 0.9505 1.6926
0.8239 -4.0322 1.6926
0.9679 -4.0003 1.6926
1.1105 -3.9632 1.6926
1.2518 -3.9211 1.6926
1.3915 -3.8740 1.6926
1.5294 -3.8219 1.6926
1.6654 -3.7650 1.6926
1.7992 -3.7032 1.6926
1.9308 -3.6367 1.6926
2.0600 -3.5655 1.6926
2.1432 -3.4206 1.6590
2.1696 -3.2019 1.5895
2.2831 -3.1225 1.5895
2.3937 -3.0391 1.5895
2.5012 -2.9517 1.5895
2.6056 -2.8606 1.5895
2.7067 -2.7659 1.5895
2.8043 -2.6675 1.5895
2.8984 -2.5657 1.5895
2.9888 -2.4607 1.5895
3.0754 -2.3524 1.5895
3.1581 -2.2411 1.5895
3.2367 -2.1269 1.5895
3.3113 -2.0100 1.5895
3.3816 -1.8905 1.5895
3.4477 -1.7685 1.5895
3.5093 -1.6442 1.5895
3.5665 -1.5178 1.5895
2.4219 -0.9298 1.0637
2.4220 -0.8316 1.0498
2.4220 -0.7358 1.0375
2.5461 -0.6750 1.0795
3.7829 -0.8593 1.5895
3.8119 -0.7235 1.5895
3.8360 -0.5867 1.5895
3.8552 -0.4491 1.5895
3.8695 -0.3109 1.5895
3.8788 -0.1723 1.5895
3.8832 -0.0334 1.5895
3.8826 0.1056 1.5895
3.8770 0.2445 1.5895
2.4694 0.2447 1.0151
3.8510 0.5214 1.5895
3.8305 0.6589 1.5895
3.8052 0.7957 1.5895
2.3073 0.5694 0.9715
3.7398 1.0662 1.5895
3.6999 1.1995 1.5895
3.6552 1.3313 1.5895
3.6058 1.4614 1.5895
2.3048 1.0316 1.0314
2.5044 1.2303 1.1395
2.3791 1.2763 1.1024
2.3751 1.3858 1.1226
2.3744 1.5018 1.1468
2.3029 1.5746 1.1386
2.3731 1.7504 1.2033
2.3724 1.8845 1.2362
2.9620 2.5309 1.5895
2.3103 2.1216 1.2795
2.4826 2.4492 1.4224
2.6749 2.8347 1.5895
0.8182 0.9317 0.5056
0.7841 0.9600 0.5054
0.7489 0.9871 0.5051
0.7129 1.0128 0.5049
0.6760 1.0373 0.5046
0.6382 1.0605 0.5044
0.5997 1.0823 0.5042
0.5605 1.1027 0.5040
0.5205 1.1217 0.5039
0.4800 1.1394 0.5037
0.4388 1.1555 0.5035
0.3971 1.1702 0.5034
0.3550 1.1835 0.5033
0.3124 1.1952 0.5032
0.2694 1.2054 0.5031
0.2261 1.2141 0.5030
0.1825 1.2213 0.5029
0.1387 1.2270 0.5029
0.0947 1.2311 0.5029
0.0506 1.2337 0.5028
0.0065 1.2347 0.5028
-0.0377 1.2341 0.5028
-0.0818 1.2320 0.5029
-0.1258 1.2284 0.5029
-0.1696 1.2232 0.5029
-0.2133 1.2165 0.5030
-0.2567 1.2082 0.5031
-0.2998 1.1984 0.5032
-0.3425 1.1871 0.5033
-0.3848 1.1744 0.5034
-0.4266 1.1601 0.5035
-0.4679 1.1444 0.5037
-0.5087 1.1272 0.5038
-0.5488 1.1086 0.5040
-0.5883 1.0886 0.5042
-0.6271 1.0671 0.5044
-0.6650 1.0444 0.5046
-0.7022 1.0203 0.5049
-0.7385 0.9949 0.5051
-0.7739 0.9682 0.5053
-0.8084 0.9403 0.5056
-2.8166 3.0486 1.6926
-2.9235 2.9456 1.6926
-3.0266 2.8387 1.6926
-3.1258 2.7283 1.6926
-3.2209 2.6144 1.6926
-3.3119 2.4972 1.6926
-3.3987 2.3768 1.6926
-3.4810 2.2534 1.6926
-3.5588 2.1271 1.6926
-3.6321 1.9981 1.6926
-3.7007 1.8666 1.6926
-3.7645 1.7328 1.6926
-3.8234 1.5967 1.6926
-3.8775 1.4587 1.6926
-3.9265 1.3188 1.6926
-3.9705 1.1773 1.6926
-4.0094 1.0343 1.6926
-4.0431 0.8901 1.6926
0.7740 -3.7874 1.6926
0.9091 -3.7574 1.6926
1.0431 -3.7226 1.6926
1.1758 -3.6830 1.6926
1.3070 -3.6388 1.6926
1.4366 -3.5898 1.6926
1.5643 -3.5363 1.6926
1.6901 -3.4783 1.6926
1.8137 -3.4158 1.6926
1.9350 -3.3489 1.6926
2.0538 -3.2778 1.6926
2.1418 -3.1607 1.6705
2.1510 -2.9417 1.5943
2.2483 -2.8544 1.5895
2.3494 -2.7724 1.5895
2.4474 -2.6868 1.5895
2.5423 -2.5977 1.5895
2.6340 -2.5053 1.5895
2.7223 -2.4097 1.5895
2.8072 -2.3110 1.5895
2.8885 -2.2093 1.5895
2.9662 -2.1048 1.5895
3.0400 -1.9975 1.5895
3.1101 -1.8877 1.5895
3.1761 -1.7754 1.5895
3.2381 -1.6608 1.5895
3.2960 -1.5441 1.5895
3.3496 -1.4253 1.5895
2.4191 -0.9286 1.1312
2.4191 -0.8305 1.1164
2.4192 -0.7349 1.1034
2.5363 -0.6723 1.1449
3.5527 -0.8068 1.5895
3.5799 -0.6793 1.5895
3.6025 -0.5508 1.5895
3.6206 -0.4216 1.5895
3.6339 -0.2918 1.5895
3.6427 -0.1616 1.5895
3.6467 -0.0311 1.5895
3.6461 0.0994 1.5895
3.6409 0.2298 1.5895
2.4694 0.2448 1.0810
3.6163 0.4898 1.5895
3.5971 0.6190 1.5895
3.5732 0.7474 1.5895
3.5448 0.8749 1.5895
3.5118 1.0013 1.5895
2.3063 0.7478 1.0551
3.4323 1.2503 1.5895
2.3053 0.9345 1.0822
3.3352 1.4930 1.5895
2.5041 1.2303 1.2134
2.3757 1.2746 1.1724
2.3751 1.3859 1.1956
2.3744 1.5019 1.2214
2.3027 1.5746 1.2125
2.9432 2.1711 1.5895
2.8640 2.2753 1.5895
2.7812 2.3765 1.5895
2.6679 2.4502 1.5737
0.8303 0.8192 0.5067
0.8002 0.8480 0.5064
0.7691 0.8758 0.5061
0.7370 0.9024 0.5059
0.7040 0.9278 0.5057
0.6701 0.9521 0.5054
0.6354 0.9751 0.5052
0.6000 0.9969 0.5050
0.5637 1.0174 0.5048
0.5269 1.0366 0.5047
0.4893 1.0546 0.5045
0.4512 1.0711 0.5043
0.4125 1.0863 0.5042
0.3733 1.1002 0.5041
0.3337 1.1126 0.5040
0.2937 1.1237 0.5039
0.2532 1.1333 0.5038
0.2125 1.1415 0.5037
0.1716 1.1483 0.5036
0.1304 1.1536 0.5036
0.0891 1.1574 0.5035
0.0476 1.1599 0.5035
0.0061 1.1608 0.5035
-0.0354 1.1603 0.5035
-0.0769 1.1583 0.5035
-0.1182 1.1549 0.5036
-0.1595 1.1500 0.5036
-0.2005 1.1437 0.5037
-0.2413 1.1359 0.5038
-0.2818 1.1267 0.5038
-0.3220 1.1161 0.5039
-0.3617 1.1041 0.5041
-0.4011 1.0906 0.5042
-0.4399 1.0758 0.5043
-0.4782 1.0597 0.5045
-0.5159 1.0421 0.5046
-0.5530 1.0233 0.5048
-0.5894 1.0032 0.5050
-0.6251 0.9818 0.5052
-0.6600 0.9591 0.5054
-0.6941 0.9352 0.5056
-0.7274 0.9101 0.5059
-0.7598 0.8838 0.5061
-0.7912 0.8564 0.5064
-0.8217 0.8279 0.5067
-2.8418 2.6656 1.6926
-2.9349 2.5619 1.6926
-3.0243 2.4550 1.6926
-3.1098 2.3449 1.6926
-3.1912 2.2319 1.6926
-3.2685 2.1160 1.6926
-3.3417 1.9975 1.6926
-3.4104 1.8764 1.6926
-3.4749 1.7529 1.6926
-3.5348 1.6272 1.6926
-3.5902 1.4995 1.6926
-3.6410 1.3699 1.6926
-3.6871 1.2386 1.6926
-3.7284 1.1057 1.6926
-3.7650 0.9715 1.6926
-3.7967 0.8360 1.6926
0.7289 -3.5666 1.6926
0.8562 -3.5383 1.6926
0.9824 -3.5055 1.6926
1.1073 -3.4683 1.6926
1.2309 -3.4266 1.6926
1.3529 -3.3805 1.6926
1.4731 -3.3301 1.6926
1.5916 -3.2754 1.6926
1.7080 -3.2165 1.6926
1.8222 -3.1536 1.6926
1.9341 -3.0866 1.6926
2.0436 -3.0156 1.6926
2.1405 -2.9272 1.6847
2.1460 -2.7243 1.6110
2.2124 -2.6105 1.5895
2.3047 -2.5299 1.5895
2.3940 -2.4461 1.5895
2.4804 -2.3591 1.5895
2.5635 -2.2690 1.5895
2.6435 -2.1760 1.5895
2.7200 -2.0803 1.5895
2.7931 -1.9818 1.5895
2.8626 -1.8808 1.5895
2.9285 -1.7773 1.5895
2.9907 -1.6716 1.5895
3.0491 -1.5637 1.5895
3.1035 -1.4538 1.5895
3.1541 -1.3419 1.5895
2.4161 -0.9273 1.1999
2.4163 -0.8294 1.1843
2.4163 -0.7339 1.1705
2.5263 -0.6695 1.2112
3.3452 -0.7595 1.5895
3.3707 -0.6394 1.5895
3.3920 -0.5184 1.5895
3.4089 -0.3968 1.5895
3.4215 -0.2746 1.5895
3.4297 -0.1520 1.5895
3.4335 -0.0292 1.5895
3.4329 0.0937 1.5895
3.4279 0.2165 1.5895
2.4695 0.2450 1.1482
3.4047 0.4613 1.5895
3.3866 0.5829 1.5895
3.3641 0.7038 1.5895
3.3373 0.8239 1.5895
3.3062 0.9429 1.5895
3.2709 1.0607 1.5895
3.2314 1.1772 1.5895
2.3053 0.9346 1.1495
2.3162 1.0369 1.1725
3.0880 1.5173 1.5895
2.3787 1.2764 1.2469
2.5184 1.4697 1.3467
2.4592 1.5557 1.3437
2.3025 1.5746 1.2879
2.7707 2.0440 1.5895
2.6962 2.1421 1.5895
2.6181 2.2374 1.5895
0.8098 0.7437 0.5074
0.7824 0.7719 0.5071
0.7539 0.7991 0.5069
0.7246 0.8252 0.5066
0.6944 0.8503 0.5064
0.6633 0.8743 0.5062
0.6314 0.8972 0.5060
0.5988 0.9189 0.5058
0.5653 0.9395 0.5056
0.5313 0.9588 0.5054
0.4965 0.9769 0.5052
0.4611 0.9938 0.5051
0.4252 1.0095 0.5049
0.3888 1.0238 0.5048
0.3518 1.0369 0.5047
0.3145 1.0486 0.5046
0.2768 1.0591 0.5045
0.2387 1.0681 0.5044
0.2003 1.0759 0.5043
0.1617 1.0822 0.5042
0.1229 1.0873 0.5042
0.0839 1.0909 0.5042
0.0449 1.0932 0.5041
0.0058 1.0941 0.5041
-0.0334 1.0936 0.5041
-0.0725 1.0917 0.5042
-0.1114 1.0885 0.5042
-0.1503 1.0839 0.5042
-0.1890 1.0779 0.5043
-0.2274 1.0706 0.5044
-0.2656 1.0619 0.5044
-0.3034 1.0519 0.5045
-0.3409 1.0405 0.5047
-0.3780 1.0279 0.5048
-0.4146 1.0139 0.5049
-0.4506 0.9987 0.5050
-0.4862 0.9821 0.5052
-0.5211 0.9644 0.5054
-0.5554 0.9454 0.5055
-0.5891 0.9252 0.5057
-0.6219 0.9038 0.5059
-0.6541 0.8813 0.5061
-0.6854 0.8576 0.5064
-0.7159 0.8328 0.5066
-0.7455 0.8070 0.5068
-0.7742 0.7801 0.5071
-0.8019 0.7522 0.5074
-0.8286 0.7234 0.5076
-2.8470 2.3112 1.6926
-2.9275 2.2077 1.6926
-3.0042 2.1013 1.6926
-3.0770 1.9922 1.6926
-3.1459 1.8806 1.6926
-3.2107 1.7666 1.6926
-3.2713 1.6504 1.6926
-3.3278 1.5321 1.6926
-3.3800 1.4119 1.6926
-3.4278 1.2899 1.6926
-3.4712 1.1662 1.6926
-3.5102 1.0412 1.6926
-3.5446 0.9148 1.6926
-3.5745 0.7872 1.6926
0.6880 -3.3662 1.6926
0.8081 -3.3395 1.6926
0.9272 -3.3085 1.6926
1.0451 -3.2733 1.6926
1.1618 -3.2340 1.6926
1.2769 -3.1905 1.6926
1.3904 -3.1429 1.6926
1.5022 -3.0913 1.6926
1.6120 -3.0357 1.6926
1.7198 -2.9763 1.6926
1.8254 -2.9130 1.6926
1.9288 -2.8460 1.6926
2.0296 -2.7754 1.6926
2.1279 -2.7012 1.6926
2.1406 -2.5257 1.6295
2.1751 -2.3876 1.5895
2.2595 -2.3084 1.5895
2.3409 -2.2263 1.5895
2.4194 -2.1413 1.5895
2.4948 -2.0535 1.5895
2.5671 -1.9631 1.5895
2.6360 -1.8702 1.5895
2.7017 -1.7749 1.5895
2.7638 -1.6772 1.5895
2.8225 -1.5774 1.5895
2.8776 -1.4756 1.5895
2.9289 -1.3718 1.5895
2.9766 -1.2663 1.5895
2.4132 -0.9260 1.2699
2.4133 -0.8283 1.2534
2.4134 -0.7329 1.2388
2.5163 -0.6667 1.2783
3.1568 -0.7166 1.5895
3.1809 -0.6033 1.5895
3.2010 -0.4891 1.5895
3.2169 -0.3743 1.5895
3.2288 -0.2590 1.5895
3.2365 -0.1433 1.5895
3.2400 -0.0274 1.5895
3.2395 0.0886 1.5895
3.2347 0.2045 1.5895
2.4695 0.2451 1.2168
3.2128 0.4354 1.5895
3.1957 0.5502 1.5895
3.1744 0.6643 1.5895
3.1491 0.7776 1.5895
2.3193 0.6615 1.1816
3.0864 1.0010 1.5895
3.0491 1.1110 1.5895
3.0078 1.2195 1.5895
2.9627 1.3265 1.5895
2.9137 1.4319 1.5895
2.3037 1.2363 1.2798
2.5182 1.4697 1.4271
2.4592 1.5558 1.4241
2.3023 1.5746 1.3649
2.6142 1.9287 1.5895
0.8135 0.6464 0.5083
0.7896 0.6748 0.5080
0.7646 0.7023 0.5078
0.7387 0.7289 0.5075
0.7119 0.7546 0.5073
0.6843 0.7793 0.5071
0.6557 0.8030 0.5068
0.6264 0.8257 0.5066
0.5963 0.8473 0.5064
0.5655 0.8678 0.5062
0.5339 0.8873 0.5060
0.5017 0.9056 0.5059
0.4689 0.9227 0.5057
0.4355 0.9387 0.5056
0.4016 0.9535 0.5054
0.3672 0.9670 0.5053
0.3323 0.9794 0.5052
0.2970 0.9905 0.5051
0.2614 1.0003 0.5050
0.2254 1.0089 0.5049
0.1892 1.0162 0.5049
0.1527 1.0222 0.5048
0.1161 1.0270 0.5048
0.0793 1.0304 0.5047
0.0424 1.0326 0.5047
0.0054 1.0334 0.5047
-0.0315 1.0330 0.5047
-0.0684 1.0312 0.5047
-0.1052 1.0281 0.5048
-0.1420 1.0238 0.5048
-0.1785 1.0181 0.5049
-0.2148 1.0112 0.5049
-0.2508 1.0030 0.5050
-0.2866 0.9935 0.5051
-0.3220 0.9828 0.5052
-0.3570 0.9708 0.5053
-0.3915 0.9576 0.5054
-0.4256 0.9432 0.5056
-0.4592 0.9276 0.5057
-0.4922 0.9108 0.5059
-0.5245 0.8929 0.5060
-0.5563 0.8738 0.5062
-0.5874 0.8536 0.5064
-0.6177 0.8323 0.5066
-0.6473 0.8099 0.5068
-0.6760 0.7865 0.5070
-0.7040 0.7621 0.5073
-0.7310 0.7367 0.5075
-0.7572 0.7103 0.5077
-0.7824 0.6831 0.5080
-0.8067 0.6549 0.5083
-0.8299 0.6259 0.5085
-2.8346 1.9828 1.6926
-2.9033 1.8799 1.6926
-2.9683 1.7746 1.6926
-3.0294 1.6671 1.6926
-3.0867 1.5574 1.6926
-3.1400 1.4458 1.6926
-3.1893 1.3324 1.6926
-3.2344 1.2173 1.6926
-3.2754 1.1006 1.6926
-3.3122 0.9826 1.6926
-3.3447 0.8633 1.6926
-3.3729 0.7430 1.6926
0.6506 -3.1833 1.6926
0.7642 -3.1580 1.6926
0.8769 -3.1287 1.6926
0.9884 -3.0955 1.6926
1.0987 -3.0582 1.6926
1.2076 -3.0171 1.6926
1.3149 -2.9721 1.6926
1.4206 -2.9233 1.6926
1.5245 -2.8707 1.6926
1.6264 -2.8145 1.6926
1.7263 -2.7546 1.6926
1.8240 -2.6912 1.6926
1.9194 -2.6244 1.6926
2.0123 -2.5543 1.6926
2.1027 -2.4808 1.6926
2.1373 -2.3459 1.6516
2.1464 -2.1927 1.5967
2.2137 -2.1052 1.5895
2.2879 -2.0248 1.5895
2.3592 -1.9418 1.5895
2.4275 -1.8563 1.5895
2.4928 -1.7684 1.5895
2.5548 -1.6782 1.5895
2.6136 -1.5859 1.5895
2.6690 -1.4915 1.5895
2.7211 -1.3952 1.5895
2.7696 -1.2971 1.5895
2.8147 -1.1972 1.5895
2.4101 -0.9247 1.3413
2.4103 -0.8271 1.3238
2.4105 -0.7318 1.3085
2.5060 -0.6639 1.3464
2.9850 -0.6775 1.5895
3.0078 -0.5703 1.5895
3.0267 -0.4623 1.5895
3.0418 -0.3538 1.5895
3.0530 -0.2447 1.5895
3.0602 -0.1353 1.5895
3.0636 -0.0257 1.5895
3.0630 0.0839 1.5895
3.0585 0.1935 1.5895
2.4696 0.2452 1.2869
3.0377 0.4119 1.5895
3.0215 0.5204 1.5895
3.0014 0.6282 1.5895
2.3073 0.5698 1.2317
2.9497 0.8415 1.5895
2.9181 0.9466 1.5895
2.8828 1.0505 1.5895
2.8438 1.1532 1.5895
2.8011 1.2543 1.5895
2.7548 1.3539 1.5895
2.7050 1.4518 1.5895
2.5179 1.4697 1.5093
0.8317 0.5262 0.5094
0.8120 0.5554 0.5091
0.7913 0.5838 0.5089
0.7696 0.6115 0.5086
0.7470 0.6384 0.5084
0.7234 0.6645 0.5081
0.6989 0.6897 0.5079
0.6736 0.7140 0.5077
