ply
format ascii 1.0
element vertex 2119
property float32 x
property float32 y
property float32 z
end_header
-9.8049 -20.8727 0.7613
-8.9312 -20.9311 0.7470
-8.0791 -20.9880 0.7339
-7.2458 -21.0436 0.7218
-6.4285 -21.0982 0.7108
-5.6249 -21.1518 0.7007
-4.8324 -21.2047 0.6916
-3.8651 -20.2921 0.6523
-3.1236 -20.3416 0.6453
-2.0596 -17.5950 0.5514
-1.6677 -20.6271 0.6393
-0.9118 -20.3251 0.6237
-0.1833 -20.4034 0.6206
0.5474 -20.3742 0.6150
1.2860 -20.4815 0.6142
1.9907 -20.1334 0.6005
2.8363 -20.9764 0.6230
3.6149 -21.0284 0.6227
4.4072 -21.0813 0.6231
5.2154 -21.1352 0.6243
6.0424 -21.1904 0.6263
6.8909 -21.2471 0.6292
7.7641 -21.3054 0.6330
8.6653 -21.3655 0.6378
9.5986 -21.4278 0.6435
10.5680 -21.4925 0.6504
11.5784 -21.5599 0.6584
12.6352 -21.6305 0.6677
13.7446 -21.7045 0.6784
14.9137 -21.7826 0.6907
5.2034 31.1387 1.4974
1.8917 14.4992 0.6969
1.3689 14.5358 0.6992
0.8470 14.5724 0.7025
0.3247 14.6090 0.7067
-0.4826 35.4285 1.7222
-1.7430 35.2114 1.7222
-1.7202 20.1172 0.9913
-2.2023 18.0906 0.8993
-2.8709 18.1375 0.9108
-3.5506 18.1851 0.9236
-7.3248 31.4724 1.6190
-8.4220 31.0943 1.6222
-9.4830 30.6178 1.6222
-8.3514 23.8981 1.2877
-8.5154 21.8226 1.1975
-8.6495 20.0166 1.1202
-8.7509 18.4096 1.0523
-8.8497 17.0165 0.9950
-8.9330 15.7689 0.9447
-8.9922 14.6250 0.8992
-9.0752 13.6391 0.8621
-9.1366 12.7183 0.8279
-9.1930 11.8742 0.7975
-9.2449 11.0958 0.7705
-9.2931 10.3738 0.7463
-9.3381 9.7007 0.7246
-9.3802 9.0701 0.7051
-9.4198 8.4766 0.6876
-9.4572 7.9156 0.6719
-9.4927 7.3832 0.6578
-9.5266 6.8761 0.6451
-9.5590 6.3911 0.6337
-9.5900 5.9258 0.6235
-9.6199 5.4778 0.6143
-9.6488 5.0451 0.6063
-9.6768 4.6259 0.5991
-9.7040 4.2185 0.5929
-9.7305 3.8214 0.5875
-9.7564 3.4333 0.5829
-9.7818 3.0528 0.5790
-9.8066 2.6788 0.5759
-9.8308 2.3101 0.5735
-9.8547 1.9458 0.5717
-9.8784 1.5849 0.5706
-9.9018 1.2264 0.5702
-9.9251 0.8694 0.5704
-9.9487 0.5130 0.5713
-9.9724 0.1562 0.5728
-9.9963 -0.2019 0.5750
-10.0210 -0.5623 0.5779
-10.0463 -0.9260 0.5816
-10.0414 -1.2900 0.5841
-10.1001 -1.6676 0.5911
-10.1293 -2.0479 0.5970
-10.1590 -2.4360 0.6038
-10.1909 -2.8336 0.6115
-10.2236 -3.2418 0.6201
-10.2579 -3.6623 0.6298
-10.2936 -4.0968 0.6404
-10.1222 -4.4553 0.6391
-26.8439 -12.9835 1.7222
-26.3790 -13.9469 1.7222
-25.8835 -14.8960 1.7222
-24.9902 -15.6004 1.6972
-23.3177 -15.7454 1.6191
-22.7677 -16.5927 1.6191
-22.1904 -17.4235 1.6191
-21.5860 -18.2369 1.6191
-20.9550 -19.0323 1.6191
-16.7147 -16.3122 1.3333
-19.7582 -20.7163 1.6309
-16.3200 -18.3884 1.3976
-16.3515 -19.8112 1.4568
-12.7096 -16.5749 1.1816
-15.0932 -21.2173 1.4692
-15.0411 -22.8352 1.5386
-14.4264 -23.7107 1.5572
-11.6477 -20.7870 1.3329
-10.2150 -19.8683 1.2458
-9.8017 -20.8723 1.2816
-8.9280 -20.9306 1.2604
-8.0760 -20.9875 1.2412
-7.2426 -21.0432 1.2239
-6.4254 -21.0977 1.2084
-5.6217 -21.1514 1.1945
-4.8292 -21.2043 1.1822
-3.8622 -20.2923 1.1184
-3.1207 -20.3418 1.1096
-2.0494 -17.5303 0.9476
-1.6370 -20.2839 1.0878
-0.9078 -20.3041 1.0816
-0.1798 -20.3527 1.0783
0.5513 -20.4015 1.0762
1.2891 -20.4798 1.0771
1.9945 -20.1402 1.0573
2.8397 -20.9767 1.1006
3.6184 -21.0286 1.1040
4.4107 -21.0815 1.1089
5.2191 -21.1355 1.1154
6.0461 -21.1907 1.1234
6.8947 -21.2473 1.1331
7.7680 -21.3056 1.1445
8.6694 -21.3658 1.1579
9.6028 -21.4281 1.1732
10.5723 -21.4928 1.1907
11.5829 -21.5603 1.2105
12.6399 -21.6308 1.2328
13.7495 -21.7049 1.2580
14.9188 -21.7829 1.2862
3.8139 22.8036 1.6191
1.6747 12.8211 0.9084
1.2124 12.8535 0.9101
0.7509 12.8859 0.9129
0.2890 12.9182 0.9170
-0.3257 24.1834 1.7222
-1.1879 24.0733 1.7222
-1.7187 20.1375 1.4491
-2.1991 18.0882 1.3110
-2.8676 18.1350 1.3256
-3.5472 18.1826 1.3422
-5.0439 21.6877 1.6189
-5.7975 21.4180 1.6189
-6.5384 21.1227 1.6189
-7.2658 20.8022 1.6189
-7.9789 20.4575 1.6189
-6.0584 14.0265 1.1304
-9.3781 19.7371 1.6222
-10.0452 19.3226 1.6222
-10.6952 18.8865 1.6222
-8.9670 14.5892 1.2842
-9.0243 13.5672 1.2259
-9.1364 12.7220 1.1823
-9.1928 11.8777 1.1373
-9.2447 11.0989 1.0973
-9.2929 10.3767 1.0614
-9.3379 9.7033 1.0293
-9.3800 9.0725 1.0004
-9.4196 8.4788 0.9744
-9.4571 7.9177 0.9509
-9.4926 7.3852 0.9299
-9.5265 6.8778 0.9109
-9.5589 6.3928 0.8938
-9.5899 5.9273 0.8785
-9.6198 5.4793 0.8648
-9.6487 5.0465 0.8526
-9.6767 4.6272 0.8418
-9.7039 4.2197 0.8323
-9.7304 3.8225 0.8240
-9.7563 3.4343 0.8169
-9.7817 3.0538 0.8109
-9.8066 2.6797 0.8059
-9.8308 2.3110 0.8020
-9.8547 1.9466 0.7990
-9.8783 1.5856 0.7970
-9.9018 1.2271 0.7960
-9.9251 0.8700 0.7959
-9.9486 0.5135 0.7967
-9.9724 0.1567 0.7985
-9.9963 -0.2015 0.8013
-10.0210 -0.5619 0.8051
-10.0463 -0.9256 0.8099
-10.0417 -1.2898 0.8132
-10.1001 -1.6673 0.8227
-10.1292 -2.0477 0.8309
-10.1590 -2.4359 0.8402
-10.1909 -2.8335 0.8509
-10.2236 -3.2418 0.8628
-10.2579 -3.6624 0.8762
-10.2937 -4.0970 0.8911
-10.1218 -4.4553 0.8893
-19.2870 -9.3289 1.7222
-18.9492 -10.0193 1.7222
-18.5889 -10.6988 1.7222
-18.2063 -11.3665 1.7222
-17.8017 -12.0218 1.7222
-17.3754 -12.6642 1.7222
-16.9278 -13.2929 1.7222
-16.4593 -13.9073 1.7222
-15.9701 -14.5067 1.7222
-15.4608 -15.0905 1.7222
-14.9317 -15.6582 1.7222
-14.3833 -16.2090 1.7222
-13.4974 -16.3560 1.6825
-12.5869 -16.4180 1.6384
-11.8710 -16.6912 1.6191
-11.2872 -17.1399 1.6191
-10.6876 -17.5698 1.6191
-10.0725 -17.9804 1.6191
-9.4427 -18.3713 1.6191
-8.7986 -18.7418 1.6191
-8.1407 -19.0913 1.6191
-7.4698 -19.4195 1.6191
-6.7864 -19.7258 1.6191
-6.0912 -20.0097 1.6191
-5.3847 -20.2707 1.6191
-4.6677 -20.5083 1.6191
-3.8593 -20.2925 1.5855
-3.1178 -20.3420 1.5750
-2.0449 -17.5136 1.3454
-1.6604 -20.6127 1.5731
-0.9207 -20.6621 1.5684
-0.1798 -20.7116 1.5657
0.5642 -20.7612 1.5649
1.3676 -21.6736 1.6309
2.1506 -21.6824 1.6309
2.8431 -20.9769 1.5792
3.6219 -21.0289 1.5865
4.4142 -21.0818 1.5960
5.2227 -21.1357 1.6077
6.0402 -21.1571 1.6191
6.8181 -20.9999 1.6191
7.5927 -20.8145 1.6191
8.3629 -20.6010 1.6191
9.1276 -20.3591 1.6191
9.8858 -20.0891 1.6191
10.6364 -19.7909 1.6191
11.3783 -19.4647 1.6191
5.2361 -8.2628 0.7001
12.8314 -18.7289 1.6191
3.0673 18.3233 1.7222
1.6763 12.8196 1.2014
1.2141 12.8520 1.2026
0.7528 12.8843 1.2054
0.2910 12.9167 1.2098
-0.2442 18.3427 1.7222
-0.8989 18.2743 1.7222
-1.5490 18.1824 1.7222
-2.1937 18.0673 1.7222
-2.8321 17.9292 1.7222
-3.4635 17.7687 1.7222
-4.0870 17.5861 1.7222
-4.7020 17.3818 1.7222
-4.9894 16.1276 1.6189
-5.5493 15.8960 1.6189
-6.0991 15.6452 1.6189
-6.0491 14.0112 1.4753
-7.1662 15.0883 1.6189
-7.6823 14.7830 1.6189
-8.1859 14.4607 1.6189
-8.6767 14.1217 1.6189
-9.1724 13.7944 1.6222
-9.6367 13.4231 1.6222
-10.0867 13.0368 1.6222
-10.5219 12.6360 1.6222
-9.3044 10.3925 1.3794
-11.3462 11.7936 1.6222
-9.3510 9.0470 1.2927
-9.3651 8.4321 1.2549
-9.4044 7.8757 1.2242
-9.4746 7.3732 1.2007
-9.5264 6.8796 1.1777
-9.5587 6.3944 1.1549
-9.5898 5.9289 1.1345
-9.6197 5.4807 1.1162
-9.6486 5.0479 1.0999
-9.6766 4.6285 1.0854
-9.7038 4.2209 1.0726
-9.7303 3.8236 1.0614
-9.7563 3.4353 1.0518
-9.7817 3.0547 1.0436
-9.8065 2.6806 1.0368
-9.8307 2.3118 1.0313
-9.8546 1.9474 1.0271
-9.8783 1.5864 1.0242
-9.9017 1.2278 1.0225
-9.9251 0.8707 1.0221
-9.9486 0.5141 1.0229
-9.9724 0.1572 1.0250
-9.9962 -0.2010 1.0283
-10.0210 -0.5615 1.0330
-10.0463 -0.9253 1.0390
-10.0421 -1.2895 1.0432
-10.1001 -1.6671 1.0552
-10.1292 -2.0475 1.0656
-10.1590 -2.4357 1.0775
-10.1909 -2.8335 1.0911
-10.2236 -3.2418 1.1064
-10.2579 -3.6624 1.1236
-10.2937 -4.0971 1.1428
-10.1214 -4.4554 1.1404
-14.1375 -6.8385 1.6191
-13.8886 -7.3440 1.6191
-13.6228 -7.8411 1.6191
-11.5961 -7.2403 1.4074
-13.8718 -9.3688 1.7222
-13.5368 -9.8674 1.7222
-13.1850 -10.3550 1.7222
-12.8167 -10.8309 1.7222
-12.4323 -11.2946 1.7222
-12.0322 -11.7457 1.7222
-11.6166 -12.1836 1.7222
-11.1859 -12.6078 1.7222
-10.7407 -13.0178 1.7222
-10.2813 -13.4132 1.7222
-9.8081 -13.7934 1.7222
-9.3215 -14.1579 1.7222
-8.8221 -14.5064 1.7222
-8.3102 -14.8383 1.7222
-7.7865 -15.1533 1.7222
-7.2514 -15.4508 1.7222
-6.7054 -15.7305 1.7222
-6.1491 -15.9920 1.7222
-5.5830 -16.2348 1.7222
-5.0078 -16.4585 1.7222
-4.4239 -16.6629 1.7222
-3.8320 -16.8475 1.7222
-3.2329 -17.0120 1.7222
-2.6145 -17.0751 1.7141
-1.9961 -17.1175 1.7061
-1.3797 -17.1597 1.7002
-0.7639 -17.2020 1.6965
-0.1471 -17.2443 1.6949
0.4724 -17.2868 1.6954
1.0962 -17.3294 1.6980
1.7258 -17.3714 1.7028
2.3630 -17.4139 1.7097
3.0095 -17.4571 1.7190
3.6497 -17.4163 1.7222
4.2828 -17.3200 1.7222
4.9137 -17.2010 1.7222
5.5417 -17.0592 1.7222
6.1660 -16.8948 1.7222
6.7856 -16.7076 1.7222
7.3997 -16.4978 1.7222
8.0075 -16.2655 1.7222
3.7675 -7.0075 0.7538
9.2007 -15.7338 1.7222
9.7843 -15.4348 1.7222
5.8645 -8.5571 0.9751
2.4646 14.7104 1.7222
1.7892 13.6671 1.5947
1.3994 14.7896 1.7222
0.8669 14.7999 1.7222
0.3117 13.7455 1.6005
-0.1943 14.7622 1.7222
-0.7215 14.7146 1.7222
-1.2456 14.6481 1.7222
-1.7658 14.5627 1.7222
-2.2816 14.4589 1.7222
-2.7921 14.3368 1.7222
-3.2969 14.1967 1.7222
-3.7953 14.0390 1.7222
-4.2866 13.8638 1.7222
-4.7703 13.6716 1.7222
-5.0663 13.0019 1.6633
-5.3701 12.4440 1.6189
-5.8002 12.2173 1.6189
-6.2211 11.9761 1.6189
-6.6324 11.7207 1.6189
-7.0335 11.4515 1.6189
-7.4241 11.1689 1.6189
-7.8037 10.8733 1.6189
-8.1719 10.5653 1.6189
-8.5284 10.2452 1.6189
-8.8729 9.9135 1.6189
-9.2048 9.5706 1.6189
-9.5432 9.2356 1.6222
-9.8500 8.8712 1.6222
-10.1434 8.4970 1.6222
-10.4231 8.1135 1.6222
-10.6889 7.7214 1.6222
-10.9406 7.3209 1.6222
-11.1780 6.9127 1.6222
-11.4007 6.4973 1.6222
-11.6088 6.0751 1.6222
-11.8019 5.6466 1.6222
-11.9799 5.2124 1.6222
-9.7069 3.8156 1.2968
-9.7080 3.4194 1.2814
-9.7266 3.0385 1.2702
-9.7505 2.6662 1.2615
-9.7739 2.2993 1.2544
-9.7974 1.9369 1.2490
-9.8213 1.5780 1.2452
-9.8448 1.2214 1.2430
-9.8681 0.8663 1.2422
-9.8914 0.5117 1.2430
-9.9148 0.1568 1.2453
-9.9382 -0.1994 1.2491
-9.9630 -0.5578 1.2547
-9.9890 -0.9196 1.2619
-10.0425 -1.2893 1.2742
-10.0522 -1.6589 1.2826
-10.1079 -2.0430 1.2986
-12.5243 -3.0027 1.6222
-12.4070 -3.4495 1.6222
-12.2747 -3.8921 1.6222
-12.1274 -4.3300 1.6222
-11.9416 -4.7531 1.6190
-11.7655 -5.1793 1.6190
-11.5751 -5.5994 1.6190
-11.3705 -6.0129 1.6190
-11.1519 -6.4194 1.6190
-10.9197 -6.8185 1.6191
-10.6738 -7.2096 1.6191
-10.4148 -7.5925 1.6191
-10.7884 -8.4737 1.7222
-10.4853 -8.8618 1.7222
-10.1690 -9.2396 1.7222
-9.8397 -9.6068 1.7222
-9.4978 -9.9629 1.7222
-9.1436 -10.3075 1.7222
-8.7775 -10.6403 1.7222
-8.3998 -10.9607 1.7222
-8.0110 -11.2684 1.7222
-7.6113 -11.5630 1.7222
-7.2013 -11.8442 1.7222
-6.7813 -12.1115 1.7222
-6.3518 -12.3646 1.7222
-5.9131 -12.6032 1.7222
-5.4659 -12.8270 1.7222
-5.0104 -13.0355 1.7222
-4.5473 -13.2286 1.7222
-4.0770 -13.4058 1.7222
-3.6000 -13.5670 1.7222
-3.1168 -13.7118 1.7222
-2.6281 -13.8400 1.7222
-2.1342 -13.9513 1.7222
-1.6358 -14.0456 1.7222
-1.1334 -14.1226 1.7222
-0.6277 -14.1821 1.7222
-0.1191 -14.2239 1.7222
0.3916 -14.2479 1.7222
0.9039 -14.2541 1.7222
1.4172 -14.2421 1.7222
1.9308 -14.2120 1.7222
2.4441 -14.1636 1.7222
2.9564 -14.0970 1.7222
3.4672 -14.0120 1.7222
3.9757 -13.9088 1.7222
4.4813 -13.7872 1.7222
4.9833 -13.6473 1.7222
5.4810 -13.4893 1.7222
5.9738 -13.3131 1.7222
6.4610 -13.1189 1.7222
3.7606 -6.9921 0.9330
7.4158 -12.6770 1.7222
7.8821 -12.4298 1.7222
5.8641 -8.5537 1.2109
0.5704 3.4016 0.4772
0.4481 3.4189 0.4778
0.3252 3.4320 0.4785
0.2021 3.4408 0.4793
0.0787 3.4455 0.4801
-0.0448 3.4460 0.4809
-0.1682 3.4423 0.4818
-0.2915 3.4344 0.4827
-0.4144 3.4223 0.4836
-0.5369 3.4061 0.4846
-0.6588 3.3857 0.4857
-0.7800 3.3611 0.4867
-3.1784 11.7645 1.7222
-3.5913 11.6218 1.7222
-3.9982 11.4647 1.7222
-4.3984 11.2934 1.7222
-4.7916 11.1083 1.7222
-5.1773 10.9097 1.7222
-5.2652 10.1399 1.6324
-5.5691 9.8453 1.6189
-5.9080 9.6224 1.6189
-6.2382 9.3880 1.6189
-6.5594 9.1425 1.6189
-6.8712 8.8864 1.6189
-7.1732 8.6198 1.6189
-7.4653 8.3433 1.6189
-7.7470 8.0572 1.6189
-8.0184 7.7621 1.6190
-8.2785 7.4579 1.6190
-8.5275 7.1454 1.6190
-8.7650 6.8248 1.6190
-8.9910 6.4966 1.6190
-9.2051 6.1613 1.6190
-9.4071 5.8192 1.6190
-9.6162 5.4818 1.6222
-9.7939 5.1268 1.6222
-9.9591 4.7663 1.6222
-10.1116 4.4008 1.6222
-10.2511 4.0307 1.6222
-10.3777 3.6565 1.6222
-6.6058 2.0643 1.0214
-10.5915 2.8972 1.6222
-10.6786 2.5131 1.6222
-10.7524 2.1266 1.6222
-10.8128 1.7381 1.6222
-10.8598 1.3481 1.6222
-10.8933 0.9570 1.6222
-10.9135 0.5653 1.6222
-10.9202 0.1733 1.6222
-10.9135 -0.2184 1.6222
-10.8935 -0.6095 1.6222
-10.8601 -0.9994 1.6222
-10.8134 -1.3879 1.6222
-10.7535 -1.7744 1.6222
-10.6804 -2.1585 1.6222
-10.5943 -2.5398 1.6222
-10.4952 -2.9179 1.6222
-10.3625 -3.2858 1.6189
-10.2382 -3.6555 1.6190
-10.1012 -4.0207 1.6189
-9.9519 -4.3811 1.6189
-9.7903 -4.7363 1.6189
-9.6167 -5.0858 1.6189
-9.4311 -5.4293 1.6189
-9.2339 -5.7664 1.6189
-9.0252 -6.0966 1.6189
-8.8052 -6.4197 1.6189
-8.5741 -6.7353 1.6190
-8.8637 -7.4922 1.7222
-8.5951 -7.8106 1.7222
-8.3156 -8.1200 1.7222
-8.0255 -8.4198 1.7222
-7.7249 -8.7097 1.7222
-7.4143 -8.9894 1.7222
-7.0940 -9.2585 1.7222
-6.7643 -9.5167 1.7222
-6.4255 -9.7637 1.7222
-6.0780 -9.9991 1.7222
-5.7222 -10.2226 1.7222
-5.3585 -10.4339 1.7222
-4.9872 -10.6329 1.7222
-4.6087 -10.8191 1.7222
-4.2235 -10.9922 1.7222
-3.8320 -11.1522 1.7222
-3.4345 -11.2987 1.7222
-3.0317 -11.4314 1.7222
-2.6238 -11.5503 1.7222
-2.2114 -11.6549 1.7222
-1.7950 -11.7453 1.7222
-1.3749 -11.8211 1.7222
-0.9518 -11.8823 1.7222
-0.5261 -11.9287 1.7222
-0.0983 -11.9602 1.7222
0.3310 -11.9766 1.7222
0.7615 -11.9778 1.7222
1.1924 -11.9638 1.7222
1.6233 -11.9346 1.7222
2.0537 -11.8900 1.7222
2.4830 -11.8301 1.7222
2.9107 -11.7548 1.7222
3.3361 -11.6641 1.7222
3.7588 -11.5582 1.7222
4.1782 -11.4369 1.7222
4.5938 -11.3005 1.7222
5.0049 -11.1490 1.7222
5.4111 -10.9826 1.7222
3.7624 -6.9927 1.1149
2.5136 -4.2953 0.6975
6.5940 -10.3948 1.7222
5.8648 -8.5519 1.4482
0.4945 2.9465 0.4821
0.3886 2.9616 0.4827
0.2822 2.9730 0.4833
0.1755 2.9807 0.4840
0.0686 2.9849 0.4847
-0.0384 2.9853 0.4854
-0.1453 2.9821 0.4861
-0.2520 2.9752 0.4869
-0.3585 2.9646 0.4878
-0.4646 2.9504 0.4886
-0.5702 2.9326 0.4895
-0.6751 2.9111 0.4904
-0.7792 2.8861 0.4914
-3.0869 9.9952 1.7222
-3.4376 9.8626 1.7222
-3.7829 9.7177 1.7222
-4.1222 9.5608 1.7222
-4.4553 9.3922 1.7222
-4.7816 9.2121 1.7222
-5.1008 9.0208 1.7222
-5.3508 8.7179 1.7025
-5.4007 8.1305 1.6271
-5.6519 7.8803 1.6189
-5.9225 7.6620 1.6191
-6.1843 7.4338 1.6191
-6.4376 7.1969 1.6191
-6.6820 6.9516 1.6191
-6.9173 6.6982 1.6191
-7.1433 6.4371 1.6190
-7.3597 6.1686 1.6190
-7.5663 5.8930 1.6190
-7.7629 5.6108 1.6190
-7.9493 5.3222 1.6190
-8.1253 5.0276 1.6190
-8.2907 4.7275 1.6190
-8.4454 4.4221 1.6190
-8.5893 4.1119 1.6190
-8.7221 3.7972 1.6190
-8.8439 3.4785 1.6190
-8.9544 3.1560 1.6190
-6.5992 2.0629 1.1801
-6.8701 1.8799 1.2167
-9.2176 2.1701 1.6190
-9.2824 1.8366 1.6190
-9.3355 1.5014 1.6190
-9.3771 1.1647 1.6190
-9.4070 0.8270 1.6190
-9.4252 0.4887 1.6190
-9.4317 0.1502 1.6190
-9.4266 -0.1882 1.6190
-9.4099 -0.5261 1.6190
-9.3816 -0.8630 1.6190
-9.3417 -1.1987 1.6190
-9.2903 -1.5327 1.6190
-9.2275 -1.8647 1.6190
-9.1533 -2.1942 1.6190
-9.0678 -2.5210 1.6190
-8.9712 -2.8446 1.6190
-8.8636 -3.1647 1.6190
-8.7450 -3.4810 1.6190
-8.6156 -3.7930 1.6190
-8.4755 -4.1004 1.6190
-8.3249 -4.4030 1.6190
-8.1640 -4.7002 1.6191
-7.9929 -4.9918 1.6191
-7.8117 -5.2774 1.6191
-7.6208 -5.5568 1.6191
-7.4202 -5.8295 1.6191
-7.6694 -6.4835 1.7222
-7.4364 -6.7585 1.7222
-7.1938 -7.0256 1.7222
-6.9420 -7.2842 1.7222
-6.6812 -7.5342 1.7222
-6.4117 -7.7752 1.7222
-6.1339 -8.0069 1.7222
-5.8479 -8.2291 1.7222
-5.5541 -8.4415 1.7222
-5.2529 -8.6437 1.7222
-4.9445 -8.8356 1.7222
-4.6294 -9.0168 1.7222
-4.3077 -9.1872 1.7222
-3.9800 -9.3465 1.7222
-3.6466 -9.4944 1.7222
-3.3078 -9.6307 1.7222
-2.9640 -9.7554 1.7222
-2.6156 -9.8680 1.7222
-2.2630 -9.9686 1.7222
-1.9067 -10.0568 1.7222
-1.5470 -10.1327 1.7222
-1.1844 -10.1959 1.7222
-0.8192 -10.2464 1.7222
-0.4520 -10.2841 1.7222
-0.0832 -10.3088 1.7222
0.2869 -10.3206 1.7222
0.6577 -10.3192 1.7222
1.0287 -10.3047 1.7222
1.3996 -10.2770 1.7222
1.7698 -10.2361 1.7222
2.1388 -10.1820 1.7222
2.5063 -10.1147 1.7222
2.8717 -10.0342 1.7222
3.2346 -9.9406 1.7222
3.5944 -9.8338 1.7222
3.9507 -9.7141 1.7222
4.3031 -9.5814 1.7222
4.6510 -9.4360 1.7222
2.4880 -4.6223 0.8580
5.0118 -8.5613 1.6189
5.3236 -8.3892 1.6189
5.6294 -8.2058 1.6189
0.4362 2.5966 0.4860
0.3428 2.6100 0.4865
0.2491 2.6200 0.4870
0.1551 2.6269 0.4876
0.0609 2.6306 0.4882
-0.0334 2.6309 0.4888
-0.1276 2.6281 0.4895
-0.2217 2.6220 0.4902
-0.3155 2.6126 0.4909
-0.4090 2.6000 0.4917
-0.5020 2.5842 0.4925
-0.5944 2.5652 0.4933
-0.6861 2.5430 0.4941
-0.7771 2.5177 0.4950
-3.0118 8.6455 1.7222
-3.3151 8.5201 1.7222
-3.6133 8.3842 1.7222
-3.9061 8.2379 1.7222
-4.1931 8.0814 1.7222
-4.4739 7.9151 1.7222
-4.7483 7.7392 1.7222
-5.0160 7.5538 1.7222
-5.2765 7.3594 1.7222
-5.4529 7.0567 1.6983
-5.4913 6.6028 1.6375
-5.6530 6.3217 1.6191
-5.8686 6.1072 1.6191
-6.0764 5.8856 1.6191
-6.2759 5.6571 1.6191
-6.4671 5.4220 1.6191
-6.6497 5.1806 1.6191
-6.8235 4.9332 1.6191
-6.9884 4.6802 1.6191
-7.1442 4.4218 1.6191
-7.2907 4.1584 1.6190
-7.4277 3.8904 1.6190
-7.5552 3.6179 1.6190
-7.6730 3.3415 1.6190
-7.7810 3.0614 1.6190
-7.8792 2.7779 1.6190
-6.5925 2.0615 1.3396
-6.8343 1.8708 1.3753
-8.1133 1.9108 1.6190
-8.1710 1.6174 1.6190
-8.2185 1.3223 1.6190
-8.2558 1.0260 1.6190
-8.2827 0.7287 1.6190
-8.2993 0.4308 1.6190
-8.3055 0.1327 1.6190
-8.3015 -0.1654 1.6190
-8.2872 -0.4630 1.6190
-8.2626 -0.7598 1.6190
-8.2277 -1.0555 1.6190
-8.1827 -1.3498 1.6190
-8.1275 -1.6423 1.6190
-8.0623 -1.9326 1.6190
-7.9871 -2.2205 1.6190
-7.9021 -2.5056 1.6190
-7.8072 -2.7876 1.6190
-7.7026 -3.0662 1.6191
-7.5885 -3.3410 1.6191
-7.4649 -3.6117 1.6191
-7.3321 -3.8781 1.6191
-7.1901 -4.1398 1.6191
-7.0390 -4.3965 1.6191
-6.8962 -4.6594 1.6231
-6.8214 -4.9745 1.6458
-6.9496 -5.4605 1.7222
-6.7525 -5.7091 1.7222
-6.5468 -5.9509 1.7222
-6.3327 -6.1855 1.7222
-6.1105 -6.4127 1.7222
-5.8804 -6.6322 1.7222
-5.6426 -6.8438 1.7222
-5.3975 -7.0471 1.7222
-5.1453 -7.2419 1.7222
-4.8862 -7.4280 1.7222
-4.6206 -7.6051 1.7222
-4.3488 -7.7730 1.7222
-4.0710 -7.9315 1.7222
-3.7876 -8.0803 1.7222
-3.4988 -8.2192 1.7222
-3.2051 -8.3482 1.7222
-2.9068 -8.4669 1.7222
-2.6041 -8.5752 1.7222
-2.2975 -8.6729 1.7222
-1.9874 -8.7599 1.7222
-1.6739 -8.8361 1.7222
-1.3577 -8.9013 1.7222
-1.0389 -8.9553 1.7222
-0.7180 -8.9982 1.7222
-0.3955 -9.0297 1.7222
-0.0716 -9.0499 1.7222
0.2532 -9.0586 1.7222
0.5786 -9.0557 1.7222
0.9040 -9.0414 1.7222
1.2292 -9.0154 1.7222
1.5537 -8.9779 1.7222
1.8771 -8.9288 1.7222
2.1990 -8.8681 1.7222
2.5189 -8.7958 1.7222
2.8364 -8.7121 1.7222
3.1512 -8.6169 1.7222
3.4628 -8.5103 1.7222
3.7708 -8.3925 1.7222
3.8304 -7.7681 1.6189
2.4888 -4.6220 0.9799
4.3890 -7.4946 1.6189
4.6611 -7.3426 1.6189
4.9278 -7.1807 1.6189
0.3899 2.3189 0.4890
0.3065 2.3309 0.4895
0.2228 2.3399 0.4899
0.1389 2.3461 0.4904
0.0547 2.3493 0.4910
-0.0295 2.3497 0.4915
-0.1136 2.3471 0.4921
-0.1976 2.3416 0.4928
-0.2814 2.3332 0.4934
-0.3649 2.3220 0.4941
-0.4479 2.3078 0.4948
-0.5304 2.2907 0.4955
-0.6123 2.2709 0.4963
-0.6935 2.2481 0.4970
-0.7739 2.2226 0.4978
-2.9472 7.5784 1.7222
-3.2129 7.4586 1.7222
-3.4739 7.3295 1.7222
-3.7298 7.1914 1.7222
-3.9803 7.0444 1.7222
-4.2251 6.8888 1.7222
-4.4639 6.7248 1.7222
-4.6966 6.5527 1.7222
-4.9227 6.3725 1.7222
-5.1420 6.1848 1.7222
-5.3543 5.9895 1.7222
-5.5386 5.7655 1.7158
-5.5657 5.3926 1.6650
-5.5988 5.0482 1.6214
-5.7620 4.8322 1.6191
-5.9255 4.6177 1.6191
-6.0811 4.3977 1.6191
-6.2288 4.1727 1.6191
-6.3684 3.9428 1.6191
-6.4997 3.7083 1.6191
-6.6226 3.4697 1.6191
-6.7370 3.2271 1.6191
-6.8427 2.9808 1.6191
-6.9397 2.7312 1.6191
-7.0279 2.4786 1.6191
-6.5857 2.0601 1.5003
-6.7985 1.8616 1.5336
-7.2385 1.7055 1.6191
-7.2905 1.4437 1.6191
-7.3334 1.1805 1.6191
-7.3670 0.9161 1.6191
-7.3915 0.6508 1.6191
-7.4067 0.3849 1.6191
-7.4126 0.1188 1.6191
-7.4093 -0.1472 1.6191
-7.3968 -0.4129 1.6191
-7.3751 -0.6779 1.6191
-7.3442 -0.9419 1.6191
-7.3042 -1.2047 1.6191
-7.2551 -1.4658 1.6191
-7.1970 -1.7251 1.6191
-7.1299 -1.9821 1.6191
-7.0539 -2.2367 1.6191
-6.9692 -2.4884 1.6191
-6.8758 -2.7371 1.6191
-6.7738 -2.9825 1.6191
-6.6634 -3.2241 1.6191
-6.5447 -3.4619 1.6191
-6.4177 -3.6954 1.6191
-6.3805 -3.9855 1.6443
-6.5306 -4.4128 1.7222
-6.3703 -4.6460 1.7222
-6.2019 -4.8736 1.7222
-6.0257 -5.0952 1.7222
-5.8417 -5.3107 1.7222
-5.6503 -5.5198 1.7222
-5.4517 -5.7222 1.7222
-5.2459 -5.9177 1.7222
-5.0334 -6.1060 1.7222
-4.8143 -6.2869 1.7222
-4.5889 -6.4602 1.7222
-4.3574 -6.6256 1.7222
-4.1201 -6.7830 1.7222
-3.8773 -6.9321 1.7222
-3.6292 -7.0727 1.7222
-3.3761 -7.2047 1.7222
-3.1183 -7.3279 1.7222
-2.8561 -7.4420 1.7222
-2.5898 -7.5470 1.7222
-2.3198 -7.6426 1.7222
-2.0463 -7.7288 1.7222
-1.7696 -7.8054 1.7222
-1.4902 -7.8723 1.7222
-1.2082 -7.9294 1.7222
-0.9241 -7.9765 1.7222
-0.6382 -8.0136 1.7222
-0.3509 -8.0406 1.7222
-0.0625 -8.0574 1.7222
0.2267 -8.0640 1.7222
0.5163 -8.0604 1.7222
0.8059 -8.0464 1.7222
1.0951 -8.0222 1.7222
1.3837 -7.9876 1.7222
1.6712 -7.9427 1.7222
1.9572 -7.8875 1.7222
2.2414 -7.8221 1.7222
2.5235 -7.7465 1.7222
2.8030 -7.6607 1.7222
3.0795 -7.5648 1.7222
3.1518 -7.0118 1.6189
3.4053 -6.9030 1.6189
2.4897 -4.6218 1.1028
3.9005 -6.6579 1.6189
4.1416 -6.5220 1.6189
4.3779 -6.3772 1.6189
0.3522 2.0930 0.4915
0.2770 2.1038 0.4919
0.2014 2.1120 0.4923
0.1257 2.1176 0.4928
0.0497 2.1205 0.4933
-0.0262 2.1208 0.4938
-0.1022 2.1185 0.4943
-0.1780 2.1135 0.4949
-0.2536 2.1059 0.4955
-0.3289 2.0957 0.4961
-0.4039 2.0829 0.4967
-0.4783 2.0674 0.4974
-0.5522 2.0494 0.4980
-0.6255 2.0288 0.4987
-0.6980 2.0057 0.4994
-0.7697 1.9801 0.5002
-2.8895 6.7107 1.7222
-3.1246 6.5954 1.7222
-3.3552 6.4719 1.7222
-3.5811 6.3404 1.7222
-3.8019 6.2011 1.7222
-4.0173 6.0541 1.7222
-4.2272 5.8998 1.7222
-4.4313 5.7383 1.7222
-4.6293 5.5698 1.7222
-4.8210 5.3946 1.7222
-5.0063 5.2129 1.7222
-5.1848 5.0250 1.7222
-5.3564 4.8310 1.7222
-5.5209 4.6314 1.7222
-5.6307 4.3892 1.7078
-5.6518 4.0884 1.6702
-5.6780 3.8047 1.6379
-5.7390 3.5541 1.6191
-5.8579 3.3431 1.6191
-5.9692 3.1282 1.6191
-6.0728 2.9098 1.6191
-6.1686 2.6879 1.6191
-6.2565 2.4631 1.6191
-6.3364 2.2354 1.6191
-6.4083 2.0053 1.6191
-6.4721 1.7729 1.6191
-6.5276 1.5386 1.6191
-6.5749 1.3026 1.6191
-6.6140 1.0652 1.6191
-6.6447 0.8267 1.6191
-6.6670 0.5874 1.6191
-6.6810 0.3476 1.6191
-6.6867 0.1076 1.6191
-6.6839 -0.1325 1.6191
-6.6728 -0.3722 1.6191
-6.6534 -0.6113 1.6191
-6.6257 -0.8496 1.6191
-6.5897 -1.0867 1.6191
-6.5455 -1.3223 1.6191
-6.4931 -1.5563 1.6191
-6.4326 -1.7882 1.6191
-6.3641 -2.0179 1.6191
-6.2991 -2.2492 1.6220
-6.2033 -2.4695 1.6191
-6.1557 -2.7104 1.6309
-6.1643 -2.9828 1.6602
-6.2167 -3.2886 1.7048
-6.1581 -3.5462 1.7222
-6.0284 -3.7659 1.7222
-5.8910 -3.9810 1.7222
-5.7462 -4.1913 1.7222
-5.5940 -4.3964 1.7222
-5.4348 -4.5962 1.7222
-5.2687 -4.7904 1.7222
-5.0957 -4.9788 1.7222
-4.9163 -5.1611 1.7222
-4.7304 -5.3371 1.7222
-4.5385 -5.5066 1.7222
-4.3406 -5.6694 1.7222
-4.1371 -5.8253 1.7222
-3.9280 -5.9741 1.7222
-3.7138 -6.1155 1.7222
-3.4945 -6.2495 1.7222
-3.2706 -6.3758 1.7222
-3.0422 -6.4942 1.7222
-2.8096 -6.6047 1.7222
-2.5730 -6.7069 1.7222
-2.3328 -6.8009 1.7222
-2.0893 -6.8865 1.7222
-1.8426 -6.9635 1.7222
-1.5932 -7.0318 1.7222
-1.3413 -7.0913 1.7222
-1.0872 -7.1420 1.7222
-0.8312 -7.1837 1.7222
-0.5736 -7.2163 1.7222
-0.3148 -7.2398 1.7222
-0.0551 -7.2542 1.7222
0.2053 -7.2593 1.7222
0.4659 -7.2552 1.7222
0.7265 -7.2418 1.7222
0.9867 -7.2191 1.7222
1.2463 -7.1872 1.7222
1.5048 -7.1459 1.7222
1.7619 -7.0954 1.7222
2.0174 -7.0357 1.7222
2.2708 -6.9668 1.7222
2.5219 -6.8889 1.7222
2.7702 -6.8018 1.7222
2.8348 -6.3038 1.6189
3.0623 -6.2052 1.6189
2.4905 -4.6215 1.2269
3.5067 -5.9835 1.6189
3.7229 -5.8606 1.6189
3.9348 -5.7298 1.6189
0.3209 1.9054 0.4935
0.2525 1.9152 0.4939
0.1837 1.9227 0.4943
0.1147 1.9278 0.4947
0.0456 1.9305 0.4951
-0.0236 1.9308 0.4956
-0.0927 1.9286 0.4961
-0.1617 1.9241 0.4966
-0.2306 1.9172 0.4971
-0.2991 1.9078 0.4977
-0.3673 1.8961 0.4983
-0.4351 1.8820 0.4989
-0.5024 1.8656 0.4995
-0.5690 1.8468 0.5001
-0.6350 1.8257 0.5008
-0.7002 1.8023 0.5015
-0.7646 1.7766 0.5021
-0.8281 1.7487 0.5028
-3.0459 5.8776 1.7222
-3.2513 5.7588 1.7222
-3.4522 5.6328 1.7222
-3.6482 5.4999 1.7222
-3.8393 5.3602 1.7222
-4.0250 5.2139 1.7222
-4.2053 5.0613 1.7222
-4.3799 4.9026 1.7222
-4.5486 4.7379 1.7222
-4.7113 4.5674 1.7222
-4.8677 4.3916 1.7222
-5.0176 4.2104 1.7222
-5.1610 4.0242 1.7222
-5.2975 3.8332 1.7222
-5.4272 3.6377 1.7222
-5.5497 3.4379 1.7222
-5.6652 3.2341 1.7222
-5.7242 3.0008 1.7076
-5.7417 2.7520 1.6835
-5.7600 2.5107 1.6625
-5.7801 2.2762 1.6447
-5.7992 2.0466 1.6292
-5.8289 1.8246 1.6191
-5.8872 1.6133 1.6191
-5.9381 1.4002 1.6191
-5.9814 1.1855 1.6191
-6.0172 0.9696 1.6191
-6.0454 0.7526 1.6191
-6.0847 0.5366 1.6241
-6.0995 0.3177 1.6246
-6.0843 0.0982 1.6191
-6.0819 -0.1202 1.6191
-6.0720 -0.3384 1.6191
-6.0545 -0.5561 1.6191
-6.0293 -0.7729 1.6191
-6.0083 -0.9906 1.6222
-6.0245 -1.2169 1.6376
-6.0406 -1.4477 1.6552
-6.0536 -1.6828 1.6744
-6.0728 -1.9256 1.6978
-6.0862 -2.1732 1.7222
-6.0045 -2.3904 1.7222
-5.9153 -2.6047 1.7222
-5.8187 -2.8157 1.7222
-5.7147 -3.0233 1.7222
-5.6036 -3.2271 1.7222
-5.4854 -3.4270 1.7222
-5.3602 -3.6227 1.7222
-5.2283 -3.8139 1.7222
-5.0897 -4.0005 1.7222
-4.9446 -4.1822 1.7222
-4.7932 -4.3587 1.7222
-4.6357 -4.5300 1.7222
-4.4722 -4.6956 1.7222
-4.3029 -4.8556 1.7222
-4.1281 -5.0096 1.7222
-3.9478 -5.1574 1.7222
-3.7624 -5.2989 1.7222
-3.5721 -5.4340 1.7222
-3.3770 -5.5623 1.7222
-3.1774 -5.6838 1.7222
-2.9735 -5.7983 1.7222
-2.7655 -5.9056 1.7222
-2.5538 -6.0056 1.7222
-2.3385 -6.0981 1.7222
-2.1200 -6.1831 1.7222
-1.8984 -6.2604 1.7222
-1.6740 -6.3299 1.7222
-1.4471 -6.3915 1.7222
-1.2180 -6.4451 1.7222
-0.9870 -6.4906 1.7222
-0.7543 -6.5279 1.7222
-0.5202 -6.5569 1.7222
-0.2850 -6.5777 1.7222
-0.0490 -6.5901 1.7222
0.1875 -6.5942 1.7222
0.4243 -6.5898 1.7222
0.6609 -6.5770 1.7222
0.8972 -6.5558 1.7222
1.1328 -6.5261 1.7222
1.3674 -6.4881 1.7222
1.6007 -6.4416 1.7222
1.8324 -6.3867 1.7222
2.0623 -6.3236 1.7222
2.2900 -6.2522 1.7222
2.5152 -6.1725 1.7222
2.5735 -5.7200 1.6189
2.7796 -5.6300 1.6189
2.4913 -4.6212 1.3523
3.1822 -5.4277 1.6189
2.5286 -3.9791 1.2119
3.5699 -5.1966 1.6189
0.2945 1.7469 0.4953
0.2318 1.7560 0.4956
0.1687 1.7629 0.4960
0.1055 1.7676 0.4963
0.0421 1.7700 0.4967
-0.0213 1.7703 0.4972
-0.0847 1.7683 0.4976
-0.1480 1.7642 0.4981
-0.2111 1.7578 0.4986
-0.2740 1.7492 0.4991
-0.3365 1.7384 0.4996
-0.3986 1.7255 0.5002
-0.4603 1.7104 0.5007
-0.5213 1.6931 0.5013
-0.5818 1.6737 0.5019
-0.6416 1.6522 0.5025
-0.7006 1.6287 0.5032
-0.7588 1.6030 0.5038
-0.8160 1.5753 0.5045
-2.9741 5.2698 1.7222
-3.1581 5.1549 1.7222
-3.3378 5.0336 1.7222
-3.5129 4.9062 1.7222
-3.6832 4.7727 1.7222
-3.8485 4.6334 1.7222
-4.0087 4.4884 1.7222
-4.1634 4.3380 1.7222
-4.3127 4.1823 1.7222
-4.4562 4.0215 1.7222
-4.5938 3.8559 1.7222
-4.7254 3.6856 1.7222
-4.8507 3.5110 1.7222
-4.9698 3.3321 1.7222
-5.0824 3.1493 1.7222
-5.1884 2.9628 1.7222
-5.2877 2.7728 1.7222
-5.3802 2.5795 1.7222
-5.4658 2.3832 1.7222
-5.5443 2.1841 1.7222
-5.6158 1.9825 1.7222
-5.6802 1.7787 1.7222
-5.7373 1.5728 1.7222
-5.7871 1.3651 1.7222
-5.8296 1.1559 1.7222
-5.8634 0.9453 1.7218
-5.8780 0.7322 1.7180
-5.8924 0.5200 1.7163
-5.9068 0.3081 1.7168
-5.9211 0.0959 1.7194
-5.9287 -0.1169 1.7222
-5.9191 -0.3296 1.7222
-5.9021 -0.5418 1.7222
-5.8777 -0.7533 1.7222
-5.8460 -0.9637 1.7222
-5.8068 -1.1729 1.7222
-5.7605 -1.3805 1.7222
-5.7068 -1.5864 1.7222
-5.6460 -1.7902 1.7222
-5.5782 -1.9918 1.7222
-5.5033 -2.1910 1.7222
-5.4215 -2.3874 1.7222
-5.3329 -2.5808 1.7222
-5.2375 -2.7710 1.7222
-5.1355 -2.9578 1.7222
-5.0271 -3.1410 1.7222
-4.9123 -3.3203 1.7222
-4.7912 -3.4955 1.7222
-4.6641 -3.6664 1.7222
-4.5310 -3.8328 1.7222
-4.3921 -3.9945 1.7222
-4.2475 -4.1513 1.7222
-4.0976 -4.3030 1.7222
-3.9423 -4.4494 1.7222
-3.7819 -4.5903 1.7222
-3.6166 -4.7256 1.7222
-3.4465 -4.8550 1.7222
-3.2719 -4.9785 1.7222
-3.0930 -5.0958 1.7222
-2.9100 -5.2069 1.7222
-2.7230 -5.3115 1.7222
-2.5324 -5.4094 1.7222
-2.3383 -5.5007 1.7222
-2.1410 -5.5852 1.7222
-1.9406 -5.6627 1.7222
-1.7376 -5.7331 1.7222
-1.5320 -5.7963 1.7222
-1.3241 -5.8523 1.7222
-1.1143 -5.9009 1.7222
-0.9027 -5.9422 1.7222
-0.6895 -5.9759 1.7222
-0.4752 -6.0020 1.7222
-0.2599 -6.0206 1.7222
-0.0438 -6.0315 1.7222
0.1726 -6.0347 1.7222
0.3892 -6.0303 1.7222
0.6058 -6.0181 1.7222
0.8219 -5.9982 1.7222
1.0374 -5.9705 1.7222
1.2519 -5.9352 1.7222
1.4652 -5.8922 1.7222
1.6771 -5.8415 1.7222
1.8872 -5.7833 1.7222
2.0953 -5.7175 1.7222
2.3010 -5.6442 1.7222
2.3540 -5.2299 1.6189
2.5424 -5.1472 1.6189
2.4922 -4.6209 1.4791
2.9099 -4.9615 1.6189
3.0887 -4.8586 1.6189
3.2638 -4.7494 1.6189
0.2719 1.6113 0.4967
0.2140 1.6197 0.4970
0.1559 1.6260 0.4974
0.0975 1.6303 0.4977
0.0391 1.6326 0.4981
-0.0194 1.6328 0.4985
-0.0779 1.6310 0.4989
-0.1362 1.6272 0.4993
-0.1944 1.6213 0.4998
-0.2524 1.6134 0.5003
-0.3101 1.6034 0.5008
-0.3673 1.5915 0.5013
-0.4242 1.5775 0.5018
-0.4805 1.5615 0.5023
-0.5363 1.5436 0.5029
-0.5914 1.5237 0.5034
-0.6458 1.5020 0.5040
-0.6994 1.4783 0.5046
-0.7522 1.4527 0.5052
-0.8041 1.4253 0.5059
-2.9071 4.7470 1.7222
-3.0728 4.6357 1.7222
-3.2342 4.5186 1.7222
-3.3913 4.3960 1.7222
-3.5438 4.2680 1.7222
-3.6916 4.1347 1.7222
-3.8344 3.9964 1.7222
-3.9721 3.8532 1.7222
-4.1045 3.7053 1.7222
-4.2316 3.5529 1.7222
-4.3531 3.3963 1.7222
-4.4688 3.2355 1.7222
-4.5788 3.0709 1.7222
-4.6828 2.9026 1.7222
-4.7808 2.7308 1.7222
-4.8725 2.5558 1.7222
-4.9580 2.3778 1.7222
-5.0371 2.1970 1.7222
-5.1098 2.0136 1.7222
-5.1759 1.8278 1.7222
-5.2354 1.6400 1.7222
-5.2883 1.4502 1.7222
-5.3344 1.2588 1.7222
-5.3737 1.0660 1.7222
-5.4063 0.8720 1.7222
-5.4320 0.6771 1.7222
-5.4508 0.4814 1.7222
-5.4628 0.2853 1.7222
-5.4678 0.0889 1.7222
-5.4660 -0.1075 1.7222
-5.4573 -0.3037 1.7222
-5.4417 -0.4994 1.7222
-5.4193 -0.6943 1.7222
-5.3900 -0.8884 1.7222
-5.3540 -1.0813 1.7222
-5.3113 -1.2728 1.7222
-5.2618 -1.4626 1.7222
-5.2058 -1.6506 1.7222
-5.1432 -1.8365 1.7222
-5.0741 -2.0202 1.7222
-4.9987 -2.2013 1.7222
-4.9169 -2.3796 1.7222
-4.8289 -2.5550 1.7222
-4.7348 -2.7273 1.7222
-4.6347 -2.8961 1.7222
-4.5288 -3.0614 1.7222
-4.4171 -3.2229 1.7222
-4.2997 -3.3804 1.7222
-4.1769 -3.5338 1.7222
-4.0487 -3.6828 1.7222
-3.9153 -3.8272 1.7222
-3.7769 -3.9669 1.7222
-3.6337 -4.1018 1.7222
-3.4857 -4.2316 1.7222
-3.3331 -4.3561 1.7222
-3.1762 -4.4753 1.7222
-3.0151 -4.5889 1.7222
-2.8501 -4.6969 1.7222
-2.6812 -4.7990 1.7222
-2.5088 -4.8951 1.7222
-2.3330 -4.9852 1.7222
-2.1540 -5.0691 1.7222
-1.9721 -5.1466 1.7222
-1.7874 -5.2177 1.7222
-1.6001 -5.2823 1.7222
-1.4106 -5.3403 1.7222
-1.2191 -5.3916 1.7222
-1.0256 -5.4360 1.7222
-0.8306 -5.4737 1.7222
-0.6343 -5.5044 1.7222
-0.4368 -5.5281 1.7222
-0.2384 -5.5449 1.7222
-0.0395 -5.5545 1.7222
0.1599 -5.5572 1.7222
0.3593 -5.5527 1.7222
0.5587 -5.5411 1.7222
0.7576 -5.5223 1.7222
0.9560 -5.4965 1.7222
1.1534 -5.4636 1.7222
1.3497 -5.4236 1.7222
1.5446 -5.3766 1.7222
1.7379 -5.3226 1.7222
1.9292 -5.2617 1.7222
2.1184 -5.1938 1.7222
2.1670 -4.8123 1.6189
2.3402 -4.7358 1.6189
2.4930 -4.6206 1.6076
2.6780 -4.5643 1.6189
2.8423 -4.4694 1.6189
3.0032 -4.3685 1.6189
0.2523 1.4937 0.4980
0.1986 1.5015 0.4983
0.1447 1.5074 0.4986
0.0907 1.5114 0.4989
0.0365 1.5135 0.4993
-0.0177 1.5137 0.4997
-0.0719 1.5120 0.5000
-0.1260 1.5084 0.5004
-0.1800 1.5030 0.5009
-0.2337 1.4956 0.5013
-0.2872 1.4864 0.5017
-0.3403 1.4753 0.5022
-0.3929 1.4623 0.5027
-0.4452 1.4475 0.5032
-0.4968 1.4308 0.5037
-0.5479 1.4124 0.5042
-0.5983 1.3922 0.5048
-0.6480 1.3702 0.5053
-0.6969 1.3464 0.5059
-0.7449 1.3210 0.5065
-0.7921 1.2938 0.5071
-2.8437 4.2917 1.7222
-2.9934 4.1836 1.7222
-3.1390 4.0703 1.7222
-3.2803 3.9520 1.7222
-3.4173 3.8288 1.7222
-3.5498 3.7009 1.7222
-3.6775 3.5685 1.7222
-3.8004 3.4317 1.7222
-3.9182 3.2908 1.7222
-4.0309 3.1459 1.7222
-4.1384 2.9971 1.7222
-4.2404 2.8448 1.7222
-4.3370 2.6890 1.7222
-4.4279 2.5300 1.7222
-4.5131 2.3680 1.7222
-4.5925 2.2032 1.7222
-4.6660 2.0357 1.7222
-4.7335 1.8659 1.7222
-4.7949 1.6939 1.7222
-4.8502 1.5199 1.7222
-4.8993 1.3441 1.7222
-4.9422 1.1668 1.7222
-4.9789 0.9881 1.7222
-5.0092 0.8084 1.7222
-5.0331 0.6277 1.7222
-5.0507 0.4464 1.7222
-5.0619 0.2646 1.7222
-5.0667 0.0826 1.7222
-5.0651 -0.0994 1.7222
-5.0571 -0.2812 1.7222
-5.0427 -0.4625 1.7222
-5.0220 -0.6433 1.7222
-4.9949 -0.8231 1.7222
-4.9616 -1.0019 1.7222
-4.9220 -1.1794 1.7222
-4.8762 -1.3554 1.7222
-4.8242 -1.5296 1.7222
-4.7662 -1.7020 1.7222
-4.7022 -1.8721 1.7222
-4.6322 -2.0400 1.7222
-4.5564 -2.2053 1.7222
-4.4748 -2.3678 1.7222
-4.3876 -2.5274 1.7222
-4.2947 -2.6839 1.7222
-4.1965 -2.8370 1.7222
-4.0929 -2.9867 1.7222
-3.9840 -3.1326 1.7222
-3.8701 -3.2747 1.7222
-3.7512 -3.4127 1.7222
-3.6275 -3.5465 1.7222
-3.4992 -3.6758 1.7222
-3.3663 -3.8007 1.7222
-3.2291 -3.9208 1.7222
-3.0876 -4.0361 1.7222
-2.9421 -4.1464 1.7222
-2.7928 -4.2515 1.7222
-2.6398 -4.3514 1.7222
-2.4832 -4.4458 1.7222
-2.3234 -4.5347 1.7222
-2.1604 -4.6180 1.7222
-1.9945 -4.6954 1.7222
-1.8259 -4.7670 1.7222
-1.6547 -4.8327 1.7222
-1.4812 -4.8923 1.7222
-1.3056 -4.9457 1.7222
-1.1281 -4.9930 1.7222
-0.9489 -5.0339 1.7222
-0.7683 -5.0685 1.7222
-0.5864 -5.0966 1.7222
-0.4036 -5.1183 1.7222
-0.2199 -5.1335 1.7222
-0.0357 -5.1422 1.7222
0.1489 -5.1443 1.7222
0.3335 -5.1399 1.7222
0.5180 -5.1288 1.7222
0.7021 -5.1112 1.7222
0.8857 -5.0870 1.7222
1.0683 -5.0562 1.7222
1.2499 -5.0189 1.7222
1.4302 -4.9751 1.7222
1.6090 -4.9248 1.7222
1.7859 -4.8681 1.7222
1.9609 -4.8051 1.7222
2.0585 -4.5691 1.6616
2.1657 -4.3808 1.6189
2.3232 -4.3040 1.6189
2.4779 -4.2216 1.6189
2.6297 -4.1335 1.6189
2.7783 -4.0400 1.6189
0.2351 1.3906 0.4991
0.1852 1.3979 0.4994
0.1350 1.4034 0.4997
0.0846 1.4072 0.5000
0.0342 1.4091 0.5003
-0.0163 1.4093 0.5007
-0.0667 1.4078 0.5010
-0.1171 1.4044 0.5014
-0.1673 1.3993 0.5018
-0.2173 1.3924 0.5022
-0.2671 1.3838 0.5026
-0.3165 1.3735 0.5031
-0.3656 1.3614 0.5035
-0.4142 1.3476 0.5040
-0.4623 1.3321 0.5044
-0.5098 1.3149 0.5049
-0.5567 1.2960 0.5054
-0.6029 1.2755 0.5060
-0.6484 1.2534 0.5065
-0.6931 1.2297 0.5070
-0.7370 1.2044 0.5076
-0.7799 1.1775 0.5081
-0.8220 1.1492 0.5087
-2.9184 3.7856 1.7222
-3.0501 3.6758 1.7222
-3.1776 3.5614 1.7222
-3.3009 3.4426 1.7222
-3.4199 3.3196 1.7222
-3.5343 3.1925 1.7222
-3.6441 3.0616 1.7222
-3.7492 2.9269 1.7222
-3.8493 2.7886 1.7222
-3.9444 2.6470 1.7222
-4.0344 2.5022 1.7222
-4.1191 2.3543 1.7222
-4.1986 2.2037 1.7222
-4.2726 2.0504 1.7222
-4.3412 1.8946 1.7222
-4.4041 1.7366 1.7222
-4.4614 1.5766 1.7222
-4.5130 1.4147 1.7222
-4.5589 1.2512 1.7222
-4.5989 1.0862 1.7222
-4.6331 0.9199 1.7222
-4.6615 0.7527 1.7222
-4.6839 0.5845 1.7222
-4.7003 0.4158 1.7222
-4.7108 0.2466 1.7222
-4.7154 0.0772 1.7222
-4.7140 -0.0922 1.7222
-4.7066 -0.2615 1.7222
-4.6933 -0.4303 1.7222
-4.6740 -0.5986 1.7222
-4.6489 -0.7660 1.7222
-4.6179 -0.9324 1.7222
-4.5810 -1.0976 1.7222
-4.5384 -1.2615 1.7222
-4.4901 -1.4237 1.7222
-4.4361 -1.5841 1.7222
-4.3764 -1.7425 1.7222
-4.3113 -1.8987 1.7222
-4.2407 -2.0526 1.7222
-4.1647 -2.2039 1.7222
-4.0834 -2.3524 1.7222
-3.9970 -2.4981 1.7222
-3.9055 -2.6406 1.7222
-3.8089 -2.7798 1.7222
-3.7076 -2.9156 1.7222
-3.6015 -3.0478 1.7222
-3.4908 -3.1762 1.7222
-3.3756 -3.3006 1.7222
-3.2560 -3.4210 1.7222
-3.1323 -3.5371 1.7222
-3.0044 -3.6488 1.7222
-2.8727 -3.7560 1.7222
-2.7372 -3.8585 1.7222
-2.5982 -3.9562 1.7222
-2.4557 -4.0490 1.7222
-2.3099 -4.1367 1.7222
-2.1611 -4.2193 1.7222
-2.0094 -4.2966 1.7222
-1.8549 -4.3685 1.7222
-1.6980 -4.4350 1.7222
-1.5387 -4.4959 1.7222
-1.3772 -4.5511 1.7222
-1.2138 -4.6006 1.7222
-1.0486 -4.6444 1.7222
-0.8819 -4.6822 1.7222
-0.7139 -4.7142 1.7222
-0.5447 -4.7401 1.7222
-0.3745 -4.7601 1.7222
-0.2037 -4.7740 1.7222
-0.0324 -4.7818 1.7222
0.1392 -4.7835 1.7222
0.3109 -4.7792 1.7222
0.4825 -4.7686 1.7222
0.6537 -4.7520 1.7222
0.8242 -4.7292 1.7222
0.9940 -4.7004 1.7222
1.1628 -4.6654 1.7222
1.3303 -4.6245 1.7222
1.4964 -4.5775 1.7222
1.6608 -4.5245 1.7222
1.8233 -4.4657 1.7222
1.9837 -4.4010 1.7222
2.0134 -4.0709 1.6189
2.1596 -3.9994 1.6189
2.3033 -3.9225 1.6189
2.4442 -3.8405 1.6189
2.5822 -3.7535 1.6189
0.2200 1.2996 0.5001
0.1733 1.3064 0.5004
0.1264 1.3115 0.5007
0.0793 1.3150 0.5009
0.0322 1.3169 0.5012
-0.0150 1.3170 0.5016
-0.0621 1.3156 0.5019
-0.1092 1.3125 0.5022
-0.1561 1.3077 0.5026
-0.2029 1.3012 0.5030
-0.2493 1.2932 0.5034
-0.2955 1.2835 0.5038
-0.3414 1.2722 0.5042
-0.3868 1.2593 0.5046
-0.4317 1.2447 0.5051
-0.4761 1.2287 0.5056
-0.5199 1.2110 0.5060
-0.5631 1.1918 0.5065
-0.6056 1.1711 0.5070
-0.6474 1.1489 0.5075
-0.6883 1.1253 0.5080
-0.7284 1.1002 0.5085
-0.7677 1.0737 0.5090
-0.8059 1.0458 0.5096
-2.8468 3.4320 1.7222
-2.9661 3.3254 1.7222
-3.0813 3.2146 1.7222
-3.1925 3.0999 1.7222
-3.2995 2.9814 1.7222
-3.4022 2.8592 1.7222
-3.5004 2.7335 1.7222
-3.5940 2.6045 1.7222
-3.6830 2.4723 1.7222
-3.7672 2.3372 1.7222
-3.8465 2.1992 1.7222
-3.9208 2.0585 1.7222
-3.9901 1.9154 1.7222
-4.0542 1.7700 1.7222
-4.1131 1.6225 1.7222
-4.1668 1.4730 1.7222
-4.2152 1.3218 1.7222
-4.2581 1.1691 1.7222
-4.2956 1.0150 1.7222
-4.3277 0.8597 1.7222
-4.3542 0.7034 1.7222
-4.3752 0.5464 1.7222
-4.3907 0.3887 1.7222
-4.4006 0.2306 1.7222
-4.4049 0.0724 1.7222
-4.4036 -0.0859 1.7222
-4.3968 -0.2441 1.7222
-4.3844 -0.4018 1.7222
-4.3665 -0.5590 1.7222
-4.3430 -0.7155 1.7222
-4.3141 -0.8710 1.7222
-4.2796 -1.0254 1.7222
-4.2399 -1.1784 1.7222
-4.1947 -1.3300 1.7222
-4.1442 -1.4799 1.7222
-4.0885 -1.6279 1.7222
-4.0276 -1.7739 1.7222
-3.9616 -1.9176 1.7222
-3.8906 -2.0590 1.7222
-3.8146 -2.1978 1.7222
-3.7338 -2.3338 1.7222
-3.6483 -2.4670 1.7222
-3.5580 -2.5970 1.7222
-3.4633 -2.7238 1.7222
-3.3641 -2.8473 1.7222
-3.2606 -2.9672 1.7222
-3.1529 -3.0834 1.7222
-3.0411 -3.1958 1.7222
-2.9254 -3.3042 1.7222
-2.8060 -3.4084 1.7222
-2.6828 -3.5085 1.7222
-2.5562 -3.6041 1.7222
-2.4262 -3.6953 1.7222
-2.2931 -3.7819 1.7222
-2.1569 -3.8637 1.7222
-2.0178 -3.9407 1.7222
-1.8760 -4.0128 1.7222
-1.7317 -4.0798 1.7222
-1.5850 -4.1418 1.7222
-1.4362 -4.1985 1.7222
-1.2854 -4.2499 1.7222
-1.1327 -4.2960 1.7222
-0.9784 -4.3367 1.7222
-0.8227 -4.3718 1.7222
-0.6658 -4.4015 1.7222
-0.5078 -4.4255 1.7222
-0.3489 -4.4440 1.7222
-0.1894 -4.4568 1.7222
-0.0295 -4.4639 1.7222
0.1308 -4.4653 1.7222
0.2910 -4.4610 1.7222
0.4511 -4.4509 1.7222
0.6109 -4.4352 1.7222
0.7701 -4.4138 1.7222
0.9285 -4.3866 1.7222
1.0860 -4.3538 1.7222
1.2422 -4.3154 1.7222
1.3972 -4.2713 1.7222
1.5505 -4.2217 1.7222
1.7021 -4.1666 1.7222
1.8516 -4.1060 1.7222
1.9598 -3.9607 1.6883
2.0156 -3.7310 1.6189
2.1495 -3.6591 1.6189
2.2809 -3.5825 1.6189
2.4095 -3.5011 1.6189
0.2064 1.2184 0.5010
0.1627 1.2248 0.5013
0.1187 1.2296 0.5015
0.0746 1.2329 0.5018
0.0304 1.2346 0.5021
-0.0138 1.2348 0.5024
-0.0580 1.2334 0.5027
-0.1021 1.2305 0.5030
-0.1462 1.2260 0.5033
-0.1900 1.2200 0.5037
-0.2335 1.2124 0.5041
-0.2768 1.2033 0.5045
-0.3198 1.1927 0.5048
-0.3624 1.1805 0.5053
-0.4045 1.1669 0.5057
-0.4461 1.1518 0.5061
-0.4872 1.1353 0.5065
-0.5276 1.1173 0.5070
-0.5675 1.0978 0.5075
-0.6066 1.0770 0.5079
-0.6450 1.0548 0.5084
-0.6826 1.0313 0.5089
-0.7193 1.0064 0.5094
-0.7552 0.9802 0.5099
-0.7901 0.9528 0.5104
-0.8240 0.9242 0.5109
-2.8859 3.0117 1.7222
-2.9902 2.9044 1.7222
-3.0905 2.7934 1.7222
-3.1868 2.6791 1.7222
-3.2790 2.5614 1.7222
-3.3668 2.4406 1.7222
-3.4503 2.3168 1.7222
-3.5292 2.1903 1.7222
-3.6037 2.0610 1.7222
-3.6734 1.9293 1.7222
-3.7385 1.7952 1.7222
-3.7987 1.6590 1.7222
-3.8540 1.5208 1.7222
-3.9044 1.3807 1.7222
-3.9498 1.2391 1.7222
-3.9901 1.0960 1.7222
-4.0254 0.9515 1.7222
-4.0555 0.8060 1.7222
-4.0805 0.6596 1.7222
-4.1002 0.5123 1.7222
-4.1148 0.3646 1.7222
-4.1241 0.2164 1.7222
-4.1282 0.0681 1.7222
-4.1271 -0.0803 1.7222
-4.1207 -0.2285 1.7222
-4.1092 -0.3764 1.7222
-4.0924 -0.5238 1.7222
-4.0704 -0.6704 1.7222
-4.0433 -0.8162 1.7222
-4.0111 -0.9610 1.7222
-3.9738 -1.1044 1.7222
-3.9314 -1.2465 1.7222
-3.8841 -1.3870 1.7222
-3.8319 -1.5258 1.7222
-3.7748 -1.6626 1.7222
-3.7129 -1.7974 1.7222
-3.6463 -1.9299 1.7222
-3.5751 -2.0599 1.7222
-3.4993 -2.1874 1.7222
-3.4190 -2.3122 1.7222
-3.3345 -2.4341 1.7222
-3.2456 -2.5530 1.7222
-3.1526 -2.6686 1.7222
-3.0555 -2.7810 1.7222
-2.9545 -2.8898 1.7222
-2.8497 -2.9951 1.7222
-2.7412 -3.0967 1.7222
-2.6292 -3.1943 1.7222
-2.5137 -3.2880 1.7222
-2.3950 -3.3776 1.7222
-2.2731 -3.4630 1.7222
-2.1482 -3.5440 1.7222
-2.0205 -3.6206 1.7222
-1.8901 -3.6926 1.7222
-1.7572 -3.7601 1.7222
-1.6220 -3.8228 1.7222
-1.4845 -3.8807 1.7222
-1.3450 -3.9337 1.7222
-1.2036 -3.9818 1.7222
-1.0605 -4.0248 1.7222
-0.9160 -4.0627 1.7222
-0.7700 -4.0956 1.7222
-0.6230 -4.1232 1.7222
-0.4749 -4.1456 1.7222
-0.3261 -4.1627 1.7222
-0.1767 -4.1745 1.7222
-0.0269 -4.1810 1.7222
0.1232 -4.1821 1.7222
0.2733 -4.1779 1.7222
0.4232 -4.1684 1.7222
0.5729 -4.1535 1.7222
0.7219 -4.1332 1.7222
0.8702 -4.1076 1.7222
1.0176 -4.0767 1.7222
1.1640 -4.0406 1.7222
1.3089 -3.9991 1.7222
1.4525 -3.9525 1.7222
1.5943 -3.9008 1.7222
1.7343 -3.8439 1.7222
1.8722 -3.7821 1.7222
1.9455 -3.5998 1.6687
2.0129 -3.4251 1.6189
2.1357 -3.3532 1.6189
2.2560 -3.2768 1.6189
0.1943 1.1455 0.5018
0.1531 1.1515 0.5020
0.1118 1.1561 0.5023
0.0703 1.1592 0.5025
0.0288 1.1608 0.5028
-0.0128 1.1609 0.5031
-0.0544 1.1597 0.5034
-0.0958 1.1569 0.5037
-0.1372 1.1527 0.5040
-0.1784 1.1470 0.5043
-0.2194 1.1399 0.5047
-0.2601 1.1313 0.5050
-0.3004 1.1213 0.5054
-0.3404 1.1099 0.5058
-0.3800 1.0971 0.5062
-0.4191 1.0829 0.5066
-0.4577 1.0673 0.5070
-0.4958 1.0503 0.5074
-0.5332 1.0321 0.5079
-0.5700 1.0125 0.5083
-0.6060 0.9916 0.5088
-0.6414 0.9694 0.5092
-0.6759 0.9460 0.5097
-0.7096 0.9214 0.5101
-0.7424 0.8956 0.5106
-0.7743 0.8687 0.5111
-0.8052 0.8406 0.5116
-0.8351 0.8114 0.5121
-2.9031 2.6249 1.7222
-2.9937 2.5175 1.7222
-3.0804 2.4070 1.7222
-3.1630 2.2936 1.7222
-3.2415 2.1774 1.7222
-3.3159 2.0585 1.7222
-3.3859 1.9371 1.7222
-3.4515 1.8133 1.7222
-3.5127 1.6874 1.7222
-3.5694 1.5594 1.7222
-3.6215 1.4295 1.7222
-3.6689 1.2980 1.7222
-3.7117 1.1648 1.7222
-3.7497 1.0303 1.7222
-3.7829 0.8946 1.7222
-3.8113 0.7578 1.7222
-3.8348 0.6202 1.7222
-3.8535 0.4818 1.7222
-3.8672 0.3429 1.7222
-3.8760 0.2037 1.7222
-3.8799 0.0642 1.7222
-3.8789 -0.0753 1.7222
-3.8730 -0.2146 1.7222
-3.8621 -0.3536 1.7222
-3.8464 -0.4921 1.7222
-3.8257 -0.6300 1.7222
-3.8003 -0.7671 1.7222
-3.7700 -0.9031 1.7222
-3.7349 -1.0380 1.7222
-3.6951 -1.1716 1.7222
-3.6507 -1.3037 1.7222
-3.6016 -1.4341 1.7222
-3.5479 -1.5628 1.7222
-3.4897 -1.6894 1.7222
-3.4271 -1.8140 1.7222
-3.3601 -1.9362 1.7222
-3.2888 -2.0561 1.7222
-3.2133 -2.1734 1.7222
-3.1338 -2.2879 1.7222
-3.0502 -2.3996 1.7222
-2.9627 -2.5083 1.7222
-2.8714 -2.6139 1.7222
-2.7765 -2.7162 1.7222
-2.6779 -2.8151 1.7222
-2.5759 -2.9105 1.7222
-2.4705 -3.0022 1.7222
-2.3620 -3.0902 1.7222
-2.2503 -3.1743 1.7222
-2.1357 -3.2545 1.7222
-2.0183 -3.3306 1.7222
-1.8982 -3.4025 1.7222
-1.7757 -3.4701 1.7222
-1.6507 -3.5334 1.7222
-1.5235 -3.5922 1.7222
-1.3943 -3.6465 1.7222
-1.2632 -3.6962 1.7222
-1.1303 -3.7413 1.7222
-0.9958 -3.7816 1.7222
-0.8599 -3.8171 1.7222
-0.7228 -3.8478 1.7222
-0.5846 -3.8737 1.7222
-0.4455 -3.8946 1.7222
-0.3057 -3.9105 1.7222
-0.1653 -3.9215 1.7222
-0.0245 -3.9275 1.7222
0.1164 -3.9284 1.7222
0.2574 -3.9243 1.7222
0.3983 -3.9152 1.7222
0.5388 -3.9010 1.7222
0.6788 -3.8819 1.7222
0.8180 -3.8577 1.7222
0.9565 -3.8285 1.7222
1.0938 -3.7944 1.7222
1.2299 -3.7554 1.7222
1.3647 -3.7115 1.7222
1.4978 -3.6627 1.7222
1.6292 -3.6092 1.7222
1.7586 -3.5509 1.7222
1.8860 -3.4881 1.7222
1.9386 -3.2972 1.6601
2.0058 -3.1479 1.6189
2.1187 -3.0761 1.6189
0.1833 1.0796 0.5025
0.1445 1.0853 0.5028
0.1056 1.0896 0.5030
0.0665 1.0925 0.5032
0.0273 1.0941 0.5035
-0.0119 1.0942 0.5037
-0.0510 1.0930 0.5040
-0.0901 1.0904 0.5043
-0.1291 1.0864 0.5046
-0.1679 1.0810 0.5049
-0.2065 1.0743 0.5052
-0.2449 1.0663 0.5056
-0.2829 1.0568 0.5059
-0.3206 1.0461 0.5063
-0.3579 1.0340 0.5067
-0.3948 1.0206 0.5070
-0.4312 1.0059 0.5074
-0.4670 0.9899 0.5078
-0.5023 0.9726 0.5082
-0.5369 0.9542 0.5087
-0.5709 0.9345 0.5091
-0.6042 0.9136 0.5095
-0.6367 0.8915 0.5099
-0.6684 0.8683 0.5104
-0.6993 0.8440 0.5108
-0.7293 0.8186 0.5113
-0.7585 0.7921 0.5117
-0.7867 0.7646 0.5122
-0.8139 0.7361 0.5127
-2.8194 2.3717 1.7222
-2.9011 2.2677 1.7222
-2.9790 2.1609 1.7222
-3.0531 2.0515 1.7222
-3.1232 1.9395 1.7222
-3.1892 1.8252 1.7222
-3.2512 1.7086 1.7222
-3.3089 1.5900 1.7222
-3.3624 1.4695 1.7222
-3.4115 1.3471 1.7222
-3.4563 1.2232 1.7222
-3.4966 1.0978 1.7222
-3.5325 0.9711 1.7222
-3.5639 0.8432 1.7222
-3.5907 0.7143 1.7222
-3.6129 0.5846 1.7222
-3.6305 0.4542 1.7222
-3.6435 0.3234 1.7222
-3.6519 0.1921 1.7222
-3.6556 0.0607 1.7222
-3.6547 -0.0707 1.7222
-3.6491 -0.2020 1.7222
-3.6389 -0.3330 1.7222
-3.6241 -0.4636 1.7222
-3.6047 -0.5935 1.7222
-3.5807 -0.7227 1.7222
-3.5522 -0.8509 1.7222
-3.5192 -0.9780 1.7222
-3.4817 -1.1039 1.7222
-3.4397 -1.2284 1.7222
-3.3935 -1.3513 1.7222
-3.3428 -1.4725 1.7222
-3.2880 -1.5919 1.7222
-3.2290 -1.7093 1.7222
-3.1658 -1.8245 1.7222
-3.0986 -1.9374 1.7222
-3.0275 -2.0479 1.7222
-2.9525 -2.1558 1.7222
-2.8737 -2.2611 1.7222
-2.7912 -2.3635 1.7222
-2.7052 -2.4629 1.7222
-2.6156 -2.5593 1.7222
-2.5227 -2.6524 1.7222
-2.4265 -2.7423 1.7222
-2.3272 -2.8287 1.7222
-2.2249 -2.9115 1.7222
-2.1197 -2.9907 1.7222
-2.0116 -3.0662 1.7222
-1.9010 -3.1378 1.7222
-1.7878 -3.2055 1.7222
-1.6723 -3.2691 1.7222
-1.5545 -3.3287 1.7222
-1.4347 -3.3840 1.7222
-1.3129 -3.4351 1.7222
-1.1893 -3.4818 1.7222
-1.0641 -3.5242 1.7222
-0.9374 -3.5621 1.7222
-0.8094 -3.5954 1.7222
-0.6802 -3.6243 1.7222
-0.5500 -3.6485 1.7222
-0.4189 -3.6681 1.7222
-0.2872 -3.6830 1.7222
-0.1550 -3.6932 1.7222
-0.0224 -3.6987 1.7222
0.1103 -3.6994 1.7222
0.2431 -3.6955 1.7222
0.3757 -3.6868 1.7222
0.5080 -3.6733 1.7222
0.6398 -3.6551 1.7222
0.7710 -3.6322 1.7222
0.9013 -3.6047 1.7222
1.0306 -3.5724 1.7222
1.1587 -3.5355 1.7222
1.2855 -3.4941 1.7222
1.4108 -3.4481 1.7222
1.5345 -3.3976 1.7222
1.6563 -3.3426 1.7222
1.7761 -3.2833 1.7222
1.8938 -3.2197 1.7222
1.9447 -3.0507 1.6669
1.9949 -2.8953 1.6189
0.1733 1.0198 0.5032
0.1367 1.0251 0.5034
0.0999 1.0292 0.5036
0.0630 1.0320 0.5038
0.0260 1.0334 0.5041
-0.0110 1.0336 0.5043
-0.0480 1.0324 0.5046
-0.0849 1.0300 0.5048
-0.1218 1.0262 0.5051
-0.1584 1.0211 0.5054
-0.1949 1.0148 0.5057
-0.2311 1.0071 0.5061
-0.2670 0.9982 0.5064
-0.3026 0.9880 0.5067
-0.3379 0.9766 0.5071
-0.3727 0.9639 0.5074
-0.4070 0.9500 0.5078
-0.4409 0.9349 0.5082
-0.4742 0.9186 0.5086
-0.5069 0.9012 0.5090
-0.5390 0.8826 0.5094
-0.5704 0.8628 0.5098
-0.6011 0.8420 0.5102
-0.6310 0.8200 0.5106
-0.6602 0.7970 0.5110
-0.6885 0.7730 0.5115
-0.7160 0.7480 0.5119
-0.7426 0.7220 0.5123
-0.7683 0.6951 0.5128
-0.7930 0.6673 0.5132
-0.8167 0.6386 0.5136
-2.8119 2.0404 1.7222
-2.8819 1.9371 1.7222
-2.9482 1.8315 1.7222
-3.0106 1.7235 1.7222
-3.0692 1.6135 1.7222
-3.1237 1.5016 1.7222
-3.1743 1.3878 1.7222
-3.2208 1.2723 1.7222
-3.2631 1.1553 1.7222
-3.3013 1.0369 1.7222
-3.3352 0.9172 1.7222
-3.3649 0.7965 1.7222
-3.3902 0.6748 1.7222
-3.4113 0.5523 1.7222
-3.4280 0.4292 1.7222
-3.4403 0.3056 1.7222
-3.4482 0.1817 1.7222
-3.4518 0.0576 1.7222
-3.4509 -0.0666 1.7222
-3.4457 -0.1906 1.7222
-3.4361 -0.3143 1.7222
-3.4221 -0.4376 1.7222
-3.4038 -0.5603 1.7222
-3.3812 -0.6823 1.7222
-3.3542 -0.8034 1.7222
-3.3230 -0.9235 1.7222
-3.2876 -1.0424 1.7222
-3.2480 -1.1599 1.7222
-3.2043 -1.2760 1.7222
-3.1565 -1.3905 1.7222
-3.1047 -1.5032 1.7222
-3.0489 -1.6141 1.7222
-2.9893 -1.7229 1.7222
-2.9258 -1.8295 1.7222
-2.8586 -1.9339 1.7222
-2.7877 -2.0358 1.7222
-2.7133 -2.1351 1.7222
-2.6354 -2.2318 1.7222
-2.5541 -2.3257 1.7222
-2.4695 -2.4167 1.7222
-2.3817 -2.5046 1.7222
-2.2909 -2.5894 1.7222
-2.1970 -2.6710 1.7222
-2.1004 -2.7492 1.7222
-2.0009 -2.8239 1.7222
-1.8989 -2.8952 1.7222
-1.7944 -2.9627 1.7222
-1.6875 -3.0266 1.7222
-1.5784 -3.0866 1.7222
-1.4671 -3.1427 1.7222
-1.3539 -3.1949 1.7222
-1.2389 -3.2431 1.7222
-1.1222 -3.2871 1.7222
-1.0040 -3.3270 1.7222
-0.8843 -3.3627 1.7222
-0.7634 -3.3942 1.7222
-0.6415 -3.4213 1.7222
-0.5186 -3.4440 1.7222
-0.3948 -3.4624 1.7222
-0.2705 -3.4764 1.7222
-0.1457 -3.4859 1.7222
-0.0205 -3.4910 1.7222
0.1048 -3.4916 1.7222
0.2301 -3.4878 1.7222
0.3553 -3.4795 1.7222
0.4801 -3.4667 1.7222
0.6045 -3.4494 1.7222
0.7282 -3.4277 1.7222
0.8512 -3.4016 1.7222
0.9732 -3.3710 1.7222
1.0941 -3.3361 1.7222
1.2137 -3.2969 1.7222
1.3319 -3.2534 1.7222
1.4485 -3.2056 1.7222
1.5634 -3.1537 1.7222
1.6764 -3.0976 1.7222
1.7874 -3.0375 1.7222
1.8962 -2.9735 1.7222
