ply
format ascii 1.0
element vertex 2163
property float32 x
property float32 y
property float32 z
end_header
5.8528 3.3846 -0.2524
5.8021 3.6395 -0.2555
6.0041 4.0739 -0.2704
6.0811 4.4533 -0.2808
6.1507 4.8532 -0.2917
6.2412 5.2993 -0.3046
6.2144 5.6731 -0.3130
6.4640 6.3414 -0.3367
6.5713 6.9272 -0.3549
6.5955 7.4729 -0.3704
6.7911 8.2758 -0.3978
6.9009 9.0543 -0.4230
7.2613 10.2727 -0.4675
7.4873 11.4435 -0.5082
7.6221 12.6168 -0.5479
7.7263 13.8937 -0.5911
7.1453 14.0115 -0.5850
6.5758 14.1270 -0.5799
6.0161 14.2405 -0.5756
6.2793 16.4926 -0.6574
7.1451 21.0069 -0.8272
7.8313 26.0601 -1.0151
6.8718 26.2547 -1.0133
8.5365 38.1634 -1.4614
2.5870 13.8909 -0.5285
-38.5035 20.8971 -1.7431
-24.8503 12.3526 -1.1064
-14.8416 5.4766 -0.6345
-37.7300 9.4612 -1.5690
-25.1938 -1.9624 -1.0348
-38.2277 -21.3322 -1.8176
-32.0278 -19.4135 -1.5561
-36.3603 -32.1886 -2.0232
-26.1766 -30.9254 -1.6896
-26.3767 -33.5346 -1.7793
4.8830 -2.1224 -0.0870
4.9374 -1.9382 -0.0863
4.9425 -1.7380 -0.0848
4.9475 -1.5424 -0.0835
4.9524 -1.3508 -0.0823
4.9572 -1.1625 -0.0812
4.9620 -0.9770 -0.0803
4.9667 -0.7937 -0.0795
4.9713 -0.6122 -0.0788
4.9759 -0.4320 -0.0783
4.9805 -0.2525 -0.0778
4.9851 -0.0734 -0.0775
4.1105 0.0872 -0.0636
9.6581 0.5524 -0.1491
9.8228 0.9169 -0.1514
10.1975 1.3229 -0.1572
9.1833 1.5286 -0.1418
8.3436 1.6989 -0.1292
7.6350 1.8426 -0.1188
7.0278 1.9658 -0.1100
6.5003 2.0728 -0.1025
6.0367 2.1668 -0.0961
5.6438 2.2578 -0.0908
5.6845 2.5146 -0.0926
5.7314 2.7856 -0.0947
5.7903 3.0762 -0.0972
5.8528 3.3844 -0.1000
5.8025 3.6396 -0.1011
6.0041 4.0737 -0.1069
6.0810 4.4532 -0.1109
6.1507 4.8531 -0.1151
6.2411 5.2991 -0.1201
6.2150 5.6735 -0.1233
6.4640 6.3413 -0.1326
6.5713 6.9271 -0.1397
6.6381 7.5212 -0.1467
6.7911 8.2758 -0.1565
6.9009 9.0543 -0.1665
7.2613 10.2727 -0.1840
7.4873 11.4437 -0.2000
7.6235 12.6192 -0.2158
7.7262 13.8937 -0.2328
7.1452 14.0115 -0.2306
6.5757 14.1270 -0.2287
6.0159 14.2406 -0.2272
6.2790 16.4926 -0.2597
7.1457 21.0096 -0.3271
7.8308 26.0602 -0.4019
6.8712 26.2548 -0.4017
8.5357 38.1635 -0.5801
2.5857 13.8859 -0.2100
2.1417 14.3482 -0.2163
-9.3922 25.3432 -0.4239
-14.8469 19.8421 -0.4034
-9.7890 6.7692 -0.2024
-9.8371 4.8892 -0.1904
-14.8470 5.4778 -0.2780
-9.8890 2.8606 -0.1824
-37.6771 9.4461 -0.6912
-9.9361 1.0161 -0.1806
-9.9901 0.6600 -0.1817
-10.0417 -0.7826 -0.1854
-9.9913 -1.1410 -0.1857
-10.0397 -3.0331 -0.1965
-32.1334 -19.4783 -0.7140
-32.5861 -35.8054 -0.9279
-26.1170 -30.8551 -0.7745
4.8830 -2.1226 0.0329
4.9374 -1.9385 0.0332
4.9425 -1.7383 0.0332
4.9475 -1.5427 0.0332
4.9524 -1.3510 0.0333
4.9572 -1.1627 0.0334
4.9620 -0.9772 0.0336
4.9667 -0.7939 0.0338
4.9713 -0.6124 0.0340
4.9759 -0.4322 0.0342
4.9805 -0.2528 0.0345
4.9851 -0.0736 0.0348
4.1105 0.0870 0.0290
9.6580 0.5521 0.0688
9.8225 0.9165 0.0708
10.1987 1.3227 0.0744
9.1842 1.5284 0.0679
8.3443 1.6988 0.0625
7.6356 1.8425 0.0581
7.0283 1.9657 0.0543
6.5007 2.0727 0.0511
6.0371 2.1667 0.0484
5.6278 2.2512 0.0460
5.5147 2.4393 0.0460
5.5689 2.7065 0.0474
5.6261 2.9888 0.0490
5.6869 3.2884 0.0508
5.7184 3.5867 0.0524
5.7696 3.9145 0.0543
5.8435 4.2791 0.0566
5.9674 4.7084 0.0595
6.0641 5.1487 0.0624
6.1405 5.6054 0.0654
6.2115 6.0935 0.0685
6.3850 6.7307 0.0732
6.5173 7.3843 0.0778
6.7911 8.2758 0.0846
6.8397 8.9740 0.0891
6.9778 9.8717 0.0955
7.2750 11.1192 0.1049
7.4906 12.3994 0.1142
7.7261 13.8937 0.1252
7.1450 14.0116 0.1237
6.5755 14.1271 0.1223
6.0157 14.2406 0.1210
6.0329 15.8469 0.1323
7.1548 21.0376 0.1729
7.8304 26.0603 0.2109
6.8707 26.2549 0.2096
8.5348 38.1637 0.3007
2.5850 13.8840 0.1081
-14.6935 44.4859 0.3235
-9.3497 25.2253 0.1839
-9.4167 22.8512 0.1673
-9.4688 20.8207 0.1532
-9.5137 19.0700 0.1412
-13.9060 25.5341 0.1904
-9.6177 14.9865 0.1139
-17.8053 25.6666 0.1975
-9.6703 12.9225 0.1008
-9.8715 12.2481 0.0970
-22.3175 25.7399 0.2073
-9.9619 10.6883 0.0877
-9.9284 9.9131 0.0831
-9.7693 9.0771 0.0779
-9.8276 6.7951 0.0659
-9.8753 4.9076 0.0573
-43.1415 19.5394 0.2422
-42.9844 17.6359 0.2339
-14.8524 5.4789 0.0785
-9.9276 2.8712 0.0496
-37.6244 9.4310 0.1834
-43.2414 7.5889 0.2011
-43.2856 6.0027 0.1970
-9.9750 1.0196 0.0445
-43.4415 -0.2582 0.1841
-25.1967 -1.9646 0.1039
-10.0304 -1.1459 0.0409
-43.6443 -8.1954 0.1749
-10.0786 -3.0452 0.0399
-10.2858 -4.8067 0.0411
-10.1339 -5.1872 0.0407
-32.1210 -19.4716 0.1321
-10.3668 -6.8053 0.0432
-10.1862 -7.2234 0.0432
-10.2323 -9.0587 0.0465
-32.5747 -35.7932 0.1630
-26.0577 -30.7852 0.1356
-10.3371 -13.1423 0.0562
4.8830 -2.1229 0.1529
4.9374 -1.9388 0.1527
4.9425 -1.7385 0.1512
4.9475 -1.5429 0.1500
4.9524 -1.3513 0.1490
4.9572 -1.1630 0.1481
4.9620 -0.9774 0.1475
4.9666 -0.7942 0.1471
4.9713 -0.6127 0.1468
4.9759 -0.4324 0.1467
4.9805 -0.2530 0.1469
4.9851 -0.0738 0.1471
4.1105 0.0869 0.1216
9.6579 0.5517 0.2867
9.8223 0.9161 0.2930
10.1998 1.3224 0.3061
9.1851 1.5282 0.2776
8.3450 1.6986 0.2544
7.6362 1.8424 0.2351
7.0288 1.9656 0.2188
6.5011 2.0726 0.2049
6.0374 2.1667 0.1929
5.6256 2.2502 0.1824
5.6844 2.5142 0.1874
5.7313 2.7853 0.1924
5.7902 3.0758 0.1982
5.8527 3.3841 0.2046
5.9194 3.7126 0.2116
5.9907 4.0644 0.2195
6.0675 4.4430 0.2282
6.1506 4.8528 0.2379
6.2411 5.2988 0.2487
6.3402 5.7876 0.2609
6.4496 6.3270 0.2747
6.5768 6.9328 0.2907
6.6381 7.5210 0.3052
5.9330 7.2300 0.2846
7.0486 9.2482 0.3538
7.2453 10.2502 0.3819
7.4874 11.4440 0.4161
7.7775 12.8745 0.4575
7.7259 13.8937 0.4834
7.1449 14.0116 0.4780
6.5753 14.1271 0.4733
6.0155 14.2406 0.4693
6.3917 16.7899 0.5450
7.3991 21.7571 0.6965
7.8299 26.0604 0.8240
6.8702 26.2550 0.8210
6.9824 31.2253 0.9669
2.5844 13.8821 0.4262
3.1607 41.3738 1.2473
1.6934 41.9877 1.2612
0.1434 32.7987 0.9828
-13.0899 44.9924 1.3824
-14.6937 44.4800 1.3788
-9.3493 25.2209 0.7899
-9.4165 22.8477 0.7240
-9.4685 20.8175 0.6684
-9.5133 19.0669 0.6212
-13.9071 25.5333 0.8455
-9.6177 14.9848 0.5151
-17.8063 25.6653 0.9012
-9.6702 12.9211 0.4643
-9.8604 12.2330 0.4508
-22.3014 25.7189 0.9740
-9.9629 10.6883 0.4169
-9.9183 9.9020 0.3988
-9.7691 9.0760 0.3783
-9.9366 8.5876 0.3715
-32.5472 26.1462 1.1776
-35.1438 26.2117 1.2331
-9.8275 6.7943 0.3351
-41.2087 26.3533 1.3678
-10.0129 5.9075 0.3241
-42.8400 23.2423 1.3550
-9.8753 4.9070 0.3057
-42.9372 19.4443 1.3028
-42.9835 17.6330 1.2805
-14.8578 5.4801 0.4352
-43.0725 14.1507 1.2425
-9.9275 2.8707 0.2824
-37.5719 9.4160 1.0556
-43.1994 9.1905 1.2004
-43.2404 7.5867 1.1900
-43.2810 6.0001 1.1813
-9.9750 1.0192 0.2704
-43.3612 2.8610 1.1688
-43.4012 1.3003 1.1649
-43.4410 -0.2599 1.1627
-10.1874 -0.4273 0.2722
-25.1982 -1.9657 0.6733
-10.0303 -1.1462 0.2683
-43.6026 -6.5773 1.1695
-43.6440 -8.1969 1.1753
-43.6861 -9.8417 1.1828
-43.7289 -11.5166 1.1921
-10.0786 -3.0455 0.2770
-39.7349 -15.1980 1.1155
-38.2376 -16.2229 1.0875
-10.2852 -4.8067 0.2968
-10.1339 -5.1874 0.2972
-10.3043 -5.7509 0.3077
-32.0860 -19.4512 0.9771
-10.3664 -6.8053 0.3226
-10.1859 -7.2235 0.3245
-10.2322 -9.0588 0.3543
-32.5433 -35.7591 1.2518
-25.9986 -30.7156 1.0418
-10.3370 -13.1422 0.4328
27.9669 -15.9373 1.6424
16.3436 -8.5508 0.9427
18.8848 -9.0316 1.0715
4.8830 -2.1232 0.2730
4.9374 -1.9390 0.2724
4.9425 -1.7388 0.2694
4.9475 -1.5432 0.2669
4.9524 -1.3515 0.2648
4.9572 -1.1632 0.2630
4.9620 -0.9777 0.2616
4.9666 -0.7944 0.2605
4.9713 -0.6129 0.2598
4.9759 -0.4326 0.2594
4.9805 -0.2532 0.2594
4.9851 -0.0741 0.2596
4.1105 0.0867 0.2144
9.6578 0.5513 0.5050
9.8220 0.9157 0.5155
10.2009 1.3222 0.5382
9.1860 1.5281 0.4878
8.3457 1.6985 0.4466
7.6368 1.8423 0.4123
7.0293 1.9655 0.3834
6.5015 2.0725 0.3588
6.0377 2.1666 0.3376
5.6259 2.2501 0.3191
5.6844 2.5140 0.3276
5.7312 2.7851 0.3361
5.7902 3.0757 0.3461
5.8527 3.3839 0.3571
5.9193 3.7124 0.3693
5.9907 4.0642 0.3828
6.0675 4.4429 0.3978
6.1506 4.8526 0.4146
6.2410 5.2987 0.4334
6.3402 5.7875 0.4546
6.4496 6.3269 0.4785
6.5865 6.9429 0.5070
6.6380 7.5210 0.5315
6.7911 8.2757 0.5673
7.0546 9.2560 0.6167
7.2453 10.2502 0.6651
6.0151 9.1938 0.5821
7.7776 12.8748 0.7968
7.7258 13.8938 0.8420
7.1447 14.0116 0.8328
6.5751 14.1271 0.8249
6.0153 14.2407 0.8180
6.3920 16.7915 0.9503
6.5067 19.1340 1.0685
7.8294 26.0605 1.4379
6.8697 26.2551 1.4332
6.7905 30.3700 1.6424
2.5837 13.8803 0.7447
4.4637 29.9202 1.5944
3.3884 30.0846 1.5944
2.4535 32.1281 1.6955
1.3002 32.2610 1.6974
0.1403 32.3166 1.6974
-1.0219 32.3320 1.6974
-2.1852 32.3070 1.6974
-3.3481 32.2416 1.6974
-4.5093 32.1356 1.6974
-5.6674 31.9891 1.6974
-3.0420 14.1825 0.7570
-3.0972 12.2718 0.6597
-3.3272 11.4345 0.6200
-3.7814 11.4454 0.6267
-4.2424 11.4429 0.6337
-4.7164 11.4421 0.6418
-9.4681 20.8143 1.1841
-9.5129 19.0640 1.1017
-9.5520 17.5355 1.0311
-9.5865 16.1859 0.9700
-9.6173 14.9827 0.9166
-17.7757 25.6186 1.6029
-9.6702 12.9197 0.8283
-9.8611 12.2326 0.8053
-21.1783 24.4212 1.6541
-9.9640 10.6883 0.7465
-9.9189 9.9016 0.7149
-9.7687 9.0748 0.6790
-9.9361 8.5863 0.6677
-9.9559 7.9971 0.6483
-24.2154 18.0589 1.5310
-9.8271 6.7933 0.6045
-25.5435 16.3334 1.5317
-10.0135 5.9072 0.5864
-26.7094 14.4890 1.5301
-9.8752 4.9063 0.5544
-29.2489 13.2437 1.6117
-30.5244 12.5201 1.6535
-14.8632 5.4813 0.7927
-27.2932 8.9652 1.4353
-9.9275 2.8702 0.5155
-28.0086 7.0179 1.4382
-28.5862 6.0802 1.4535
-30.5026 5.3504 1.5379
-32.4144 4.4921 1.6228
-9.9749 1.0187 0.4965
-31.9825 2.1088 1.5850
-31.5734 0.9446 1.5599
-31.8687 -0.1919 1.5717
-10.1825 -0.4275 0.5020
-25.1997 -1.9668 1.2434
-10.0303 -1.1466 0.4960
-27.5076 -4.1504 1.3652
-27.4176 -5.1503 1.3675
-27.9808 -6.3046 1.4045
-28.0800 -7.3962 1.4204
-10.0785 -3.0458 0.5145
-23.1183 -7.9034 1.1928
-23.0877 -8.8314 1.2057
-26.6433 -11.3046 1.4105
-10.2846 -4.8067 0.5528
-10.1336 -5.1876 0.5539
-10.3042 -5.7512 0.5738
-28.7041 -17.4018 1.6311
-10.3661 -6.8053 0.6022
-10.1855 -7.2234 0.6061
-25.8028 -19.7294 1.5759
-10.3819 -8.5463 0.6521
-10.2322 -9.0589 0.6625
-23.6067 -22.4634 1.5794
-23.4383 -23.9654 1.6243
-22.8472 -25.1051 1.6445
-21.9430 -25.9242 1.6453
-10.3366 -13.1417 0.8099
-19.5554 -26.7895 1.6066
19.3793 -11.0448 1.6424
19.7418 -10.3301 1.6424
18.8839 -9.0323 1.5447
4.8830 -2.1235 0.3934
4.9374 -1.9393 0.3923
4.9425 -1.7391 0.3879
4.9475 -1.5434 0.3841
4.9524 -1.3518 0.3808
4.9572 -1.1634 0.3781
4.9620 -0.9779 0.3759
4.9666 -0.7946 0.3743
4.9713 -0.6131 0.3731
4.9759 -0.4329 0.3724
4.9805 -0.2534 0.3721
4.9851 -0.0742 0.3724
4.1105 0.0865 0.3073
9.6577 0.5509 0.7237
9.8217 0.9153 0.7386
10.2021 1.3220 0.7709
9.1869 1.5279 0.6984
8.3464 1.6983 0.6392
7.6374 1.8421 0.5900
7.0297 1.9654 0.5485
6.5019 2.0724 0.5132
6.0381 2.1665 0.4827
5.6262 2.2500 0.4562
5.6844 2.5138 0.4682
5.7312 2.7849 0.4802
5.7901 3.0755 0.4943
5.8527 3.3837 0.5099
5.9193 3.7123 0.5273
5.9906 4.0641 0.5465
6.0674 4.4427 0.5679
6.1505 4.8525 0.5918
6.2410 5.2985 0.6185
6.3402 5.7874 0.6487
6.4496 6.3268 0.6829
6.5900 6.9465 0.7238
6.5678 7.4413 0.7503
6.7192 8.1881 0.8008
6.8928 9.0436 0.8597
7.3870 10.4507 0.9675
7.4875 11.4442 1.0339
7.7777 12.8750 1.1370
7.7257 13.8938 1.2015
7.1446 14.0117 1.1885
6.5750 14.1272 1.1772
6.0151 14.2407 1.1676
6.3923 16.7931 1.3568
6.5064 19.1341 1.5255
6.0792 20.2364 1.5944
5.3503 20.4500 1.5944
4.6141 20.6381 1.5944
2.5681 13.7981 1.0576
3.1230 20.9369 1.5944
2.3845 21.1761 1.6041
1.7174 22.4972 1.6974
0.9085 22.5582 1.6974
0.0974 22.5908 1.6974
-0.7149 22.5950 1.6974
-1.5274 22.5707 1.6974
-2.3391 22.5178 1.6974
-3.1492 22.4365 1.6974
-3.9564 22.3265 1.6974
-2.9858 13.9178 1.0647
-3.0935 12.2548 0.9446
-3.3192 11.4051 0.8870
-3.7729 11.4179 0.8971
-4.2386 11.4311 0.9087
-4.7180 11.4447 0.9218
-8.8741 19.5059 1.5942
-9.5128 19.0616 1.5833
-9.5519 17.5334 1.4824
-9.5865 16.1840 1.3952
-9.6173 14.9810 1.3191
-9.6449 13.8990 1.2522
-9.6700 12.9182 1.1931
-9.6929 12.0229 1.1406
-9.7140 11.2003 1.0938
-9.7334 10.4400 1.0519
-9.7515 9.7335 1.0143
-9.7684 9.0736 0.9804
-9.7962 8.4645 0.9510
-9.8360 7.8999 0.9256
-10.0013 7.4578 0.9144
-9.8268 6.7923 0.8745
-19.1990 12.2751 1.6664
-10.0141 5.9069 0.8492
-18.3697 9.9638 1.5248
-9.8751 4.9057 0.8036
-18.5378 8.3927 1.4815
-18.9226 7.7603 1.4873
-14.8686 5.4824 1.1512
-20.0897 6.5979 1.5344
-9.9273 2.8696 0.7491
-21.0942 5.2843 1.5747
-21.4408 4.5594 1.5857
-21.7155 3.8081 1.5932
-19.5398 2.7070 1.4241
-9.9747 1.0182 0.7231
-22.3112 1.4702 1.6111
-22.4976 0.6722 1.6203
-19.7289 -0.1196 1.4190
-10.1833 -0.4279 0.7324
-22.3611 -1.7460 1.6103
-10.0300 -1.1469 0.7242
-22.0004 -3.3203 1.5948
-21.6362 -4.0651 1.5768
-21.1836 -4.7738 1.5541
-19.5740 -5.1564 1.4476
-10.0785 -3.0461 0.7525
-18.3426 -6.2713 1.3845
-18.2424 -6.9785 1.3941
-18.1217 -7.6895 1.4043
-10.2840 -4.8068 0.8094
-10.1332 -5.1877 0.8112
-10.3041 -5.7514 0.8405
-19.3706 -11.7439 1.6128
-10.3657 -6.8053 0.8825
-10.1852 -7.2234 0.8883
-10.2466 -7.8350 0.9174
-10.2364 -8.4268 0.9427
-10.2321 -9.0590 0.9714
-10.2498 -9.7535 1.0055
-10.2689 -10.4999 1.0436
-10.2895 -11.3064 1.0861
-10.3119 -12.1829 1.1339
-10.3364 -13.1414 1.1878
-10.3634 -14.1970 1.2487
14.8148 -8.4444 1.6424
15.0959 -7.9000 1.6424
15.3571 -7.3464 1.6424
4.8830 -2.1238 0.5142
4.9374 -1.9396 0.5126
4.9425 -1.7393 0.5068
4.9475 -1.5437 0.5017
4.9524 -1.3520 0.4973
4.9572 -1.1637 0.4937
4.9619 -0.9781 0.4907
4.9666 -0.7949 0.4884
4.9713 -0.6133 0.4867
4.9759 -0.4331 0.4857
4.9805 -0.2536 0.4853
4.9851 -0.0745 0.4855
4.1105 0.0863 0.4006
9.6577 0.5505 0.9432
9.8214 0.9149 0.9624
10.2032 1.3218 1.0044
9.1878 1.5277 0.9098
8.3471 1.6982 0.8325
7.6380 1.8420 0.7683
7.0302 1.9653 0.7142
6.5023 2.0724 0.6680
6.0384 2.1665 0.6283
5.6265 2.2500 0.5937
5.6843 2.5137 0.6092
5.7312 2.7847 0.6248
5.7901 3.0753 0.6431
5.8526 3.3836 0.6633
5.9193 3.7121 0.6858
5.9906 4.0639 0.7107
6.0674 4.4425 0.7385
6.1505 4.8523 0.7695
6.2410 5.2984 0.8043
6.3401 5.7872 0.8435
6.4495 6.3267 0.8879
6.5899 6.9464 0.9411
6.2765 7.1112 0.9323
6.2567 7.6244 0.9695
6.4183 8.4211 1.0408
6.3390 8.9682 1.0795
7.4875 11.4444 1.3442
7.7777 12.8753 1.4784
7.7256 13.8938 1.5622
7.1444 14.0117 1.5454
6.5748 14.1272 1.5308
6.0149 14.2408 1.5184
5.7757 15.1739 1.5944
5.2280 15.3756 1.5944
4.6734 15.5579 1.5944
4.1126 15.7207 1.5944
3.5463 15.8637 1.5944
2.5652 13.7846 1.3747
2.3996 16.0897 1.5944
1.9383 17.2180 1.6974
1.3190 17.2843 1.6974
0.6974 17.3287 1.6974
0.0743 17.3512 1.6974
-0.5496 17.3517 1.6974
-1.1734 17.3302 1.6974
-1.7963 17.2867 1.6974
-2.4178 17.2212 1.6974
-3.0369 17.1336 1.6974
-2.9625 13.8066 1.3766
-3.0897 12.2379 1.2297
-3.2475 11.1572 1.1313
-3.7743 11.4204 1.1702
-4.2401 11.4336 1.1856
-4.6882 11.3710 1.1949
-5.0904 11.1879 1.1933
-7.3395 14.7050 1.5943
-7.8691 14.4427 1.5943
-8.3894 14.1616 1.5943
-8.8997 13.8618 1.5942
-9.3995 13.5438 1.5942
-9.6700 12.9168 1.5591
-9.6929 12.0216 1.4909
-9.7139 11.1991 1.4301
-9.7334 10.4389 1.3756
-9.7515 9.7324 1.3268
-9.7683 9.0726 1.2828
-9.7842 8.4533 1.2431
-9.7991 7.8695 1.2072
-9.8133 7.3168 1.1748
-9.8267 6.7915 1.1454
-9.8395 6.2903 1.1189
-9.8518 5.8105 1.0949
-9.8636 5.3494 1.0732
-9.8750 4.9050 1.0537
-9.8860 4.4751 1.0362
-9.8966 4.0581 1.0205
-9.9070 3.6524 1.0065
-9.9171 3.2565 0.9942
-9.9271 2.8690 0.9834
-9.9368 2.4888 0.9741
-9.9464 2.1146 0.9662
-9.9590 1.7460 0.9600
-9.9731 1.3812 0.9552
-9.9744 1.0178 0.9505
-9.9976 0.6584 0.9492
-10.0081 0.2986 0.9478
-10.0175 -0.0611 0.9477
-10.0258 -0.4217 0.9486
-10.0329 -0.7838 0.9507
-10.0298 -1.1473 0.9531
-10.0440 -1.5162 0.9584
-10.0487 -1.8883 0.9642
-10.0584 -2.2670 0.9717
-10.0682 -2.6526 0.9807
-10.0783 -3.0464 0.9912
-10.0886 -3.4496 1.0033
-10.0992 -3.8637 1.0170
-10.1101 -4.2903 1.0325
-10.1214 -4.7310 1.0499
-10.1330 -5.1879 1.0693
-10.1452 -5.6630 1.0910
-10.1579 -6.1587 1.1151
-10.1711 -6.6778 1.1418
-10.1851 -7.2235 1.1715
-10.1998 -7.7994 1.2043
-10.2154 -8.4096 1.2408
-10.2320 -9.0591 1.2813
-10.2497 -9.7536 1.3263
-10.2688 -10.5000 1.3766
-10.2894 -11.3064 1.4328
-10.3118 -12.1828 1.4958
-10.3363 -13.1413 1.5668
-10.0296 -13.7398 1.5942
11.9805 -6.8297 1.6424
12.2098 -6.3904 1.6424
12.4231 -5.9436 1.6424
4.8830 -2.1241 0.6355
4.9373 -1.9399 0.6335
4.9425 -1.7396 0.6262
4.9475 -1.5440 0.6198
4.9524 -1.3523 0.6143
4.9572 -1.1639 0.6097
4.9619 -0.9784 0.6059
4.9666 -0.7951 0.6030
4.9713 -0.6135 0.6008
4.9759 -0.4333 0.5995
4.9805 -0.2538 0.5989
4.9851 -0.0747 0.5991
4.1105 0.0862 0.4943
9.6576 0.5502 1.1636
9.8212 0.9145 1.1871
10.2043 1.3215 1.2390
9.1887 1.5275 1.1221
8.3479 1.6981 1.0267
7.6386 1.8419 0.9474
7.0307 1.9652 0.8806
6.5027 2.0723 0.8236
6.0388 2.1664 0.7745
5.6268 2.2499 0.7318
5.6843 2.5135 0.7508
5.7311 2.7845 0.7700
5.7901 3.0751 0.7925
5.8526 3.3834 0.8174
5.9192 3.7119 0.8450
5.9906 4.0637 0.8757
6.0674 4.4424 0.9099
6.1505 4.8522 0.9481
6.2410 5.2983 0.9909
6.4641 5.9002 1.0594
6.5756 6.4503 1.1151
6.5899 6.9463 1.1593
6.2765 7.1112 1.1485
6.0259 7.3431 1.1502
6.1815 8.1105 1.2348
6.1063 8.6389 1.2810
7.4265 11.3513 1.6424
7.0142 11.6116 1.6424
6.5930 11.8572 1.6424
6.1633 12.0878 1.6424
5.5581 11.9429 1.5944
5.1261 12.1369 1.5944
4.6875 12.3156 1.5944
4.2428 12.4787 1.5944
3.7925 12.6260 1.5944
3.3371 12.7574 1.5944
2.8773 12.8726 1.5944
2.4136 12.9716 1.5944
1.9692 13.2064 1.6129
1.5721 13.9685 1.6974
1.0696 14.0211 1.6974
0.5652 14.0559 1.6974
0.0598 14.0728 1.6974
-0.4461 14.0719 1.6974
-0.9519 14.0530 1.6974
-1.4570 14.0162 1.6974
-1.9607 13.9615 1.6974
-2.4623 13.8890 1.6974
-2.9613 13.7986 1.6974
-3.4571 13.6906 1.6974
-3.2255 11.0799 1.3865
-3.7756 11.4229 1.4446
-4.2416 11.4362 1.4638
-4.6768 11.3418 1.4714
-5.0780 11.1592 1.4696
-6.0901 12.2004 1.6335
-6.3716 11.6929 1.5942
-6.7919 11.4638 1.5942
-7.2041 11.2196 1.5942
-7.6075 10.9607 1.5942
-8.0018 10.6873 1.5942
-8.3862 10.3999 1.5942
-8.7604 10.0987 1.5942
-9.1238 9.7841 1.5942
-9.4759 9.4565 1.5942
-9.7683 9.0716 1.5864
-9.7841 8.4524 1.5376
-9.7991 7.8686 1.4934
-9.8132 7.3160 1.4536
-9.8267 6.7907 1.4175
-9.8395 6.2896 1.3849
-9.8518 5.8098 1.3554
-9.8636 5.3487 1.3288
-9.8749 4.9043 1.3048
-9.8859 4.4745 1.2833
-9.8966 4.0576 1.2641
-9.9070 3.6519 1.2470
-9.9171 3.2559 1.2319
-9.9270 2.8685 1.2188
-9.9367 2.4883 1.2074
-9.9463 2.1141 1.1978
-9.9557 1.7449 1.1899
-9.9651 1.3796 1.1836
-9.9743 1.0173 1.1788
-9.9836 0.6570 1.1757
-9.9927 0.2977 1.1741
-10.0019 -0.0615 1.1740
-10.0111 -0.4215 1.1754
-10.0204 -0.7832 1.1784
-10.0297 -1.1477 1.1830
-10.0391 -1.5158 1.1892
-10.0486 -1.8887 1.1970
-10.0583 -2.2674 1.2065
-10.0682 -2.6530 1.2178
-10.0782 -3.0467 1.2310
-10.0886 -3.4499 1.2461
-10.0991 -3.8640 1.2632
-10.1100 -4.2906 1.2826
-10.1213 -4.7313 1.3043
-10.1330 -5.1881 1.3286
-10.1451 -5.6632 1.3556
-10.1578 -6.1589 1.3856
-10.1710 -6.6780 1.4189
-10.1850 -7.2237 1.4558
-10.1997 -7.7996 1.4967
-10.2153 -8.4098 1.5421
-10.2319 -9.0592 1.5925
-9.9119 -9.4323 1.5942
-9.5676 -9.7832 1.5942
-9.2107 -10.1213 1.5942
-8.8417 -10.4460 1.5942
-8.4609 -10.7571 1.5942
-8.0691 -11.0540 1.5942
10.0478 -5.7286 1.6424
10.2412 -5.3608 1.6424
10.4212 -4.9865 1.6424
4.8830 -2.1244 0.7575
4.9373 -1.9402 0.7550
4.9425 -1.7399 0.7462
4.9475 -1.5442 0.7385
4.9524 -1.3525 0.7319
4.9572 -1.1642 0.7263
4.9619 -0.9786 0.7218
4.9666 -0.7953 0.7182
4.9713 -0.6138 0.7156
4.9759 -0.4335 0.7139
4.9805 -0.2540 0.7132
4.9850 -0.0749 0.7133
4.1105 0.0860 0.5885
4.9907 0.2841 0.7158
11.4152 1.0625 1.6424
10.2055 1.3213 1.4749
9.1896 1.5273 1.3357
8.3486 1.6979 1.2220
7.6392 1.8418 1.1276
7.0312 1.9651 1.0479
6.5032 2.0722 0.9801
6.0391 2.1663 0.9216
5.6271 2.2499 0.8707
5.6843 2.5133 0.8932
5.7311 2.7844 0.9160
5.7900 3.0749 0.9427
5.8526 3.3832 0.9723
6.0349 3.7844 1.0248
6.1077 4.1430 1.0619
6.1860 4.5291 1.1033
6.1505 4.8520 1.1276
6.2409 5.2981 1.1785
6.4640 5.9001 1.2600
6.5756 6.4501 1.3262
6.5899 6.9462 1.3787
6.2766 7.1112 1.3658
5.8985 7.1879 1.3390
5.9507 7.8076 1.4137
5.8975 8.3435 1.4713
6.2446 9.5448 1.6424
5.7251 9.4777 1.5944
5.3812 9.6780 1.5944
5.0304 9.8661 1.5944
4.6731 10.0417 1.5944
4.3098 10.2045 1.5944
3.9409 10.3544 1.5944
3.5669 10.4912 1.5944
3.1881 10.6147 1.5944
2.8052 10.7247 1.5944
0.7521 3.3653 0.4958
0.6305 3.3889 0.4955
0.5081 3.4084 0.4953
0.3852 3.4237 0.4950
0.2619 3.4348 0.4948
0.1383 3.4417 0.4946
0.0145 3.4444 0.4944
-0.1093 3.4428 0.4942
-0.2329 3.4370 0.4941
-0.3564 3.4270 0.4940
-0.4794 3.4128 0.4939
-0.6019 3.3944 0.4938
-0.7238 3.3719 0.4938
-2.9042 11.4989 1.6974
-3.3170 11.3923 1.6974
-3.7260 11.2711 1.6974
-4.1306 11.1354 1.6974
-4.5303 10.9853 1.6974
-4.9247 10.8209 1.6974
-5.3131 10.6425 1.6974
-5.6950 10.4502 1.6974
-6.0701 10.2444 1.6974
-6.1593 9.5913 1.6240
-6.3841 9.1971 1.5942
-6.7142 8.9668 1.5942
-7.0361 8.7246 1.5942
-7.3492 8.4710 1.5942
-7.6532 8.2062 1.5942
-7.9477 7.9306 1.5942
-8.2323 7.6443 1.5942
-8.5066 7.3479 1.5942
-8.7703 7.0417 1.5942
-9.0229 6.7260 1.5942
-9.2641 6.4013 1.5942
-9.4937 6.0679 1.5942
-9.7112 5.7262 1.5942
-9.8635 5.3481 1.5857
-9.8749 4.9037 1.5573
-9.8859 4.4739 1.5318
-9.8965 4.0570 1.5090
-9.9069 3.6513 1.4887
-9.9170 3.2554 1.4709
-9.9270 2.8680 1.4553
-9.9367 2.4878 1.4419
-9.9462 2.1136 1.4306
-9.9557 1.7444 1.4213
-9.9650 1.3792 1.4139
-9.9743 1.0169 1.4084
-9.9835 0.6566 1.4047
-6.6203 0.1970 0.9295
-10.0019 -0.0619 1.4030
-10.0111 -0.4219 1.4048
-10.0203 -0.7836 1.4085
-10.0296 -1.1480 1.4141
-10.0391 -1.5162 1.4216
-10.0486 -1.8890 1.4311
-10.0583 -2.2677 1.4426
-10.0681 -2.6533 1.4562
-10.0782 -3.0470 1.4720
-10.0885 -3.4502 1.4902
-10.0991 -3.8643 1.5108
-10.1100 -4.2908 1.5340
-10.1212 -4.7315 1.5601
-10.1329 -5.1884 1.5892
-9.9738 -5.5678 1.5942
-9.7697 -5.9238 1.5942
-9.5525 -6.2722 1.5942
-9.3228 -6.6125 1.5942
-9.0808 -6.9442 1.5942
-8.8268 -7.2669 1.5942
-8.5612 -7.5802 1.5942
-8.2843 -7.8836 1.5942
-7.9965 -8.1767 1.5942
-7.6981 -8.4591 1.5942
-7.3896 -8.7305 1.5942
-7.0714 -8.9904 1.5942
-6.7439 -9.2386 1.5942
8.6443 -4.9290 1.6424
8.8114 -4.6129 1.6424
8.9669 -4.2912 1.6424
4.8830 -2.1247 0.8803
4.9373 -1.9405 0.8774
4.9425 -1.7402 0.8670
4.9475 -1.5445 0.8580
4.9524 -1.3528 0.8503
4.9572 -1.1644 0.8438
4.9619 -0.9789 0.8384
4.9666 -0.7956 0.8342
4.9713 -0.6140 0.8311
4.9759 -0.4337 0.8291
4.9805 -0.2542 0.8281
4.9850 -0.0751 0.8283
4.1105 0.0859 0.6833
4.9740 0.2830 0.8283
5.1674 0.4808 0.8632
9.7897 1.2671 1.6424
9.1906 1.5271 1.5507
8.3493 1.6977 1.4186
7.6397 1.8417 1.3089
7.0317 1.9650 1.2164
6.5036 2.0721 1.1375
6.0394 2.1662 1.0696
5.6273 2.2498 1.0105
5.6842 2.5131 1.0366
5.7311 2.7842 1.0629
5.7900 3.0748 1.0939
5.8525 3.3830 1.1282
6.0349 3.7842 1.1890
6.1076 4.1429 1.2321
6.1859 4.5289 1.2802
6.1504 4.8519 1.3082
6.2409 5.2980 1.3673
6.3400 5.7868 1.4338
6.4527 6.3295 1.5099
6.5965 6.9531 1.6012
6.2766 7.1112 1.5846
5.8985 7.1879 1.5535
5.7169 7.5008 1.5757
5.5083 7.7929 1.5944
5.2248 7.9861 1.5944
4.9346 8.1691 1.5944
4.6381 8.3417 1.5944
4.3357 8.5037 1.5944
4.0276 8.6549 1.5944
3.7144 8.7951 1.5944
3.3964 8.9242 1.5944
3.0739 9.0418 1.5944
2.7474 9.1480 1.5944
0.7559 2.8903 0.4986
0.6513 2.9146 0.4983
0.5460 2.9352 0.4980
0.4401 2.9522 0.4978
0.3336 2.9656 0.4976
0.2268 2.9752 0.4974
0.1197 2.9812 0.4972
0.0125 2.9836 0.4970
-0.0947 2.9822 0.4969
-0.2019 2.9771 0.4968
-0.3088 2.9684 0.4967
-0.4154 2.9560 0.4966
-0.5215 2.9400 0.4966
-0.6270 2.9203 0.4966
-0.7318 2.8970 0.4966
-2.8570 9.8108 1.6974
-3.2090 9.7058 1.6974
-3.5572 9.5883 1.6974
-3.9011 9.4584 1.6974
-4.2404 9.3162 1.6974
-4.5745 9.1619 1.6974
-4.9030 8.9957 1.6974
-5.2255 8.8179 1.6974
-5.5416 8.6285 1.6974
-5.8508 8.4278 1.6974
-6.1529 8.2162 1.6974
-6.2053 7.6937 1.6338
-6.3241 7.2887 1.5942
-6.5851 7.0602 1.5942
-6.8380 6.8225 1.5942
-7.0823 6.5757 1.5942
-7.3176 6.3203 1.5942
-7.5438 6.0563 1.5942
-7.7605 5.7844 1.5942
-7.9673 5.5046 1.5942
-8.1641 5.2175 1.5942
-8.3505 4.9233 1.5942
-8.5263 4.6224 1.5942
-8.6912 4.3153 1.5942
-8.8450 4.0023 1.5942
-8.9875 3.6838 1.5942
-9.1185 3.3602 1.5942
-9.2378 3.0319 1.5942
-9.3453 2.6994 1.5942
-9.4407 2.3631 1.5942
-9.5239 2.0234 1.5942
-9.5948 1.6807 1.5942
-9.6533 1.3356 1.5942
-9.6993 0.9884 1.5942
-9.7328 0.6397 1.5942
-6.6139 0.1965 1.0810
-9.7617 -0.0608 1.5942
-9.7571 -0.4115 1.5942
-9.7398 -0.7620 1.5942
-9.7098 -1.1118 1.5942
-9.6671 -1.4604 1.5942
-9.6118 -1.8073 1.5942
-9.5438 -2.1521 1.5942
-9.4634 -2.4942 1.5942
-9.3706 -2.8334 1.5942
-9.2655 -3.1691 1.5942
-9.1482 -3.5008 1.5942
-9.0190 -3.8281 1.5942
-8.8778 -4.1505 1.5942
-8.7250 -4.4677 1.5942
-8.5608 -4.7792 1.5942
-8.3852 -5.0846 1.5942
-8.1987 -5.3834 1.5942
-8.0013 -5.6753 1.5942
-7.7934 -5.9599 1.5942
-7.5753 -6.2367 1.5942
-7.3472 -6.5054 1.5942
-7.1095 -6.7657 1.5942
-6.8624 -7.0172 1.5942
-6.6063 -7.2595 1.5942
-6.5988 -7.7962 1.6589
-6.4615 -8.2150 1.6974
-6.1623 -8.4418 1.6974
7.5778 -4.3214 1.6424
7.7247 -4.0445 1.6424
7.8616 -3.7627 1.6424
4.8829 -2.1249 1.0040
4.9373 -1.9407 1.0006
4.9424 -1.7404 0.9887
4.9475 -1.5448 0.9784
4.9524 -1.3530 0.9695
4.4241 -1.0394 0.8586
4.9619 -0.9791 0.9559
4.9666 -0.7958 0.9511
4.9713 -0.6142 0.9475
4.9759 -0.4340 0.9451
4.9805 -0.2545 0.9440
4.9850 -0.0753 0.9441
4.1105 0.0857 0.7788
4.9573 0.2818 0.9409
5.1675 0.4806 0.9838
8.5902 1.1115 1.6424
8.5420 1.4191 1.6424
8.3501 1.6976 1.6167
7.6404 1.8415 1.4916
7.0322 1.9649 1.3861
6.5040 2.0720 1.2962
6.0398 2.1662 1.2187
5.6276 2.2498 1.1514
5.6842 2.5129 1.1810
5.7310 2.7840 1.2110
5.7900 3.0746 1.2462
5.8525 3.3829 1.2853
6.0349 3.7840 1.3546
6.1076 4.1427 1.4036
6.0673 4.4419 1.4303
6.1509 4.8521 1.4904
6.2507 5.3062 1.5600
6.3606 5.8055 1.6386
6.1619 6.0441 1.6424
5.7664 6.0780 1.5944
5.5440 6.2811 1.5944
5.3145 6.4762 1.5944
5.0783 6.6630 1.5944
4.8356 6.8413 1.5944
4.5867 7.0108 1.5944
4.3319 7.1715 1.5944
4.0716 7.3230 1.5944
3.8060 7.4651 1.5944
3.5356 7.5978 1.5944
3.2605 7.7207 1.5944
2.9813 7.8339 1.5944
2.6982 7.9371 1.5944
0.7574 2.5219 0.5007
0.6660 2.5466 0.5005
0.5738 2.5681 0.5002
0.4810 2.5864 0.5000
0.3877 2.6014 0.4998
0.2939 2.6132 0.4996
0.1998 2.6218 0.4994
0.1054 2.6271 0.4992
0.0109 2.6292 0.4991
-0.0836 2.6280 0.4990
-0.1780 2.6235 0.4989
-0.2722 2.6157 0.4988
-0.3661 2.6048 0.4987
-0.4596 2.5905 0.4987
-0.5525 2.5731 0.4987
-0.6449 2.5524 0.4987
-0.7365 2.5286 0.4987
-0.8272 2.5016 0.4987
-3.1208 8.4109 1.6974
-3.4224 8.2965 1.6974
-3.7197 8.1713 1.6974
-4.0126 8.0356 1.6974
-4.3005 7.8894 1.6974
-4.5831 7.7330 1.6974
-4.8600 7.5664 1.6974
-5.1309 7.3901 1.6974
-5.3955 7.2040 1.6974
-5.6533 7.0085 1.6974
-5.9040 6.8039 1.6974
-6.1474 6.5902 1.6974
-6.2402 6.2254 1.6595
-6.2602 5.8118 1.6075
-6.4145 5.5396 1.5942
-6.6123 5.3080 1.5942
-6.8018 5.0692 1.5942
-6.9827 4.8238 1.5942
-7.1547 4.5718 1.5942
-7.3176 4.3138 1.5942
-7.4712 4.0499 1.5942
-7.6152 3.7806 1.5942
-7.7495 3.5061 1.5942
-7.8739 3.2269 1.5942
-7.9882 2.9432 1.5942
-8.0922 2.6555 1.5942
-8.1859 2.3641 1.5942
-8.2690 2.0694 1.5942
-8.3414 1.7717 1.5942
-8.4030 1.4716 1.5942
-8.4538 1.1692 1.5942
-8.4937 0.8652 1.5942
-8.5225 0.5597 1.5942
-6.6074 0.1960 1.2334
-8.5470 -0.0536 1.5942
-8.5425 -0.3607 1.5942
-8.5270 -0.6675 1.5942
-8.5003 -0.9736 1.5942
-8.4626 -1.2787 1.5942
-8.4138 -1.5823 1.5942
-8.3540 -1.8840 1.5942
-8.2833 -2.1835 1.5942
-8.2017 -2.4803 1.5942
-8.1095 -2.7739 1.5942
-8.0066 -3.0641 1.5942
-7.8932 -3.3505 1.5942
-7.7694 -3.6326 1.5942
-7.6355 -3.9100 1.5942
-7.4915 -4.1825 1.5942
-7.3378 -4.4496 1.5942
-7.1744 -4.7110 1.5942
-7.0015 -4.9663 1.5942
-6.8195 -5.2152 1.5942
-6.6286 -5.4574 1.5942
-6.5527 -5.8021 1.6249
-6.5590 -6.2420 1.6809
-6.3935 -6.5377 1.6974
-6.1548 -6.7634 1.6974
-5.9082 -6.9803 1.6974
-5.6537 -7.1881 1.6974
-5.3919 -7.3865 1.6974
6.7392 -3.8436 1.6424
6.8702 -3.5976 1.6424
6.9923 -3.3471 1.6424
4.7659 -2.0743 1.1017
4.9373 -1.9410 1.1249
4.9424 -1.7407 1.1115
4.9474 -1.5450 1.0998
4.9523 -1.3533 1.0898
4.4095 -1.0362 0.9619
4.9619 -0.9793 1.0744
4.9666 -0.7960 1.0689
4.9712 -0.6145 1.0648
4.9759 -0.4342 1.0622
4.9804 -0.2547 1.0609
4.9850 -0.0755 1.0609
4.1105 0.0855 0.8752
4.9406 0.2807 1.0537
5.1675 0.4804 1.1054
7.6454 0.9889 1.6424
7.6028 1.2627 1.6424
7.5505 1.5348 1.6424
7.4885 1.8047 1.6424
7.0327 1.9648 1.5574
6.5044 2.0719 1.4563
6.0401 2.1661 1.3692
5.6279 2.2497 1.2935
5.6842 2.5127 1.3266
5.7310 2.7838 1.3603
5.7899 3.0744 1.3999
5.8524 3.3827 1.4437
5.9198 3.7117 1.4925
5.9984 4.0684 1.5484
6.0833 4.4535 1.6108
6.0349 4.7605 1.6424
5.6878 4.8282 1.5944
5.5102 5.0292 1.5944
5.3255 5.2237 1.5944
5.1340 5.4115 1.5944
4.9360 5.5923 1.5944
4.7317 5.7660 1.5944
4.5214 5.9323 1.5944
4.3053 6.0910 1.5944
4.0837 6.2420 1.5944
3.8568 6.3850 1.5944
3.6250 6.5198 1.5944
3.3885 6.6464 1.5944
3.1477 6.7644 1.5944
2.9028 6.8738 1.5944
0.8368 2.1991 0.5027
0.7570 2.2268 0.5024
0.6762 2.2517 0.5022
0.5946 2.2739 0.5019
0.5124 2.2931 0.5017
0.4295 2.3095 0.5015
0.3461 2.3230 0.5013
0.2624 2.3336 0.5012
0.1783 2.3413 0.5010
0.0941 2.3461 0.5009
0.0097 2.3479 0.5007
-0.0747 2.3468 0.5006
-0.1590 2.3428 0.5005
-0.2432 2.3358 0.5005
-0.3270 2.3260 0.5004
-0.4105 2.3132 0.5004
-0.4935 2.2976 0.5003
-0.5759 2.2791 0.5003
-0.6577 2.2577 0.5004
-0.7387 2.2335 0.5004
-0.8188 2.2064 0.5004
-3.0455 7.3819 1.6974
-3.3100 7.2702 1.6974
-3.5703 7.1491 1.6974
-3.8263 7.0188 1.6974
-4.0776 6.8793 1.6974
-4.3238 6.7308 1.6974
-4.5646 6.5736 1.6974
-4.7997 6.4078 1.6974
-5.0288 6.2337 1.6974
-5.2516 6.0513 1.6974
-5.4678 5.8611 1.6974
-5.6771 5.6631 1.6974
-5.8792 5.4576 1.6974
-6.0740 5.2450 1.6974
-6.2610 5.0254 1.6974
-6.2797 4.6796 1.6552
-6.2953 4.3484 1.6164
-6.3615 4.0645 1.5942
-6.5143 3.8398 1.5962
-6.6423 3.6001 1.5942
-6.7700 3.3605 1.5942
-6.8891 3.1164 1.5942
-6.9993 2.8680 1.5942
-7.1006 2.6158 1.5942
-7.1927 2.3599 1.5942
-7.2756 2.1008 1.5942
-7.3491 1.8388 1.5942
-7.4132 1.5742 1.5942
-7.4676 1.3074 1.5942
-7.5125 1.0387 1.5942
-7.5475 0.7685 1.5942
-7.5729 0.4970 1.5942
-6.6009 0.1955 1.3868
-7.5940 -0.0479 1.5942
-7.5898 -0.3207 1.5942
-7.5757 -0.5933 1.5942
-7.5517 -0.8653 1.5942
-7.5179 -1.1363 1.5942
-7.4743 -1.4059 1.5942
-7.4210 -1.6739 1.5942
-7.3579 -1.9398 1.5942
-7.2853 -2.2034 1.5942
-7.2031 -2.4641 1.5942
-7.1116 -2.7218 1.5942
-7.0107 -2.9761 1.5942
-6.9006 -3.2266 1.5942
-6.7815 -3.4729 1.5942
-6.6535 -3.7148 1.5942
-6.5168 -3.9520 1.5942
-6.5125 -4.2766 1.6295
-6.5176 -4.6232 1.6710
-6.4486 -4.9317 1.6974
-6.2679 -5.1606 1.6974
-6.0791 -5.3828 1.6974
-5.8823 -5.5980 1.6974
-5.6778 -5.8060 1.6974
-5.4658 -6.0063 1.6974
-5.2467 -6.1989 1.6974
-5.0208 -6.3834 1.6974
-4.7883 -6.5596 1.6974
6.0619 -3.4578 1.6424
6.1800 -3.2366 1.6424
6.2901 -3.0114 1.6424
4.4211 -1.9245 1.1360
4.4504 -1.7499 1.1271
4.4770 -1.5770 1.1191
4.5082 -1.4081 1.1139
4.5378 -1.2402 1.1099
6.7746 -1.5924 1.6424
4.5858 -0.9053 1.1036
4.6051 -0.7383 1.1015
4.6234 -0.5717 1.1005
4.6370 -0.4048 1.0999
4.6459 -0.2378 1.0997
4.6501 -0.0706 1.0997
4.1105 0.0853 0.9724
4.9239 0.2795 1.1668
5.0695 0.4711 1.2049
6.8812 0.8898 1.6424
6.8431 1.1363 1.6424
6.7962 1.3812 1.6424
6.7405 1.6242 1.6424
6.6763 1.8650 1.6424
6.5048 2.0719 1.6179
6.0405 2.1660 1.5211
5.6282 2.2496 1.4370
5.6842 2.5126 1.4737
5.7340 2.7851 1.5119
5.7986 3.0789 1.5573
5.8676 3.3913 1.6078
5.6932 3.5695 1.5944
5.5605 3.7713 1.5944
5.4208 3.9684 1.5944
5.2741 4.1603 1.5944
5.1208 4.3468 1.5944
4.9608 4.5277 1.5944
4.7946 4.7029 1.5944
4.6223 4.8719 1.5944
4.4440 5.0348 1.5944
4.2601 5.1912 1.5944
4.0707 5.3410 1.5944
3.8761 5.4839 1.5944
3.6765 5.6198 1.5944
3.4723 5.7485 1.5944
3.2635 5.8699 1.5944
3.0506 5.9838 1.5944
2.8338 6.0900 1.5944
0.8262 1.9566 0.5041
0.7551 1.9843 0.5038
0.6830 2.0094 0.5036
0.6101 2.0319 0.5034
0.5365 2.0520 0.5032
0.4623 2.0694 0.5030
0.3876 2.0842 0.5028
0.3123 2.0965 0.5026
0.2367 2.1061 0.5024
0.1609 2.1130 0.5023
0.0848 2.1173 0.5022
0.0087 2.1190 0.5021
-0.0675 2.1180 0.5020
-0.1436 2.1144 0.5019
-0.2195 2.1081 0.5018
-0.2952 2.0992 0.5018
-0.3705 2.0876 0.5017
-0.4454 2.0734 0.5017
-0.5198 2.0567 0.5017
-0.5936 2.0373 0.5017
-0.6666 2.0154 0.5018
-0.7389 1.9909 0.5018
-0.8103 1.9639 0.5019
-2.9787 6.5418 1.6974
-3.2129 6.4327 1.6974
-3.4431 6.3151 1.6974
-3.6691 6.1894 1.6974
-3.8905 6.0556 1.6974
-4.1070 5.9140 1.6974
-4.3183 5.7646 1.6974
-4.5243 5.6077 1.6974
-4.7245 5.4434 1.6974
-4.9188 5.2721 1.6974
-5.1069 5.0938 1.6974
-5.2886 4.9088 1.6974
-5.4635 4.7173 1.6974
-5.6315 4.5196 1.6974
-5.7924 4.3160 1.6974
-5.9459 4.1066 1.6974
-6.0918 3.8917 1.6974
-6.2300 3.6717 1.6974
-6.3119 3.4206 1.6846
-6.3192 3.1363 1.6548
-6.3301 2.8631 1.6290
-6.3426 2.5985 1.6066
-6.3844 2.3516 1.5942
-6.4671 2.1215 1.5942
-6.5632 1.8948 1.5995
-6.6072 1.6528 1.5942
-6.6645 1.4149 1.5942
-6.7133 1.1750 1.5942
-6.7533 0.9334 1.5942
-6.7846 0.6905 1.5942
-6.8071 0.4465 1.5942
-6.5944 0.1951 1.5413
-6.8257 -0.0434 1.5942
-6.8217 -0.2886 1.5942
-6.8088 -0.5335 1.5942
-6.7871 -0.7779 1.5942
-6.7565 -1.0214 1.5942
-6.7172 -1.2637 1.5942
-6.6691 -1.5045 1.5942
-6.6123 -1.7435 1.5942
-6.5468 -1.9802 1.5942
-6.4729 -2.2145 1.5942
-6.4704 -2.4767 1.6142
-6.4713 -2.7473 1.6376
-6.4769 -3.0286 1.6652
-6.4843 -3.3209 1.6964
-6.3656 -3.5543 1.6974
-6.2348 -3.7811 1.6974
-6.0957 -4.0030 1.6974
-5.9487 -4.2198 1.6974
-5.7940 -4.4312 1.6974
-5.6316 -4.6368 1.6974
-5.4619 -4.8364 1.6974
-5.2850 -5.0298 1.6974
-5.1013 -5.2165 1.6974
-4.9109 -5.3965 1.6974
-4.7140 -5.5695 1.6974
-4.5110 -5.7353 1.6974
-4.3022 -5.8936 1.6974
5.3418 -3.0474 1.5944
5.4461 -2.8526 1.5944
5.5432 -2.6542 1.5944
4.8829 -2.1258 1.3820
5.8882 -2.3155 1.6424
5.9657 -2.1018 1.6424
4.4157 -1.3795 1.2016
4.4096 -1.2055 1.1878
4.6892 -1.1024 1.2520
4.4143 -0.8717 1.1698
4.4227 -0.7093 1.1649
4.4301 -0.5480 1.1613
4.4363 -0.3875 1.1588
4.4415 -0.2275 1.1576
4.4456 -0.0677 1.1576
4.1105 0.0852 1.0707
6.2949 0.3571 1.6424
5.1675 0.4800 1.3523
6.2499 0.8079 1.6424
6.2154 1.0318 1.6424
6.1729 1.2543 1.6424
6.1225 1.4750 1.6424
6.0643 1.6938 1.6424
5.9983 1.9103 1.6424
5.9247 2.1243 1.6424
5.6285 2.2496 1.5820
5.5863 2.4691 1.5944
5.4931 2.6679 1.5944
5.3928 2.8632 1.5944
5.2857 3.0548 1.5944
5.1719 3.2425 1.5944
5.0514 3.4259 1.5944
4.9245 3.6049 1.5944
4.7913 3.7793 1.5944
4.6520 3.9488 1.5944
4.5067 4.1132 1.5944
4.3557 4.2723 1.5944
4.1992 4.4259 1.5944
4.0372 4.5739 1.5944
3.8701 4.7160 1.5944
3.6981 4.8521 1.5944
3.5213 4.9819 1.5944
3.3400 5.1054 1.5944
3.1544 5.2223 1.5944
2.9647 5.3325 1.5944
2.7713 5.4360 1.5944
0.8158 1.7533 0.5053
0.7519 1.7807 0.5050
0.6872 1.8060 0.5048
0.6216 1.8289 0.5046
0.5553 1.8495 0.5044
0.4883 1.8677 0.5042
0.4208 1.8837 0.5040
0.3527 1.8972 0.5038
0.2843 1.9084 0.5036
0.2155 1.9171 0.5035
0.1464 1.9235 0.5034
0.0772 1.9274 0.5033
0.0078 1.9289 0.5032
-0.0615 1.9280 0.5031
-0.1308 1.9247 0.5030
-0.1999 1.9190 0.5029
-0.2688 1.9108 0.5029
-0.3374 1.9003 0.5029
-0.4055 1.8873 0.5028
-0.4732 1.8720 0.5028
-0.5403 1.8543 0.5029
-0.6068 1.8343 0.5029
-0.6726 1.8120 0.5029
-0.7376 1.7874 0.5030
-0.8017 1.7604 0.5031
-2.9178 5.8410 1.6974
-3.1267 5.7341 1.6974
-3.3318 5.6198 1.6974
-3.5327 5.4981 1.6974
-3.7292 5.3694 1.6974
-3.9210 5.2336 1.6974
-4.1078 5.0910 1.6974
-4.2895 4.9417 1.6974
-4.4658 4.7859 1.6974
-4.6364 4.6239 1.6974
-4.8011 4.4559 1.6974
-4.9598 4.2819 1.6974
-5.1121 4.1023 1.6974
-5.2580 3.9173 1.6974
-5.3971 3.7271 1.6974
-5.5294 3.5320 1.6974
-5.6546 3.3322 1.6974
-5.7726 3.1280 1.6974
-5.8832 2.9196 1.6974
-5.9862 2.7072 1.6974
-6.0816 2.4913 1.6974
-6.1692 2.2719 1.6974
-6.2488 2.0495 1.6974
-6.3204 1.8243 1.6974
-6.3587 1.5903 1.6908
-6.3648 1.3510 1.6779
-6.3709 1.1148 1.6673
-6.3769 0.8811 1.6591
-6.3828 0.6493 1.6530
-6.3887 0.4187 1.6491
-6.3946 0.1889 1.6473
-6.4004 -0.0409 1.6477
-6.4063 -0.2713 1.6502
-6.4123 -0.5027 1.6549
-6.4182 -0.7359 1.6618
-6.4242 -0.9715 1.6709
-6.4303 -1.2100 1.6824
-6.4365 -1.4523 1.6962
-6.3865 -1.6842 1.6974
-6.3231 -1.9128 1.6974
-6.2516 -2.1390 1.6974
-6.1718 -2.3626 1.6974
-6.0841 -2.5831 1.6974
-5.9884 -2.8004 1.6974
-5.8848 -3.0141 1.6974
-5.7736 -3.2239 1.6974
-5.6548 -3.4296 1.6974
-5.5287 -3.6308 1.6974
-5.3953 -3.8274 1.6974
-5.2549 -4.0190 1.6974
-5.1076 -4.2055 1.6974
-4.9537 -4.3865 1.6974
-4.7933 -4.5618 1.6974
-4.6266 -4.7312 1.6974
-4.4539 -4.8944 1.6974
-4.2754 -5.0513 1.6974
-4.0913 -5.2016 1.6974
-3.9019 -5.3451 1.6974
4.8860 -2.7877 1.5944
4.9814 -2.6096 1.5944
5.0704 -2.4281 1.5944
4.8829 -2.1262 1.5108
5.2286 -2.0565 1.5944
5.2975 -1.8667 1.5944
5.3596 -1.6746 1.5944
5.4148 -1.4805 1.5944
5.4629 -1.2846 1.5944
5.5040 -1.0872 1.5944
5.5380 -0.8884 1.5944
5.5648 -0.6886 1.5944
5.5845 -0.4880 1.5944
5.5970 -0.2870 1.5944
5.6023 -0.0856 1.5944
4.1105 0.0850 1.1702
5.5913 0.3169 1.5944
5.1676 0.4797 1.4778
5.5515 0.7175 1.5944
5.5210 0.9163 1.5944
5.4833 1.1140 1.5944
5.4387 1.3101 1.5944
5.3870 1.5044 1.5944
5.3285 1.6968 1.5944
5.2632 1.8869 1.5944
5.1911 2.0746 1.5944
5.1124 2.2595 1.5944
5.0271 2.4415 1.5944
4.9354 2.6202 1.5944
4.8375 2.7956 1.5944
4.7333 2.9674 1.5944
4.6231 3.1353 1.5944
4.5070 3.2992 1.5944
4.3851 3.4588 1.5944
4.2576 3.6139 1.5944
4.1247 3.7645 1.5944
3.9865 3.9101 1.5944
3.8432 4.0507 1.5944
3.6950 4.1862 1.5944
3.5421 4.3162 1.5944
3.3846 4.4408 1.5944
3.2228 4.5596 1.5944
3.0568 4.6726 1.5944
2.8870 4.7796 1.5944
2.7134 4.8805 1.5944
0.8053 1.5798 0.5063
0.7477 1.6070 0.5060
0.6892 1.6323 0.5058
0.6299 1.6554 0.5056
0.5698 1.6765 0.5054
0.5090 1.6954 0.5052
0.4476 1.7122 0.5050
0.3857 1.7268 0.5048
0.3233 1.7393 0.5047
0.2606 1.7495 0.5045
0.1975 1.7576 0.5044
0.1342 1.7634 0.5043
0.0707 1.7671 0.5042
0.0071 1.7684 0.5041
-0.0565 1.7676 0.5040
-0.1200 1.7646 0.5039
-0.1833 1.7593 0.5039
-0.2465 1.7518 0.5038
-0.3093 1.7421 0.5038
-0.3718 1.7302 0.5038
-0.4339 1.7161 0.5038
-0.4954 1.6999 0.5038
-0.5564 1.6815 0.5038
-0.6166 1.6610 0.5039
-0.6762 1.6383 0.5039
-0.7349 1.6136 0.5040
-0.7928 1.5868 0.5041
-2.8608 5.2458 1.6974
-3.0483 5.1410 1.6974
-3.2320 5.0296 1.6974
-3.4117 4.9117 1.6974
-3.5870 4.7874 1.6974
-3.7579 4.6568 1.6974
-3.9240 4.5201 1.6974
-4.0851 4.3775 1.6974
-4.2410 4.2292 1.6974
-4.3916 4.0754 1.6974
-4.5366 3.9162 1.6974
-4.6758 3.7518 1.6974
-4.8091 3.5825 1.6974
-4.9363 3.4085 1.6974
-5.0571 3.2300 1.6974
-5.1715 3.0471 1.6974
-5.2792 2.8603 1.6974
-5.3802 2.6696 1.6974
-5.4743 2.4754 1.6974
-5.5614 2.2778 1.6974
-5.6413 2.0772 1.6974
-5.7139 1.8738 1.6974
-5.7792 1.6678 1.6974
-5.8371 1.4596 1.6974
-5.8874 1.2493 1.6974
-5.9302 1.0373 1.6974
-5.9652 0.8239 1.6974
-5.9926 0.6093 1.6974
-6.0122 0.3938 1.6974
-6.0240 0.1777 1.6974
-6.0280 -0.0388 1.6974
-6.0242 -0.2553 1.6974
-6.0125 -0.4716 1.6974
-5.9931 -0.6874 1.6974
-5.9659 -0.9024 1.6974
-5.9309 -1.1163 1.6974
-5.8882 -1.3288 1.6974
-5.8378 -1.5397 1.6974
-5.7798 -1.7486 1.6974
-5.7143 -1.9554 1.6974
-5.6414 -2.1597 1.6974
-5.5611 -2.3612 1.6974
-5.4735 -2.5598 1.6974
-5.3788 -2.7550 1.6974
-5.2771 -2.9468 1.6974
-5.1685 -3.1347 1.6974
-5.0532 -3.3187 1.6974
-4.9312 -3.4983 1.6974
-4.8029 -3.6734 1.6974
-4.6682 -3.8438 1.6974
-4.5275 -4.0092 1.6974
-4.3809 -4.1694 1.6974
-4.2285 -4.3242 1.6974
-4.0707 -4.4734 1.6974
-3.9075 -4.6167 1.6974
-3.7393 -4.7541 1.6974
-3.5662 -4.8853 1.6974
4.4972 -2.5662 1.5944
4.5852 -2.4023 1.5944
4.6672 -2.2354 1.5944
4.7432 -2.0656 1.5944
4.8130 -1.8933 1.5944
4.8766 -1.7187 1.5944
4.9339 -1.5419 1.5944
4.9847 -1.3632 1.5944
5.0292 -1.1829 1.5944
5.0671 -1.0011 1.5944
5.0985 -0.8182 1.5944
5.1233 -0.6342 1.5944
5.1415 -0.4496 1.5944
5.1531 -0.2644 1.5944
5.1581 -0.0790 1.5944
4.1105 0.0848 1.2710
5.1481 0.2916 1.5944
5.1332 0.4763 1.5944
5.1117 0.6604 1.5944
5.0836 0.8436 1.5944
5.0491 1.0256 1.5944
5.0080 1.2062 1.5944
4.9605 1.3852 1.5944
4.9067 1.5623 1.5944
4.8466 1.7374 1.5944
4.7803 1.9102 1.5944
4.7078 2.0805 1.5944
4.6294 2.2481 1.5944
4.5450 2.4128 1.5944
4.4548 2.5744 1.5944
4.3589 2.7326 1.5944
4.2574 2.8872 1.5944
4.1505 3.0382 1.5944
4.0383 3.1852 1.5944
3.9209 3.3281 1.5944
3.7985 3.4667 1.5944
3.6713 3.6009 1.5944
3.5393 3.7304 1.5944
3.4028 3.8551 1.5944
3.2620 3.9749 1.5944
3.1170 4.0896 1.5944
2.9679 4.1991 1.5944
2.8151 4.3031 1.5944
2.6586 4.4017 1.5944
0.7948 1.4296 0.5071
0.7426 1.4566 0.5069
0.6895 1.4818 0.5067
0.6355 1.5052 0.5065
0.5808 1.5265 0.5063
0.5254 1.5460 0.5061
0.4694 1.5635 0.5059
0.4128 1.5790 0.5057
0.3557 1.5925 0.5056
0.2981 1.6040 0.5054
0.2403 1.6135 0.5053
0.1821 1.6210 0.5052
0.1237 1.6264 0.5051
0.0651 1.6297 0.5050
0.0065 1.6310 0.5049
-0.0521 1.6302 0.5048
-0.1107 1.6274 0.5047
-0.1691 1.6225 0.5047
-0.2274 1.6156 0.5047
-0.2854 1.6066 0.5046
-0.3430 1.5956 0.5046
-0.4002 1.5826 0.5046
-0.4569 1.5676 0.5046
-0.5131 1.5506 0.5047
-0.5687 1.5317 0.5047
-0.6236 1.5107 0.5047
-0.6778 1.4879 0.5048
-0.7311 1.4632 0.5049
-0.7835 1.4366 0.5050
-0.8350 1.4081 0.5050
-2.9756 4.6300 1.6974
-3.1409 4.5213 1.6974
-3.3022 4.4068 1.6974
-3.4594 4.2864 1.6974
-3.6122 4.1605 1.6974
-3.7605 4.0292 1.6974
-3.9039 3.8926 1.6974
-4.0424 3.7509 1.6974
-4.1758 3.6043 1.6974
-4.3039 3.4529 1.6974
-4.4264 3.2970 1.6974
-4.5433 3.1368 1.6974
-4.6544 2.9724 1.6974
-4.7596 2.8041 1.6974
-4.8587 2.6320 1.6974
-4.9515 2.4565 1.6974
-5.0380 2.2777 1.6974
-5.1180 2.0959 1.6974
-5.1914 1.9112 1.6974
-5.2581 1.7240 1.6974
-5.3181 1.5344 1.6974
-5.3713 1.3428 1.6974
-5.4175 1.1493 1.6974
-5.4567 0.9542 1.6974
-5.4888 0.7578 1.6974
-5.5139 0.5604 1.6974
-5.5318 0.3621 1.6974
-5.5425 0.1632 1.6974
-5.5461 -0.0360 1.6974
-5.5425 -0.2352 1.6974
-5.5317 -0.4341 1.6974
-5.5137 -0.6326 1.6974
-5.4886 -0.8304 1.6974
-5.4563 -1.0272 1.6974
-5.4169 -1.2227 1.6974
-5.3705 -1.4166 1.6974
-5.3171 -1.6088 1.6974
-5.2568 -1.7990 1.6974
-5.1896 -1.9869 1.6974
-5.1157 -2.1723 1.6974
-5.0351 -2.3549 1.6974
-4.9479 -2.5345 1.6974
-4.8543 -2.7108 1.6974
-4.7544 -2.8837 1.6974
-4.6483 -3.0529 1.6974
-4.5361 -3.2181 1.6974
-4.4180 -3.3791 1.6974
-4.2941 -3.5358 1.6974
-4.1646 -3.6879 1.6974
-4.0297 -3.8353 1.6974
-3.8896 -3.9776 1.6974
-3.7444 -4.1149 1.6974
-3.5943 -4.2467 1.6974
-3.4396 -4.3730 1.6974
-3.2803 -4.4937 1.6974
4.1615 -2.3750 1.5944
4.2430 -2.2233 1.5944
4.3190 -2.0688 1.5944
4.3894 -1.9118 1.5944
4.4541 -1.7524 1.5944
4.5130 -1.5908 1.5944
4.5661 -1.4272 1.5944
4.6132 -1.2619 1.5944
4.6544 -1.0950 1.5944
4.6896 -0.9268 1.5944
4.7188 -0.7575 1.5944
4.7418 -0.5872 1.5944
4.7588 -0.4163 1.5944
4.7696 -0.2450 1.5944
4.7742 -0.0734 1.5944
4.1105 0.0846 1.3731
4.7652 0.2697 1.5944
4.7514 0.4407 1.5944
4.7316 0.6111 1.5944
4.7057 0.7807 1.5944
4.6737 0.9491 1.5944
4.6358 1.1163 1.5944
4.5919 1.2820 1.5944
4.5421 1.4461 1.5944
4.4865 1.6082 1.5944
4.4252 1.7682 1.5944
4.3581 1.9259 1.5944
4.2855 2.0810 1.5944
4.2075 2.2335 1.5944
4.1240 2.3831 1.5944
4.0353 2.5296 1.5944
3.9413 2.6728 1.5944
3.8424 2.8125 1.5944
3.7385 2.9486 1.5944
3.6299 3.0809 1.5944
3.5166 3.2093 1.5944
3.3988 3.3335 1.5944
3.2766 3.4534 1.5944
3.1502 3.5689 1.5944
3.0198 3.6798 1.5944
2.8856 3.7860 1.5944
2.7476 3.8874 1.5944
0.8305 1.2695 0.5081
0.7840 1.2980 0.5079
0.7365 1.3248 0.5076
0.6882 1.3500 0.5074
0.6390 1.3734 0.5072
0.5890 1.3950 0.5070
0.5383 1.4149 0.5069
0.4869 1.4329 0.5067
0.4350 1.4492 0.5065
0.3826 1.4636 0.5064
0.3296 1.4761 0.5062
0.2763 1.4868 0.5061
0.2227 1.4956 0.5060
0.1687 1.5025 0.5058
0.1146 1.5075 0.5057
0.0603 1.5106 0.5057
0.0060 1.5118 0.5056
-0.0484 1.5111 0.5055
-0.1027 1.5085 0.5054
-0.1568 1.5040 0.5054
-0.2108 1.4975 0.5054
-0.2646 1.4892 0.5053
-0.3180 1.4790 0.5053
-0.3710 1.4669 0.5053
-0.4236 1.4530 0.5053
-0.4757 1.4372 0.5054
-0.5272 1.4196 0.5054
-0.5780 1.4002 0.5054
-0.6282 1.3790 0.5055
-0.6776 1.3560 0.5056
-0.7262 1.3313 0.5056
-0.7739 1.3049 0.5057
-0.8207 1.2768 0.5058
-2.9070 4.1841 1.6974
-3.0562 4.0780 1.6974
-3.2016 3.9666 1.6974
-3.3430 3.8500 1.6974
-3.4801 3.7284 1.6974
-3.6128 3.6019 1.6974
-3.7409 3.4707 1.6974
-3.8642 3.3350 1.6974
-3.9826 3.1949 1.6974
-4.0960 3.0505 1.6974
-4.2041 2.9022 1.6974
-4.3068 2.7500 1.6974
-4.4040 2.5943 1.6974
-4.4955 2.4350 1.6974
-4.5813 2.2726 1.6974
-4.6613 2.1071 1.6974
-4.7352 1.9388 1.6974
-4.8030 1.7679 1.6974
-4.8647 1.5947 1.6974
-4.9201 1.4193 1.6974
-4.9692 1.2420 1.6974
-5.0118 1.0630 1.6974
-5.0480 0.8825 1.6974
-5.0776 0.7008 1.6974
-5.1007 0.5181 1.6974
-5.1172 0.3347 1.6974
-5.1271 0.1507 1.6974
-5.1303 -0.0335 1.6974
-5.1269 -0.2177 1.6974
-5.1168 -0.4018 1.6974
-5.1001 -0.5854 1.6974
-5.0768 -0.7683 1.6974
-5.0469 -0.9503 1.6974
-5.0104 -1.1311 1.6974
-4.9674 -1.3105 1.6974
-4.9179 -1.4882 1.6974
-4.8621 -1.6641 1.6974
-4.7999 -1.8379 1.6974
-4.7315 -2.0093 1.6974
-4.6569 -2.1782 1.6974
-4.5763 -2.3443 1.6974
-4.4897 -2.5073 1.6974
-4.3972 -2.6672 1.6974
-4.2990 -2.8236 1.6974
-4.1952 -2.9764 1.6974
-4.0860 -3.1253 1.6974
-3.9714 -3.2702 1.6974
-3.8517 -3.4109 1.6974
-3.7269 -3.5471 1.6974
-3.5973 -3.6787 1.6974
-3.4630 -3.8056 1.6974
-3.3242 -3.9276 1.6974
-3.1811 -4.0444 1.6974
-3.0338 -4.1560 1.6974
3.8683 -2.2079 1.5944
3.9441 -2.0670 1.5944
4.0148 -1.9234 1.5944
4.0803 -1.7775 1.5944
4.1406 -1.6293 1.5944
4.1954 -1.4791 1.5944
4.2448 -1.3271 1.5944
4.2887 -1.1734 1.5944
4.3271 -1.0182 1.5944
4.3599 -0.8619 1.5944
4.3871 -0.7045 1.5944
4.4086 -0.5462 1.5944
4.4244 -0.3873 1.5944
4.4345 -0.2280 1.5944
4.4389 -0.0684 1.5944
4.1105 0.0845 1.4768
4.4306 0.2506 1.5944
4.4179 0.4096 1.5944
4.3995 0.5680 1.5944
4.3754 0.7257 1.5944
4.3458 0.8824 1.5944
4.3105 1.0379 1.5944
4.2698 1.1920 1.5944
4.2235 1.3445 1.5944
4.1718 1.4952 1.5944
4.1148 1.6441 1.5944
4.0526 1.7907 1.5944
3.9851 1.9350 1.5944
3.9125 2.0768 1.5944
3.8349 2.2159 1.5944
3.7524 2.3521 1.5944
3.6651 2.4853 1.5944
3.5731 2.6153 1.5944
3.4765 2.7419 1.5944
3.3755 2.8650 1.5944
3.2701 2.9843 1.5944
3.1606 3.0999 1.5944
3.0470 3.2114 1.5944
2.9295 3.3188 1.5944
2.8082 3.4219 1.5944
2.6833 3.5207 1.5944
0.8153 1.1535 0.5087
0.7730 1.1815 0.5085
0.7297 1.2081 0.5083
0.6855 1.2331 0.5081
0.6405 1.2565 0.5079
0.5947 1.2783 0.5077
0.5482 1.2985 0.5075
0.5010 1.3170 0.5074
0.4533 1.3339 0.5072
0.4049 1.3490 0.5071
0.3561 1.3625 0.5069
0.3068 1.3741 0.5068
0.2572 1.3841 0.5067
0.2072 1.3923 0.5065
0.1570 1.3987 0.5064
0.1066 1.4034 0.5063
0.0561 1.4063 0.5063
0.0055 1.4074 0.5062
-0.0451 1.4068 0.5061
-0.0956 1.4043 0.5061
-0.1461 1.4001 0.5060
-0.1963 1.3941 0.5060
-0.2464 1.3863 0.5060
-0.2961 1.3768 0.5060
-0.3454 1.3656 0.5060
-0.3944 1.3526 0.5060
-0.4429 1.3379 0.5060
-0.4908 1.3214 0.5060
-0.5381 1.3033 0.5061
-0.5848 1.2836 0.5061
-0.6308 1.2622 0.5062
-0.6760 1.2391 0.5062
-0.7204 1.2145 0.5063
-0.7639 1.1884 0.5064
-0.8065 1.1607 0.5065
-2.8414 3.7909 1.6974
-2.9765 3.6872 1.6974
-3.1079 3.5788 1.6974
-3.2353 3.4657 1.6974
-3.3586 3.3481 1.6974
-3.4776 3.2261 1.6974
-3.5922 3.0998 1.6974
-3.7022 2.9695 1.6974
-3.8074 2.8353 1.6974
-3.9079 2.6974 1.6974
-4.0033 2.5559 1.6974
-4.0935 2.4111 1.6974
-4.1786 2.2630 1.6974
-4.2583 2.1120 1.6974
-4.3325 1.9582 1.6974
-4.4011 1.8017 1.6974
-4.4641 1.6429 1.6974
-4.5213 1.4819 1.6974
-4.5727 1.3188 1.6974
-4.6182 1.1540 1.6974
-4.6578 0.9876 1.6974
-4.6914 0.8199 1.6974
-4.7188 0.6510 1.6974
-4.7402 0.4813 1.6974
-4.7555 0.3108 1.6974
-4.7646 0.1399 1.6974
-4.7675 -0.0313 1.6974
-4.7643 -0.2025 1.6974
-4.7549 -0.3736 1.6974
-4.7393 -0.5442 1.6974
-4.7175 -0.7141 1.6974
-4.6897 -0.8832 1.6974
-4.6557 -1.0512 1.6974
-4.6157 -1.2179 1.6974
-4.5697 -1.3830 1.6974
-4.5178 -1.5464 1.6974
-4.4600 -1.7079 1.6974
-4.3964 -1.8671 1.6974
-4.3270 -2.0240 1.6974
-4.2521 -2.1783 1.6974
-4.1716 -2.3298 1.6974
-4.0856 -2.4783 1.6974
-3.9944 -2.6236 1.6974
-3.8979 -2.7655 1.6974
-3.7964 -2.9039 1.6974
-3.6900 -3.0385 1.6974
-3.5787 -3.1692 1.6974
-3.4628 -3.2958 1.6974
-3.3423 -3.4181 1.6974
-3.2176 -3.5359 1.6974
-3.0886 -3.6492 1.6974
-2.9556 -3.7578 1.6974
-2.8188 -3.8615 1.6974
3.6098 -2.0607 1.5944
3.6807 -1.9292 1.5944
3.7467 -1.7952 1.5944
3.8079 -1.6591 1.5944
3.8641 -1.5208 1.5944
3.9154 -1.3806 1.5944
3.9616 -1.2387 1.5944
4.0026 -1.0953 1.5944
4.0385 -0.9505 1.5944
4.0691 -0.8046 1.5944
4.0946 -0.6577 1.5944
4.1147 -0.5100 1.5944
4.1295 -0.3617 1.5944
4.1390 -0.2130 1.5944
4.1431 -0.0640 1.5944
4.1105 0.0843 1.5822
4.1355 0.2337 1.5944
4.1236 0.3821 1.5944
4.1065 0.5301 1.5944
4.0841 0.6772 1.5944
4.0565 0.8235 1.5944
4.0236 0.9686 1.5944
3.9856 1.1125 1.5944
3.9425 1.2549 1.5944
3.8943 1.3956 1.5944
3.8411 1.5345 1.5944
3.7830 1.6715 1.5944
3.7200 1.8062 1.5944
3.6523 1.9386 1.5944
3.5799 2.0684 1.5944
3.5029 2.1956 1.5944
3.4214 2.3200 1.5944
3.3355 2.4413 1.5944
3.2454 2.5595 1.5944
3.1510 2.6744 1.5944
3.0527 2.7859 1.5944
2.9504 2.8937 1.5944
2.8444 2.9978 1.5944
2.7347 3.0981 1.5944
2.6215 3.1944 1.5944
0.8002 1.0499 0.5093
0.7616 1.0776 0.5091
0.7221 1.1038 0.5089
0.6817 1.1287 0.5087
0.6404 1.1521 0.5085
0.5984 1.1740 0.5083
0.5556 1.1943 0.5082
0.5122 1.2132 0.5080
0.4681 1.2306 0.5078
0.4235 1.2463 0.5077
0.3783 1.2605 0.5075
0.3327 1.2730 0.5074
0.2867 1.2840 0.5073
0.2403 1.2933 0.5072
0.1936 1.3010 0.5070
0.1467 1.3070 0.5070
