ply
format ascii 1.0
element vertex 2175
property float32 x
property float32 y
property float32 z
end_header
-1.0433 -12.2881 1.7005
-0.6020 -12.3186 1.7005
-0.1599 -12.3329 1.7005
0.2825 -12.3308 1.7005
0.7245 -12.3124 1.7005
5.7589 -5.8313 1.3274
6.2271 -5.8686 1.3867
6.7391 -5.9095 1.4535
7.3031 -5.9546 1.5290
7.8771 -5.9654 1.6044
8.0805 -5.6752 1.6044
6.9233 -4.5005 1.3427
6.7879 -4.0738 1.2881
6.8819 -3.8014 1.2802
6.9065 -3.4977 1.2615
6.7883 -3.1372 1.2195
7.0583 -2.9596 1.2491
7.3648 -2.7818 1.2858
7.6796 -2.5900 1.3248
7.8735 -2.3444 1.3439
9.3512 -2.4228 1.5816
9.5607 -2.1143 1.6044
7.7745 -1.4288 1.2963
7.2558 -1.0660 1.2036
7.1487 -0.7895 1.1814
7.0227 -0.5214 1.1577
7.1414 -0.2731 1.1759
2.8726 -0.0067 0.4731
7.0914 0.2380 1.1694
7.2908 0.5071 1.2055
7.3128 0.7731 1.2140
7.7598 1.1031 1.2950
8.6701 1.5518 1.4565
8.6968 1.8809 1.4726
7.7486 1.9693 1.3242
6.9516 2.0350 1.2007
6.2910 2.0894 1.0997
6.1671 2.2972 1.0927
7.0670 2.9253 1.2709
7.0144 3.2030 1.2823
7.0420 3.5263 1.3106
6.5629 3.5866 1.2455
6.2891 3.7361 1.2191
7.1156 4.5803 1.4113
6.9585 4.8411 1.4147
6.9896 5.2448 1.4594
6.5785 5.3158 1.4134
7.2414 6.2942 1.6044
6.9758 6.5173 1.5974
6.7333 6.7595 1.5974
6.4825 6.9927 1.5974
6.2239 7.2169 1.5974
5.9576 7.4317 1.5974
5.6841 7.6368 1.5974
5.4037 7.8321 1.5974
5.1166 8.0173 1.5974
4.8234 8.1922 1.5974
4.5243 8.3566 1.5974
4.2198 8.5103 1.5974
3.9102 8.6532 1.5974
3.5958 8.7850 1.5974
3.2771 8.9057 1.5974
3.1451 9.5969 1.7005
0.8279 2.8707 0.5032
0.7240 2.8973 0.5031
0.6193 2.9204 0.5030
0.5139 2.9399 0.5030
0.4079 2.9558 0.5029
0.3015 2.9680 0.5029
0.1947 2.9765 0.5028
0.0877 2.9814 0.5028
-0.0193 2.9826 0.5028
-0.1264 2.9801 0.5029
-0.2334 2.9739 0.5029
-0.3400 2.9641 0.5029
-0.4463 2.9507 0.5030
-0.5521 2.9335 0.5031
-0.6573 2.9128 0.5032
-0.7617 2.8885 0.5033
-2.9231 9.6630 1.7005
-3.2689 9.5541 1.7005
-3.6108 9.4332 1.7005
-3.9483 9.3002 1.7005
-4.2810 9.1554 1.7005
-4.6085 8.9990 1.7005
-4.9305 8.8311 1.7005
-5.2464 8.6519 1.7005
-5.5232 8.4117 1.6904
-5.7031 8.0409 1.6553
-5.9461 7.7761 1.6429
-6.1935 7.5237 1.6347
-6.4382 7.2724 1.6284
-6.6808 7.0216 1.6241
-6.9218 6.7708 1.6216
-7.2007 6.5546 1.6297
-7.5214 6.3682 1.6485
-7.8592 6.1839 1.6717
-8.2074 5.9937 1.6978
-8.4363 5.7082 1.7005
-8.6417 5.4054 1.7005
-8.8364 5.0954 1.7005
-9.0200 4.7784 1.7005
-9.1925 4.4549 1.7005
-9.3534 4.1252 1.7005
-9.5027 3.7897 1.7005
-9.6400 3.4489 1.7005
-9.7652 3.1032 1.7005
-9.8781 2.7530 1.7005
-9.9786 2.3987 1.7005
-10.0664 2.0407 1.7005
-10.1414 1.6795 1.7005
-10.2036 1.3157 1.7005
-10.2527 0.9495 1.7005
-10.2887 0.5815 1.7005
-10.3116 0.2121 1.7005
-10.3212 -0.1581 1.7005
-10.3175 -0.5288 1.7005
-10.3006 -0.8993 1.7005
-10.2702 -1.2694 1.7005
-10.2266 -1.6384 1.7005
-10.1697 -2.0059 1.7005
-10.0995 -2.3714 1.7005
-10.0162 -2.7344 1.7005
-9.9197 -3.0944 1.7005
-9.6300 -3.3877 1.6692
-9.1967 -3.6110 1.6143
-8.9734 -3.9003 1.5974
-8.8344 -4.2229 1.5974
-8.6837 -4.5404 1.5973
-8.5215 -4.8525 1.5973
-8.3479 -5.1587 1.5973
-8.1633 -5.4587 1.5972
-7.9680 -5.7521 1.5973
-7.7620 -6.0385 1.5973
-7.5457 -6.3173 1.5973
-7.3192 -6.5883 1.5974
-7.0828 -6.8509 1.5974
-6.8367 -7.1049 1.5974
-5.4264 -6.0600 1.3171
-5.0393 -6.0511 1.2743
-4.6757 -6.0426 1.2357
-4.3327 -6.0347 1.2009
-4.0077 -6.0271 1.1694
-3.7244 -6.0619 1.1490
-3.7123 -6.5584 1.2165
-3.6012 -6.9306 1.2602
-4.5226 -9.5238 1.7005
-4.1797 -9.6834 1.7005
-3.8311 -9.8303 1.7005
-3.4771 -9.9644 1.7005
-3.1185 -10.0855 1.7005
-2.7555 -10.1934 1.7005
-2.3888 -10.2879 1.7005
-2.0187 -10.3690 1.7005
-1.6459 -10.4364 1.7005
-1.2708 -10.4900 1.7005
-0.8939 -10.5299 1.7005
-0.5158 -10.5559 1.7005
-0.1370 -10.5680 1.7005
0.2421 -10.5662 1.7005
0.6208 -10.5505 1.7005
5.7585 -5.8316 1.5175
6.2260 -5.8684 1.5851
6.5075 -5.7072 1.6044
6.7042 -5.4670 1.6044
6.8919 -5.2200 1.6044
7.0704 -4.9665 1.6044
6.9237 -4.5015 1.5344
6.7869 -4.0739 1.4717
6.8818 -3.8020 1.4627
6.9065 -3.4984 1.4412
6.4189 -2.9671 1.3173
6.4878 -2.7209 1.3114
7.3641 -2.7823 1.4685
7.4821 -2.5241 1.4740
7.8724 -2.3448 1.5344
8.3082 -2.1534 1.6044
8.3741 -1.8526 1.6044
7.7440 -1.4239 1.4740
7.2551 -1.0665 1.3738
7.1490 -0.7901 1.3485
7.0227 -0.5220 1.3212
7.1679 -0.2747 1.3468
2.8724 -0.0070 0.5397
7.0913 0.2374 1.3342
7.2904 0.5064 1.3752
7.3162 0.7728 1.3854
6.7371 0.9572 1.2824
6.7576 1.2089 1.2946
8.3093 1.7963 1.6044
7.7502 1.9691 1.5102
6.9529 2.0347 1.3692
6.2927 2.0894 1.2540
6.1744 2.2993 1.2470
6.8854 2.8494 1.4113
6.8200 3.1136 1.4209
6.8468 3.4279 1.4521
6.5641 3.5865 1.4195
6.2972 3.7403 1.3908
6.8604 4.4154 1.5502
6.7777 4.7145 1.5698
6.7164 5.0390 1.5974
6.5274 5.2738 1.5974
6.3303 5.5015 1.5974
6.1253 5.7221 1.5974
5.9128 5.9351 1.5974
5.6931 6.1404 1.5974
5.4663 6.3376 1.5974
5.2327 6.5267 1.5974
4.9928 6.7073 1.5974
4.7467 6.8792 1.5974
4.4949 7.0423 1.5974
4.2375 7.1963 1.5974
3.9749 7.3411 1.5974
3.7075 7.4765 1.5974
3.4356 7.6023 1.5974
3.1596 7.7185 1.5974
3.0655 8.3298 1.7005
0.8201 2.5023 0.5046
0.7295 2.5291 0.5045
0.6379 2.5527 0.5044
0.5457 2.5731 0.5044
0.4529 2.5904 0.5043
0.3595 2.6044 0.5043
0.2657 2.6152 0.5042
0.1716 2.6228 0.5042
0.0773 2.6271 0.5042
-0.0170 2.6282 0.5042
-0.1114 2.6260 0.5042
-0.2056 2.6205 0.5043
-0.2996 2.6118 0.5043
-0.3933 2.5999 0.5043
-0.4865 2.5847 0.5044
-0.5792 2.5663 0.5045
-0.6712 2.5448 0.5046
-0.7624 2.5200 0.5047
-2.8726 8.3950 1.7005
-3.1729 8.2884 1.7005
-3.4693 8.1713 1.7005
-3.7615 8.0437 1.7005
-4.0492 7.9060 1.7005
-4.3318 7.7581 1.7005
-4.6092 7.6003 1.7005
-4.8809 7.4327 1.7005
-5.1467 7.2556 1.7005
-5.4061 7.0692 1.7005
-5.6590 6.8736 1.7005
-5.9048 6.6692 1.7005
-6.1434 6.4560 1.7005
-6.3744 6.2345 1.7005
-6.5975 6.0048 1.7005
-6.8125 5.7672 1.7005
-7.0191 5.5221 1.7005
-7.2169 5.2696 1.7005
-7.4058 5.0101 1.7005
-7.5855 4.7440 1.7005
-7.7557 4.4714 1.7005
-7.9162 4.1929 1.7005
-8.0669 3.9086 1.7005
-8.2074 3.6190 1.7005
-8.3376 3.3243 1.7005
-8.4573 3.0250 1.7005
-8.5663 2.7215 1.7005
-8.6646 2.4140 1.7005
-8.7518 2.1030 1.7005
-8.8280 1.7889 1.7005
-8.8929 1.4720 1.7005
-8.9465 1.1528 1.7005
-8.9887 0.8316 1.7005
-9.0194 0.5089 1.7005
-9.0385 0.1851 1.7005
-9.0461 -0.1394 1.7005
-9.0419 -0.4642 1.7005
-9.0261 -0.7889 1.7005
-8.9987 -1.1130 1.7005
-8.9595 -1.4362 1.7005
-8.9088 -1.7580 1.7005
-8.8464 -2.0779 1.7005
-8.7725 -2.3957 1.7005
-8.6872 -2.7108 1.7005
-8.5905 -3.0228 1.7005
-8.4825 -3.3313 1.7005
-8.3633 -3.6359 1.7005
-8.2331 -3.9363 1.7005
-8.0921 -4.2319 1.7005
-7.9403 -4.5224 1.7005
-7.7781 -4.8074 1.7005
-7.5647 -5.0592 1.6914
-7.4076 -5.3484 1.6970
-7.2302 -5.6255 1.7005
-7.0279 -5.8846 1.7005
-6.8163 -6.1364 1.7005
-6.5955 -6.3804 1.7005
-6.3658 -6.6164 1.7005
-6.1277 -6.8440 1.7005
-5.8812 -7.0628 1.7005
-5.6269 -7.2727 1.7005
-5.3649 -7.4732 1.7005
-4.0062 -6.0255 1.3369
-3.7242 -6.0621 1.3140
-3.8693 -6.8364 1.4502
-3.6165 -6.9608 1.4476
-3.9536 -8.3266 1.7005
-3.6537 -8.4657 1.7005
-3.3488 -8.5938 1.7005
-3.0394 -8.7107 1.7005
-2.7258 -8.8162 1.7005
-2.4084 -8.9103 1.7005
-2.0878 -8.9926 1.7005
-1.7643 -9.0632 1.7005
-1.4385 -9.1220 1.7005
-1.1106 -9.1687 1.7005
-0.7812 -9.2035 1.7005
-0.4508 -9.2261 1.7005
-0.1197 -9.2367 1.7005
0.2116 -9.2351 1.7005
0.5425 -9.2214 1.7005
5.3813 -5.4503 1.5974
5.5707 -5.2513 1.5974
5.7526 -5.0457 1.5974
5.9268 -4.8337 1.5974
6.0931 -4.6157 1.5974
6.2789 -4.4112 1.6044
6.4295 -4.1809 1.6044
6.5716 -3.9454 1.6044
6.7050 -3.7050 1.6044
6.8230 -3.4567 1.6029
6.4189 -2.9677 1.4829
6.4860 -2.7208 1.4757
7.1486 -2.7016 1.6044
7.2364 -2.4419 1.6044
7.3147 -2.1794 1.6044
7.3834 -1.9144 1.6044
7.4426 -1.6472 1.6044
7.4920 -1.3783 1.6044
7.2545 -1.0671 1.5454
7.1492 -0.7908 1.5169
7.0228 -0.5226 1.4861
7.0034 -0.2690 1.4800
2.8721 -0.0072 0.6069
7.0911 0.2368 1.5003
7.2900 0.5057 1.5462
7.3197 0.7725 1.5584
6.7371 0.9566 1.4417
6.7575 1.2082 1.4554
7.3919 1.5973 1.6044
7.3251 1.8604 1.6044
6.9543 2.0345 1.5392
6.2946 2.0895 1.4098
6.1817 2.3014 1.4030
6.7299 2.7844 1.5500
6.6419 3.0316 1.5548
6.6680 3.3377 1.5889
6.5652 3.5865 1.5950
6.3055 3.7445 1.5645
6.2932 4.0497 1.5974
6.1404 4.2706 1.5974
5.9800 4.4858 1.5974
5.8120 4.6951 1.5974
5.6369 4.8983 1.5974
5.4547 5.0949 1.5974
5.2658 5.2849 1.5974
5.0703 5.4680 1.5974
4.8686 5.6440 1.5974
4.6608 5.8127 1.5974
4.4473 5.9738 1.5974
4.2283 6.1273 1.5974
4.0042 6.2728 1.5974
3.7750 6.4103 1.5974
3.5413 6.5395 1.5974
3.3032 6.6604 1.5974
3.0610 6.7727 1.5974
2.9968 7.3202 1.7005
0.8123 2.2072 0.5057
0.7323 2.2340 0.5057
0.6513 2.2580 0.5056
0.5697 2.2792 0.5055
0.4873 2.2975 0.5054
0.4044 2.3130 0.5054
0.3210 2.3256 0.5053
0.2373 2.3353 0.5053
0.1533 2.3421 0.5053
0.0691 2.3459 0.5053
-0.0152 2.3469 0.5053
-0.0995 2.3449 0.5053
-0.1836 2.3400 0.5053
-0.2676 2.3322 0.5054
-0.3512 2.3215 0.5054
-0.4344 2.3079 0.5055
-0.5172 2.2914 0.5056
-0.5993 2.2721 0.5056
-0.6807 2.2499 0.5057
-0.7614 2.2249 0.5058
-2.8271 7.3844 1.7005
-3.0912 7.2799 1.7005
-3.3514 7.1660 1.7005
-3.6075 7.0431 1.7005
-3.8593 6.9111 1.7005
-4.1062 6.7702 1.7005
-4.3481 6.6207 1.7005
-4.5847 6.4627 1.7005
-4.8156 6.2963 1.7005
-5.0405 6.1218 1.7005
-5.2593 5.9394 1.7005
-5.4715 5.7493 1.7005
-5.6769 5.5516 1.7005
-5.8753 5.3468 1.7005
-6.0664 5.1349 1.7005
-6.2500 4.9163 1.7005
-6.4258 4.6912 1.7005
-6.5936 4.4599 1.7005
-6.7531 4.2227 1.7005
-6.9042 3.9798 1.7005
-7.0466 3.7316 1.7005
-7.1802 3.4783 1.7005
-7.3047 3.2202 1.7005
-7.4201 2.9578 1.7005
-7.5261 2.6912 1.7005
-7.6225 2.4209 1.7005
-7.7094 2.1472 1.7005
-7.7864 1.8703 1.7005
-7.8536 1.5907 1.7005
-7.9108 1.3087 1.7005
-7.9578 1.0247 1.7005
-7.9947 0.7390 1.7005
-8.0214 0.4519 1.7005
-8.0378 0.1639 1.7005
-8.0438 -0.1246 1.7005
-8.0395 -0.4134 1.7005
-8.0248 -0.7021 1.7005
-7.9998 -0.9902 1.7005
-7.9644 -1.2774 1.7005
-7.9186 -1.5633 1.7005
-7.8626 -1.8475 1.7005
-7.7963 -2.1298 1.7005
-7.7198 -2.4096 1.7005
-7.6333 -2.6867 1.7005
-7.5368 -2.9606 1.7005
-7.4303 -3.2311 1.7005
-7.3142 -3.4976 1.7005
-7.1883 -3.7600 1.7005
-7.0530 -4.0177 1.7005
-6.9084 -4.2706 1.7005
-6.7547 -4.5182 1.7005
-6.5919 -4.7602 1.7005
-6.4205 -4.9962 1.7005
-6.2405 -5.2260 1.7005
-6.0521 -5.4492 1.7005
-5.8558 -5.6656 1.7005
-5.6516 -5.8747 1.7005
-5.4398 -6.0764 1.7005
-5.2207 -6.2704 1.7005
-4.9947 -6.4563 1.7005
-4.7619 -6.6340 1.7005
-4.5228 -6.8031 1.7005
-4.2775 -6.9635 1.7005
-4.0265 -7.1149 1.7005
-3.7701 -7.2571 1.7005
-3.5085 -7.3899 1.7005
-3.2423 -7.5131 1.7005
-2.9716 -7.6265 1.7005
-2.6969 -7.7300 1.7005
-2.4186 -7.8235 1.7005
-2.1370 -7.9067 1.7005
-1.8524 -7.9796 1.7005
-1.5654 -8.0421 1.7005
-1.2762 -8.0941 1.7005
-0.9853 -8.1355 1.7005
-0.6931 -8.1662 1.7005
-0.3999 -8.1863 1.7005
-0.1062 -8.1956 1.7005
0.1877 -8.1942 1.7005
0.4814 -8.1820 1.7005
4.8337 -4.8962 1.5974
5.0040 -4.7177 1.5974
5.1676 -4.5333 1.5974
5.3244 -4.3430 1.5974
5.4741 -4.1474 1.5974
5.6166 -3.9465 1.5974
5.7516 -3.7406 1.5974
5.8791 -3.5302 1.5974
5.9987 -3.3153 1.5974
6.1105 -3.0964 1.5974
6.2143 -2.8737 1.5974
6.3099 -2.6475 1.5974
6.4253 -2.4288 1.6044
6.5046 -2.1955 1.6044
6.5753 -1.9597 1.6044
6.6375 -1.7216 1.6044
6.6911 -1.4815 1.6044
6.7359 -1.2398 1.6044
6.7720 -0.9968 1.6044
6.7994 -0.7527 1.6044
6.8179 -0.5080 1.6044
6.8276 -0.2629 1.6044
2.8719 -0.0075 0.6748
6.8207 0.2271 1.6044
6.8040 0.4714 1.6044
6.7786 0.7148 1.6044
6.7370 0.9560 1.6026
6.7019 1.1977 1.6044
6.6216 1.4303 1.5974
6.5621 1.6660 1.5974
6.4943 1.8993 1.5974
6.2966 2.0896 1.5671
6.1890 2.3036 1.5608
6.2419 2.5819 1.5974
6.1418 2.8027 1.5974
6.0340 3.0197 1.5974
5.9185 3.2326 1.5974
5.7956 3.4412 1.5974
5.6654 3.6451 1.5974
5.5282 3.8442 1.5974
5.3840 4.0382 1.5974
5.2330 4.2268 1.5974
5.0756 4.4099 1.5974
4.9118 4.5872 1.5974
4.7419 4.7585 1.5974
4.5661 4.9236 1.5974
4.3846 5.0823 1.5974
4.1977 5.2344 1.5974
4.0055 5.3798 1.5974
3.8084 5.5182 1.5974
3.6066 5.6494 1.5974
3.4004 5.7735 1.5974
3.1899 5.8901 1.5974
2.9945 6.0373 1.6076
2.9354 6.4942 1.7005
0.8044 1.9647 0.5067
0.7330 1.9915 0.5066
0.6608 2.0158 0.5065
0.5878 2.0375 0.5064
0.5141 2.0567 0.5064
0.4398 2.0733 0.5063
0.3650 2.0873 0.5063
0.2897 2.0987 0.5062
0.2142 2.1075 0.5062
0.1383 2.1136 0.5062
0.0623 2.1171 0.5062
-0.0137 2.1180 0.5062
-0.0898 2.1162 0.5062
-0.1657 2.1118 0.5062
-0.2415 2.1047 0.5062
-0.3170 2.0950 0.5063
-0.3921 2.0827 0.5063
-0.4667 2.0678 0.5064
-0.5408 2.0503 0.5065
-0.6143 2.0302 0.5066
-0.6871 2.0075 0.5067
-0.7590 1.9823 0.5068
-0.8301 1.9547 0.5069
-3.0191 6.4548 1.7005
-3.2497 6.3439 1.7005
-3.4764 6.2248 1.7005
-3.6987 6.0978 1.7005
-3.9165 5.9629 1.7005
-4.1294 5.8203 1.7005
-4.3373 5.6703 1.7005
-4.5397 5.5129 1.7005
-4.7365 5.3484 1.7005
-4.9274 5.1769 1.7005
-5.1122 4.9988 1.7005
-5.2907 4.8141 1.7005
-5.4625 4.6231 1.7005
-5.6275 4.4260 1.7005
-5.7855 4.2232 1.7005
-5.9362 4.0147 1.7005
-6.0795 3.8009 1.7005
-6.2152 3.5821 1.7005
-6.3431 3.3584 1.7005
-6.4630 3.1302 1.7005
-6.5747 2.8978 1.7005
-6.6782 2.6614 1.7005
-6.7732 2.4214 1.7005
-6.8596 2.1780 1.7005
-6.9373 1.9315 1.7005
-7.0062 1.6823 1.7005
-7.0662 1.4306 1.7005
-7.1172 1.1768 1.7005
-7.1591 0.9212 1.7005
-7.1918 0.6641 1.7005
-7.2154 0.4059 1.7005
-7.2296 0.1468 1.7005
-7.2346 -0.1127 1.7005
-7.2303 -0.3724 1.7005
-7.2166 -0.6320 1.7005
-7.1936 -0.8910 1.7005
-7.1613 -1.1492 1.7005
-7.1197 -1.4062 1.7005
-7.0689 -1.6617 1.7005
-7.0089 -1.9153 1.7005
-6.9397 -2.1668 1.7005
-6.8615 -2.4157 1.7005
-6.7743 -2.6618 1.7005
-6.6782 -2.9046 1.7005
-6.5734 -3.1441 1.7005
-6.4599 -3.3796 1.7005
-6.3380 -3.6111 1.7005
-6.2077 -3.8381 1.7005
-6.0692 -4.0603 1.7005
-5.9227 -4.2775 1.7005
-5.7683 -4.4894 1.7005
-5.6063 -4.6956 1.7005
-5.4368 -4.8959 1.7005
-5.2602 -5.0900 1.7005
-5.0765 -5.2776 1.7005
-4.8861 -5.4586 1.7005
-4.6891 -5.6325 1.7005
-4.4859 -5.7993 1.7005
-4.2767 -5.9586 1.7005
-4.0617 -6.1103 1.7005
-3.8413 -6.2541 1.7005
-3.6158 -6.3898 1.7005
-3.3854 -6.5173 1.7005
-3.1505 -6.6363 1.7005
-2.9113 -6.7467 1.7005
-2.6682 -6.8484 1.7005
-2.4215 -6.9412 1.7005
-2.1715 -7.0250 1.7005
-1.9186 -7.0996 1.7005
-1.6632 -7.1649 1.7005
-1.4054 -7.2209 1.7005
-1.1458 -7.2675 1.7005
-0.8846 -7.3046 1.7005
-0.6222 -7.3321 1.7005
-0.3590 -7.3501 1.7005
-0.0953 -7.3584 1.7005
0.1685 -7.3572 1.7005
0.4322 -7.3463 1.7005
4.3829 -4.4402 1.5974
4.5375 -4.2785 1.5974
4.6860 -4.1114 1.5974
4.8284 -3.9390 1.5974
4.9644 -3.7617 1.5974
5.0938 -3.5797 1.5974
5.2165 -3.3932 1.5974
5.3324 -3.2024 1.5974
5.4411 -3.0077 1.5974
5.5428 -2.8093 1.5974
5.6372 -2.6074 1.5974
5.7242 -2.4023 1.5974
5.8037 -2.1943 1.5974
5.8756 -1.9837 1.5974
5.9398 -1.7708 1.5974
5.9963 -1.5558 1.5974
6.0450 -1.3390 1.5974
6.0858 -1.1206 1.5974
6.1187 -0.9011 1.5974
6.1438 -0.6807 1.5974
6.1608 -0.4596 1.5974
6.1699 -0.2381 1.5974
2.8716 -0.0077 0.7433
6.1643 0.2047 1.5974
6.1496 0.4255 1.5974
6.1270 0.6455 1.5974
6.0965 0.8645 1.5974
6.0582 1.0821 1.5974
6.0122 1.2981 1.5974
5.9586 1.5122 1.5974
5.8973 1.7242 1.5974
5.8285 1.9337 1.5974
5.7524 2.1405 1.5974
5.6689 2.3443 1.5974
5.5783 2.5450 1.5974
5.4806 2.7422 1.5974
5.3760 2.9357 1.5974
5.2646 3.1253 1.5974
5.1466 3.3107 1.5974
5.0221 3.4917 1.5974
4.8913 3.6681 1.5974
4.7544 3.8396 1.5974
4.6115 4.0062 1.5974
4.4629 4.1674 1.5974
4.3086 4.3232 1.5974
4.1491 4.4734 1.5974
3.9843 4.6178 1.5974
3.8145 4.7562 1.5974
3.6401 4.8884 1.5974
3.4611 5.0143 1.5974
3.2778 5.1338 1.5974
3.0904 5.2466 1.5974
2.9387 5.4256 1.6192
2.8790 5.8038 1.7005
0.7962 1.7613 0.5075
0.7322 1.7880 0.5074
0.6672 1.8125 0.5073
0.6015 1.8346 0.5072
0.5350 1.8545 0.5071
0.4680 1.8720 0.5071
0.4003 1.8872 0.5070
0.3323 1.8999 0.5070
0.2638 1.9103 0.5069
0.1950 1.9184 0.5069
0.1259 1.9240 0.5069
0.0568 1.9272 0.5069
-0.0125 1.9279 0.5069
-0.0817 1.9263 0.5069
-0.1509 1.9223 0.5069
-0.2198 1.9158 0.5070
-0.2885 1.9069 0.5070
-0.3569 1.8957 0.5071
-0.4249 1.8821 0.5071
-0.4923 1.8661 0.5072
-0.5591 1.8477 0.5073
-0.6253 1.8271 0.5073
-0.6908 1.8041 0.5074
-0.7555 1.7788 0.5075
-0.8192 1.7513 0.5077
-2.9537 5.7654 1.7005
-3.1596 5.6570 1.7005
-3.3616 5.5414 1.7005
-3.5594 5.4186 1.7005
-3.7528 5.2889 1.7005
-3.9416 5.1524 1.7005
-4.1254 5.0092 1.7005
-4.3041 4.8596 1.7005
-4.4775 4.7036 1.7005
-4.6452 4.5416 1.7005
-4.8072 4.3736 1.7005
-4.9631 4.1999 1.7005
-5.1128 4.0207 1.7005
-5.2562 3.8362 1.7005
-5.3929 3.6467 1.7005
-5.5229 3.4523 1.7005
-5.6459 3.2533 1.7005
-5.7618 3.0500 1.7005
-5.8704 2.8426 1.7005
-5.9716 2.6314 1.7005
-6.0653 2.4166 1.7005
-6.1512 2.1985 1.7005
-6.2294 1.9773 1.7005
-6.2997 1.7534 1.7005
-6.3619 1.5270 1.7005
-6.4161 1.2984 1.7005
-6.4620 1.0679 1.7005
-6.4997 0.8358 1.7005
-6.5291 0.6023 1.7005
-6.5502 0.3679 1.7005
-6.5628 0.1327 1.7005
-6.5669 -0.1029 1.7005
-6.5626 -0.3387 1.7005
-6.5499 -0.5742 1.7005
-6.5287 -0.8093 1.7005
-6.4990 -1.0435 1.7005
-6.4610 -1.2767 1.7005
-6.4145 -1.5084 1.7005
-6.3597 -1.7385 1.7005
-6.2966 -1.9666 1.7005
-6.2253 -2.1923 1.7005
-6.1459 -2.4154 1.7005
-6.0585 -2.6357 1.7005
-5.9631 -2.8527 1.7005
-5.8599 -3.0663 1.7005
-5.7490 -3.2761 1.7005
-5.6305 -3.4818 1.7005
-5.5046 -3.6832 1.7005
-5.3715 -3.8801 1.7005
-5.2313 -4.0720 1.7005
-5.0841 -4.2588 1.7005
-4.9303 -4.4403 1.7005
-4.7699 -4.6161 1.7005
-4.6031 -4.7861 1.7005
-4.4303 -4.9500 1.7005
-4.2515 -5.1075 1.7005
-4.0672 -5.2586 1.7005
-3.8773 -5.4028 1.7005
-3.6823 -5.5402 1.7005
-3.4824 -5.6704 1.7005
-3.2779 -5.7932 1.7005
-3.0689 -5.9087 1.7005
-2.8559 -6.0164 1.7005
-2.6390 -6.1164 1.7005
-2.4186 -6.2084 1.7005
-2.1949 -6.2924 1.7005
-1.9683 -6.3682 1.7005
-1.7391 -6.4357 1.7005
-1.5075 -6.4949 1.7005
-1.2739 -6.5455 1.7005
-1.0385 -6.5877 1.7005
-0.8018 -6.6212 1.7005
-0.5640 -6.6462 1.7005
-0.3254 -6.6624 1.7005
-0.0864 -6.6700 1.7005
0.1528 -6.6688 1.7005
0.3917 -6.6589 1.7005
4.0050 -4.0578 1.5974
4.1464 -3.9102 1.5974
4.2823 -3.7576 1.5974
4.4126 -3.6003 1.5974
4.5370 -3.4384 1.5974
4.6554 -3.2721 1.5974
4.7677 -3.1018 1.5974
4.8738 -2.9276 1.5974
4.9734 -2.7497 1.5974
5.0665 -2.5684 1.5974
5.1530 -2.3840 1.5974
5.2327 -2.1966 1.5974
5.3056 -2.0066 1.5974
5.3716 -1.8141 1.5974
5.4305 -1.6195 1.5974
5.4824 -1.4230 1.5974
5.5272 -1.2248 1.5974
5.5648 -1.0252 1.5974
5.5951 -0.8245 1.5974
5.6182 -0.6230 1.5974
5.6341 -0.4208 1.5974
5.6427 -0.2183 1.5974
2.8714 -0.0080 0.8127
5.6380 0.1867 1.5974
5.6248 0.3887 1.5974
5.6044 0.5900 1.5974
5.5768 0.7903 1.5974
5.5420 0.9894 1.5974
5.5002 1.1870 1.5974
5.4513 1.3830 1.5974
5.3955 1.5769 1.5974
5.3328 1.7687 1.5974
5.2633 1.9580 1.5974
5.1872 2.1446 1.5974
5.1044 2.3283 1.5974
5.0153 2.5089 1.5974
4.9197 2.6861 1.5974
4.8180 2.8597 1.5974
4.7102 3.0295 1.5974
4.5964 3.1952 1.5974
4.4768 3.3568 1.5974
4.3517 3.5139 1.5974
4.2211 3.6664 1.5974
4.0851 3.8142 1.5974
3.9441 3.9569 1.5974
3.7981 4.0945 1.5974
3.6474 4.2268 1.5974
3.4921 4.3536 1.5974
3.3325 4.4748 1.5974
3.1687 4.5902 1.5974
3.0009 4.6996 1.5974
2.8976 4.9187 1.6359
2.8258 5.2166 1.7005
0.7877 1.5877 0.5081
0.7298 1.6143 0.5080
0.6711 1.6389 0.5080
0.6116 1.6613 0.5079
0.5514 1.6817 0.5078
0.4905 1.6999 0.5077
0.4290 1.7160 0.5077
0.3670 1.7300 0.5076
0.3046 1.7417 0.5076
0.2418 1.7513 0.5076
0.1787 1.7586 0.5075
0.1155 1.7638 0.5075
0.0520 1.7667 0.5075
-0.0115 1.7674 0.5075
-0.0749 1.7659 0.5075
-0.1383 1.7622 0.5076
-0.2016 1.7563 0.5076
-0.2645 1.7482 0.5076
-0.3272 1.7378 0.5077
-0.3895 1.7253 0.5077
-0.4513 1.7106 0.5078
-0.5126 1.6937 0.5079
-0.5733 1.6747 0.5079
-0.6333 1.6536 0.5080
-0.6925 1.6304 0.5081
-0.7509 1.6051 0.5082
-0.8084 1.5778 0.5083
-2.8929 5.1789 1.7005
-3.0778 5.0730 1.7005
-3.2588 4.9605 1.7005
-3.4358 4.8416 1.7005
-3.6085 4.7165 1.7005
-3.7767 4.5853 1.7005
-3.9402 4.4482 1.7005
-4.0988 4.3053 1.7005
-4.2522 4.1568 1.7005
-4.4003 4.0029 1.7005
-4.5429 3.8438 1.7005
-4.6798 3.6796 1.7005
-4.8109 3.5106 1.7005
-4.9358 3.3370 1.7005
-5.0546 3.1590 1.7005
-5.1670 2.9768 1.7005
-5.2728 2.7907 1.7005
-5.3720 2.6008 1.7005
-5.4644 2.4074 1.7005
-5.5499 2.2107 1.7005
-5.6284 2.0110 1.7005
-5.6997 1.8086 1.7005
-5.7637 1.6037 1.7005
-5.8204 1.3965 1.7005
-5.8697 1.1873 1.7005
-5.9115 0.9764 1.7005
-5.9457 0.7640 1.7005
-5.9724 0.5504 1.7005
-5.9913 0.3359 1.7005
-6.0026 0.1208 1.7005
-6.0061 -0.0947 1.7005
-6.0019 -0.3103 1.7005
-5.9900 -0.5257 1.7005
-5.9704 -0.7406 1.7005
-5.9430 -0.9548 1.7005
-5.9079 -1.1680 1.7005
-5.8651 -1.3798 1.7005
-5.8148 -1.5901 1.7005
-5.7569 -1.7985 1.7005
-5.6914 -2.0048 1.7005
-5.6186 -2.2088 1.7005
-5.5384 -2.4100 1.7005
-5.4510 -2.6083 1.7005
-5.3565 -2.8034 1.7005
-5.2549 -2.9951 1.7005
-5.1464 -3.1830 1.7005
-5.0311 -3.3670 1.7005
-4.9093 -3.5467 1.7005
-4.7810 -3.7220 1.7005
-4.6463 -3.8926 1.7005
-4.5055 -4.0583 1.7005
-4.3588 -4.2189 1.7005
-4.2063 -4.3741 1.7005
-4.0482 -4.5237 1.7005
-3.8848 -4.6675 1.7005
-3.7162 -4.8053 1.7005
-3.5426 -4.9370 1.7005
-3.3644 -5.0624 1.7005
-3.1817 -5.1812 1.7005
-2.9947 -5.2934 1.7005
-2.8038 -5.3987 1.7005
-2.6091 -5.4970 1.7005
-2.4109 -5.5882 1.7005
-2.2095 -5.6722 1.7005
-2.0051 -5.7488 1.7005
-1.7981 -5.8180 1.7005
-1.5886 -5.8796 1.7005
-1.3770 -5.9335 1.7005
-1.1636 -5.9798 1.7005
-0.9486 -6.0182 1.7005
-0.7324 -6.0489 1.7005
-0.5152 -6.0716 1.7005
-0.2972 -6.0864 1.7005
-0.0789 -6.0933 1.7005
0.1395 -6.0922 1.7005
0.3578 -6.0832 1.7005
3.6834 -3.7324 1.5974
3.8135 -3.5968 1.5974
3.9386 -3.4565 1.5974
4.0585 -3.3119 1.5974
4.1731 -3.1631 1.5974
4.2822 -3.0103 1.5974
4.3856 -2.8536 1.5974
4.4833 -2.6935 1.5974
4.5751 -2.5299 1.5974
4.6609 -2.3633 1.5974
4.7406 -2.1937 1.5974
4.8141 -2.0213 1.5974
4.8814 -1.8466 1.5974
4.9422 -1.6696 1.5974
4.9967 -1.4906 1.5974
5.0446 -1.3098 1.5974
5.0860 -1.1275 1.5974
5.1207 -0.9439 1.5974
5.1489 -0.7592 1.5974
5.1703 -0.5738 1.5974
5.1851 -0.3877 1.5974
2.9894 -0.1159 0.9195
2.8711 -0.0082 0.8829
2.9871 0.0987 0.9195
5.1773 0.3573 1.5974
5.1587 0.5426 1.5974
5.1335 0.7270 1.5974
5.1017 0.9103 1.5974
5.0634 1.0923 1.5974
5.0185 1.2727 1.5974
4.9673 1.4513 1.5974
4.9098 1.6279 1.5974
4.8460 1.8023 1.5974
4.7761 1.9742 1.5974
4.7001 2.1434 1.5974
4.6181 2.3097 1.5974
4.5303 2.4730 1.5974
4.4368 2.6329 1.5974
4.3376 2.7894 1.5974
4.2330 2.9421 1.5974
4.1230 3.0910 1.5974
4.0079 3.2358 1.5974
3.8877 3.3764 1.5974
3.7626 3.5125 1.5974
3.6328 3.6441 1.5974
3.4984 3.7709 1.5974
3.3596 3.8929 1.5974
3.2167 4.0098 1.5974
3.0697 4.1215 1.5974
2.9189 4.2279 1.5974
2.8622 4.4818 1.6539
0.8303 1.4092 0.5088
0.7788 1.4375 0.5087
0.7263 1.4639 0.5086
0.6730 1.4885 0.5085
0.6189 1.5112 0.5084
0.5640 1.5319 0.5084
0.5085 1.5508 0.5083
0.4524 1.5676 0.5082
0.3957 1.5825 0.5082
0.3385 1.5954 0.5082
0.2809 1.6062 0.5081
0.2230 1.6151 0.5081
0.1649 1.6219 0.5081
0.1065 1.6266 0.5081
0.0480 1.6293 0.5080
-0.0106 1.6300 0.5081
-0.0691 1.6286 0.5081
-0.1276 1.6252 0.5081
-0.1859 1.6197 0.5081
-0.2440 1.6121 0.5081
-0.3018 1.6026 0.5082
-0.3592 1.5910 0.5082
-0.4162 1.5774 0.5083
-0.4727 1.5619 0.5084
-0.5287 1.5443 0.5084
-0.5840 1.5248 0.5085
-0.6386 1.5034 0.5086
-0.6924 1.4800 0.5087
-0.7454 1.4548 0.5088
-0.7976 1.4277 0.5089
-2.8353 4.6728 1.7005
-3.0020 4.5691 1.7005
-3.1650 4.4595 1.7005
-3.3240 4.3442 1.7005
-3.4789 4.2232 1.7005
-3.6294 4.0968 1.7005
-3.7754 3.9651 1.7005
-3.9166 3.8282 1.7005
-4.0529 3.6864 1.7005
-4.1841 3.5397 1.7005
-4.3101 3.3884 1.7005
-4.4306 3.2327 1.7005
-4.5456 3.0727 1.7005
-4.6548 2.9087 1.7005
-4.7582 2.7408 1.7005
-4.8555 2.5693 1.7005
-4.9467 2.3944 1.7005
-5.0316 2.2162 1.7005
-5.1102 2.0350 1.7005
-5.1822 1.8511 1.7005
-5.2477 1.6647 1.7005
-5.3064 1.4759 1.7005
-5.3585 1.2851 1.7005
-5.4036 1.0925 1.7005
-5.4419 0.8983 1.7005
-5.4732 0.7028 1.7005
-5.4975 0.5062 1.7005
-5.5148 0.3087 1.7005
-5.5249 0.1107 1.7005
-5.5280 -0.0876 1.7005
-5.5239 -0.2861 1.7005
-5.5127 -0.4843 1.7005
-5.4944 -0.6821 1.7005
-5.4690 -0.8791 1.7005
-5.4366 -1.0753 1.7005
-5.3970 -1.2702 1.7005
-5.3505 -1.4636 1.7005
-5.2970 -1.6554 1.7005
-5.2366 -1.8451 1.7005
-5.1694 -2.0327 1.7005
-5.0955 -2.2177 1.7005
-5.0148 -2.4001 1.7005
-4.9277 -2.5795 1.7005
-4.8341 -2.7557 1.7005
-4.7341 -2.9285 1.7005
-4.6280 -3.0977 1.7005
-4.5157 -3.2629 1.7005
-4.3975 -3.4241 1.7005
-4.2736 -3.5809 1.7005
-4.1440 -3.7332 1.7005
-4.0089 -3.8807 1.7005
-3.8685 -4.0233 1.7005
-3.7230 -4.1608 1.7005
-3.5726 -4.2930 1.7005
-3.4175 -4.4196 1.7005
-3.2578 -4.5406 1.7005
-3.0938 -4.6558 1.7005
-2.9257 -4.7650 1.7005
-2.7538 -4.8680 1.7005
-2.5781 -4.9648 1.7005
-2.3991 -5.0551 1.7005
-2.2168 -5.1389 1.7005
-2.0316 -5.2160 1.7005
-1.8436 -5.2864 1.7005
-1.6532 -5.3499 1.7005
-1.4607 -5.4065 1.7005
-1.2661 -5.4561 1.7005
-1.0699 -5.4985 1.7005
-0.8722 -5.5338 1.7005
-0.6734 -5.5620 1.7005
-0.4736 -5.5828 1.7005
-0.2733 -5.5964 1.7005
-0.0725 -5.6028 1.7005
0.1283 -5.6018 1.7005
0.3290 -5.5935 1.7005
3.4060 -3.4518 1.5974
3.5264 -3.3264 1.5974
3.6422 -3.1968 1.5974
3.7532 -3.0632 1.5974
3.8592 -2.9256 1.5974
3.9602 -2.7844 1.5974
4.0560 -2.6396 1.5974
4.1465 -2.4916 1.5974
4.2315 -2.3404 1.5974
4.3110 -2.1863 1.5974
4.3848 -2.0295 1.5974
4.4530 -1.8701 1.5974
4.5153 -1.7085 1.5974
4.5717 -1.5449 1.5974
4.6222 -1.3793 1.5974
4.6667 -1.2121 1.5974
4.7051 -1.0435 1.5974
4.7374 -0.8737 1.5974
4.7636 -0.7029 1.5974
4.7836 -0.5313 1.5974
4.7975 -0.3592 1.5974
2.8014 -0.1089 0.9313
2.8095 -0.0083 0.9337
2.8175 0.0928 0.9373
4.7909 0.3302 1.5974
4.7738 0.5017 1.5974
4.7506 0.6723 1.5974
4.7214 0.8420 1.5974
4.6860 1.0104 1.5974
4.6447 1.1775 1.5974
4.5975 1.3428 1.5974
4.5444 1.5063 1.5974
4.4855 1.6677 1.5974
4.4209 1.8269 1.5974
4.3506 1.9836 1.5974
4.2749 2.1376 1.5974
4.1937 2.2888 1.5974
4.1072 2.4369 1.5974
4.0156 2.5818 1.5974
3.9188 2.7233 1.5974
3.8171 2.8612 1.5974
3.7106 2.9953 1.5974
3.5994 3.1256 1.5974
3.4837 3.2517 1.5974
3.3636 3.3736 1.5974
3.2392 3.4911 1.5974
3.1108 3.6041 1.5974
2.9785 3.7124 1.5974
2.8425 3.8159 1.5974
2.8310 4.1000 1.6731
0.8162 1.2780 0.5093
0.7695 1.3059 0.5092
0.7218 1.3321 0.5091
0.6732 1.3567 0.5090
0.6238 1.3795 0.5090
0.5737 1.4005 0.5089
0.5228 1.4198 0.5088
0.4713 1.4373 0.5087
0.4193 1.4529 0.5087
0.3668 1.4667 0.5086
0.3138 1.4787 0.5086
0.2604 1.4887 0.5086
0.2067 1.4970 0.5085
0.1528 1.5033 0.5085
0.0987 1.5077 0.5085
0.0445 1.5102 0.5085
-0.0098 1.5108 0.5085
-0.0641 1.5095 0.5085
-0.1183 1.5063 0.5085
-0.1723 1.5012 0.5086
-0.2262 1.4943 0.5086
-0.2797 1.4854 0.5086
-0.3330 1.4746 0.5087
-0.3858 1.4620 0.5087
-0.4382 1.4476 0.5088
-0.4900 1.4313 0.5089
-0.5413 1.4131 0.5089
-0.5919 1.3932 0.5090
-0.6418 1.3716 0.5091
-0.6909 1.3481 0.5092
-0.7392 1.3230 0.5093
-0.7865 1.2961 0.5094
-0.8330 1.2676 0.5095
-2.9308 4.1290 1.7005
-3.0780 4.0221 1.7005
-3.2213 3.9101 1.7005
-3.3606 3.7929 1.7005
-3.4957 3.6709 1.7005
-3.6264 3.5441 1.7005
-3.7525 3.4127 1.7005
-3.8739 3.2768 1.7005
-3.9904 3.1367 1.7005
-4.1020 2.9924 1.7005
-4.2083 2.8442 1.7005
-4.3093 2.6923 1.7005
-4.4048 2.5368 1.7005
-4.4948 2.3780 1.7005
-4.5791 2.2159 1.7005
-4.6576 2.0510 1.7005
-4.7301 1.8832 1.7005
-4.7967 1.7129 1.7005
-4.8571 1.5403 1.7005
-4.9114 1.3656 1.7005
-4.9593 1.1889 1.7005
-5.0010 1.0106 1.7005
-5.0363 0.8309 1.7005
-5.0651 0.6499 1.7005
-5.0874 0.4679 1.7005
-5.1032 0.2852 1.7005
-5.1124 0.1020 1.7005
-5.1151 -0.0816 1.7005
-5.1112 -0.2652 1.7005
-5.1007 -0.4486 1.7005
-5.0836 -0.6315 1.7005
-5.0599 -0.8139 1.7005
-5.0297 -0.9953 1.7005
-4.9929 -1.1756 1.7005
-4.9497 -1.3545 1.7005
-4.9001 -1.5318 1.7005
-4.8441 -1.7073 1.7005
-4.7818 -1.8807 1.7005
-4.7132 -2.0519 1.7005
-4.6385 -2.2205 1.7005
-4.5578 -2.3864 1.7005
-4.4710 -2.5493 1.7005
-4.3785 -2.7090 1.7005
-4.2802 -2.8654 1.7005
-4.1762 -3.0181 1.7005
-4.0668 -3.1670 1.7005
-3.9521 -3.3120 1.7005
-3.8321 -3.4527 1.7005
-3.7071 -3.5891 1.7005
-3.5772 -3.7209 1.7005
-3.4426 -3.8479 1.7005
-3.3035 -3.9700 1.7005
-3.1600 -4.0871 1.7005
-3.0123 -4.1989 1.7005
-2.8606 -4.3053 1.7005
-2.7051 -4.4061 1.7005
-2.5461 -4.5013 1.7005
-2.3836 -4.5907 1.7005
-2.2180 -4.6742 1.7005
-2.0495 -4.7516 1.7005
-1.8782 -4.8228 1.7005
-1.7045 -4.8878 1.7005
-1.5284 -4.9465 1.7005
-1.3503 -4.9988 1.7005
-1.1705 -5.0445 1.7005
-0.9891 -5.0837 1.7005
-0.8063 -5.1164 1.7005
-0.6225 -5.1423 1.7005
-0.4379 -5.1616 1.7005
-0.2526 -5.1742 1.7005
-0.0670 -5.1800 1.7005
0.1186 -5.1791 1.7005
0.3041 -5.1715 1.7005
3.1642 -3.2071 1.5974
3.2761 -3.0907 1.5974
3.3837 -2.9704 1.5974
3.4869 -2.8463 1.5974
3.5855 -2.7185 1.5974
3.6794 -2.5874 1.5974
3.7685 -2.4529 1.5974
3.8526 -2.3154 1.5974
3.9317 -2.1750 1.5974
4.0057 -2.0319 1.5974
4.0744 -1.8862 1.5974
4.1378 -1.7382 1.5974
4.1959 -1.5881 1.5974
4.2484 -1.4360 1.5974
4.2955 -1.2822 1.5974
4.3369 -1.1269 1.5974
4.3727 -0.9702 1.5974
4.4029 -0.8124 1.5974
4.4274 -0.6537 1.5974
4.4461 -0.4942 1.5974
4.4591 -0.3343 1.5974
2.7984 -0.1090 1.0009
2.8065 -0.0086 1.0034
2.8145 0.0924 1.0073
4.4535 0.3065 1.5974
4.4377 0.4659 1.5974
4.4163 0.6246 1.5974
4.3892 0.7823 1.5974
4.3565 0.9390 1.5974
4.3182 1.0943 1.5974
4.2744 1.2480 1.5974
4.2251 1.4001 1.5974
4.1705 1.5502 1.5974
4.1105 1.6982 1.5974
4.0453 1.8440 1.5974
3.9750 1.9872 1.5974
3.8996 2.1279 1.5974
3.8193 2.2657 1.5974
3.7341 2.4005 1.5974
3.6443 2.5321 1.5974
3.5498 2.6604 1.5974
3.4508 2.7852 1.5974
3.3474 2.9064 1.5974
3.2399 3.0237 1.5974
3.1282 3.1372 1.5974
3.0127 3.2465 1.5974
2.8933 3.3517 1.5974
2.7859 3.4719 1.6064
2.8030 3.7624 1.6936
0.8023 1.1618 0.5098
0.7597 1.1894 0.5097
0.7162 1.2154 0.5096
0.6718 1.2398 0.5095
0.6266 1.2627 0.5094
0.5807 1.2840 0.5093
0.5340 1.3036 0.5093
0.4867 1.3216 0.5092
0.4388 1.3378 0.5091
0.3904 1.3524 0.5091
0.3415 1.3653 0.5090
0.2921 1.3765 0.5090
0.2425 1.3859 0.5090
0.1925 1.3935 0.5089
0.1423 1.3994 0.5089
0.0919 1.4035 0.5089
0.0414 1.4059 0.5089
-0.0091 1.4064 0.5089
-0.0596 1.4052 0.5089
-0.1101 1.4023 0.5089
-0.1604 1.3975 0.5090
-0.2105 1.3910 0.5090
-0.2604 1.3827 0.5090
-0.3100 1.3727 0.5091
-0.3592 1.3609 0.5091
-0.4079 1.3474 0.5092
-0.4562 1.3322 0.5092
-0.5039 1.3154 0.5093
-0.5510 1.2968 0.5094
-0.5974 1.2766 0.5095
-0.6431 1.2548 0.5096
-0.6880 1.2313 0.5097
-0.7321 1.2063 0.5098
-0.7753 1.1797 0.5099
-0.8175 1.1516 0.5100
-2.8629 3.7406 1.7005
-2.9961 3.6363 1.7005
-3.1257 3.5273 1.7005
-3.2512 3.4137 1.7005
-3.3727 3.2957 1.7005
-3.4900 3.1734 1.7005
-3.6028 3.0470 1.7005
-3.7111 2.9166 1.7005
-3.8147 2.7824 1.7005
-3.9135 2.6445 1.7005
-4.0073 2.5032 1.7005
-4.0961 2.3585 1.7005
-4.1796 2.2108 1.7005
-4.2579 2.0601 1.7005
-4.3307 1.9066 1.7005
-4.3981 1.7506 1.7005
-4.4599 1.5922 1.7005
-4.5159 1.4317 1.7005
-4.5663 1.2692 1.7005
-4.6108 1.1049 1.7005
-4.6493 0.9391 1.7005
-4.6820 0.7720 1.7005
-4.7087 0.6037 1.7005
-4.7293 0.4345 1.7005
-4.7438 0.2647 1.7005
-4.7523 0.0943 1.7005
-4.7546 -0.0763 1.7005
-4.7508 -0.2469 1.7005
-4.7409 -0.4174 1.7005
-4.7249 -0.5874 1.7005
-4.7028 -0.7569 1.7005
-4.6745 -0.9255 1.7005
-4.6403 -1.0930 1.7005
-4.6000 -1.2592 1.7005
-4.5537 -1.4240 1.7005
-4.5016 -1.5870 1.7005
-4.4435 -1.7482 1.7005
-4.3797 -1.9071 1.7005
-4.3102 -2.0638 1.7005
-4.2350 -2.2178 1.7005
-4.1543 -2.3692 1.7005
-4.0682 -2.5175 1.7005
-3.9768 -2.6627 1.7005
-3.8801 -2.8046 1.7005
-3.7784 -2.9429 1.7005
-3.6717 -3.0775 1.7005
-3.5602 -3.2082 1.7005
-3.4440 -3.3348 1.7005
-3.3233 -3.4571 1.7005
-3.1981 -3.5751 1.7005
-3.0688 -3.6885 1.7005
-2.9354 -3.7971 1.7005
-2.7982 -3.9009 1.7005
-2.6572 -3.9997 1.7005
-2.5128 -4.0933 1.7005
-2.3650 -4.1817 1.7005
-2.2141 -4.2646 1.7005
-2.0602 -4.3421 1.7005
-1.9037 -4.4139 1.7005
-1.7446 -4.4801 1.7005
-1.5831 -4.5404 1.7005
-1.4196 -4.5948 1.7005
-1.2542 -4.6433 1.7005
-1.0871 -4.6858 1.7005
-0.9186 -4.7222 1.7005
-0.7489 -4.7525 1.7005
-0.5782 -4.7766 1.7005
-0.4067 -4.7945 1.7005
-0.2346 -4.8061 1.7005
-0.0623 -4.8115 1.7005
0.1102 -4.8107 1.7005
0.2825 -4.8036 1.7005
2.9512 -2.9917 1.5974
3.0557 -2.8832 1.5974
3.1561 -2.7710 1.5974
3.2524 -2.6552 1.5974
3.3444 -2.5362 1.5974
3.4321 -2.4139 1.5974
3.5153 -2.2885 1.5974
3.5938 -2.1603 1.5974
3.6677 -2.0293 1.5974
3.7368 -1.8959 1.5974
3.8010 -1.7600 1.5974
3.8602 -1.6220 1.5974
3.9144 -1.4820 1.5974
3.9636 -1.3401 1.5974
4.0076 -1.1967 1.5974
4.0463 -1.0518 1.5974
4.0799 -0.9056 1.5974
4.1081 -0.7584 1.5974
4.1310 -0.6103 1.5974
4.1486 -0.4616 1.5974
4.1608 -0.3123 1.5974
2.7954 -0.1092 1.0714
2.8034 -0.0088 1.0741
2.8114 0.0921 1.0782
4.1560 0.2856 1.5974
4.1414 0.4344 1.5974
4.1215 0.5825 1.5974
4.0963 0.7297 1.5974
4.0659 0.8759 1.5974
4.0303 1.0209 1.5974
3.9895 1.1644 1.5974
3.9436 1.3064 1.5974
3.8927 1.4465 1.5974
3.8368 1.5847 1.5974
3.7760 1.7208 1.5974
3.7105 1.8546 1.5974
3.6402 1.9859 1.5974
3.5653 2.1146 1.5974
3.4859 2.2405 1.5974
3.4020 2.3634 1.5974
3.3139 2.4832 1.5974
3.2216 2.5998 1.5974
3.1251 2.7129 1.5974
3.0248 2.8226 1.5974
2.9206 2.9285 1.5974
2.8128 3.0307 1.5974
2.7557 3.1918 1.6295
0.8263 1.0296 0.5103
0.7884 1.0581 0.5102
0.7495 1.0853 0.5101
0.7098 1.1111 0.5100
0.6692 1.1354 0.5099
0.6277 1.1583 0.5098
0.5855 1.1797 0.5097
0.5426 1.1996 0.5097
0.4990 1.2179 0.5096
0.4548 1.2347 0.5095
0.4100 1.2500 0.5095
0.3648 1.2636 0.5094
0.3191 1.2757 0.5094
0.2730 1.2861 0.5093
0.2266 1.2949 0.5093
0.1799 1.3020 0.5093
0.1330 1.3076 0.5093
0.0859 1.3114 0.5093
0.0387 1.3136 0.5093
-0.0085 1.3141 0.5093
-0.0557 1.3130 0.5093
-0.1029 1.3102 0.5093
-0.1499 1.3058 0.5093
-0.1967 1.2997 0.5093
-0.2433 1.2919 0.5094
-0.2896 1.2826 0.5094
-0.3356 1.2716 0.5095
-0.3812 1.2589 0.5095
-0.4262 1.2447 0.5096
-0.4708 1.2289 0.5096
-0.5148 1.2116 0.5097
-0.5582 1.1926 0.5098
-0.6009 1.1722 0.5099
-0.6428 1.1503 0.5100
-0.6840 1.1269 0.5101
-0.7243 1.1020 0.5102
-0.7638 1.0758 0.5103
-0.8023 1.0481 0.5104
-2.7974 3.3947 1.7005
-2.9183 3.2929 1.7005
-3.0355 3.1868 1.7005
-3.1489 3.0766 1.7005
-3.2583 2.9623 1.7005
-3.3635 2.8443 1.7005
-3.4646 2.7225 1.7005
-3.5612 2.5971 1.7005
-3.6534 2.4684 1.7005
-3.7409 2.3364 1.7005
-3.8237 2.2013 1.7005
-3.9016 2.0633 1.7005
-3.9746 1.9226 1.7005
-4.0425 1.7793 1.7005
-4.1053 1.6336 1.7005
-4.1628 1.4858 1.7005
-4.2151 1.3359 1.7005
-4.2619 1.1842 1.7005
-4.3034 1.0308 1.7005
-4.3393 0.8761 1.7005
-4.3696 0.7200 1.7005
-4.3944 0.5630 1.7005
-4.4135 0.4051 1.7005
-4.4270 0.2466 1.7005
-4.4348 0.0876 1.7005
-4.4368 -0.0716 1.7005
-4.4332 -0.2308 1.7005
-4.4239 -0.3899 1.7005
-4.4088 -0.5486 1.7005
-4.3880 -0.7066 1.7005
-4.3616 -0.8639 1.7005
-4.3295 -1.0202 1.7005
-4.2918 -1.1753 1.7005
-4.2485 -1.3290 1.7005
-4.1998 -1.4811 1.7005
-4.1455 -1.6313 1.7005
-4.0859 -1.7796 1.7005
-4.0209 -1.9257 1.7005
-3.9507 -2.0694 1.7005
-3.8754 -2.2105 1.7005
-3.7950 -2.3488 1.7005
-3.7096 -2.4842 1.7005
-3.6194 -2.6165 1.7005
-3.5244 -2.7455 1.7005
-3.4248 -2.8710 1.7005
-3.3207 -2.9928 1.7005
-3.2123 -3.1108 1.7005
-3.0996 -3.2249 1.7005
-2.9828 -3.3349 1.7005
-2.8622 -3.4406 1.7005
-2.7377 -3.5418 1.7005
-2.6097 -3.6386 1.7005
-2.4782 -3.7306 1.7005
-2.3434 -3.8179 1.7005
-2.2056 -3.9003 1.7005
-2.0648 -3.9776 1.7005
-1.9213 -4.0498 1.7005
-1.7753 -4.1167 1.7005
-1.6269 -4.1783 1.7005
-1.4764 -4.2346 1.7005
-1.3238 -4.2853 1.7005
-1.1696 -4.3305 1.7005
-1.0138 -4.3701 1.7005
-0.8566 -4.4040 1.7005
-0.6984 -4.4322 1.7005
-0.5391 -4.4547 1.7005
-0.3792 -4.4713 1.7005
-0.2188 -4.4822 1.7005
-0.0581 -4.4872 1.7005
0.1027 -4.4865 1.7005
0.2634 -4.4798 1.7005
2.7620 -2.8003 1.5974
2.8599 -2.6988 1.5974
2.9539 -2.5938 1.5974
3.0441 -2.4856 1.5974
3.1303 -2.3742 1.5974
3.2124 -2.2597 1.5974
3.2903 -2.1424 1.5974
3.3639 -2.0224 1.5974
3.4331 -1.8999 1.5974
3.4979 -1.7750 1.5974
3.5580 -1.6479 1.5974
3.6136 -1.5187 1.5974
3.6644 -1.3877 1.5974
3.7105 -1.2549 1.5974
3.7517 -1.1207 1.5974
3.7881 -0.9850 1.5974
3.8196 -0.8482 1.5974
3.8461 -0.7104 1.5974
3.8676 -0.5718 1.5974
3.8842 -0.4325 1.5974
3.8957 -0.2928 1.5974
2.7923 -0.1093 1.1431
2.8003 -0.0091 1.1459
2.8083 0.0917 1.1502
3.8915 0.2671 1.5974
3.8780 0.4064 1.5974
3.8594 0.5451 1.5974
3.8359 0.6830 1.5974
3.8075 0.8199 1.5974
3.7742 0.9557 1.5974
3.7361 1.0901 1.5974
3.6932 1.2231 1.5974
3.6456 1.3543 1.5974
3.5933 1.4838 1.5974
3.5365 1.6113 1.5974
3.4752 1.7366 1.5974
3.4094 1.8596 1.5974
3.3393 1.9802 1.5974
3.2650 2.0981 1.5974
3.1865 2.2133 1.5974
3.1040 2.3256 1.5974
3.0176 2.4348 1.5974
2.9274 2.5409 1.5974
2.8334 2.6436 1.5974
2.7358 2.7429 1.5974
2.7353 2.9469 1.6583
0.8089 0.9369 0.5106
0.7744 0.9649 0.5105
0.7389 0.9916 0.5104
0.7026 1.0171 0.5103
0.6653 1.0413 0.5103
0.6272 1.0641 0.5102
0.5884 1.0856 0.5101
0.5488 1.1057 0.5100
0.5086 1.1243 0.5099
0.4677 1.1416 0.5099
0.4263 1.1574 0.5098
0.3844 1.1716 0.5098
0.3419 1.1845 0.5097
0.2991 1.1958 0.5097
0.2559 1.2055 0.5097
0.2124 1.2138 0.5096
0.1686 1.2205 0.5096
0.1247 1.2257 0.5096
0.0805 1.2293 0.5096
0.0363 1.2314 0.5096
-0.0080 1.2319 0.5096
-0.0522 1.2308 0.5096
-0.0964 1.2282 0.5096
-0.1405 1.2240 0.5096
-0.1844 1.2183 0.5097
-0.2281 1.2110 0.5097
-0.2715 1.2022 0.5097
-0.3146 1.1919 0.5098
-0.3573 1.1801 0.5098
-0.3996 1.1667 0.5099
-0.4413 1.1519 0.5099
-0.4826 1.1356 0.5100
-0.5232 1.1179 0.5101
-0.5632 1.0987 0.5102
-0.6025 1.0781 0.5102
-0.6411 1.0561 0.5103
-0.6789 1.0328 0.5104
-0.7158 1.0082 0.5105
-0.7519 0.9822 0.5106
-0.7871 0.9550 0.5107
-0.8212 0.9265 0.5108
-2.8435 2.9848 1.7005
-2.9497 2.8815 1.7005
-3.0521 2.7745 1.7005
-3.1507 2.6639 1.7005
-3.2453 2.5497 1.7005
-3.3357 2.4323 1.7005
-3.4220 2.3116 1.7005
-3.5039 2.1879 1.7005
-3.5814 2.0614 1.7005
-3.6543 1.9321 1.7005
-3.7226 1.8003 1.7005
-3.7861 1.6660 1.7005
-3.8448 1.5296 1.7005
-3.8986 1.3911 1.7005
-3.9475 1.2507 1.7005
-3.9913 1.1086 1.7005
-4.0300 0.9649 1.7005
-4.0635 0.8200 1.7005
-4.0919 0.6739 1.7005
-4.1150 0.5268 1.7005
-4.1328 0.3789 1.7005
-4.1453 0.2305 1.7005
-4.1525 0.0816 1.7005
-4.1544 -0.0675 1.7005
-4.1509 -0.2165 1.7005
-4.1420 -0.3655 1.7005
-4.1278 -0.5140 1.7005
-4.1083 -0.6620 1.7005
-4.0834 -0.8092 1.7005
-4.0533 -0.9555 1.7005
-4.0179 -1.1007 1.7005
-3.9773 -1.2446 1.7005
-3.9316 -1.3869 1.7005
-3.8807 -1.5276 1.7005
-3.8248 -1.6663 1.7005
-3.7639 -1.8030 1.7005
-3.6982 -1.9375 1.7005
-3.6276 -2.0696 1.7005
-3.5522 -2.1990 1.7005
-3.4722 -2.3257 1.7005
-3.3877 -2.4495 1.7005
-3.2988 -2.5701 1.7005
-3.2055 -2.6875 1.7005
-3.1080 -2.8015 1.7005
-3.0065 -2.9119 1.7005
-2.9010 -3.0187 1.7005
-2.7917 -3.1215 1.7005
-2.6787 -3.2204 1.7005
-2.5622 -3.3151 1.7005
-2.4423 -3.4056 1.7005
-2.3192 -3.4917 1.7005
-2.1931 -3.5734 1.7005
-2.0640 -3.6504 1.7005
-1.9323 -3.7227 1.7005
-1.7980 -3.7902 1.7005
-1.6613 -3.8528 1.7005
-1.5224 -3.9105 1.7005
-1.3815 -3.9630 1.7005
-1.2388 -4.0105 1.7005
-1.0945 -4.0528 1.7005
-0.9487 -4.0898 1.7005
-0.8016 -4.1215 1.7005
-0.6535 -4.1479 1.7005
-0.5045 -4.1689 1.7005
-0.3548 -4.1844 1.7005
-0.2047 -4.1946 1.7005
-0.0543 -4.1993 1.7005
0.0961 -4.1986 1.7005
0.2465 -4.1924 1.7005
2.5928 -2.6291 1.5974
2.6847 -2.5338 1.5974
2.7730 -2.4353 1.5974
2.8577 -2.3337 1.5974
2.9387 -2.2292 1.5974
3.0158 -2.1218 1.5974
3.0890 -2.0117 1.5974
3.1581 -1.8991 1.5974
3.2232 -1.7841 1.5974
3.2840 -1.6669 1.5974
3.3405 -1.5475 1.5974
3.3927 -1.4263 1.5974
3.4405 -1.3033 1.5974
3.4838 -1.1787 1.5974
3.5226 -1.0526 1.5974
3.5569 -0.9253 1.5974
3.5865 -0.7968 1.5974
3.6115 -0.6674 1.5974
3.6318 -0.5373 1.5974
3.6474 -0.4065 1.5974
3.6583 -0.2753 1.5974
2.7892 -0.1095 1.2159
2.7972 -0.0094 1.2189
2.8052 0.0913 1.2234
3.6547 0.2505 1.5974
3.6420 0.3813 1.5974
3.6247 0.5116 1.5974
3.6026 0.6411 1.5974
3.5760 0.7697 1.5974
3.5448 0.8972 1.5974
3.5091 1.0235 1.5974
3.4689 1.1484 1.5974
3.4242 1.2717 1.5974
3.3752 1.3934 1.5974
3.3219 1.5131 1.5974
3.2643 1.6309 1.5974
3.2026 1.7465 1.5974
3.1369 1.8597 1.5974
3.0671 1.9706 1.5974
2.9934 2.0788 1.5974
2.9160 2.1843 1.5974
2.8348 2.2869 1.5974
2.7501 2.3866 1.5974
2.6998 2.5186 1.6202
0.8223 0.8243 0.5111
0.7918 0.8529 0.5110
0.7603 0.8804 0.5109
0.7279 0.9068 0.5108
0.6946 0.9320 0.5107
0.6604 0.9559 0.5106
0.6254 0.9787 0.5105
0.5896 1.0002 0.5104
0.5531 1.0204 0.5103
0.5159 1.0393 0.5103
0.4781 1.0568 0.5102
0.4397 1.0730 0.5102
0.4008 1.0879 0.5101
0.3613 1.1013 0.5101
0.3215 1.1134 0.5100
0.2812 1.1240 0.5100
0.2406 1.1332 0.5099
0.1997 1.1410 0.5099
0.1585 1.1473 0.5099
0.1172 1.1522 0.5099
0.0757 1.1556 0.5099
0.0341 1.1576 0.5099
-0.0075 1.1580 0.5099
-0.0491 1.1570 0.5099
-0.0907 1.1546 0.5099
-0.1321 1.1506 0.5099
-0.1734 1.1453 0.5099
-0.2145 1.1384 0.5100
-0.2553 1.1301 0.5100
-0.2958 1.1204 0.5100
-0.3359 1.1093 0.5101
-0.3756 1.0967 0.5101
-0.4149 1.0827 0.5102
-0.4536 1.0674 0.5103
-0.4918 1.0507 0.5103
-0.5294 1.0327 0.5104
-0.5664 1.0133 0.5105
-0.6026 0.9926 0.5106
-0.6381 0.9707 0.5107
-0.6729 0.9475 0.5107
-0.7067 0.9231 0.5108
-0.7398 0.8975 0.5109
-0.7719 0.8707 0.5110
-0.8030 0.8428 0.5112
-0.8332 0.8138 0.5113
-2.8673 2.6061 1.7005
-2.9599 2.5021 1.7005
-3.0487 2.3949 1.7005
-3.1336 2.2845 1.7005
-3.2146 2.1711 1.7005
-3.2915 2.0549 1.7005
-3.3642 1.9360 1.7005
-3.4327 1.8145 1.7005
-3.4967 1.6907 1.7005
-3.5563 1.5645 1.7005
-3.6114 1.4363 1.7005
-3.6619 1.3062 1.7005
-3.7077 1.1743 1.7005
-3.7488 1.0408 1.7005
-3.7851 0.9059 1.7005
-3.8165 0.7698 1.7005
-3.8431 0.6325 1.7005
-3.8647 0.4944 1.7005
-3.8813 0.3555 1.7005
-3.8930 0.2161 1.7005
-3.8997 0.0763 1.7005
-3.9014 -0.0637 1.7005
-3.8980 -0.2037 1.7005
-3.8896 -0.3436 1.7005
-3.8762 -0.4831 1.7005
-3.8578 -0.6220 1.7005
-3.8344 -0.7603 1.7005
-3.8060 -0.8976 1.7005
-3.7727 -1.0339 1.7005
-3.7345 -1.1690 1.7005
-3.6915 -1.3026 1.7005
-3.6437 -1.4346 1.7005
-3.5911 -1.5649 1.7005
-3.5339 -1.6932 1.7005
-3.4721 -1.8194 1.7005
-3.4057 -1.9434 1.7005
-3.3349 -2.0649 1.7005
-3.2598 -2.1838 1.7005
-3.1804 -2.2999 1.7005
-3.0968 -2.4132 1.7005
-3.0092 -2.5234 1.7005
-2.9176 -2.6303 1.7005
-2.8223 -2.7339 1.7005
-2.7232 -2.8341 1.7005
-2.6205 -2.9306 1.7005
-2.5145 -3.0234 1.7005
-2.4051 -3.1123 1.7005
-2.2925 -3.1972 1.7005
-2.1770 -3.2779 1.7005
-2.0585 -3.3545 1.7005
-1.9374 -3.4268 1.7005
-1.8137 -3.4946 1.7005
-1.6876 -3.5580 1.7005
-1.5593 -3.6167 1.7005
-1.4290 -3.6708 1.7005
-1.2967 -3.7201 1.7005
-1.1627 -3.7646 1.7005
-1.0273 -3.8043 1.7005
-0.8904 -3.8390 1.7005
-0.7524 -3.8688 1.7005
-0.6133 -3.8935 1.7005
-0.4735 -3.9132 1.7005
-0.3330 -3.9278 1.7005
-0.1921 -3.9373 1.7005
-0.0510 -3.9418 1.7005
0.0903 -3.9411 1.7005
0.2314 -3.9353 1.7005
2.4403 -2.4748 1.5974
2.5268 -2.3852 1.5974
2.6100 -2.2925 1.5974
2.6897 -2.1969 1.5974
2.7660 -2.0985 1.5974
2.8386 -1.9975 1.5974
2.9075 -1.8939 1.5974
2.9727 -1.7879 1.5974
3.0339 -1.6797 1.5974
3.0912 -1.5694 1.5974
3.1445 -1.4571 1.5974
3.1937 -1.3430 1.5974
3.2387 -1.2272 1.5974
3.2796 -1.1099 1.5974
3.3162 -0.9913 1.5974
3.3484 -0.8714 1.5974
3.3764 -0.7505 1.5974
3.4000 -0.6287 1.5974
3.4191 -0.5062 1.5974
3.4339 -0.3831 1.5974
3.4442 -0.2596 1.5974
2.7861 -0.1096 1.2899
2.7940 -0.0096 1.2931
2.8020 0.0909 1.2979
3.4411 0.2355 1.5974
3.4292 0.3587 1.5974
3.4129 0.4813 1.5974
3.3923 0.6033 1.5974
3.3672 0.7244 1.5974
3.3379 0.8445 1.5974
3.3043 0.9634 1.5974
3.2665 1.0811 1.5974
3.2245 1.1972 1.5974
3.1784 1.3118 1.5974
3.1283 1.4246 1.5974
3.0741 1.5355 1.5974
3.0161 1.6444 1.5974
2.9541 1.7511 1.5974
2.8885 1.8555 1.5974
2.8192 1.9574 1.5974
2.7462 2.0568 1.5974
2.6793 2.1612 1.6031
0.8293 0.7196 0.5115
0.8026 0.7486 0.5114
0.7748 0.7766 0.5113
0.7461 0.8035 0.5112
0.7164 0.8295 0.5111
0.6859 0.8543 0.5110
0.6545 0.8781 0.5109
0.6223 0.9007 0.5108
0.5893 0.9221 0.5107
0.5556 0.9424 0.5106
0.5212 0.9614 0.5106
0.4862 0.9793 0.5105
0.4506 0.9958 0.5104
0.4144 1.0111 0.5104
0.3777 1.0251 0.5103
0.3405 1.0378 0.5103
0.3030 1.0492 0.5103
0.2650 1.0592 0.5102
0.2267 1.0679 0.5102
0.1882 1.0752 0.5102
0.1494 1.0812 0.5101
0.1104 1.0858 0.5101
0.0713 1.0890 0.5101
0.0322 1.0908 0.5101
-0.0071 1.0913 0.5101
-0.0463 1.0904 0.5101
-0.0854 1.0880 0.5101
-0.1245 1.0843 0.5102
-0.1634 1.0792 0.5102
-0.2021 1.0728 0.5102
-0.2406 1.0650 0.5102
-0.2787 1.0558 0.5103
-0.3166 1.0453 0.5103
-0.3540 1.0334 0.5104
-0.3910 1.0203 0.5104
-0.4275 1.0058 0.5105
-0.4635 0.9901 0.5106
-0.4989 0.9730 0.5106
-0.5337 0.9548 0.5107
-0.5679 0.9353 0.5108
-0.6013 0.9146 0.5109
-0.6340 0.8927 0.5110
-0.6659 0.8697 0.5110
-0.6970 0.8456 0.5111
-0.7273 0.8203 0.5112
-0.7566 0.7940 0.5113
-0.7850 0.7667 0.5115
-0.8124 0.7383 0.5116
-0.8388 0.7090 0.5117
-2.8713 2.2552 1.7005
-2.9513 2.1512 1.7005
-3.0275 2.0444 1.7005
-3.0999 1.9349 1.7005
-3.1683 1.8229 1.7005
-3.2327 1.7085 1.7005
-3.2930 1.5918 1.7005
-3.3491 1.4730 1.7005
-3.4009 1.3522 1.7005
-3.4484 1.2297 1.7005
-3.4914 1.1054 1.7005
-3.5301 0.9797 1.7005
-3.5642 0.8527 1.7005
-3.5937 0.7244 1.7005
-3.6187 0.5952 1.7005
-3.6389 0.4651 1.7005
-3.6546 0.3343 1.7005
-3.6655 0.2031 1.7005
-3.6717 0.0714 1.7005
-3.6732 -0.0604 1.7005
-3.6700 -0.1922 1.7005
-3.6620 -0.3238 1.7005
-3.6493 -0.4552 1.7005
-3.6319 -0.5860 1.7005
-3.6098 -0.7161 1.7005
-3.5830 -0.8454 1.7005
-3.5516 -0.9737 1.7005
-3.5156 -1.1008 1.7005
-3.4751 -1.2266 1.7005
-3.4300 -1.3509 1.7005
-3.3805 -1.4735 1.7005
-3.3265 -1.5942 1.7005
-3.2683 -1.7130 1.7005
-3.2058 -1.8297 1.7005
-3.1391 -1.9440 1.7005
-3.0683 -2.0559 1.7005
-2.9935 -2.1652 1.7005
-2.9148 -2.2717 1.7005
-2.8323 -2.3754 1.7005
-2.7461 -2.4761 1.7005
-2.6563 -2.5736 1.7005
-2.5630 -2.6678 1.7005
-2.4664 -2.7586 1.7005
-2.3665 -2.8458 1.7005
-2.2635 -2.9295 1.7005
-2.1576 -3.0093 1.7005
-2.0488 -3.0854 1.7005
-1.9373 -3.1574 1.7005
-1.8233 -3.2254 1.7005
-1.7069 -3.2892 1.7005
-1.5882 -3.3488 1.7005
-1.4674 -3.4040 1.7005
-1.3448 -3.4549 1.7005
-1.2203 -3.5013 1.7005
-1.0942 -3.5432 1.7005
-0.9667 -3.5804 1.7005
-0.8379 -3.6131 1.7005
-0.7080 -3.6411 1.7005
-0.5772 -3.6644 1.7005
-0.4456 -3.6829 1.7005
-0.3134 -3.6966 1.7005
-0.1808 -3.7056 1.7005
-0.0480 -3.7097 1.7005
0.0849 -3.7091 1.7005
0.2177 -3.7036 1.7005
2.3134 -2.3465 1.6053
2.3837 -2.2504 1.5974
2.4622 -2.1630 1.5974
2.5404 -2.0753 1.5993
2.6094 -1.9800 1.5974
2.6779 -1.8847 1.5974
2.7430 -1.7871 1.5974
2.8045 -1.6871 1.5974
2.8623 -1.5850 1.5974
2.9164 -1.4810 1.5974
2.9667 -1.3750 1.5974
3.0132 -1.2674 1.5974
3.0557 -1.1582 1.5974
3.0943 -1.0475 1.5974
3.1289 -0.9356 1.5974
3.1594 -0.8225 1.5974
3.1858 -0.7085 1.5974
3.2081 -0.5936 1.5974
3.2262 -0.4780 1.5974
3.2402 -0.3618 1.5974
3.2500 -0.2453 1.5974
2.7828 -0.1098 1.3654
2.7908 -0.0099 1.3687
2.7987 0.0905 1.3738
3.2473 0.2219 1.5974
3.2361 0.3381 1.5974
3.2208 0.4539 1.5974
3.2014 0.5690 1.5974
3.1778 0.6833 1.5974
3.1502 0.7967 1.5974
3.1186 0.9089 1.5974
3.0829 1.0200 1.5974
3.0433 1.1296 1.5974
2.9999 1.2377 1.5974
2.9525 1.3442 1.5974
2.9015 1.4489 1.5974
2.8467 1.5517 1.5974
2.7883 1.6524 1.5974
2.7264 1.7510 1.5974
2.6610 1.8473 1.5974
0.8306 0.6220 0.5119
0.8074 0.6511 0.5117
0.7831 0.6794 0.5116
0.7578 0.7067 0.5115
0.7316 0.7332 0.5114
0.7045 0.7587 0.5113
0.6765 0.7832 0.5112
0.6477 0.8067 0.5112
0.6181 0.8291 0.5111
0.5877 0.8505 0.5110
0.5565 0.8707 0.5109
0.5247 0.8899 0.5109
0.4922 0.9079 0.5108
0.4592 0.9247 0.5107
0.4255 0.9404 0.5107
0.3914 0.9549 0.5106
0.3567 0.9681 0.5106
0.3216 0.9801 0.5105
0.2861 0.9908 0.5105
0.2503 1.0003 0.5105
0.2142 1.0085 0.5104
0.1778 1.0155 0.5104
0.1411 1.0211 0.5104
0.1043 1.0254 0.5104
0.0674 1.0285 0.5104
0.0304 1.0302 0.5104
-0.0067 1.0306 0.5104
-0.0437 1.0297 0.5104
-0.0807 1.0275 0.5104
-0.1176 1.0240 0.5104
-0.1543 1.0192 0.5104
-0.1909 1.0131 0.5104
-0.2272 1.0058 0.5105
-0.2633 0.9971 0.5105
-0.2990 0.9871 0.5106
-0.3343 0.9759 0.5106
-0.3693 0.9635 0.5107
-0.4037 0.9498 0.5107
-0.4377 0.9349 0.5108
-0.4712 0.9188 0.5108
-0.5040 0.9016 0.5109
-0.5363 0.8832 0.5110
-0.5679 0.8636 0.5111
-0.5987 0.8429 0.5111
-0.6289 0.8212 0.5112
-0.6582 0.7984 0.5113
-0.6868 0.7745 0.5114
-0.7144 0.7496 0.5115
-0.7412 0.7238 0.5116
-0.7671 0.6970 0.5117
-0.7920 0.6693 0.5118
-0.8159 0.6408 0.5119
-0.8388 0.6113 0.5121
-2.8576 1.9294 1.7005
-2.9259 1.8260 1.7005
-2.9904 1.7202 1.7005
-3.0512 1.6122 1.7005
-3.1081 1.5020 1.7005
-3.1609 1.3899 1.7005
-3.2098 1.2759 1.7005
-3.2546 1.1602 1.7005
-3.2952 1.0430 1.7005
-3.3316 0.9243 1.7005
-3.3637 0.8044 1.7005
-3.3915 0.6833 1.7005
-3.4150 0.5614 1.7005
-3.4341 0.4386 1.7005
-3.4488 0.3152 1.7005
-3.4591 0.1913 1.7005
-3.4649 0.0670 1.7005
-3.4662 -0.0573 1.7005
-3.4631 -0.1817 1.7005
-3.4555 -0.3059 1.7005
-3.4435 -0.4299 1.7005
-3.4270 -0.5533 1.7005
-3.4061 -0.6761 1.7005
-3.3808 -0.7981 1.7005
-3.3511 -0.9191 1.7005
-3.3171 -1.0390 1.7005
-3.2788 -1.1577 1.7005
-3.2362 -1.2749 1.7005
-3.1894 -1.3906 1.7005
-3.1385 -1.5045 1.7005
-3.0835 -1.6165 1.7005
-3.0245 -1.7266 1.7005
-2.9615 -1.8344 1.7005
-2.8947 -1.9399 1.7005
-2.8241 -2.0430 1.7005
-2.7498 -2.1435 1.7005
-2.6720 -2.2413 1.7005
-2.5906 -2.3362 1.7005
-2.5058 -2.4281 1.7005
-2.4178 -2.5170 1.7005
-2.3266 -2.6026 1.7005
-2.2324 -2.6849 1.7005
-2.1352 -2.7638 1.7005
-2.0353 -2.8391 1.7005
-1.9326 -2.9108 1.7005
-1.8274 -2.9787 1.7005
-1.7199 -3.0428 1.7005
-1.6101 -3.1030 1.7005
-1.4981 -3.1591 1.7005
