ply
format ascii 1.0
element vertex 2107
property float32 x
property float32 y
property float32 z
end_header
-6.9164 -13.7905 -0.1386
-7.1834 -15.7020 -0.1698
-6.7274 -16.2165 -0.1882
-8.0225 -21.4812 -0.2670
-7.1878 -21.5735 -0.2866
-6.4251 -21.8660 -0.3099
-5.7132 -22.3765 -0.3378
-4.9992 -22.9845 -0.3690
-4.4260 -24.5526 -0.4185
-2.7881 -19.4273 -0.3512
-3.7274 -34.7927 -0.6663
-2.5001 -35.1971 -0.7133
-1.4024 -39.9395 -0.8557
0.0316 -44.2621 -1.0017
1.7388 -47.5824 -1.1368
5.2221 -48.0947 -1.2781
42.2612 -20.8915 -2.9626
41.6119 -18.7441 -2.9172
36.9702 -15.0822 -2.5938
36.5128 -13.3885 -2.5657
37.6303 -12.2854 -2.6502
35.7654 -10.2718 -2.5263
36.4169 -9.0576 -2.5817
34.6085 -7.2996 -2.4640
38.0331 -6.6057 -2.7212
37.6170 -5.1501 -2.7064
37.2171 -3.7399 -2.6942
36.8316 -2.3693 -2.6845
36.4588 -1.0330 -2.6771
36.0973 0.2740 -2.6719
35.7463 1.5563 -2.6689
35.4041 2.8182 -2.6680
35.0694 4.0636 -2.6691
34.7412 5.2962 -2.6723
1.5642 0.6010 -0.1301
1.5471 0.6592 -0.1308
21.6839 12.1462 -1.9323
34.9318 31.0221 -3.5696
32.3641 30.8911 -3.4009
29.3173 30.0681 -3.1738
26.6195 29.3395 -2.9747
24.2096 28.6897 -2.7988
22.0361 28.1026 -2.6420
20.1186 27.6470 -2.5083
18.3565 27.2296 -2.3872
16.3682 26.2682 -2.2280
15.0571 26.2165 -2.1536
13.7005 25.9709 -2.0684
12.2878 25.4685 -1.9685
11.0904 25.2659 -1.8968
9.8435 24.8083 -1.8105
8.7663 24.6382 -1.7493
7.6487 24.2155 -1.6738
6.6317 23.9571 -1.6133
6.1448 25.7596 -1.6910
5.5892 27.8168 -1.7811
3.6094 22.0282 -1.3766
2.7645 21.7309 -1.3261
1.9604 21.5632 -1.2855
1.1722 21.3698 -1.2452
0.4007 21.1615 -1.2058
-0.3548 20.9574 -1.1683
-1.0967 20.7570 -1.1325
-1.8272 20.5597 -1.0983
-2.5485 20.3649 -1.0656
-3.2624 20.1720 -1.0342
-13.8294 9.7527 0.0249
-14.1057 9.2092 0.0448
-13.8476 8.3489 0.0619
-13.6771 7.5918 0.0777
-13.7591 7.0047 0.0938
-13.7499 6.3905 0.1085
-13.6964 5.7783 0.1220
-14.5038 5.5156 0.1431
-14.1488 4.8078 0.1525
-14.1155 4.2387 0.1645
-14.2403 3.7255 0.1777
-14.2675 3.1911 0.1893
-14.3746 2.6782 0.2016
-14.3944 2.1513 0.2123
-14.6324 1.6533 0.2259
-13.2526 1.0181 0.2134
-12.6350 0.5161 0.2116
-12.3926 0.0617 0.2152
-12.3741 -0.3821 0.2222
-12.4662 -0.8330 0.2311
-12.4612 -1.2827 0.2379
-12.5035 -1.7420 0.2454
-11.4782 -2.0209 0.2313
-11.2508 -2.3996 0.2324
-11.2598 -2.8270 0.2381
-10.8588 -3.1442 0.2348
-10.3230 -3.3946 0.2281
-10.1067 -3.7300 0.2279
-9.9121 -4.0676 0.2278
-9.8760 -4.4729 0.2313
-9.9681 -4.9526 0.2376
-10.0574 -5.4550 0.2439
-11.9140 -7.0261 0.2937
-10.5871 -6.7664 0.2652
-10.2491 -7.0804 0.2607
-9.9005 -7.3775 0.2556
-9.6789 -7.7672 0.2534
-10.0910 -8.7106 0.2679
-9.9424 -9.2246 0.2675
-9.7575 -9.7267 0.2660
-9.6321 -10.3160 0.2659
-9.4842 -10.9171 0.2651
-9.0782 -11.2394 0.2568
-6.1254 -8.1659 0.1753
-8.6490 -12.4349 0.2504
-7.4061 -11.5068 0.2168
-6.5525 -11.0300 0.1939
-6.5169 -11.9235 0.1949
-7.5761 -15.1255 0.2289
-7.0397 -15.4102 0.2148
-6.6817 -16.1323 0.2059
-6.8843 -18.4670 0.2142
-6.6931 -20.1301 0.2102
-6.3650 -21.7123 0.2017
-5.6908 -22.3498 0.1819
-4.9226 -22.7065 0.1586
-4.1492 -23.1089 0.1347
-4.0468 -28.3414 0.1322
-3.1402 -29.5146 0.1030
-2.4130 -34.3329 0.0790
-1.3700 -39.8798 0.0439
0.0620 -41.6857 -0.0051
1.7296 -46.3310 -0.0632
3.0525 -41.6604 -0.1097
5.2616 -48.0954 -0.1890
5.6211 -14.9455 -0.2114
40.8481 -22.0134 -1.8176
40.2515 -19.8638 -1.8077
37.1011 -16.6826 -1.6819
36.9618 -15.0510 -1.6915
36.5050 -13.3599 -1.6868
36.1975 -11.7935 -1.6891
36.4447 -10.4441 -1.7176
36.4106 -9.0346 -1.7335
35.6459 -7.4986 -1.7147
36.0872 -6.2489 -1.7542
36.1649 -4.9335 -1.7770
35.8012 -3.5812 -1.7785
35.4484 -2.2651 -1.7807
35.1054 -0.9805 -1.7838
34.7708 0.2770 -1.7876
34.4435 1.5115 -1.7922
34.1225 2.7271 -1.7975
33.8068 3.9271 -1.8035
33.4958 5.1152 -1.8103
31.3166 10.7631 -1.8175
1.5639 0.6011 -0.0922
1.5469 0.6592 -0.0927
21.6822 12.1439 -1.3699
34.9552 31.0285 -2.5142
32.5643 31.0660 -2.4033
29.5004 30.2384 -2.2374
26.6564 29.3613 -2.0811
24.2317 28.6956 -1.9511
22.0578 28.1085 -1.8356
20.1929 27.7256 -1.7408
18.3773 27.2352 -1.6457
16.3882 26.2736 -1.5292
15.0770 26.2218 -1.4711
13.6594 25.8611 -1.3994
12.2965 25.4520 -1.3291
11.0207 25.0692 -1.2639
9.8621 24.8133 -1.2082
8.7371 24.5095 -1.1529
7.6669 24.2204 -1.1008
6.6399 23.9266 -1.0509
6.1544 25.7240 -1.0918
5.6005 27.7748 -1.1392
3.5738 21.7150 -0.8605
2.7499 21.4925 -0.8227
1.9502 21.2765 -0.7865
1.1714 21.0662 -0.7517
0.4110 20.8608 -0.7181
-0.3336 20.6596 -0.6857
-1.0648 20.4621 -0.6543
-1.7848 20.2677 -0.6239
-2.4956 20.0757 -0.5942
-3.1993 19.8856 -0.5654
-13.7806 9.7339 0.4047
-13.6615 8.9336 0.4109
-14.1560 8.5489 0.4356
-13.2918 7.3902 0.4179
-14.4584 7.3733 0.4641
-13.6361 6.3487 0.4464
-13.4768 5.6960 0.4496
-13.4589 5.1279 0.4573
-13.5786 4.6232 0.4695
-13.6747 4.1151 0.4810
-13.7334 3.6012 0.4912
-13.9659 3.1316 0.5078
-14.0052 2.6168 0.5174
-13.8184 2.0722 0.5186
-13.3382 1.5134 0.5084
-12.7268 0.9833 0.4926
-12.4271 0.5127 0.4884
-12.3063 0.0660 0.4910
-12.2027 -0.3725 0.4943
-12.3044 -0.8182 0.5060
-12.3335 -1.2658 0.5149
-12.3063 -1.7111 0.5216
-11.2797 -1.9832 0.4855
-11.0896 -2.3628 0.4847
-7.6183 -1.9113 0.3382
-10.5418 -3.0507 0.4754
-10.2272 -3.3618 0.4686
-10.0240 -3.6985 0.4669
-9.8989 -4.0615 0.4688
-9.8585 -4.4647 0.4749
-9.8164 -4.8773 0.4811
-9.7433 -5.2851 0.4862
-11.6093 -6.8474 0.5901
-10.5850 -6.7666 0.5484
-10.2869 -7.1085 0.5435
-10.0167 -7.4666 0.5402
-9.7474 -7.8252 0.5371
-10.1059 -8.7273 0.5694
-9.9054 -9.1948 0.5713
-9.7820 -9.7566 0.5782
-9.7261 -10.4231 0.5899
-9.6679 -11.1361 0.6027
-9.6198 -11.9188 0.6174
-6.1218 -8.1677 0.4053
-8.2161 -11.8230 0.5624
-7.4554 -11.5947 0.5290
-6.8868 -11.6052 0.5080
-6.5109 -11.9266 0.5010
-7.4201 -14.8334 0.5981
-6.9628 -15.2640 0.5907
-6.6397 -16.0568 0.5963
-6.4608 -17.3623 0.6186
-6.4220 -19.3542 0.6613
-6.3421 -21.6856 0.7102
-5.6833 -22.3820 0.7021
-4.9145 -22.7434 0.6828
-4.1524 -23.2190 0.6664
-3.9390 -27.7277 0.7599
-3.0832 -29.1806 0.7625
-2.3209 -33.3773 0.8301
-1.2835 -38.2074 0.9026
0.0917 -40.5686 0.9083
1.7521 -45.9657 0.9727
5.6236 -14.9133 0.1476
40.7652 -23.8537 -0.7328
40.1521 -21.6020 -0.7588
39.5792 -19.4985 -0.7828
37.4350 -16.8030 -0.7719
37.2394 -15.1362 -0.7980
36.7798 -13.4346 -0.8167
36.0637 -11.7260 -0.8278
36.4384 -10.4195 -0.8628
36.0285 -8.9186 -0.8784
35.6403 -7.4778 -0.8932
35.9228 -6.2018 -0.9242
35.5862 -4.8372 -0.9387
35.2267 -3.5076 -0.9516
34.8768 -2.2136 -0.9639
34.5353 -0.9508 -0.9757
34.2011 0.2852 -0.9869
33.8731 1.4982 -0.9977
33.5502 2.6920 -1.0081
33.2315 3.8700 -1.0182
32.9163 5.0354 -1.0278
34.2081 6.4962 -1.0882
31.2989 10.7608 -1.0698
1.5636 0.6011 -0.0544
1.5467 0.6592 -0.0548
21.6804 12.1415 -0.8091
34.9785 31.0347 -1.4604
32.4335 30.9251 -1.3821
29.2718 29.9868 -1.2741
26.6647 29.3517 -1.1865
24.2538 28.7016 -1.1045
22.0794 28.1143 -1.0302
20.1044 27.5808 -0.9625
18.0476 26.7218 -0.8880
16.4082 26.2790 -0.8314
14.8901 25.8679 -0.7787
13.4780 25.4865 -0.7295
12.1574 25.1298 -0.6833
10.9164 24.7946 -0.6397
9.7454 24.4783 -0.5983
8.6355 24.1785 -0.5589
7.5797 23.8934 -0.5213
6.6481 23.8964 -0.4908
6.1640 25.6886 -0.4953
5.6118 27.7330 -0.5001
3.6426 22.0371 -0.3702
2.8067 21.8113 -0.3396
1.9951 21.5921 -0.3098
1.2049 21.3787 -0.2806
0.4333 21.1703 -0.2519
-0.3222 20.9662 -0.2237
-1.0642 20.7658 -0.1958
-1.7947 20.5685 -0.1682
-2.5159 20.3737 -0.1408
-3.2178 20.1062 -0.1132
-13.5818 9.6089 0.7740
-13.5660 8.8855 0.7738
-13.9389 8.4315 0.7963
-14.6433 8.1552 0.8385
-14.1932 7.2504 0.8151
-14.4781 6.7526 0.8343
-14.3929 6.0943 0.8327
-13.2580 5.0610 0.7706
-13.3143 4.5423 0.7778
-13.4129 4.0449 0.7880
-13.4525 3.5356 0.7951
-13.4387 3.0210 0.7995
-13.5274 2.5347 0.8104
-13.4546 2.0244 0.8121
-13.0587 1.4878 0.7944
-12.5625 0.9761 0.7707
-12.3211 0.5134 0.7626
-12.2233 0.0702 0.7637
-12.1939 -0.3679 0.7694
-12.2220 -0.8087 0.7792
-12.2168 -1.2502 0.7874
-12.2136 -1.6949 0.7961
-11.1226 -1.9528 0.7337
-11.0467 -2.3512 0.7379
-7.6135 -1.9086 0.5152
-10.3780 -3.0016 0.7120
-10.1323 -3.3292 0.7052
-9.9898 -3.6849 0.7058
-9.8715 -4.0496 0.7085
-9.7765 -4.4272 0.7133
-9.7086 -4.8238 0.7207
-9.6390 -5.2290 0.7287
-9.7999 -5.7811 0.7552
-10.6351 -6.8000 0.8361
-10.3898 -7.1816 0.8343
-10.1671 -7.5812 0.8349
-9.9406 -7.9834 0.8357
-10.1253 -8.7480 0.8728
-9.9503 -9.2412 0.8807
-9.8691 -9.8489 0.8983
-9.8306 -10.5416 0.9220
-9.7846 -11.2782 0.9474
-9.7777 -12.1235 0.9795
-6.1181 -8.1695 0.6357
-8.6299 -12.4296 0.9327
-7.5919 -11.8186 0.8561
-7.3038 -12.3212 0.8625
-7.7905 -14.2876 0.9673
-7.2803 -14.5730 0.9550
-6.8989 -15.1458 0.9615
-6.6239 -16.0445 0.9873
-6.3239 -17.0253 1.0162
-6.5241 -19.7025 1.1412
-6.3794 -21.8647 1.2297
-5.6635 -22.3654 1.2218
-4.9022 -22.7609 1.2082
-4.1580 -23.3443 1.2045
-3.8375 -27.1522 1.3622
-3.0499 -29.0684 1.4183
-1.5239 -22.1538 1.0514
-0.8119 -24.7294 1.1418
0.1071 -35.2971 1.5857
1.4114 -36.2763 1.5857
2.8383 -37.9062 1.6122
4.5318 -40.8130 1.6889
6.1871 -41.9505 1.6889
7.9488 -43.1254 1.6889
9.8279 -44.3418 1.6889
11.8367 -45.6037 1.6889
13.1356 -44.0523 1.5858
15.3076 -45.3368 1.5858
5.6308 -14.8937 0.5060
26.5506 -40.8435 1.1479
27.6803 -39.4163 1.0695
28.9576 -38.2457 1.0005
30.1641 -37.0066 0.9317
31.8152 -36.2963 0.8777
33.7581 -35.8380 0.8305
28.2813 -24.2012 0.4844
29.0061 -23.0745 0.4360
30.5424 -22.5590 0.4001
40.7525 -23.8070 0.3302
40.1405 -21.5596 0.2674
39.7616 -19.5547 0.2113
37.4258 -16.7691 0.1517
37.2310 -15.1049 0.1070
36.7721 -13.4059 0.0649
36.0688 -11.7038 0.0260
36.4317 -10.3948 -0.0094
36.6861 -9.0598 -0.0434
35.6347 -7.4569 -0.0732
35.9650 -6.1904 -0.1034
35.6175 -4.8241 -0.1300
35.2584 -3.4946 -0.1544
35.3243 -2.2269 -0.1790
34.9792 -0.9490 -0.2000
34.2340 0.2982 -0.2167
33.9063 1.5114 -0.2342
33.9834 2.7376 -0.2532
33.2656 3.8836 -0.2647
32.9507 5.0494 -0.2779
34.6693 6.5920 -0.3079
31.3314 10.7757 -0.3244
1.5634 0.6012 -0.0166
1.5466 0.6592 -0.0169
21.6785 12.1391 -0.2492
35.4938 31.4774 -0.4128
32.2246 30.7100 -0.3700
29.3864 30.0868 -0.3313
26.6873 29.3578 -0.2934
24.2759 28.7076 -0.2581
22.1010 28.1201 -0.2251
20.1256 27.5866 -0.1938
18.3190 27.0986 -0.1641
16.6565 26.6495 -0.1355
15.1168 26.2326 -0.1080
13.6848 25.8458 -0.0814
12.3454 25.4841 -0.0554
11.0870 25.1441 -0.0301
9.8994 24.8234 -0.0051
8.7633 24.4898 0.0194
7.6761 24.1449 0.0435
6.6807 23.9540 0.0678
6.1735 25.6533 0.0994
5.6231 27.6913 0.1367
3.6593 22.0416 0.1327
2.8232 21.8158 0.1555
2.0115 21.5966 0.1784
1.2212 21.3831 0.2014
0.4496 21.1747 0.2248
-0.3060 20.9706 0.2483
-1.0479 20.7702 0.2722
-1.7784 20.5729 0.2965
-2.4996 20.3781 0.3212
-3.2093 20.1597 0.3460
-13.4649 9.5415 1.1404
-13.4985 8.8556 1.1350
-13.9294 8.4396 1.1641
-14.5126 8.0959 1.2068
-14.2707 7.3024 1.1821
-14.1519 6.6120 1.1688
-14.5563 6.1746 1.1999
-13.2559 5.0697 1.0916
-13.2300 4.5225 1.0892
-13.2874 4.0156 1.0947
-13.2384 3.4873 1.0922
-13.2090 2.9768 1.0922
-13.2149 2.4833 1.0960
-13.2815 2.0050 1.1057
-12.7991 1.4643 1.0703
-12.3837 0.9677 1.0409
-12.1947 0.5132 1.0311
-12.2418 0.0750 1.0420
-12.2221 -0.3644 1.0480
-12.2317 -0.8053 1.0574
-12.2456 -1.2494 1.0680
-12.1253 -1.6793 1.0676
-11.0984 -1.9458 0.9873
-11.0052 -2.3400 0.9899
-7.6087 -1.9060 0.6926
-10.2308 -2.9574 0.9431
-10.0733 -3.3085 0.9413
-9.9810 -3.6806 0.9462
-9.8688 -4.0478 0.9499
-9.7493 -4.4146 0.9538
-9.6254 -4.7825 0.9581
-9.5377 -5.1744 0.9669
-9.6459 -5.6911 0.9971
-10.6990 -6.8424 1.1290
-10.3794 -7.1764 1.1195
-10.1503 -7.5712 1.1205
-10.0343 -8.0618 1.1353
-10.1084 -8.7372 1.1742
-10.0322 -9.3218 1.1983
-9.9247 -9.9099 1.2213
-9.8141 -10.5304 1.2467
-9.8107 -11.3160 1.2894
-9.3845 -11.6446 1.2792
-6.1145 -8.1714 0.8667
-8.6947 -12.5342 1.2856
-8.9299 -13.9152 1.3820
-8.5005 -14.3556 1.3822
-7.6551 -14.0559 1.3135
-7.1446 -14.3200 1.3003
-6.7843 -14.9158 1.3173
-6.5917 -15.9923 1.3751
-6.3607 -17.1555 1.4375
-6.3033 -19.0753 1.5589
-5.7856 -19.8765 1.5857
-5.1380 -20.3464 1.5857
-4.4676 -20.8117 1.5857
-3.7736 -21.2720 1.5857
-3.0549 -21.7273 1.5857
-2.3104 -22.1771 1.5857
-1.5390 -22.6211 1.5857
-0.7847 -24.4694 1.6826
0.0954 -25.0199 1.6889
1.0112 -25.4717 1.6889
1.9614 -25.9154 1.6889
2.9476 -26.3502 1.6889
3.9715 -26.7755 1.6889
5.0351 -27.1904 1.6889
6.1402 -27.5939 1.6889
7.2889 -27.9849 1.6889
8.4834 -28.3624 1.6889
9.1324 -26.9716 1.5858
5.6415 -14.8833 0.8647
11.6109 -27.6050 1.5858
13.1158 -28.3009 1.6089
14.5076 -28.5740 1.6089
15.9582 -28.8244 1.6089
17.4706 -29.0497 1.6089
19.0480 -29.2472 1.6089
20.6936 -29.4141 1.6089
22.3260 -29.4352 1.6028
23.2649 -28.4935 1.5465
23.4441 -26.7013 1.4466
23.6529 -25.0688 1.3577
24.0788 -23.7554 1.2884
24.5861 -22.5772 1.2284
24.9278 -21.2974 1.1650
23.8277 -18.9247 1.0432
22.6659 -16.7146 0.9309
22.3019 -15.2445 0.8604
22.5010 -14.2263 0.8164
22.9497 -13.3848 0.7841
23.4727 -12.5861 0.7560
24.0895 -11.8268 0.7322
25.0550 -11.2062 0.7196
37.2226 -15.0737 1.0112
36.7643 -13.3772 0.9457
36.1091 -11.6929 0.8807
36.4250 -10.3702 0.8433
36.6798 -9.0367 0.8072
35.6291 -7.4360 0.7464
35.9823 -6.1746 0.7187
35.6126 -4.8060 0.6793
35.2539 -3.4780 0.6433
34.9048 -2.1855 0.6106
34.5699 -0.9241 0.5811
34.2305 0.3109 0.5542
33.9032 1.5229 0.5301
33.9806 2.7481 0.5146
33.2630 3.8930 0.4895
32.9484 5.0577 0.4728
36.4322 6.9357 0.5117
31.3737 10.7940 0.4224
1.5631 0.6012 0.0211
1.5464 0.6592 0.0210
21.6766 12.1367 0.3104
35.5175 31.4838 0.6559
32.4581 30.9165 0.6369
29.4095 30.0930 0.6162
26.6776 29.3284 0.5997
24.2979 28.7135 0.5888
22.1226 28.1260 0.5806
20.1467 27.5923 0.5754
18.3397 27.1042 0.5728
16.6768 26.6550 0.5724
15.1367 26.2380 0.5740
13.7044 25.8511 0.5774
12.3647 25.4893 0.5825
11.1059 25.1493 0.5890
9.9180 24.8284 0.5969
8.7817 24.4948 0.6053
7.6942 24.1498 0.6143
6.6987 23.9589 0.6280
6.1830 25.6181 0.6926
5.6343 27.6498 0.7719
3.6759 22.0461 0.6360
2.8397 21.8202 0.6510
2.0279 21.6010 0.6670
1.2376 21.3875 0.6839
0.4659 21.1791 0.7019
-0.2897 20.9750 0.7208
-1.0316 20.7746 0.7407
-1.7621 20.5773 0.7617
-2.4832 20.3825 0.7837
-3.1930 20.1641 0.8059
-13.4352 9.5358 1.5117
-13.5414 8.8982 1.5063
-13.9053 8.4388 1.5312
-14.3707 8.0302 1.5687
-16.2351 8.3218 1.7589
-16.3381 7.6469 1.7589
-15.3090 6.5058 1.6396
-13.7575 5.2716 1.4674
-13.2437 4.5363 1.4082
-13.2407 4.0100 1.4050
-13.1682 3.4768 1.3958
-13.1002 2.9598 1.3883
-13.0298 2.4555 1.3819
-13.0560 1.9775 1.3869
-12.4514 1.4304 1.3260
-12.1357 0.9537 1.2967
-11.9498 0.5078 1.2822
-12.0550 0.0785 1.3001
-12.2758 -0.3616 1.3318
-12.2687 -0.8037 1.3401
-12.2487 -1.2460 1.3481
-11.6213 -1.6063 1.2900
-11.1204 -1.9469 1.2460
-10.6771 -2.2679 1.2086
-7.6039 -1.9033 0.8704
-10.0983 -2.9174 1.1700
-10.0071 -3.2854 1.1746
-9.9764 -3.6779 1.1876
-9.8750 -4.0497 1.1933
-9.6907 -4.3877 1.1901
-9.5823 -4.7612 1.1972
-9.5538 -5.1836 1.2158
-9.6281 -5.6815 1.2496
-10.6517 -6.8136 1.4117
-10.4781 -7.2466 1.4200
-10.2028 -7.6129 1.4160
-10.6157 -8.5322 1.5111
-10.0642 -8.7029 1.4718
-10.4549 -9.7195 1.5737
-10.3094 -10.2998 1.6004
-10.0783 -10.8206 1.6169
-9.6202 -11.1038 1.5988
-9.0870 -11.2840 1.5685
-6.1108 -8.1732 1.0986
-8.4173 -12.1452 1.5811
-8.0506 -12.5575 1.5857
-7.6473 -12.9287 1.5857
-7.2313 -13.2935 1.5857
-6.8022 -13.6519 1.5857
-6.3600 -14.0035 1.5857
-5.9043 -14.3481 1.5857
-5.4349 -14.6855 1.5857
-4.9515 -15.0154 1.5857
-4.4537 -15.3375 1.5857
-3.9414 -15.6516 1.5857
-3.4142 -15.9571 1.5857
-2.9260 -16.5612 1.6156
-2.4643 -17.6184 1.6889
-1.8530 -17.9142 1.6889
-1.2245 -18.1991 1.6889
-0.5782 -18.4727 1.6889
0.0860 -18.7342 1.6889
0.7686 -18.9832 1.6889
1.4701 -19.2187 1.6889
2.1906 -19.4402 1.6889
2.9307 -19.6468 1.6889
3.6906 -19.8378 1.6889
4.4708 -20.0121 1.6889
5.2714 -20.1688 1.6889
6.0929 -20.3070 1.6889
6.5121 -19.1786 1.5858
5.6253 -14.8022 1.2181
8.1547 -19.3412 1.5858
9.0065 -19.3900 1.5858
9.8788 -19.4157 1.5858
10.9285 -19.6994 1.6089
11.8550 -19.6739 1.6089
12.8023 -19.6204 1.6089
13.7699 -19.5373 1.6089
14.7577 -19.4227 1.6089
15.7652 -19.2752 1.6089
16.7917 -19.0926 1.6089
17.7572 -18.7891 1.6017
18.4009 -18.1242 1.5665
18.6091 -17.0610 1.4987
18.5809 -15.8494 1.4187
18.5954 -14.7455 1.3489
18.7576 -13.8103 1.2953
19.0293 -12.9865 1.2533
19.4544 -12.2800 1.2243
19.9354 -11.6076 1.2010
20.4750 -10.9603 1.1828
21.1527 -10.3670 1.1738
21.8246 -9.7440 1.1654
22.7486 -9.1953 1.1709
24.1051 -8.7540 1.1980
32.3679 -10.4600 1.5560
32.2990 -9.1754 1.5045
33.2748 -8.1783 1.5045
33.2905 -6.9295 1.4637
35.9770 -6.1550 1.5411
35.6077 -4.7880 1.4888
35.2494 -3.4614 1.4414
34.9007 -2.1702 1.3986
34.5603 -0.9100 1.3600
34.2271 0.3236 1.3255
33.9001 1.5345 1.2947
33.5782 2.7263 1.2677
33.2605 3.9024 1.2441
32.9462 5.0660 1.2239
34.8793 6.6484 1.2900
42.9064 9.7810 1.5839
37.3395 9.9295 1.3794
42.7306 13.0166 1.5839
42.5071 14.6295 1.5853
1.5629 0.6012 0.0588
1.5462 0.6593 0.0589
43.7145 20.5162 1.6889
42.9508 22.0659 1.6889
21.6747 12.1343 0.8701
41.0867 24.9729 1.6889
39.3617 25.8969 1.6620
36.4448 25.8920 1.5858
35.2512 26.9922 1.5858
33.9836 28.0056 1.5858
33.6404 29.8061 1.6339
32.2081 30.6624 1.6339
29.4326 30.0993 1.5651
19.3488 21.2578 1.0825
24.3200 28.7195 1.4371
22.1442 28.1318 1.3877
20.1679 27.5980 1.3460
18.3605 27.1098 1.3109
9.6969 15.4833 0.7443
8.7757 15.1948 0.7280
8.1437 15.3429 0.7343
12.3839 25.4945 1.2215
11.1249 25.1544 1.2092
9.9367 24.8335 1.2000
8.7933 24.4808 1.1914
7.7302 24.2108 1.1888
6.7167 23.9637 1.1892
6.1925 25.5830 1.2852
5.6455 27.6083 1.4061
3.6926 22.0506 1.1402
2.8562 21.8247 1.1475
2.0444 21.6054 1.1565
1.2540 21.3919 1.1673
0.4823 21.1835 1.1799
-0.2734 20.9794 1.1941
-1.0153 20.7790 1.2101
-1.7458 20.5817 1.2278
-2.4669 20.3869 1.2472
-3.1766 20.1685 1.2666
-11.2875 8.0244 1.5858
-11.4475 7.5345 1.5858
-11.5920 7.0466 1.5858
-11.7216 6.5609 1.5858
-11.8365 6.0776 1.5858
-12.0356 5.6431 1.5989
-12.1229 5.1612 1.5989
-12.1964 4.6823 1.5989
-12.2565 4.2066 1.5989
-12.3033 3.7341 1.5989
-13.1634 3.4836 1.7060
-13.0691 2.9603 1.6909
-13.0264 2.4619 1.6841
-12.3924 1.8833 1.6025
-12.2354 1.4114 1.5842
-11.8994 0.9404 1.5440
-11.7754 0.5053 1.5327
-11.8894 0.0821 1.5538
-11.9889 -0.3488 1.5746
-11.7621 -0.7666 1.5540
-11.5363 -1.1700 1.5346
-11.3121 -1.5604 1.5165
-11.0988 -1.9403 1.5010
-10.4161 -2.2101 1.4224
-7.4946 -1.8745 1.0344
-9.9979 -2.8868 1.3962
-9.9606 -3.2688 1.4088
-9.9627 -3.6718 1.4286
-9.8223 -4.0275 1.4296
-9.6071 -4.3496 1.4209
-9.5613 -4.7508 1.4387
-9.5799 -5.1983 1.4684
-9.7124 -5.7321 1.5184
-10.3315 -6.6103 1.6497
-9.7093 -6.7167 1.5858
-9.4776 -7.0742 1.5858
-9.2362 -7.4264 1.5858
-8.9851 -7.7733 1.5858
-8.7243 -8.1147 1.5858
-8.4538 -8.4507 1.5858
-8.1734 -8.7809 1.5858
-7.8832 -9.1053 1.5858
-7.5832 -9.4237 1.5858
-6.1071 -8.1750 1.3316
-6.9533 -10.0420 1.5858
-6.6234 -10.3415 1.5858
-6.2833 -10.6343 1.5858
-5.9331 -10.9201 1.5858
-5.5725 -11.1986 1.5858
-5.2016 -11.4698 1.5857
-4.8204 -11.7333 1.5857
-4.4289 -11.9894 1.5857
-4.0658 -12.3555 1.6010
-3.8263 -13.2084 1.6787
-3.3988 -13.5348 1.6889
-2.9366 -13.7708 1.6889
-2.4628 -13.9968 1.6889
-1.9775 -14.2122 1.6889
-1.4805 -14.4168 1.6889
-0.9719 -14.6100 1.6889
-0.4516 -14.7914 1.6889
0.0804 -14.9605 1.6889
0.6241 -15.1167 1.6889
1.1796 -15.2595 1.6889
1.7468 -15.3883 1.6889
2.3256 -15.5026 1.6889
2.9160 -15.6017 1.6889
3.5179 -15.6849 1.6889
4.1312 -15.7515 1.6889
4.7556 -15.8008 1.6889
5.0619 -14.8658 1.5858
5.6331 -14.7844 1.5759
6.2851 -14.8710 1.5858
6.9111 -14.8452 1.5858
7.5462 -14.7995 1.5858
8.1900 -14.7330 1.5858
8.8419 -14.6449 1.5858
9.6399 -14.7461 1.6089
10.3162 -14.6104 1.6089
10.9989 -14.4502 1.6089
11.6871 -14.2646 1.6089
12.3801 -14.0527 1.6089
13.0767 -13.8137 1.6089
13.7760 -13.5467 1.6089
14.4767 -13.2509 1.6089
15.1323 -12.8870 1.6041
15.7082 -12.4360 1.5918
16.1962 -11.9053 1.5722
16.6385 -11.3366 1.5504
17.0365 -10.7363 1.5268
17.4489 -10.1430 1.5069
17.8694 -9.5493 1.4898
18.3717 -8.9885 1.4813
18.9169 -8.4308 1.4778
19.5104 -7.8717 1.4792
20.1351 -7.2980 1.4843
20.8762 -6.7325 1.4988
21.7151 -6.1552 1.5211
22.6276 -5.5481 1.5491
23.6253 -4.9046 1.5835
24.4418 -4.1688 1.6068
24.9097 -3.3373 1.6089
25.3070 -2.4735 1.6089
25.6638 -1.5848 1.6089
25.9777 -0.6736 1.6089
26.2460 0.2580 1.6089
26.4663 1.2071 1.6089
26.6369 2.1712 1.6089
26.5609 3.1240 1.5972
26.3101 4.0526 1.5783
26.8308 5.1206 1.6089
26.7848 6.1115 1.6089
26.6819 7.1002 1.6089
26.5217 8.0830 1.6089
26.3040 9.0561 1.6089
1.5626 0.6013 0.0966
1.5460 0.6593 0.0968
24.9446 11.7075 1.5857
24.5096 12.5913 1.5857
21.5791 12.0794 1.4244
25.0155 15.2020 1.6889
24.3933 16.0450 1.6889
23.7233 16.8491 1.6889
23.0084 17.6116 1.6889
22.2520 18.3302 1.6889
21.4573 19.0028 1.6889
20.6281 19.6279 1.6889
19.7679 20.2040 1.6889
18.4394 20.2458 1.6494
16.8730 19.9113 1.5858
15.9995 20.3100 1.5858
15.1111 20.6607 1.5858
14.2112 20.9638 1.5858
9.7153 15.4968 1.1581
8.7929 15.2077 1.1254
8.1468 15.3301 1.1259
10.5485 21.6865 1.5839
9.6394 21.7628 1.5839
8.7365 21.7974 1.5839
7.8423 21.7920 1.5839
6.9589 21.7482 1.5839
6.0882 21.6675 1.5839
5.2320 21.5520 1.5839
4.3919 21.4032 1.5839
3.5693 21.2230 1.5839
2.7654 21.0133 1.5839
1.9814 20.7759 1.5839
1.2180 20.5125 1.5839
0.4760 20.2250 1.5839
-0.2439 19.9149 1.5839
-0.9413 19.5841 1.5839
-1.6159 19.2340 1.5839
-2.2673 18.8663 1.5839
-2.8954 18.4824 1.5839
-9.4036 6.6960 1.5858
-9.5534 6.2982 1.5858
-9.6902 5.9003 1.5858
-9.8142 5.5025 1.5858
-9.9256 5.1052 1.5858
-10.0246 4.7085 1.5858
-10.1114 4.3127 1.5858
-10.1863 3.9181 1.5858
-10.2495 3.5248 1.5858
-10.3011 3.1331 1.5858
-10.3413 2.7431 1.5858
-10.3704 2.3550 1.5858
-10.3885 1.9690 1.5858
-10.3958 1.5852 1.5858
-10.3925 1.2038 1.5858
-10.3787 0.8249 1.5858
-10.3545 0.4487 1.5858
-10.3202 0.0753 1.5858
-10.2758 -0.2953 1.5858
-10.2216 -0.6627 1.5858
-10.1575 -1.0271 1.5858
-10.0838 -1.3882 1.5858
-10.0006 -1.7458 1.5858
-9.9079 -2.1001 1.5858
-7.4877 -1.8713 1.2109
-9.6946 -2.7976 1.5858
-9.5741 -3.1407 1.5858
-9.4446 -3.4799 1.5858
-9.3061 -3.8151 1.5858
-9.1586 -4.1462 1.5858
-9.0022 -4.4731 1.5858
-8.8370 -4.7956 1.5858
-8.6631 -5.1136 1.5858
-8.4804 -5.4271 1.5858
-8.2891 -5.7358 1.5858
-8.0891 -6.0398 1.5858
-7.8805 -6.3388 1.5858
-7.6633 -6.6327 1.5858
-7.4375 -6.9214 1.5858
-7.2033 -7.2047 1.5858
-6.9605 -7.4825 1.5858
-6.7092 -7.7546 1.5858
-6.4494 -8.0208 1.5858
-6.1034 -8.1769 1.5659
-5.9046 -8.5351 1.5858
-5.6194 -8.7827 1.5858
-5.3259 -9.0238 1.5858
-5.0240 -9.2580 1.5858
-4.7968 -9.6526 1.6138
-4.6256 -10.2148 1.6691
-4.3322 -10.5625 1.6889
-3.9750 -10.7806 1.6889
-3.6089 -10.9902 1.6889
-3.2340 -11.1910 1.6889
-2.8503 -11.3827 1.6889
-2.4578 -11.5649 1.6889
-2.0567 -11.7375 1.6889
-1.6470 -11.8999 1.6889
-1.2287 -12.0519 1.6889
-0.8019 -12.1931 1.6889
-0.3668 -12.3231 1.6889
0.0766 -12.4415 1.6889
0.5281 -12.5479 1.6889
0.9876 -12.6419 1.6889
1.4548 -12.7230 1.6889
1.9297 -12.7908 1.6889
2.4119 -12.8448 1.6889
2.9013 -12.8845 1.6889
3.3976 -12.9095 1.6889
3.9005 -12.9193 1.6889
4.4096 -12.9133 1.6889
4.6239 -12.1042 1.5858
5.1126 -12.0675 1.5858
5.6060 -12.0145 1.5858
6.1037 -11.9448 1.5858
6.6052 -11.8578 1.5858
7.1099 -11.7531 1.5858
7.6172 -11.6301 1.5858
8.1265 -11.4883 1.5858
8.7630 -11.4923 1.6089
9.2817 -11.3091 1.6089
9.8002 -11.1054 1.6089
10.3176 -10.8810 1.6089
10.8330 -10.6353 1.6089
11.3455 -10.3680 1.6089
11.8540 -10.0788 1.6089
12.3574 -9.7675 1.6089
12.8546 -9.4337 1.6089
13.3443 -9.0773 1.6089
13.8253 -8.6983 1.6089
14.2963 -8.2966 1.6089
14.7559 -7.8721 1.6089
15.2028 -7.4251 1.6089
15.6354 -6.9558 1.6089
16.0522 -6.4644 1.6089
16.4519 -5.9514 1.6089
16.8328 -5.4173 1.6089
17.1934 -4.8627 1.6089
17.5322 -4.2884 1.6089
17.8476 -3.6952 1.6089
18.1381 -3.0842 1.6089
18.4022 -2.4564 1.6089
18.6386 -1.8131 1.6089
18.8457 -1.1557 1.6089
19.0224 -0.4856 1.6089
19.1674 0.1956 1.6089
19.2796 0.8860 1.6089
19.3580 1.5841 1.6089
19.4018 2.2877 1.6089
19.4101 2.9949 1.6089
19.3824 3.7037 1.6089
19.3183 4.4119 1.6089
19.2176 5.1174 1.6089
19.0800 5.8179 1.6089
18.9057 6.5112 1.6089
1.5624 0.6013 0.1345
1.5458 0.6593 0.1348
17.9041 8.4034 1.5857
17.5922 9.0372 1.5857
17.2474 9.6536 1.5857
16.8706 10.2505 1.5857
16.4633 10.8264 1.5857
17.0703 12.1203 1.6889
16.5760 12.6834 1.6889
16.0539 13.2191 1.6889
15.5062 13.7261 1.6889
14.9346 14.2031 1.6889
14.3413 14.6492 1.6889
13.7283 15.0636 1.6889
13.0979 15.4455 1.6889
12.4521 15.7946 1.6889
11.7930 16.1104 1.6889
11.1228 16.3928 1.6889
10.4437 16.6418 1.6889
9.7577 16.8575 1.6889
9.0668 17.0402 1.6889
8.3729 17.1903 1.6889
7.6761 17.3043 1.6885
6.8602 17.0871 1.6590
6.0894 16.8890 1.6346
5.3549 16.6991 1.6138
4.6527 16.5177 1.5966
3.9873 16.3770 1.5858
3.3609 16.3220 1.5858
2.7533 16.3008 1.5915
2.1359 16.1394 1.5858
1.5392 16.0138 1.5858
0.9542 15.8668 1.5858
0.3816 15.6994 1.5858
-0.1778 15.5126 1.5858
-0.7235 15.3075 1.5858
-1.2550 15.0850 1.5858
-1.7718 14.8463 1.5858
-2.2736 14.5923 1.5858
-8.0701 5.7559 1.5897
-8.1887 5.4074 1.5858
-8.3160 5.0720 1.5858
-8.4322 4.7357 1.5858
-8.5374 4.3988 1.5858
-8.6318 4.0616 1.5858
-8.7155 3.7242 1.5858
-8.7886 3.3870 1.5858
-8.8514 3.0502 1.5858
-8.9039 2.7140 1.5858
-8.9462 2.3785 1.5858
-8.9785 2.0441 1.5858
-9.0010 1.7109 1.5858
-9.0137 1.3791 1.5858
-9.0168 1.0488 1.5858
-9.0105 0.7202 1.5858
-8.9948 0.3936 1.5858
-8.9698 0.0689 1.5858
-8.9357 -0.2535 1.5858
-8.8925 -0.5736 1.5858
-8.8405 -0.8912 1.5858
-8.7796 -1.2061 1.5858
-8.7100 -1.5183 1.5858
-8.6317 -1.8276 1.5858
-7.4808 -1.8681 1.3883
-8.4497 -2.4370 1.5858
-8.3461 -2.7368 1.5858
-8.2342 -3.0331 1.5858
-8.1141 -3.3259 1.5858
-7.9858 -3.6150 1.5858
-7.8495 -3.9003 1.5858
-7.7051 -4.1817 1.5858
-7.5528 -4.4589 1.5858
-7.3926 -4.7320 1.5858
-7.2246 -5.0007 1.5858
-7.0488 -5.2648 1.5858
-6.8653 -5.5244 1.5858
-6.6741 -5.7791 1.5858
-6.4753 -6.0290 1.5858
-6.2689 -6.2737 1.5858
-6.0550 -6.5132 1.5858
-5.8557 -6.7728 1.5918
-5.6048 -6.9758 1.5858
-5.4377 -7.2911 1.6062
-5.3145 -7.6893 1.6444
-5.1894 -8.1187 1.6883
-4.9166 -8.3395 1.6889
-4.6343 -8.5503 1.6889
-4.3443 -8.7539 1.6889
-4.0469 -8.9502 1.6889
-3.7421 -9.1389 1.6889
-3.4299 -9.3197 1.6889
-3.1105 -9.4925 1.6889
-2.7839 -9.6569 1.6889
-2.4502 -9.8127 1.6889
-2.1095 -9.9597 1.6889
-1.7620 -10.0975 1.6889
-1.4077 -10.2259 1.6889
-1.0468 -10.3446 1.6889
-0.6795 -10.4532 1.6889
-0.3058 -10.5515 1.6889
0.0739 -10.6391 1.6889
0.4596 -10.7158 1.6889
0.8511 -10.7811 1.6889
1.2480 -10.8348 1.6889
1.6502 -10.8765 1.6889
2.0574 -10.9058 1.6889
2.4693 -10.9225 1.6889
2.8856 -10.9261 1.6889
3.3060 -10.9163 1.6889
3.7301 -10.8927 1.6889
3.9038 -10.1924 1.5858
4.3079 -10.1434 1.5858
4.7143 -10.0804 1.5858
5.1226 -10.0032 1.5858
5.5324 -9.9115 1.5858
5.9430 -9.8048 1.5858
6.3539 -9.6830 1.5858
6.7647 -9.5457 1.5858
7.1747 -9.3926 1.5858
7.5832 -9.2236 1.5858
8.1059 -9.1699 1.6089
8.5154 -8.9653 1.6089
8.9212 -8.7439 1.6089
9.3226 -8.5054 1.6089
9.7187 -8.2499 1.6089
10.1088 -7.9772 1.6089
10.4919 -7.6873 1.6089
10.8672 -7.3803 1.6089
11.2336 -7.0561 1.6089
11.5903 -6.7149 1.6089
11.9362 -6.3570 1.6089
12.2703 -5.9824 1.6089
12.5916 -5.5916 1.6089
12.8991 -5.1849 1.6089
13.1917 -4.7627 1.6089
13.4685 -4.3256 1.6089
13.7284 -3.8741 1.6089
13.9704 -3.4089 1.6089
14.1935 -2.9308 1.6089
14.3967 -2.4404 1.6089
14.5791 -1.9389 1.6089
14.7398 -1.4270 1.6089
14.8781 -0.9059 1.6089
14.9930 -0.3767 1.6089
15.0839 0.1596 1.6089
15.1501 0.7015 1.6089
15.1911 1.2480 1.6089
15.2065 1.7975 1.6089
15.1957 2.3487 1.6089
15.1585 2.9002 1.6089
15.0948 3.4505 1.6089
15.0043 3.9982 1.6089
14.8872 4.5417 1.6089
14.7436 5.0796 1.6089
1.5621 0.6014 0.1725
1.5457 0.6593 0.1730
13.9533 6.5493 1.5858
13.7105 7.0429 1.5858
13.4439 7.5239 1.5858
13.1540 7.9909 1.5858
12.8419 8.4429 1.5858
12.5084 8.8787 1.5858
12.1546 9.2971 1.5858
11.7815 9.6971 1.5858
12.1308 10.7331 1.6889
11.6961 11.1174 1.6889
11.2448 11.4795 1.6889
10.7782 11.8189 1.6889
10.2977 12.1349 1.6889
6.0948 7.7248 1.0498
9.3009 12.6951 1.6889
8.7874 12.9387 1.6889
8.2657 13.1578 1.6889
7.7373 13.3522 1.6889
7.2037 13.5220 1.6889
6.6660 13.6673 1.6889
6.1257 13.7884 1.6889
5.5842 13.8854 1.6889
5.0425 13.9588 1.6889
4.5019 14.0090 1.6889
3.9636 14.0364 1.6889
0.8209 3.3620 0.4044
0.7000 3.3875 0.4079
0.5783 3.4088 0.4116
0.4559 3.4259 0.4154
0.3331 3.4389 0.4193
0.2100 3.4477 0.4233
0.0866 3.4523 0.4274
-0.0369 3.4527 0.4317
-0.1602 3.4488 0.4360
-0.2834 3.4408 0.4404
-0.4063 3.4286 0.4450
-0.5287 3.4122 0.4496
-7.4875 5.3491 1.6890
-7.6233 5.0424 1.6890
-7.7487 4.7339 1.6889
-7.8639 4.4241 1.6889
-7.9548 4.1058 1.6859
-7.9483 3.7466 1.6648
-7.9480 3.4026 1.6474
-7.9471 3.0686 1.6323
-7.9456 2.7436 1.6193
-7.9434 2.4265 1.6082
-7.8844 2.1012 1.5877
-7.9085 1.8051 1.5858
-7.9329 1.5123 1.5858
-7.9643 1.2226 1.5890
-7.9554 0.9292 1.5858
-7.9536 0.6394 1.5858
-7.9433 0.3509 1.5858
-7.9246 0.0640 1.5858
-7.8975 -0.2211 1.5858
-7.8621 -0.5045 1.5858
-7.8186 -0.7857 1.5858
-7.7670 -1.0648 1.5858
-7.7073 -1.3416 1.5858
-7.6398 -1.6159 1.5858
-7.4738 -1.8649 1.5668
-7.4813 -2.1564 1.5858
-7.3905 -2.4224 1.5858
-7.2921 -2.6853 1.5858
-7.1862 -2.9451 1.5858
-7.0728 -3.2015 1.5858
-6.9520 -3.4544 1.5858
-6.8239 -3.7037 1.5858
-6.6885 -3.9493 1.5858
-6.5551 -4.1968 1.5880
-6.3963 -4.4286 1.5858
-6.2396 -4.6621 1.5858
-6.0898 -4.9023 1.5894
-6.0008 -5.1985 1.6115
-5.9083 -5.5039 1.6358
-5.8120 -5.8198 1.6626
-5.7005 -6.1359 1.6889
-5.4900 -6.3544 1.6889
-5.2725 -6.5673 1.6889
-5.0481 -6.7744 1.6889
-4.8168 -6.9755 1.6889
-4.5786 -7.1705 1.6889
-4.3338 -7.3592 1.6889
-4.0824 -7.5413 1.6889
-3.8244 -7.7167 1.6889
-3.5600 -7.8852 1.6889
-3.2893 -8.0465 1.6889
-3.0123 -8.2004 1.6889
-2.7292 -8.3468 1.6889
-2.4401 -8.4853 1.6889
-2.1451 -8.6158 1.6889
-1.8444 -8.7381 1.6889
-1.5381 -8.8519 1.6889
-1.2263 -8.9569 1.6889
-0.9092 -9.0529 1.6889
-0.5870 -9.1397 1.6889
-0.2599 -9.2169 1.6889
0.0719 -9.2845 1.6889
0.4083 -9.3420 1.6889
0.7489 -9.3892 1.6889
1.0937 -9.4259 1.6889
1.4422 -9.4517 1.6889
1.7942 -9.4665 1.6889
2.1495 -9.4700 1.6889
2.5077 -9.4618 1.6889
2.8685 -9.4418 1.6889
3.2315 -9.4096 1.6889
3.3769 -8.7934 1.5858
3.7209 -8.7398 1.5858
4.0659 -8.6740 1.5858
4.4115 -8.5959 1.5858
4.7572 -8.5052 1.5858
5.1027 -8.4019 1.5858
5.4474 -8.2856 1.5858
5.7908 -8.1563 1.5858
6.1324 -8.0137 1.5858
6.4716 -7.8578 1.5858
6.8079 -7.6884 1.5858
7.2447 -7.6147 1.6089
7.5781 -7.4152 1.6089
7.9068 -7.2019 1.6089
8.2299 -6.9747 1.6089
8.5468 -6.7336 1.6089
8.8569 -6.4787 1.6089
9.1594 -6.2102 1.6089
9.4535 -5.9281 1.6089
9.7385 -5.6326 1.6089
10.0138 -5.3240 1.6089
10.2785 -5.0025 1.6089
10.5318 -4.6684 1.6089
10.7730 -4.3221 1.6089
11.0014 -3.9641 1.6089
11.2162 -3.5947 1.6089
11.4167 -3.2145 1.6089
11.6021 -2.8241 1.6089
11.7718 -2.4241 1.6089
11.9250 -2.0152 1.6089
12.0613 -1.5981 1.6089
12.1798 -1.1735 1.6089
12.2802 -0.7424 1.6089
12.3618 -0.3055 1.6089
12.4242 0.1361 1.6089
12.4669 0.5816 1.6089
12.4897 1.0301 1.6089
12.4923 1.4803 1.6089
12.4742 1.9314 1.6089
12.4355 2.3822 1.6089
12.3761 2.8316 1.6089
12.2958 3.2787 1.6089
12.1948 3.7221 1.6089
12.0731 4.1610 1.6089
1.5619 0.6014 0.2106
1.5455 0.6593 0.2113
11.5868 5.4388 1.6089
11.3854 5.8483 1.6089
11.0050 6.1582 1.5858
10.7698 6.5414 1.5858
10.5172 6.9129 1.5858
10.2479 7.2719 1.5858
9.9625 7.6176 1.5858
9.6619 7.9493 1.5858
9.3469 8.2661 1.5858
9.0183 8.5676 1.5858
8.6771 8.8531 1.5858
8.3242 9.1221 1.5858
8.4781 9.9835 1.6889
6.0887 7.7111 1.2726
7.6733 10.4646 1.6889
7.2579 10.6768 1.6889
6.8353 10.8697 1.6889
6.4065 11.0432 1.6889
5.9726 11.1974 1.6889
5.5346 11.3321 1.6889
5.0934 11.4474 1.6889
4.6502 11.5436 1.6889
4.2059 11.6207 1.6889
3.7620 11.6811 1.6892
0.8173 2.8872 0.4161
0.7134 2.9130 0.4191
0.6086 2.9352 0.4221
0.5032 2.9538 0.4253
0.3973 2.9687 0.4286
0.2909 2.9800 0.4319
0.1842 2.9877 0.4354
0.0774 2.9917 0.4390
-0.0296 2.9920 0.4427
-0.1364 2.9887 0.4464
-0.2432 2.9817 0.4503
-0.3496 2.9710 0.4542
-0.4556 2.9567 0.4582
-6.6411 4.7523 1.6898
-6.7667 4.4832 1.6897
-6.8828 4.2120 1.6896
-6.9897 3.9390 1.6895
-7.0874 3.6645 1.6895
-7.1760 3.3887 1.6894
-7.2555 3.1119 1.6893
-7.3260 2.8343 1.6893
-7.3875 2.5562 1.6892
-7.4401 2.2777 1.6891
-7.4838 1.9991 1.6891
-7.5189 1.7207 1.6890
-7.5453 1.4426 1.6889
-7.5633 1.1650 1.6889
-7.5730 0.8882 1.6889
-7.5347 0.6091 1.6801
-7.4709 0.3333 1.6674
-7.4044 0.0628 1.6559
-7.3411 -0.2028 1.6469
-7.2780 -0.4645 1.6396
-7.2150 -0.7228 1.6341
-7.1518 -0.9784 1.6302
-7.0877 -1.2319 1.6277
-7.0177 -1.4827 1.6256
-6.9474 -1.7322 1.6251
-6.8765 -1.9809 1.6262
-6.8054 -2.2297 1.6290
-6.7336 -2.4789 1.6334
-6.6608 -2.7293 1.6395
-6.5868 -2.9813 1.6473
-6.5122 -3.2360 1.6569
-6.4383 -3.4948 1.6689
-6.3667 -3.7599 1.6839
-6.2491 -4.0018 1.6889
-6.1056 -4.2285 1.6889
-5.9551 -4.4510 1.6889
-5.7979 -4.6693 1.6889
-5.6340 -4.8830 1.6889
-5.4635 -5.0922 1.6889
-5.2864 -5.2965 1.6889
-5.1028 -5.4960 1.6889
-4.9128 -5.6903 1.6889
-4.7166 -5.8793 1.6889
-4.5141 -6.0629 1.6889
-4.3054 -6.2409 1.6889
-4.0908 -6.4131 1.6889
-3.8702 -6.5793 1.6889
-3.6438 -6.7394 1.6889
-3.4116 -6.8932 1.6889
-3.1738 -7.0404 1.6889
-2.9305 -7.1810 1.6889
-2.6818 -7.3146 1.6889
-2.4278 -7.4412 1.6889
-2.1687 -7.5605 1.6889
-1.9046 -7.6723 1.6889
-1.6357 -7.7764 1.6889
-1.3621 -7.8726 1.6889
-1.0839 -7.9608 1.6889
-0.8014 -8.0406 1.6889
-0.5147 -8.1119 1.6889
-0.2241 -8.1745 1.6889
0.0703 -8.2281 1.6889
0.3683 -8.2726 1.6889
0.6696 -8.3078 1.6889
0.9740 -8.3333 1.6889
1.2812 -8.3491 1.6889
1.5909 -8.3548 1.6889
1.9030 -8.3504 1.6889
2.2169 -8.3355 1.6889
2.5326 -8.3101 1.6889
2.8496 -8.2738 1.6889
3.1401 -8.1554 1.6743
3.2733 -7.6696 1.5858
3.5727 -7.6042 1.5858
3.8719 -7.5279 1.5858
4.1705 -7.4407 1.5858
4.4682 -7.3425 1.5858
4.7645 -7.2331 1.5858
5.0590 -7.1124 1.5858
5.3512 -6.9803 1.5858
5.6407 -6.8369 1.5858
5.9269 -6.6819 1.5858
6.2094 -6.5155 1.5858
6.4876 -6.3376 1.5858
6.7611 -6.1482 1.5858
7.1315 -6.0339 1.6089
7.3976 -5.8186 1.6089
7.6571 -5.5919 1.6089
7.9095 -5.3539 1.6089
8.1541 -5.1048 1.6089
8.3905 -4.8447 1.6089
8.6180 -4.5740 1.6089
8.8360 -4.2928 1.6089
9.0439 -4.0015 1.6089
9.2411 -3.7005 1.6089
9.4271 -3.3901 1.6089
9.6013 -3.0706 1.6089
9.7631 -2.7427 1.6089
9.9120 -2.4068 1.6089
10.0475 -2.0634 1.6089
10.1691 -1.7131 1.6089
10.2762 -1.3564 1.6089
10.3685 -0.9942 1.6089
10.4456 -0.6269 1.6089
10.5071 -0.2554 1.6089
10.5526 0.1196 1.6089
10.5819 0.4974 1.6089
10.5947 0.8772 1.6089
10.5908 1.2581 1.6089
10.5702 1.6394 1.6089
10.5325 2.0202 1.6089
10.4779 2.3996 1.6089
10.4064 2.7768 1.6089
10.3179 3.1509 1.6089
10.2127 3.5210 1.6089
1.5616 0.6014 0.2490
1.5453 0.6593 0.2498
9.7982 4.5994 1.6089
9.6280 4.9454 1.6089
9.4425 5.2833 1.6089
9.1095 5.5319 1.5858
8.8976 5.8469 1.5858
8.6720 6.1518 1.5858
8.4333 6.4460 1.5858
8.1820 6.7289 1.5858
7.9187 6.9998 1.5858
7.6442 7.2583 1.5858
7.3591 7.5039 1.5858
7.0641 7.7362 1.5858
6.7601 7.9547 1.5858
6.0826 7.6973 1.4960
6.1460 8.3745 1.5906
6.1777 9.0792 1.6889
5.8231 9.2506 1.6889
5.4629 9.4060 1.6889
5.0979 9.5456 1.6889
4.7289 9.6691 1.6889
4.3572 9.7779 1.6891
3.9835 9.8718 1.6895
3.6075 9.9483 1.6896
0.8130 2.5189 0.4253
0.7223 2.5449 0.4277
0.6307 2.5678 0.4303
0.5384 2.5874 0.4330
0.4455 2.6039 0.4358
0.3522 2.6171 0.4387
0.2585 2.6272 0.4417
0.1645 2.6339 0.4448
0.0703 2.6375 0.4479
-0.0240 2.6378 0.4511
-0.1181 2.6348 0.4545
-0.2122 2.6286 0.4578
-0.3060 2.6191 0.4613
-0.3994 2.6065 0.4648
-5.9602 4.2722 1.6903
-6.0765 4.0328 1.6902
-6.1845 3.7911 1.6901
-6.2841 3.5475 1.6901
-6.3754 3.3022 1.6900
-6.4585 3.0554 1.6899
-6.5333 2.8074 1.6899
-6.6000 2.5584 1.6898
-6.6584 2.3086 1.6897
-6.7087 2.0583 1.6897
-6.7510 1.8076 1.6896
-6.7854 1.5568 1.6895
-6.8118 1.3061 1.6895
-6.8304 1.0557 1.6894
-6.8412 0.8058 1.6893
-6.8435 0.5564 1.6891
-6.8390 0.3080 1.6891
-6.8269 0.0607 1.6891
-6.8073 -0.1855 1.6890
-6.7802 -0.4304 1.6890
-6.7458 -0.6737 1.6890
-6.7040 -0.9152 1.6890
-6.6546 -1.1549 1.6889
-6.5984 -1.3926 1.6889
-6.5351 -1.6281 1.6889
-6.4647 -1.8612 1.6889
-6.3874 -2.0918 1.6889
-6.3031 -2.3198 1.6889
-6.2121 -2.5450 1.6889
-6.1143 -2.7672 1.6889
-6.0098 -2.9863 1.6889
-5.8986 -3.2021 1.6889
-5.7810 -3.4145 1.6889
-5.6569 -3.6234 1.6889
-5.5264 -3.8285 1.6889
-5.3896 -4.0297 1.6889
-5.2465 -4.2269 1.6889
-5.0973 -4.4200 1.6889
-4.9421 -4.6087 1.6889
-4.7809 -4.7929 1.6889
-4.6137 -4.9724 1.6889
-4.4408 -5.1472 1.6889
-4.2621 -5.3170 1.6889
-4.0778 -5.4817 1.6889
-3.8880 -5.6412 1.6889
-3.6928 -5.7952 1.6889
-3.4922 -5.9435 1.6889
-3.2865 -6.0862 1.6889
-3.0756 -6.2228 1.6889
-2.8597 -6.3534 1.6889
-2.6390 -6.4777 1.6889
-2.4135 -6.5956 1.6889
-2.1834 -6.7068 1.6889
-1.9489 -6.8112 1.6889
-1.7100 -6.9087 1.6889
-1.4670 -6.9990 1.6889
-1.2200 -7.0819 1.6889
-0.9691 -7.1574 1.6889
-0.7146 -7.2252 1.6889
-0.4566 -7.2851 1.6889
-0.1953 -7.3370 1.6889
0.0691 -7.3806 1.6889
0.3363 -7.4159 1.6889
0.6061 -7.4426 1.6889
0.8784 -7.4605 1.6889
1.1528 -7.4695 1.6889
1.4290 -7.4695 1.6889
1.7069 -7.4602 1.6889
1.9862 -7.4415 1.6889
2.2664 -7.4132 1.6889
2.5475 -7.3753 1.6889
2.8289 -7.3275 1.6889
2.9205 -6.8260 1.5858
3.1845 -6.7623 1.5858
3.4480 -6.6891 1.5858
3.7105 -6.6061 1.5858
3.9716 -6.5134 1.5858
4.2311 -6.4110 1.5858
4.4885 -6.2986 1.5858
4.7434 -6.1763 1.5858
4.9954 -6.0441 1.5858
5.2441 -5.9019 1.5858
5.4890 -5.7498 1.5858
5.7298 -5.5879 1.5858
5.9659 -5.4160 1.5858
6.1969 -5.2344 1.5858
6.4223 -5.0431 1.5858
6.7383 -4.9128 1.6089
6.9543 -4.6995 1.6089
7.1631 -4.4768 1.6089
7.3643 -4.2449 1.6089
7.5575 -4.0042 1.6089
7.7422 -3.7547 1.6089
7.9178 -3.4968 1.6089
8.0839 -3.2309 1.6089
8.2400 -2.9572 1.6089
8.3857 -2.6762 1.6089
8.5206 -2.3882 1.6089
8.6442 -2.0937 1.6089
8.7561 -1.7932 1.6089
8.8560 -1.4871 1.6089
8.9434 -1.1760 1.6089
9.0181 -0.8605 1.6089
9.0798 -0.5410 1.6089
9.1281 -0.2181 1.6089
9.1628 0.1074 1.6089
9.1837 0.4350 1.6089
9.1906 0.7640 1.6089
9.1834 1.0937 1.6089
9.1620 1.4235 1.6089
9.1263 1.7527 1.6089
9.0763 2.0805 1.6089
9.0121 2.4064 1.6089
8.9336 2.7295 1.6089
8.8410 3.0492 1.6089
1.5613 0.6015 0.2876
1.5451 0.6593 0.2886
8.4803 3.9809 1.6089
8.3332 4.2801 1.6089
8.1731 4.5725 1.6089
8.0005 4.8576 1.6089
7.7035 5.0610 1.5858
7.5097 5.3257 1.5858
7.3048 5.5814 1.5858
7.0891 5.8277 1.5858
6.8634 6.0640 1.5858
6.6280 6.2900 1.5858
6.3835 6.5052 1.5858
6.1305 6.7093 1.5858
5.8696 6.9019 1.5858
5.6014 7.0827 1.5858
5.3265 7.2516 1.5858
5.0455 7.4082 1.5858
4.7591 7.5524 1.5858
4.4679 7.6840 1.5858
4.1725 7.8031 1.5858
4.1258 8.4243 1.6891
3.8044 8.5243 1.6891
3.4806 8.6108 1.6892
0.8080 2.2240 0.4326
0.7278 2.2501 0.4348
0.6468 2.2734 0.4370
0.5651 2.2938 0.4393
0.4827 2.3115 0.4417
0.3998 2.3262 0.4442
0.3164 2.3381 0.4468
0.2327 2.3471 0.4494
0.1488 2.3532 0.4522
0.0647 2.3563 0.4550
-0.0195 2.3566 0.4579
-0.1036 2.3539 0.4608
-0.1876 2.3484 0.4638
-0.2713 2.3399 0.4669
-0.3548 2.3285 0.4701
-5.4000 3.8772 1.6907
-5.5082 3.6618 1.6907
-5.6088 3.4442 1.6906
-5.7019 3.2245 1.6905
-5.7874 3.0030 1.6904
-5.8653 2.7799 1.6904
-5.9357 2.5555 1.6903
-5.9987 2.3300 1.6902
-6.0541 2.1035 1.6901
-6.1021 1.8763 1.6901
-6.1428 1.6487 1.6900
-6.1761 1.4208 1.6899
-6.2021 1.1928 1.6899
-6.2205 0.9648 1.6897
-6.2313 0.7371 1.6895
-6.2353 0.5099 1.6893
-6.2328 0.2835 1.6893
-6.2232 0.0578 1.6893
-6.2066 -0.1668 1.6893
-6.1831 -0.3903 1.6892
-6.1528 -0.6125 1.6892
-6.1151 -0.8331 1.6891
-6.0706 -1.0519 1.6889
-6.0201 -1.2691 1.6889
-5.9629 -1.4843 1.6889
-5.8992 -1.6974 1.6889
-5.8290 -1.9082 1.6889
-5.7524 -2.1165 1.6889
-5.6695 -2.3223 1.6889
-5.5802 -2.5253 1.6889
-5.4848 -2.7255 1.6889
-5.3832 -2.9226 1.6889
-5.2756 -3.1165 1.6889
-5.1620 -3.3071 1.6889
-5.0425 -3.4943 1.6889
-4.9171 -3.6778 1.6889
-4.7860 -3.8575 1.6889
-4.6493 -4.0333 1.6889
-4.5069 -4.2051 1.6889
-4.3591 -4.3726 1.6889
-4.2058 -4.5358 1.6889
-4.0472 -4.6944 1.6889
-3.8834 -4.8484 1.6889
-3.7145 -4.9976 1.6889
-3.5405 -5.1418 1.6889
-3.3616 -5.2810 1.6889
-3.1779 -5.4148 1.6889
-2.9895 -5.5432 1.6889
-2.7965 -5.6661 1.6889
-2.5990 -5.7832 1.6889
-2.3972 -5.8944 1.6889
-2.1911 -5.9996 1.6889
-1.9810 -6.0986 1.6889
-1.7670 -6.1912 1.6889
-1.5491 -6.2774 1.6889
-1.3276 -6.3568 1.6889
-1.1027 -6.4295 1.6889
-0.8744 -6.4951 1.6889
-0.6430 -6.5537 1.6889
-0.4087 -6.6049 1.6889
-0.1716 -6.6487 1.6889
0.0680 -6.6849 1.6889
0.3100 -6.7134 1.6889
0.5541 -6.7340 1.6889
0.8002 -6.7466 1.6889
1.0478 -6.7510 1.6889
1.2969 -6.7471 1.6889
1.5472 -6.7347 1.6889
1.7984 -6.7139 1.6889
2.0501 -6.6843 1.6889
2.3022 -6.6460 1.6889
2.5544 -6.5988 1.6889
2.6349 -6.1432 1.5858
2.8709 -6.0820 1.5858
3.1059 -6.0121 1.5858
3.3398 -5.9336 1.5858
3.5721 -5.8464 1.5858
3.8026 -5.7505 1.5858
4.0309 -5.6458 1.5858
4.2566 -5.5323 1.5858
4.4794 -5.4101 1.5858
4.6990 -5.2791 1.5858
4.9148 -5.1395 1.5858
5.1266 -4.9911 1.5858
5.3339 -4.8342 1.5858
5.5364 -4.6687 1.5858
5.7337 -4.4949 1.5858
5.9253 -4.3128 1.5858
6.1108 -4.1226 1.5858
6.3816 -3.9816 1.6089
6.5563 -3.7727 1.6089
6.7238 -3.5561 1.6089
6.8834 -3.3322 1.6089
7.0349 -3.1011 1.6089
7.1779 -2.8632 1.6089
7.3120 -2.6188 1.6089
7.4368 -2.3682 1.6089
7.5519 -2.1118 1.6089
7.6571 -1.8500 1.6089
7.7519 -1.5831 1.6089
7.8362 -1.3117 1.6089
7.9095 -1.0361 1.6089
7.9717 -0.7568 1.6089
8.0225 -0.4744 1.6089
8.0616 -0.1893 1.6089
8.0890 0.0979 1.6089
8.1043 0.3867 1.6089
8.1076 0.6766 1.6089
8.0987 0.9669 1.6089
8.0774 1.2572 1.6089
8.0439 1.5468 1.6089
7.9980 1.8351 1.6089
7.9398 2.1215 1.6089
7.8694 2.4056 1.6089
7.7869 2.6866 1.6089
1.5611 0.6015 0.3265
1.5449 0.6593 0.3277
7.4680 3.5058 1.6089
7.3386 3.7691 1.6089
7.1980 4.0265 1.6089
7.0466 4.2776 1.6089
6.8846 4.5219 1.6089
6.6162 4.6906 1.5858
6.4369 4.9165 1.5858
6.2483 5.1343 1.5858
6.0510 5.3437 1.5858
5.8452 5.5442 1.5858
5.6314 5.7354 1.5858
5.4103 5.9172 1.5858
5.1821 6.0891 1.5858
4.9475 6.2509 1.5858
4.7069 6.4025 1.5858
4.4609 6.5435 1.5858
4.2099 6.6739 1.5858
3.9546 6.7935 1.5858
3.6954 6.9021 1.5858
3.4329 6.9998 1.5858
3.1770 7.1075 1.5905
0.8024 1.9816 0.4388
0.7309 2.0077 0.4406
0.6585 2.0313 0.4425
0.5854 2.0524 0.4445
0.5117 2.0710 0.4466
0.4373 2.0869 0.4487
0.3625 2.1003 0.4510
0.2873 2.1110 0.4533
0.2118 2.1192 0.4557
0.1360 2.1247 0.4582
0.0601 2.1275 0.4607
-0.0159 2.1278 0.4633
-0.0918 2.1254 0.4660
-0.1676 2.1203 0.4687
-0.2432 2.1127 0.4715
-0.3184 2.1024 0.4744
-4.9307 3.5463 1.6911
-5.0316 3.3508 1.6910
-5.1257 3.1530 1.6909
-5.2128 2.9531 1.6909
-5.2930 2.7514 1.6908
-5.3663 2.5481 1.6907
-5.4326 2.3434 1.6907
-5.4921 2.1375 1.6906
-5.5446 1.9305 1.6905
-5.5904 1.7228 1.6904
-5.6293 1.5145 1.6904
-5.6613 1.3058 1.6903
-5.6860 1.0968 1.6900
-5.7039 0.8877 1.6897
-5.7153 0.6789 1.6895
-5.7207 0.4705 1.6895
-5.7196 0.2627 1.6895
-5.7119 0.0554 1.6895
-5.6977 -0.1509 1.6894
-5.6770 -0.3563 1.6894
-5.6495 -0.5605 1.6893
-5.6153 -0.7633 1.6890
-5.5753 -0.9646 1.6889
-5.5295 -1.1644 1.6889
-5.4774 -1.3623 1.6889
-5.4193 -1.5583 1.6889
-5.3551 -1.7523 1.6889
-5.2849 -1.9439 1.6889
-5.2088 -2.1332 1.6889
-5.1268 -2.3200 1.6889
-5.0391 -2.5040 1.6889
-4.9457 -2.6853 1.6889
-4.8466 -2.8636 1.6889
-4.7419 -3.0387 1.6889
-4.6318 -3.2106 1.6889
-4.5162 -3.3791 1.6889
-4.3953 -3.5441 1.6889
-4.2692 -3.7053 1.6889
-4.1378 -3.8628 1.6889
-4.0014 -4.0163 1.6889
-3.8600 -4.1657 1.6889
-3.7137 -4.3108 1.6889
-3.5626 -4.4515 1.6889
-3.4068 -4.5877 1.6889
-3.2464 -4.7193 1.6889
-3.0815 -4.8460 1.6889
-2.9121 -4.9677 1.6889
-2.7385 -5.0844 1.6889
-2.5608 -5.1958 1.6889
-2.3789 -5.3018 1.6889
-2.1932 -5.4023 1.6889
-2.0037 -5.4972 1.6889
-1.8105 -5.5862 1.6889
-1.6138 -5.6693 1.6889
-1.4138 -5.7463 1.6889
-1.2105 -5.8170 1.6889
-1.0042 -5.8814 1.6889
-0.7950 -5.9393 1.6889
-0.5831 -5.9905 1.6889
-0.3686 -6.0350 1.6889
-0.1518 -6.0725 1.6889
0.0672 -6.1031 1.6889
0.2881 -6.1264 1.6889
0.5108 -6.1425 1.6889
0.7349 -6.1512 1.6889
0.9604 -6.1523 1.6889
1.1870 -6.1459 1.6889
1.4144 -6.1317 1.6889
1.6424 -6.1096 1.6889
1.8707 -6.0797 1.6889
2.0990 -6.0417 1.6889
2.3272 -5.9957 1.6889
2.5196 -5.8596 1.6656
2.6403 -5.5804 1.6031
2.8238 -5.4538 1.5858
3.0344 -5.3796 1.5858
3.2434 -5.2976 1.5858
3.4505 -5.2077 1.5858
3.6553 -5.1100 1.5858
3.8576 -5.0045 1.5858
4.0570 -4.8911 1.5858
4.2532 -4.7699 1.5858
4.4458 -4.6410 1.5858
4.6346 -4.5044 1.5858
4.8191 -4.3602 1.5858
4.9991 -4.2085 1.5858
5.1741 -4.0494 1.5858
5.3439 -3.8831 1.5858
5.5081 -3.7096 1.5858
5.6663 -3.5293 1.5858
5.8183 -3.3421 1.5858
6.0504 -3.1943 1.6089
6.1907 -2.9914 1.6089
6.3236 -2.7823 1.6089
6.4488 -2.5674 1.6089
6.5659 -2.3468 1.6089
6.6747 -2.1209 1.6089
6.7748 -1.8901 1.6089
6.8660 -1.6546 1.6089
6.9479 -1.4149 1.6089
7.0204 -1.1713 1.6089
7.0833 -0.9242 1.6089
7.1362 -0.6741 1.6089
7.1790 -0.4213 1.6089
7.2115 -0.1663 1.6089
7.2336 0.0904 1.6089
7.2452 0.3483 1.6089
7.2460 0.6071 1.6089
7.2362 0.8662 1.6089
7.2156 1.1250 1.6089
7.1841 1.3832 1.6089
7.1419 1.6402 1.6089
7.0889 1.8955 1.6089
7.0252 2.1486 1.6089
6.9508 2.3990 1.6089
1.5608 0.6016 0.3657
1.5448 0.6593 0.3671
6.6653 3.1291 1.6089
6.5499 3.3639 1.6089
6.4247 3.5936 1.6089
6.2901 3.8177 1.6089
6.1461 4.0359 1.6089
5.9933 4.2477 1.6089
5.7481 4.3888 1.5858
5.5808 4.5838 1.5858
5.4057 4.7715 1.5858
5.2231 4.9515 1.5858
5.0335 5.1234 1.5858
4.8373 5.2870 1.5858
4.6348 5.4421 1.5858
4.4266 5.5883 1.5858
4.2130 5.7256 1.5858
3.9944 5.8537 1.5858
3.7714 5.9725 1.5858
3.5444 6.0818 1.5858
3.3138 6.1815 1.5858
3.0801 6.2716 1.5858
0.7961 1.7782 0.4439
0.7319 1.8043 0.4455
0.6668 1.8282 0.4472
0.6010 1.8498 0.4489
0.5345 1.8690 0.4507
0.4674 1.8859 0.4526
0.3997 1.9005 0.4546
0.3316 1.9127 0.4566
0.2631 1.9225 0.4587
0.1943 1.9299 0.4609
0.1254 1.9350 0.4632
0.0563 1.9376 0.4655
-0.0129 1.9378 0.4679
-0.0820 1.9356 0.4703
-0.1510 1.9310 0.4728
-0.2198 1.9240 0.4753
-0.2883 1.9146 0.4779
-4.5314 3.2647 1.6914
-4.6259 3.0859 1.6913
-4.7140 2.9048 1.6912
-4.7958 2.7217 1.6912
-4.8712 2.5368 1.6911
-4.9402 2.3502 1.6910
-5.0028 2.1622 1.6909
-5.0590 1.9729 1.6909
-5.1089 1.7826 1.6908
-5.1523 1.5915 1.6907
-5.1890 1.3995 1.6905
-5.2193 1.2071 1.6902
-5.2434 1.0144 1.6900
-5.2611 0.8217 1.6897
-5.2732 0.6291 1.6897
-5.2792 0.4368 1.6896
-5.2791 0.2448 1.6896
-5.2728 0.0534 1.6896
-5.2605 -0.1373 1.6896
-5.2416 -0.3271 1.6894
-5.2167 -0.5159 1.6892
-5.1858 -0.7034 1.6890
-5.1495 -0.8896 1.6889
-5.1076 -1.0743 1.6889
-5.0599 -1.2574 1.6889
-5.0065 -1.4388 1.6889
-4.9474 -1.6181 1.6889
-4.8827 -1.7955 1.6889
-4.8125 -1.9706 1.6889
-4.7368 -2.1433 1.6889
-4.6557 -2.3135 1.6889
-4.5692 -2.4811 1.6889
-4.4775 -2.6459 1.6889
-4.3805 -2.8078 1.6889
-4.2785 -2.9666 1.6889
-4.1714 -3.1222 1.6889
-4.0593 -3.2745 1.6889
-3.9424 -3.4234 1.6889
-3.8206 -3.5686 1.6889
-3.6941 -3.7101 1.6889
-3.5630 -3.8477 1.6889
-3.4273 -3.9813 1.6889
-3.2872 -4.1107 1.6889
-3.1427 -4.2359 1.6889
-2.9940 -4.3567 1.6889
-2.8412 -4.4729 1.6889
-2.6843 -4.5844 1.6889
-2.5234 -4.6912 1.6889
-2.3588 -4.7930 1.6889
-2.1905 -4.8897 1.6889
-2.0186 -4.9813 1.6889
-1.8433 -5.0675 1.6889
-1.6647 -5.1482 1.6889
-1.4830 -5.2234 1.6889
-1.2982 -5.2928 1.6889
-1.1105 -5.3564 1.6889
-0.9202 -5.4141 1.6889
-0.7273 -5.4656 1.6889
-0.5320 -5.5110 1.6889
-0.3345 -5.5501 1.6889
-0.1349 -5.5827 1.6889
0.0664 -5.6087 1.6889
0.2695 -5.6281 1.6889
0.4739 -5.6408 1.6889
0.6797 -5.6466 1.6889
0.8864 -5.6454 1.6889
1.0940 -5.6372 1.6889
1.3022 -5.6219 1.6889
1.5107 -5.5993 1.6889
1.7193 -5.5695 1.6889
1.9278 -5.5323 1.6889
2.1359 -5.4877 1.6889
2.3433 -5.4357 1.6889
2.3941 -5.0480 1.5858
2.5869 -4.9850 1.5858
2.7783 -4.9149 1.5858
2.9680 -4.8377 1.5858
3.1557 -4.7534 1.5858
3.3412 -4.6620 1.5858
3.5243 -4.5635 1.5858
3.7045 -4.4579 1.5858
3.8816 -4.3454 1.5858
4.0553 -4.2258 1.5858
4.2253 -4.0995 1.5858
4.3913 -3.9663 1.5858
4.5530 -3.8264 1.5858
4.7101 -3.6800 1.5858
4.8623 -3.5271 1.5858
5.0092 -3.3679 1.5858
5.1507 -3.2025 1.5858
5.2863 -3.0312 1.5858
5.4158 -2.8542 1.5858
5.5389 -2.6715 1.5858
5.6554 -2.4836 1.5858
5.8488 -2.3239 1.6089
5.9525 -2.1232 1.6089
6.0487 -1.9178 1.6089
6.1370 -1.7081 1.6089
6.2172 -1.4944 1.6089
6.2891 -1.2771 1.6089
6.3525 -1.0564 1.6089
6.4072 -0.8327 1.6089
6.4530 -0.6064 1.6089
6.4897 -0.3779 1.6089
6.5173 -0.1476 1.6089
6.5355 0.0842 1.6089
6.5444 0.3170 1.6089
6.5437 0.5504 1.6089
6.5334 0.7840 1.6089
6.5136 1.0174 1.6089
6.4841 1.2500 1.6089
6.4451 1.4816 1.6089
6.3965 1.7116 1.6089
6.3383 1.9395 1.6089
6.2708 2.1651 1.6089
1.5606 0.6016 0.4054
1.5446 0.6593 0.4069
6.0126 2.8229 1.6089
5.9087 3.0344 1.6089
5.7960 3.2415 1.6089
5.6748 3.4437 1.6089
5.5455 3.6405 1.6089
5.4082 3.8318 1.6089
5.1876 3.9594 1.5858
5.0374 4.1358 1.5858
4.8803 4.3056 1.5858
4.7164 4.4687 1.5858
4.5463 4.6246 1.5858
4.3702 4.7733 1.5858
4.1884 4.9143 1.5858
4.0015 5.0476 1.5858
3.8096 5.1729 1.5858
3.6133 5.2901 1.5858
3.4129 5.3989 1.5858
3.2088 5.4994 1.5858
0.8463 1.5766 0.4471
0.7892 1.6047 0.4484
0.7312 1.6307 0.4498
0.6724 1.6547 0.4512
0.6127 1.6766 0.4527
