ply
format ascii 1.0
element vertex 2122
property float32 x
property float32 y
property float32 z
end_header
-11.7602 -16.6060 -0.8069
-10.9164 -16.6478 -0.7895
-10.4708 -17.2881 -0.8017
-9.9825 -17.8984 -0.8130
-9.8557 -19.2615 -0.8584
-10.7320 -22.9667 -1.0059
-11.3910 -26.8435 -1.1572
-11.0147 -28.7814 -1.2231
1.2411 -19.2859 -0.7674
3.9998 -39.8320 -1.5897
3.8906 -28.4529 -1.1403
4.1224 -23.7719 -0.9580
6.3769 -30.2859 -1.2289
4.8452 -19.5169 -0.7984
4.6169 -16.1072 -0.6652
7.8476 -24.0864 -1.0057
7.3101 -19.9779 -0.8445
9.8453 -24.1854 -1.0365
10.8938 -24.2373 -1.0547
4.8164 -9.7649 -0.4321
5.2646 -9.7749 -0.4406
8.6892 -14.8351 -0.6821
4.9165 -7.7441 -0.3639
4.5854 -6.6812 -0.3214
2.1658 -2.9254 -0.1444
4.6288 -5.8054 -0.2944
4.6479 -5.4193 -0.2831
4.6656 -5.0613 -0.2729
4.6821 -4.7278 -0.2637
4.6976 -4.4153 -0.2555
4.7122 -4.1214 -0.2480
4.7259 -3.8436 -0.2413
4.7390 -3.5801 -0.2352
4.7514 -3.3292 -0.2297
4.7633 -3.0893 -0.2248
4.7747 -2.8592 -0.2203
4.7857 -2.6377 -0.2162
4.7963 -2.4238 -0.2126
4.8065 -2.2166 -0.2094
4.8165 -2.0154 -0.2065
4.8262 -1.8192 -0.2039
4.8357 -1.6276 -0.2017
4.8450 -1.4398 -0.1997
4.8542 -1.2552 -0.1981
4.8632 -1.0733 -0.1967
4.8721 -0.8937 -0.1956
4.8809 -0.7157 -0.1948
4.8897 -0.5389 -0.1942
4.8984 -0.3630 -0.1938
4.9071 -0.1873 -0.1937
4.9158 -0.0115 -0.1939
4.9245 0.1649 -0.1943
4.9333 0.3424 -0.1949
4.9422 0.5214 -0.1959
4.9511 0.7024 -0.1970
4.9602 0.8859 -0.1985
4.9695 1.0724 -0.2002
4.9789 1.2626 -0.2022
4.9885 1.4570 -0.2046
4.9984 1.6563 -0.2072
5.0085 1.8613 -0.2102
5.0190 2.0726 -0.2136
5.0299 2.2911 -0.2173
5.0411 2.5180 -0.2215
5.0528 2.7541 -0.2262
5.0650 3.0009 -0.2313
5.0778 3.2596 -0.2371
5.0913 3.5319 -0.2434
5.1056 3.8197 -0.2504
5.1207 4.1250 -0.2582
5.1368 4.4505 -0.2668
5.1541 4.7991 -0.2764
5.1727 5.1744 -0.2871
5.1928 5.5806 -0.2991
5.2147 6.0229 -0.3125
5.2387 6.5076 -0.3276
26.8731 35.9447 -1.7599
27.5412 39.7290 -1.8953
22.4167 34.9461 -1.6275
21.1540 35.7314 -1.6275
18.6798 34.2971 -1.5305
17.1547 34.3727 -1.5053
15.7429 34.5912 -1.4891
14.4326 34.9833 -1.4826
12.9643 34.9216 -1.4592
11.5820 34.9901 -1.4436
9.0382 30.9825 -1.2640
8.2748 32.6753 -1.3200
7.0521 32.7302 -1.3111
5.5797 31.3014 -1.2450
4.4379 31.3580 -1.2401
3.2416 30.8253 -1.2136
2.1774 31.5242 -1.2372
1.0465 31.5571 -1.2362
-0.0842 31.5901 -1.2368
-1.2174 31.6232 -1.2390
-2.3241 31.2264 -1.2260
-3.5936 32.5063 -1.2805
-4.8721 33.1518 -1.3120
-6.5586 35.6911 -1.4209
-7.9081 35.7762 -1.4347
-9.2761 35.8257 -1.4492
-10.6885 35.9267 -1.4679
-12.1182 35.9665 -1.4864
-13.6166 36.0881 -1.5107
-15.1254 36.1154 -1.5337
-15.7709 34.1687 -1.4742
-17.1095 33.8298 -1.4853
-9.9330 18.0083 -0.8058
-9.9435 16.5934 -0.7581
-9.4818 14.6096 -0.6826
-9.9016 14.1221 -0.6761
-9.6174 12.7221 -0.6252
-10.1498 12.4716 -0.6305
-10.1912 11.6447 -0.6068
-10.2297 10.8768 -0.5856
-9.2113 9.1167 -0.5084
-9.4477 8.7035 -0.5040
-10.1979 8.7407 -0.5271
-6.6054 5.2633 -0.3315
-7.1034 5.2556 -0.3469
-10.2909 7.0580 -0.4900
-10.3163 6.5450 -0.4798
-10.3407 6.0524 -0.4707
-10.3642 5.5778 -0.4624
-10.3869 5.1192 -0.4551
-26.8079 2.2574 -0.4536
-26.8556 1.2953 -0.4536
-26.9032 0.3331 -0.4542
-26.9510 -0.6317 -0.4553
-23.7153 -1.4067 -0.4015
-17.8177 -1.6989 -0.3027
-15.6795 -2.0638 -0.2676
-13.1849 -2.2184 -0.2264
-11.2673 -2.3134 -0.1948
-10.2287 -2.4849 -0.1784
-11.1239 -3.1281 -0.1960
-11.1457 -3.5696 -0.1986
-11.1232 -4.0069 -0.2007
-10.1452 -4.0706 -0.1857
-10.3326 -4.5819 -0.1921
-10.3555 -5.0432 -0.1959
-10.3792 -5.5230 -0.2001
-10.3712 -6.0048 -0.2040
-10.4300 -6.5484 -0.2098
-10.4574 -7.1000 -0.2154
-10.4862 -7.6822 -0.2216
-10.3481 -8.1661 -0.2249
-10.5493 -8.9561 -0.2362
-10.5841 -9.6587 -0.2446
-10.4512 -10.2468 -0.2500
-10.6620 -11.2300 -0.2646
-10.7059 -12.1172 -0.2764
-13.5712 -16.5163 -0.3656
-12.6434 -16.5622 -0.3565
-11.7601 -16.6060 -0.3483
-10.9163 -16.6478 -0.3408
-10.4707 -17.2881 -0.3461
-9.9825 -17.8985 -0.3511
-9.8557 -19.2617 -0.3708
-10.7319 -22.9668 -0.4345
-11.3910 -26.8437 -0.5000
-11.0147 -28.7817 -0.5285
-8.3919 -24.5251 -0.4446
-14.3545 -47.4314 -0.8502
0.5337 -18.7527 -0.3221
1.2410 -19.2838 -0.3318
3.6090 -35.9409 -0.6202
3.8906 -28.4530 -0.4931
4.1224 -23.7720 -0.4142
3.9799 -18.9022 -0.3316
4.0985 -16.5091 -0.2920
4.5578 -15.9011 -0.2839
5.1910 -15.9325 -0.2875
5.8416 -15.9647 -0.2917
4.3830 -10.7669 -0.1994
4.4283 -9.8524 -0.1852
4.4676 -9.0578 -0.1732
4.5022 -8.3594 -0.1628
4.5330 -7.7392 -0.1537
4.5605 -7.1834 -0.1458
4.5854 -6.6812 -0.1388
2.1656 -2.9251 -0.0623
4.6288 -5.8054 -0.1271
4.6479 -5.4193 -0.1221
4.6656 -5.0614 -0.1177
4.6821 -4.7278 -0.1138
4.6976 -4.4154 -0.1102
4.7122 -4.1214 -0.1069
4.7259 -3.8437 -0.1040
4.7390 -3.5802 -0.1014
4.7514 -3.3292 -0.0990
4.7633 -3.0893 -0.0968
4.7747 -2.8592 -0.0948
4.7857 -2.6377 -0.0931
4.7963 -2.4238 -0.0915
4.8065 -2.2167 -0.0901
4.8165 -2.0154 -0.0888
4.8262 -1.8193 -0.0877
4.8357 -1.6276 -0.0867
4.8450 -1.4398 -0.0858
4.8542 -1.2552 -0.0851
4.8632 -1.0733 -0.0845
4.8721 -0.8937 -0.0840
4.8809 -0.7157 -0.0836
4.8897 -0.5390 -0.0833
4.8984 -0.3630 -0.0831
4.9071 -0.1873 -0.0830
4.9158 -0.0115 -0.0831
4.9245 0.1649 -0.0832
4.9333 0.3423 -0.0835
4.9422 0.5213 -0.0838
4.9511 0.7023 -0.0843
4.9602 0.8858 -0.0849
4.9695 1.0724 -0.0856
4.9789 1.2626 -0.0865
4.9885 1.4570 -0.0874
4.9984 1.6563 -0.0885
5.0085 1.8612 -0.0898
5.0190 2.0725 -0.0912
5.0298 2.2911 -0.0928
5.0411 2.5180 -0.0945
5.0528 2.7541 -0.0965
5.0650 3.0009 -0.0987
5.0778 3.2596 -0.1011
5.0913 3.5319 -0.1037
5.1056 3.8196 -0.1067
5.1207 4.1250 -0.1100
5.1368 4.4505 -0.1136
5.1541 4.7991 -0.1177
5.1727 5.1743 -0.1222
5.1928 5.5805 -0.1273
5.2147 6.0228 -0.1329
5.2387 6.5075 -0.1393
5.2652 7.0426 -0.1466
5.2947 7.6377 -0.1549
18.6800 34.2971 -0.6503
17.1548 34.3727 -0.6395
15.7430 34.5912 -0.6325
14.2256 34.4814 -0.6206
13.8828 37.3954 -0.6635
11.9180 36.0048 -0.6307
9.0383 30.9825 -0.5366
8.3065 32.8003 -0.5625
5.3713 24.9292 -0.4239
5.7195 32.0854 -0.5416
4.5491 32.1433 -0.5394
3.2417 30.8253 -0.5150
2.1774 31.5242 -0.5250
1.0465 31.5571 -0.5246
-0.0841 31.5901 -0.5248
-1.2174 31.6232 -0.5257
-2.3241 31.2264 -0.5202
-3.5936 32.5063 -0.5433
-4.8721 33.1518 -0.5567
-6.1247 33.3297 -0.5631
-7.3811 33.3919 -0.5683
-9.1992 35.5285 -0.6099
-10.5907 35.5975 -0.6173
-12.0178 35.6682 -0.6257
-13.4856 35.7409 -0.6352
-15.0000 35.8159 -0.6458
-15.9322 34.5178 -0.6324
-17.1096 33.8298 -0.6308
-9.9330 18.0081 -0.3423
-9.9435 16.5933 -0.3221
-9.4818 14.6095 -0.2900
-9.9016 14.1220 -0.2873
-9.6175 12.7221 -0.2658
-10.1498 12.4715 -0.2681
-10.1912 11.6446 -0.2581
-10.2297 10.8767 -0.2491
-9.2113 9.1166 -0.2163
-9.4478 8.7035 -0.2145
-10.1980 8.7407 -0.2244
-6.6518 5.3002 -0.1421
-7.1035 5.2556 -0.1477
-10.2905 7.0577 -0.2087
-10.3160 6.5447 -0.2045
-10.3403 6.0521 -0.2006
-10.3638 5.5776 -0.1972
-10.3865 5.1189 -0.1941
-26.8079 2.2572 0.1523
-26.8556 1.2951 0.1520
-26.9032 0.3329 0.1518
-26.9510 -0.6319 0.1518
-23.7140 -1.4068 0.1336
-17.8169 -1.6989 0.1004
-15.6795 -2.0640 0.0886
-13.1844 -2.2184 0.0748
-11.2670 -2.3134 0.0642
-10.2287 -2.4850 0.0587
-11.1239 -3.1282 0.0643
-11.1457 -3.5697 0.0650
-11.1230 -4.0069 0.0655
-10.1452 -4.0707 0.0605
-10.3326 -4.5820 0.0624
-10.3555 -5.0433 0.0635
-10.3792 -5.5231 0.0647
-10.3710 -6.0048 0.0659
-10.4300 -6.5485 0.0676
-10.4574 -7.1001 0.0693
-10.4862 -7.6822 0.0711
-10.3481 -8.1662 0.0720
-10.5493 -8.9562 0.0755
-10.5841 -9.6588 0.0781
-10.4512 -10.2469 0.0796
-10.6620 -11.2301 0.0841
-10.7059 -12.1173 0.0877
-13.5711 -16.5163 0.1159
-12.6433 -16.5622 0.1128
-11.6897 -16.5066 0.1094
-10.9162 -16.6478 0.1075
-10.4707 -17.2882 0.1091
-9.9824 -17.8985 0.1105
-9.8557 -19.2618 0.1165
-10.7319 -22.9669 0.1364
-11.3910 -26.8439 0.1568
-11.0147 -28.7819 0.1656
-16.1679 -47.2504 0.2681
-14.3544 -47.4314 0.2659
1.2409 -19.2817 0.1034
3.2922 -32.7855 0.1763
3.6088 -26.3928 0.1426
3.8239 -22.0508 0.1198
3.9799 -18.9023 0.1035
4.0985 -16.5092 0.0911
4.5578 -15.9011 0.0887
5.1909 -15.9325 0.0899
5.8416 -15.9647 0.0912
4.3830 -10.7670 0.0624
4.4283 -9.8524 0.0580
4.4676 -9.0579 0.0543
4.5022 -8.3595 0.0511
4.5329 -7.7393 0.0483
4.5605 -7.1834 0.0459
4.5854 -6.6813 0.0437
2.1653 -2.9248 0.0197
4.6288 -5.8054 0.0401
4.6479 -5.4194 0.0386
4.6656 -5.0614 0.0373
4.6821 -4.7278 0.0361
4.6976 -4.4154 0.0350
4.7122 -4.1215 0.0341
4.7259 -3.8437 0.0332
4.7390 -3.5802 0.0324
4.7514 -3.3293 0.0317
4.7633 -3.0894 0.0311
4.7747 -2.8592 0.0305
4.7857 -2.6377 0.0300
4.7963 -2.4239 0.0295
4.8065 -2.2167 0.0291
4.8165 -2.0154 0.0288
4.8262 -1.8193 0.0285
4.8357 -1.6276 0.0282
4.8450 -1.4398 0.0280
4.8542 -1.2552 0.0278
4.8632 -1.0734 0.0277
4.8721 -0.8937 0.0276
4.8809 -0.7158 0.0275
4.8897 -0.5390 0.0275
4.8984 -0.3630 0.0275
4.9071 -0.1874 0.0276
4.9158 -0.0116 0.0276
4.9245 0.1649 0.0277
4.9333 0.3423 0.0279
4.9422 0.5213 0.0281
4.9511 0.7023 0.0283
4.9602 0.8858 0.0286
4.9695 1.0724 0.0289
4.9789 1.2626 0.0292
4.9885 1.4570 0.0296
4.9984 1.6563 0.0301
5.0085 1.8612 0.0306
5.0190 2.0725 0.0311
5.0298 2.2911 0.0317
5.0411 2.5179 0.0324
5.0528 2.7541 0.0331
5.0650 3.0008 0.0339
5.0778 3.2595 0.0348
5.0913 3.5318 0.0358
5.1056 3.8196 0.0369
5.1207 4.1249 0.0381
5.1368 4.4504 0.0395
5.1541 4.7990 0.0409
5.1727 5.1743 0.0426
5.1928 5.5805 0.0444
5.2147 6.0228 0.0465
5.2387 6.5075 0.0488
5.2652 7.0425 0.0514
5.2947 7.6377 0.0544
5.4602 8.5120 0.0593
5.3198 8.9857 0.0612
18.6801 34.2971 0.2293
17.1550 34.3727 0.2257
15.7431 34.5911 0.2235
14.2256 34.4811 0.2195
13.8829 37.3954 0.2349
11.9183 36.0055 0.2235
9.7737 33.5034 0.2057
8.3063 32.7992 0.1996
5.3713 24.9290 0.1505
5.7195 32.0854 0.1924
4.5491 32.1433 0.1917
3.2417 30.8253 0.1831
2.1774 31.5242 0.1867
1.0465 31.5571 0.1866
-0.0841 31.5901 0.1867
-1.2174 31.6232 0.1870
-2.3241 31.2264 0.1850
-3.5936 32.5063 0.1932
-4.8721 33.1519 0.1979
-6.1247 33.3297 0.2001
-7.3941 33.4506 0.2023
-9.2762 35.8257 0.2184
-10.6793 35.8952 0.2209
-12.1184 35.9665 0.2238
-13.5886 36.0135 0.2269
-15.1256 36.1154 0.2306
-16.3948 35.5199 0.2303
-18.3234 36.2294 0.2388
-9.9330 18.0080 0.1209
-9.9435 16.5932 0.1136
-9.4818 14.6094 0.1022
-9.9016 14.1219 0.1011
-9.6176 12.7221 0.0934
-10.1498 12.4714 0.0941
-10.1912 11.6445 0.0905
-10.2297 10.8766 0.0872
-9.2114 9.1166 0.0756
-9.4479 8.7035 0.0748
-10.1981 8.7407 0.0781
-10.2358 8.1558 0.0760
-10.2636 7.5935 0.0741
-10.2902 7.0574 0.0723
-10.3156 6.5444 0.0707
-10.3400 6.0518 0.0692
-10.3635 5.5773 0.0679
-10.3862 5.1187 0.0667
-26.8079 2.2570 0.7584
-26.8556 1.2949 0.7577
-26.9032 0.3327 0.7579
-26.9510 -0.6320 0.7591
-23.7126 -1.4069 0.6687
-17.8162 -1.6990 0.5036
-15.6795 -2.0641 0.4449
-13.1841 -2.2184 0.3759
-11.2667 -2.3134 0.3233
-10.2287 -2.4850 0.2958
-11.1239 -3.1283 0.3246
-11.1457 -3.5697 0.3286
-11.1229 -4.0069 0.3319
-10.1452 -4.0708 0.3068
-10.3326 -4.5820 0.3171
-10.3555 -5.0433 0.3230
-10.3792 -5.5232 0.3296
-10.3710 -6.0048 0.3359
-10.4300 -6.5486 0.3450
-10.4574 -7.1001 0.3540
-10.4862 -7.6823 0.3640
-10.3481 -8.1663 0.3690
-10.5493 -8.9563 0.3873
-10.5841 -9.6589 0.4009
-10.4512 -10.2470 0.4094
-10.6620 -11.2302 0.4330
-10.7059 -12.1174 0.4520
-13.5710 -16.5163 0.5974
-12.6432 -16.5622 0.5822
-11.6896 -16.5066 0.5650
-10.9161 -16.6478 0.5560
-10.4706 -17.2882 0.5644
-9.9824 -17.8986 0.5722
-9.8557 -19.2620 0.6040
-10.7318 -22.9669 0.7075
-11.3910 -26.8441 0.8137
-11.0147 -28.7821 0.8598
-16.1678 -47.2504 1.3932
-9.8093 -32.4130 0.9446
-3.3683 -42.5535 1.1901
-1.8427 -42.6527 1.1902
-0.2923 -39.7043 1.1069
0.6327 -22.2313 0.6200
1.2407 -19.2795 0.5386
3.2921 -32.7856 0.9186
3.6088 -26.3929 0.7427
3.8239 -22.0509 0.6240
3.9799 -18.9024 0.5386
4.0985 -16.5093 0.4743
4.5577 -15.9011 0.4613
5.1909 -15.9325 0.4673
5.8416 -15.9647 0.4742
4.3830 -10.7670 0.3243
4.4283 -9.8525 0.3014
4.4676 -9.0579 0.2818
4.5022 -8.3595 0.2650
4.5329 -7.7393 0.2504
4.5605 -7.1835 0.2375
4.5854 -6.6813 0.2263
2.1651 -2.9245 0.1016
4.6287 -5.8055 0.2074
4.6479 -5.4194 0.1995
4.6656 -5.0615 0.1924
4.6821 -4.7279 0.1860
4.6976 -4.4154 0.1803
4.7122 -4.1215 0.1751
4.7259 -3.8438 0.1704
4.7390 -3.5803 0.1662
4.7514 -3.3293 0.1624
4.7633 -3.0894 0.1590
4.7747 -2.8593 0.1559
4.7857 -2.6378 0.1531
4.7963 -2.4239 0.1506
4.8065 -2.2167 0.1484
4.8165 -2.0155 0.1464
4.8262 -1.8193 0.1447
4.8357 -1.6277 0.1432
4.8450 -1.4399 0.1419
4.8542 -1.2553 0.1408
4.8632 -1.0734 0.1399
4.8721 -0.8937 0.1392
4.8809 -0.7158 0.1387
4.8896 -0.5390 0.1383
4.8984 -0.3631 0.1382
4.9071 -0.1874 0.1382
4.9158 -0.0116 0.1384
4.9245 0.1648 0.1387
4.9333 0.3423 0.1393
4.9422 0.5213 0.1400
4.9511 0.7023 0.1410
4.9602 0.8858 0.1421
4.9695 1.0723 0.1434
4.9789 1.2625 0.1449
4.9885 1.4569 0.1467
4.9984 1.6562 0.1487
5.0086 1.8611 0.1509
5.0190 2.0725 0.1534
5.0298 2.2910 0.1562
5.0411 2.5179 0.1593
5.0528 2.7540 0.1628
5.0650 3.0008 0.1666
5.0778 3.2595 0.1708
5.0913 3.5318 0.1754
5.1056 3.8195 0.1806
5.1207 4.1249 0.1863
5.1368 4.4504 0.1926
5.1541 4.7990 0.1996
5.1727 5.1742 0.2074
5.1928 5.5804 0.2162
5.2147 6.0227 0.2260
5.2387 6.5074 0.2370
5.2652 7.0424 0.2495
5.2947 7.6376 0.2638
5.2400 8.1685 0.2755
4.9721 8.3982 0.2771
4.9767 9.1373 0.2955
17.1551 34.3727 1.0911
15.7432 34.5910 1.0797
11.1169 26.9457 0.8282
13.8830 37.3954 1.1335
4.8571 14.6732 0.4393
9.6234 32.9877 0.9767
8.3061 32.7980 0.9617
5.3713 24.9287 0.7250
5.7196 32.0854 0.9266
4.5491 32.1433 0.9230
3.2417 30.8253 0.8813
0.7841 11.3521 0.3236
0.3770 11.3673 0.3234
-0.0302 11.3446 0.3226
-0.4344 11.2845 0.3211
-0.8327 11.1876 0.3190
-3.5937 32.5063 0.9300
-4.8722 33.1519 0.9528
-6.1248 33.3297 0.9635
-7.3942 33.4506 0.9740
-9.2763 35.8257 1.0521
-10.6793 35.8952 1.0646
-12.1184 35.9665 1.0788
-13.5887 36.0135 1.0940
-15.1256 36.1154 1.1127
-16.3948 35.5197 1.1116
-18.3268 36.2360 1.1537
-9.9329 18.0079 0.5842
-9.9435 16.5930 0.5494
-9.4818 14.6093 0.4946
-9.9016 14.1218 0.4897
-9.6177 12.7221 0.4527
-10.1498 12.4713 0.4563
-10.1912 11.6444 0.4391
-10.2297 10.8765 0.4236
-9.2114 9.1165 0.3675
-9.4480 8.7036 0.3642
-10.1982 8.7407 0.3807
-10.2354 8.1555 0.3709
-10.2633 7.5932 0.3617
-10.2898 7.0571 0.3534
-10.3153 6.5441 0.3459
-10.3397 6.0516 0.3391
-10.3632 5.5771 0.3330
-10.3859 5.1185 0.3275
-26.8079 2.2569 1.3652
-26.8556 1.2948 1.3641
-26.9033 0.3325 1.3648
-26.9511 -0.6322 1.3672
-23.7112 -1.4069 1.2044
-17.8154 -1.6990 0.9073
-15.6795 -2.0642 0.8016
-13.1837 -2.2184 0.6775
-11.2664 -2.3134 0.5827
-10.2287 -2.4851 0.5332
-11.1239 -3.1283 0.5852
-11.1457 -3.5698 0.5926
-11.1227 -4.0069 0.5985
-10.1452 -4.0708 0.5533
-10.3326 -4.5821 0.5720
-10.3555 -5.0434 0.5828
-10.3792 -5.5232 0.5948
-10.3708 -6.0048 0.6062
-10.4300 -6.5487 0.6228
-10.4574 -7.1002 0.6391
-10.4862 -7.6824 0.6572
-10.3481 -8.1664 0.6663
-10.5493 -8.9564 0.6994
-10.5841 -9.6590 0.7241
-10.4512 -10.2471 0.7395
-10.6620 -11.2303 0.7823
-10.7059 -12.1175 0.8167
-11.8648 -14.4398 0.9439
-11.4604 -15.0130 0.9538
-11.5228 -16.2712 1.0067
-10.9161 -16.6478 1.0050
-10.4706 -17.2883 1.0203
-9.9823 -17.8986 1.0344
-9.8557 -19.2621 1.0920
-10.7318 -22.9670 1.2793
-11.3910 -26.8443 1.4715
-11.0147 -28.7823 1.5550
-10.2166 -29.8582 1.5922
-9.1416 -30.2070 1.5922
-8.5769 -32.4957 1.6954
-7.4083 -32.7837 1.6954
-6.2300 -33.0295 1.6954
-5.0435 -33.2326 1.6954
-3.8505 -33.3930 1.6954
-2.6525 -33.5103 1.6954
-1.4509 -33.5845 1.6954
-0.2424 -32.9310 1.6609
0.6327 -22.2313 1.1217
1.2356 -19.1995 0.9703
3.1544 -31.4138 1.5923
3.6088 -26.3930 1.3435
3.8239 -22.0510 1.1288
3.9799 -18.9024 0.9743
4.0985 -16.5094 0.8580
4.5577 -15.9011 0.8344
5.1909 -15.9325 0.8453
5.8415 -15.9647 0.8576
4.3829 -10.7671 0.5865
4.4283 -9.8526 0.5450
4.4676 -9.0580 0.5096
4.5022 -8.3596 0.4791
4.5329 -7.7394 0.4527
4.5605 -7.1835 0.4295
4.5854 -6.6814 0.4091
2.1648 -2.9242 0.1837
4.6287 -5.8055 0.3749
4.6479 -5.4194 0.3605
4.6656 -5.0615 0.3477
4.6821 -4.7279 0.3361
4.6976 -4.4155 0.3257
4.7122 -4.1215 0.3163
4.7259 -3.8438 0.3078
4.7390 -3.5803 0.3002
4.7514 -3.3293 0.2933
4.7633 -3.0894 0.2870
4.7747 -2.8593 0.2814
4.7857 -2.6378 0.2763
4.7963 -2.4239 0.2718
4.8065 -2.2168 0.2678
4.8165 -2.0155 0.2642
4.8262 -1.8194 0.2610
4.8357 -1.6277 0.2583
4.8450 -1.4399 0.2559
4.8542 -1.2553 0.2539
4.8632 -1.0734 0.2522
4.8721 -0.8938 0.2509
4.8809 -0.7158 0.2499
4.8896 -0.5391 0.2493
4.8984 -0.3631 0.2490
4.9071 -0.1874 0.2489
4.9158 -0.0116 0.2493
4.9245 0.1648 0.2499
4.9333 0.3423 0.2508
4.9422 0.5212 0.2521
4.9511 0.7022 0.2538
4.9602 0.8857 0.2557
4.9695 1.0723 0.2581
4.9789 1.2625 0.2608
4.9885 1.4569 0.2639
4.9984 1.6562 0.2675
5.0085 1.8611 0.2715
5.0190 2.0724 0.2759
5.0298 2.2910 0.2809
5.0411 2.5178 0.2864
5.0528 2.7540 0.2926
5.0650 3.0007 0.2994
5.0778 3.2595 0.3069
5.0913 3.5318 0.3152
5.1056 3.8195 0.3244
5.1207 4.1249 0.3346
5.1368 4.4503 0.3459
5.1541 4.7989 0.3584
5.1727 5.1742 0.3724
5.1928 5.5804 0.3881
5.2147 6.0227 0.4057
5.2387 6.5074 0.4254
5.2652 7.0424 0.4479
5.2947 7.6375 0.4734
5.1900 8.0906 0.4897
4.9317 8.3299 0.4932
4.7826 8.7808 0.5095
14.1559 28.3632 1.6154
13.1301 28.8493 1.6154
9.3141 22.5758 1.2448
11.0300 29.7102 1.6154
4.8571 14.6732 0.7879
8.8742 30.4194 1.6154
7.7788 30.7158 1.6154
6.5988 30.6256 1.5973
5.4977 30.8409 1.5973
4.3897 31.0168 1.5973
3.2417 30.8253 1.5805
0.6375 9.2299 0.4718
0.3060 9.2279 0.4708
-0.0246 9.2259 0.4705
-0.3551 9.2238 0.4707
-0.6864 9.2218 0.4716
-1.0193 9.2198 0.4730
-4.5405 30.8953 1.5923
-5.6441 30.7137 1.5923
-6.7404 30.4929 1.5923
-7.8283 30.2333 1.5923
-8.9898 30.2160 1.6073
-10.2105 30.3036 1.6303
-11.4576 30.3653 1.6545
-12.7360 30.4094 1.6806
-13.9396 30.2003 1.6954
-15.0133 29.6842 1.6954
-9.9329 18.0078 1.0481
-9.9436 16.5929 0.9858
-9.4818 14.6092 0.8874
-9.9017 14.1217 0.8787
-9.6177 12.7221 0.8125
-10.1499 12.4712 0.8190
-10.1912 11.6443 0.7881
-10.2297 10.8765 0.7604
-9.2114 9.1164 0.6599
-9.4481 8.7036 0.6540
-10.1983 8.7407 0.6837
-10.2351 8.1551 0.6660
-10.2629 7.5928 0.6496
-10.2895 7.0568 0.6348
-10.3149 6.5438 0.6214
-10.3393 6.0513 0.6093
-10.3628 5.5768 0.5985
-10.3856 5.1182 0.5887
-22.2166 1.8702 1.6354
-22.2723 1.0737 1.6354
-22.2995 0.2755 1.6354
-22.2982 -0.5232 1.6354
-22.2682 -1.3214 1.6354
-17.8146 -1.6991 1.3118
-15.6795 -2.0643 1.1591
-13.1833 -2.2184 0.9797
-11.2661 -2.3134 0.8427
-10.2287 -2.4852 0.7712
-11.1239 -3.1284 0.8465
-11.1457 -3.5699 0.8572
-11.1225 -4.0069 0.8658
-10.1452 -4.0709 0.8005
-10.3326 -4.5822 0.8276
-10.3555 -5.0435 0.8432
-10.3792 -5.5233 0.8606
-10.3707 -6.0048 0.8771
-10.4300 -6.5488 0.9013
-10.4574 -7.1003 0.9249
-10.4862 -7.6825 0.9511
-10.3481 -8.1665 0.9644
-10.5493 -8.9565 1.0123
-10.5841 -9.6591 1.0480
-10.4512 -10.2472 1.0704
-10.6620 -11.2304 1.1324
-10.7059 -12.1176 1.1823
-11.1221 -13.5361 1.2809
-11.1769 -14.6416 1.3466
-11.2377 -15.8687 1.4214
-10.9160 -16.6478 1.4551
-10.3908 -17.1567 1.4660
-9.9063 -17.7624 1.4863
-9.6956 -18.9493 1.5555
-9.2240 -19.7404 1.5922
-8.5118 -20.0592 1.5922
-7.7885 -20.3522 1.5922
-7.5127 -21.9562 1.6954
-6.7221 -22.2122 1.6954
-5.9227 -22.4395 1.6954
-5.1156 -22.6380 1.6954
-4.3019 -22.8075 1.6954
-3.4826 -22.9475 1.6954
-2.6588 -23.0579 1.6954
-1.8315 -23.1388 1.6954
-1.0019 -23.1898 1.6954
-0.1709 -23.2110 1.6954
0.6202 -21.7915 1.5923
1.2344 -19.1810 1.4039
2.1781 -21.6910 1.5923
2.9533 -21.5989 1.5923
3.7247 -21.4789 1.5923
3.9799 -18.9025 1.4110
4.0985 -16.5094 1.2426
4.5577 -15.9011 1.2084
5.1908 -15.9325 1.2241
5.8415 -15.9647 1.2419
4.3829 -10.7672 0.8493
4.4283 -9.8526 0.7892
4.4676 -9.0580 0.7380
4.5022 -8.3596 0.6938
4.5329 -7.7394 0.6554
4.5605 -7.1836 0.6218
4.5854 -6.6814 0.5923
2.1646 -2.9238 0.2659
4.6287 -5.8056 0.5427
4.6479 -5.4195 0.5219
4.6656 -5.0615 0.5033
4.6821 -4.7279 0.4865
4.6976 -4.4155 0.4714
4.7122 -4.1216 0.4578
4.7259 -3.8438 0.4455
4.7390 -3.5803 0.4344
4.7514 -3.3294 0.4244
4.7633 -3.0895 0.4154
4.7747 -2.8593 0.4072
4.7857 -2.6378 0.3999
4.7963 -2.4240 0.3933
4.8065 -2.2168 0.3874
4.8165 -2.0155 0.3822
4.8262 -1.8194 0.3776
4.8357 -1.6277 0.3736
4.8450 -1.4399 0.3702
4.8542 -1.2553 0.3672
4.8632 -1.0735 0.3648
4.8721 -0.8938 0.3629
4.8809 -0.7158 0.3615
4.8896 -0.5391 0.3605
4.8984 -0.3631 0.3600
4.9071 -0.1875 0.3600
4.9158 -0.0116 0.3604
4.9245 0.1648 0.3613
4.9333 0.3422 0.3626
4.9422 0.5212 0.3645
4.9511 0.7022 0.3668
4.9602 0.8857 0.3697
4.9695 1.0723 0.3730
4.9789 1.2625 0.3769
4.9885 1.4569 0.3814
4.9984 1.6562 0.3865
5.0085 1.8611 0.3922
5.0190 2.0724 0.3987
5.0298 2.2910 0.4059
5.0411 2.5178 0.4138
5.0528 2.7540 0.4227
5.0650 3.0007 0.4325
5.0778 3.2594 0.4433
5.0913 3.5317 0.4553
5.1056 3.8195 0.4685
5.1207 4.1248 0.4832
5.1368 4.4503 0.4995
5.1541 4.7989 0.5177
5.1727 5.1741 0.5379
5.1928 5.5803 0.5604
5.2147 6.0226 0.5858
5.2387 6.5073 0.6143
5.2652 7.0423 0.6466
5.2947 7.6375 0.6835
5.1873 8.0863 0.7066
4.9286 8.3247 0.7116
4.7826 8.7808 0.7356
9.8057 19.6468 1.6154
9.0954 19.9841 1.6154
8.3735 20.2958 1.6154
7.6410 20.5815 1.6154
4.8571 14.6732 1.1374
6.0788 20.8371 1.5973
5.3120 20.9752 1.5923
4.5574 21.1512 1.5923
3.7971 21.3002 1.5923
3.0318 21.4219 1.5923
2.2628 21.5163 1.5923
0.6373 9.2262 0.6807
0.3059 9.2242 0.6793
-0.0246 9.2222 0.6788
-0.3549 9.2202 0.6791
-0.6861 9.2181 0.6804
-1.0189 9.2161 0.6825
-3.3555 22.8315 1.6985
-4.1700 22.6918 1.6981
-4.9785 22.5220 1.6976
-5.7803 22.3237 1.6971
-6.5743 22.0970 1.6966
-7.3595 21.8422 1.6962
-7.6391 20.2454 1.5923
-8.3595 19.9598 1.5923
-9.0694 19.6487 1.5923
-9.7676 19.3124 1.5923
-9.9329 18.0076 1.5130
-6.4229 10.7179 0.9192
-9.4818 14.6091 1.2812
-9.9017 14.1216 1.2686
-9.6178 12.7221 1.1730
-10.1499 12.4712 1.1826
-10.1913 11.6442 1.1380
-10.2297 10.8764 1.0979
-9.2114 9.1163 0.9529
-9.4482 8.7036 0.9444
-10.1984 8.7407 0.9874
-10.2347 8.1547 0.9619
-10.2626 7.5925 0.9382
-10.2892 7.0565 0.9169
-10.3146 6.5435 0.8976
-10.3390 6.0510 0.8802
-10.3625 5.5766 0.8645
-10.3852 5.1180 0.8504
-16.9693 1.4284 1.6354
-17.0114 0.8200 1.6354
-17.0316 0.2103 1.6354
-17.0300 -0.3997 1.6354
-17.0066 -1.0093 1.6354
-16.9613 -1.6178 1.6354
-15.1174 -1.9904 1.4634
-13.1829 -2.2185 1.2829
-11.2658 -2.3134 1.1036
-10.2287 -2.4852 1.0100
-11.1239 -3.1285 1.1086
-11.1457 -3.5700 1.1227
-11.1223 -4.0069 1.1339
-10.1452 -4.0710 1.0484
-10.3326 -4.5823 1.0840
-10.3555 -5.0436 1.1045
-10.3793 -5.5234 1.1273
-10.3706 -6.0048 1.1489
-10.4301 -6.5488 1.1806
-10.4574 -7.1004 1.2116
-10.4862 -7.6826 1.2459
-10.3481 -8.1665 1.2634
-10.5493 -8.9566 1.3262
-10.5841 -9.6591 1.3730
-10.4512 -10.2473 1.4024
-10.5173 -11.0781 1.4635
-10.5342 -11.9234 1.5242
-10.5528 -12.8433 1.5923
-10.0869 -13.2138 1.5923
-9.6079 -13.5674 1.5923
-9.1165 -13.9036 1.5923
-8.6133 -14.2219 1.5923
-8.0990 -14.5220 1.5923
-7.5815 -14.8176 1.5938
-7.4438 -15.9306 1.6837
-6.9166 -16.3001 1.6954
-6.3288 -16.5380 1.6954
-5.7329 -16.7547 1.6954
-5.1295 -16.9498 1.6954
-4.5194 -17.1232 1.6954
-3.9035 -17.2745 1.6954
-3.2826 -17.4036 1.6954
-2.6574 -17.5103 1.6954
-2.0288 -17.5945 1.6954
-1.3975 -17.6561 1.6954
-0.7644 -17.6950 1.6954
-0.1304 -17.7111 1.6954
0.5038 -17.7045 1.6954
1.0682 -16.5987 1.5922
1.6618 -16.5497 1.5922
2.2533 -16.4794 1.5922
2.8418 -16.3880 1.5922
3.4268 -16.2754 1.5922
4.0072 -16.1420 1.5922
4.5577 -15.9011 1.5835
5.1907 -15.9322 1.6042
5.7576 -15.7356 1.6042
4.3829 -10.7672 1.1130
4.4282 -9.8527 1.0342
4.4676 -9.0581 0.9671
4.5022 -8.3597 0.9092
4.5329 -7.7395 0.8589
4.5605 -7.1836 0.8148
4.5854 -6.6815 0.7761
2.1643 -2.9235 0.3484
4.6287 -5.8056 0.7112
4.6479 -5.4195 0.6839
4.6656 -5.0616 0.6594
4.6821 -4.7280 0.6374
4.6976 -4.4156 0.6177
4.7122 -4.1216 0.5998
4.7259 -3.8439 0.5837
4.7390 -3.5804 0.5692
4.7514 -3.3294 0.5560
4.7633 -3.0895 0.5442
4.7747 -2.8594 0.5335
4.7857 -2.6379 0.5238
4.7963 -2.4240 0.5152
4.8065 -2.2168 0.5075
4.8165 -2.0156 0.5007
4.8262 -1.8194 0.4946
4.8357 -1.6278 0.4893
4.8450 -1.4399 0.4848
4.8542 -1.2554 0.4810
4.8632 -1.0735 0.4778
4.8721 -0.8938 0.4753
4.8809 -0.7159 0.4734
4.8896 -0.5391 0.4721
4.8984 -0.3632 0.4714
4.9071 -0.1875 0.4713
4.9158 -0.0117 0.4719
4.9245 0.1647 0.4730
4.9333 0.3422 0.4748
4.9422 0.5212 0.4772
4.9511 0.7022 0.4802
4.9602 0.8857 0.4839
4.9695 1.0722 0.4883
4.9789 1.2624 0.4934
4.9885 1.4568 0.4993
4.9984 1.6561 0.5059
5.0085 1.8610 0.5134
5.0190 2.0724 0.5218
5.0298 2.2909 0.5312
5.0411 2.5178 0.5416
5.0528 2.7539 0.5532
5.0650 3.0007 0.5660
5.0778 3.2594 0.5802
5.0913 3.5317 0.5958
5.1055 3.8194 0.6132
5.1207 4.1248 0.6324
5.1368 4.4502 0.6537
5.1541 4.7988 0.6774
5.1727 5.1741 0.7038
5.1928 5.5803 0.7333
5.2147 6.0226 0.7665
5.2387 6.5073 0.8038
5.2652 7.0422 0.8461
5.2947 7.6374 0.8943
4.8899 7.6226 0.8715
4.5784 7.7330 0.8649
4.7826 8.7807 0.9624
7.4949 15.0167 1.6154
6.9520 15.2747 1.6154
6.4003 15.5131 1.6154
5.7570 15.5068 1.5923
4.8572 14.6732 1.4880
4.6321 15.8780 1.5923
4.0605 16.0332 1.5923
3.4837 16.1679 1.5923
2.9025 16.2818 1.5923
2.3176 16.3750 1.5923
1.8419 17.5139 1.6956
0.6370 9.2225 0.8901
0.3058 9.2205 0.8883
-0.0245 9.2185 0.8876
-0.3548 9.2165 0.8881
-0.6858 9.2145 0.8897
-1.0185 9.2124 0.8924
-2.5628 17.4377 1.6970
-3.1847 17.3303 1.6966
-3.8025 17.2017 1.6962
-4.4155 17.0526 1.6960
-5.0227 16.8818 1.6957
-5.6234 16.6893 1.6955
-5.9441 15.7530 1.6209
-6.3898 15.2566 1.5923
-6.9323 15.0186 1.5923
-7.4659 14.7614 1.5923
-7.9901 14.4853 1.5923
-6.4119 10.6994 1.2006
-9.0072 13.8777 1.5923
-9.4989 13.5471 1.5923
-9.6179 12.7221 1.5348
-10.1499 12.4711 1.5473
-10.1913 11.6441 1.4890
-10.2297 10.8763 1.4366
-9.2114 9.1163 1.2468
-9.4483 8.7036 1.2358
-10.1985 8.7407 1.2920
-10.2343 8.1544 1.2587
-10.2622 7.5922 1.2278
-10.2888 7.0561 1.1998
-10.3142 6.5432 1.1746
-10.3387 6.0508 1.1518
-10.3622 5.5763 1.1314
-10.3849 5.1178 1.1130
-13.2177 1.1125 1.5760
-13.2502 0.6386 1.5760
-13.2657 0.1637 1.5760
-13.2642 -0.3114 1.5760
-13.2457 -0.7862 1.5760
-13.2101 -1.2601 1.5760
-13.1577 -1.7324 1.5760
-12.4297 -2.0918 1.4967
-11.2655 -2.3134 1.3656
-10.2287 -2.4853 1.2498
-11.1239 -3.1286 1.3718
-11.1457 -3.5700 1.3893
-11.1221 -4.0070 1.4032
-10.1452 -4.0711 1.2974
-10.3326 -4.5823 1.3414
-10.3555 -5.0437 1.3669
-10.3793 -5.5235 1.3951
-10.3704 -6.0049 1.4219
-10.4301 -6.5489 1.4612
-10.2897 -6.9866 1.4755
-10.3180 -7.5594 1.5173
-10.3481 -8.1666 1.5637
-10.2340 -8.6889 1.5923
-9.9169 -9.0503 1.5923
-9.5871 -9.4002 1.5923
-9.2450 -9.7381 1.5923
-8.8909 -10.0634 1.5923
-8.5254 -10.3759 1.5923
-8.1488 -10.6751 1.5923
-7.7618 -10.9606 1.5923
-7.3648 -11.2320 1.5923
-7.2474 -11.9666 1.6585
-6.9662 -12.4909 1.6954
-6.5148 -12.7329 1.6954
-6.0550 -12.9585 1.6954
-5.5873 -13.1675 1.6954
-5.1124 -13.3595 1.6954
-4.6310 -13.5344 1.6954
-4.1435 -13.6919 1.6954
-3.6507 -13.8319 1.6954
-3.1532 -13.9541 1.6954
-2.6516 -14.0583 1.6954
-2.1466 -14.1445 1.6954
-1.6388 -14.2125 1.6954
-1.1289 -14.2622 1.6954
-0.6175 -14.2936 1.6954
-0.1053 -14.3066 1.6954
0.4070 -14.3012 1.6954
0.8628 -13.4079 1.5922
1.3423 -13.3684 1.5922
1.8201 -13.3117 1.5922
2.2956 -13.2378 1.5922
2.7680 -13.1470 1.5922
3.2369 -13.0392 1.5922
3.7017 -12.9147 1.5922
4.1616 -12.7736 1.5922
4.6162 -12.6161 1.5922
4.3829 -10.7673 1.3778
4.4282 -9.8527 1.2803
4.4676 -9.0582 1.1971
4.5022 -8.3597 1.1255
4.5329 -7.7395 1.0632
4.5605 -7.1837 1.0087
4.5854 -6.6815 0.9607
2.1640 -2.9232 0.4312
4.6287 -5.8057 0.8803
4.6479 -5.4196 0.8465
4.6656 -5.0616 0.8162
4.6821 -4.7280 0.7890
4.6976 -4.4156 0.7645
4.7122 -4.1216 0.7424
4.7259 -3.8439 0.7225
4.7390 -3.5804 0.7045
4.7514 -3.3294 0.6882
4.7633 -3.0895 0.6735
4.7747 -2.8594 0.6602
4.7857 -2.6379 0.6483
4.7963 -2.4240 0.6376
4.8065 -2.2169 0.6281
4.8165 -2.0156 0.6196
4.8262 -1.8195 0.6121
4.8357 -1.6278 0.6056
4.8450 -1.4400 0.6000
4.8542 -1.2554 0.5952
4.8632 -1.0735 0.5912
4.8721 -0.8939 0.5881
4.8809 -0.7159 0.5857
4.8896 -0.5392 0.5841
4.8984 -0.3632 0.5833
4.9071 -0.1875 0.5832
4.9158 -0.0117 0.5839
4.9245 0.1647 0.5853
4.9333 0.3422 0.5875
4.9422 0.5211 0.5904
4.9511 0.7021 0.5942
4.9602 0.8856 0.5987
4.9695 1.0722 0.6041
4.9789 1.2624 0.6104
4.9885 1.4568 0.6177
4.9984 1.6561 0.6259
5.0085 1.8610 0.6352
5.0190 2.0723 0.6456
5.0298 2.2909 0.6571
5.0411 2.5177 0.6700
5.0528 2.7539 0.6843
5.0650 3.0006 0.7001
5.0778 3.2593 0.7176
5.0913 3.5316 0.7370
5.1055 3.8194 0.7584
5.1207 4.1247 0.7822
5.1368 4.4502 0.8085
5.1541 4.7988 0.8378
5.1727 5.1740 0.8705
5.1928 5.5802 0.9070
5.2147 6.0225 0.9480
5.2387 6.5072 0.9941
5.2652 7.0422 1.0464
5.2947 7.6373 1.1060
4.8967 7.6331 1.0794
4.5849 7.7440 1.0712
4.7826 8.7807 1.1901
5.9738 11.9691 1.5923
5.5412 12.1748 1.5923
5.1015 12.3650 1.5923
4.6553 12.5393 1.5923
4.2032 12.6975 1.5923
3.7457 12.8396 1.5923
3.2835 12.9651 1.5923
2.8171 13.0741 1.5923
2.3471 13.1663 1.5923
1.9954 14.0990 1.6954
1.0797 10.2663 1.2291
0.6368 9.2188 1.1003
0.3057 9.2168 1.0980
-0.0245 9.2148 1.0972
-0.3547 9.2128 1.0978
-0.6855 9.2108 1.0997
-1.0181 9.2087 1.1031
-2.0705 14.0879 1.6954
-2.5736 14.0049 1.6954
-3.0735 13.9040 1.6954
-3.5695 13.7852 1.6954
-4.0608 13.6489 1.6954
-4.5471 13.4950 1.6954
-5.0275 13.3239 1.6954
-5.5015 13.1357 1.6954
-5.9686 12.9307 1.6954
-6.0901 12.0411 1.6063
-6.4609 11.7130 1.5923
-6.4008 10.6809 1.4822
-7.2832 11.2215 1.5923
-7.6807 10.9540 1.5923
-8.0684 10.6724 1.5923
-8.4458 10.3772 1.5923
-8.8124 10.0687 1.5923
-9.1678 9.7472 1.5923
-9.2114 9.1162 1.5421
-9.4483 8.7036 1.5285
-10.1620 8.7094 1.5923
-10.2340 8.1540 1.5567
-10.2619 7.5918 1.5185
-10.2885 7.0558 1.4840
-10.3139 6.5430 1.4528
-10.3383 6.0505 1.4247
-10.3618 5.5761 1.3994
-10.3846 5.1176 1.3767
-11.0816 0.9326 1.5760
-11.1087 0.5353 1.5760
-11.1215 0.1372 1.5760
-11.1201 -0.2611 1.5760
-11.1044 -0.6592 1.5760
-11.0745 -1.0565 1.5760
-11.0304 -1.4524 1.5760
-10.9721 -1.8466 1.5760
-10.6219 -2.1813 1.5359
-10.0647 -2.4455 1.4669
-10.0841 -2.8362 1.4835
-10.1039 -3.2364 1.5024
-10.1242 -3.6475 1.5238
-10.1452 -4.0711 1.5478
-10.1669 -4.5089 1.5747
-10.1118 -4.9251 1.5923
-9.9297 -5.2843 1.5923
-9.7347 -5.6368 1.5923
-9.5272 -5.9821 1.5923
-9.3075 -6.3198 1.5923
-9.0758 -6.6494 1.5923
-8.8324 -6.9705 1.5923
-8.5776 -7.2827 1.5923
-8.3119 -7.5856 1.5923
-8.0354 -7.8787 1.5923
-7.7485 -8.1618 1.5923
-7.4517 -8.4345 1.5923
-7.1453 -8.6963 1.5923
-7.1164 -9.3227 1.6592
-6.9263 -9.7809 1.6954
-6.5720 -10.0230 1.6954
-6.2091 -10.2523 1.6954
-5.8383 -10.4685 1.6954
-5.4599 -10.6712 1.6954
-5.0745 -10.8602 1.6954
-4.6825 -11.0353 1.6954
-4.2845 -11.1962 1.6954
-3.8810 -11.3427 1.6954
-3.4725 -11.4747 1.6954
-3.0595 -11.5919 1.6954
-2.6425 -11.6942 1.6954
-2.2222 -11.7815 1.6954
-1.7989 -11.8537 1.6954
-1.3734 -11.9107 1.6954
-0.9460 -11.9523 1.6954
-0.5175 -11.9786 1.6954
-0.0883 -11.9895 1.6954
0.3411 -11.9850 1.6954
0.7700 -11.9651 1.6954
1.1249 -11.2033 1.5922
1.5253 -11.1558 1.5922
1.9238 -11.0939 1.5922
2.3197 -11.0178 1.5922
2.7127 -10.9275 1.5922
3.1022 -10.8232 1.5922
3.4876 -10.7050 1.5922
3.8686 -10.5730 1.5922
4.2446 -10.4275 1.5922
4.4282 -9.8528 1.5277
4.4676 -9.0582 1.4285
4.5022 -8.3598 1.3429
4.5329 -7.7395 1.2686
4.5605 -7.1837 1.2036
4.5853 -6.6815 1.1463
2.1638 -2.9229 0.5144
4.6287 -5.8057 1.0504
4.6479 -5.4196 1.0100
4.6656 -5.0617 0.9739
4.6821 -4.7281 0.9414
4.6976 -4.4156 0.9122
4.7122 -4.1217 0.8858
4.7259 -3.8439 0.8620
4.7390 -3.5804 0.8405
4.7514 -3.3294 0.8211
4.7633 -3.0895 0.8035
4.7747 -2.8594 0.7877
4.7857 -2.6379 0.7735
4.7963 -2.4241 0.7607
4.8065 -2.2169 0.7493
4.8165 -2.0156 0.7392
4.8262 -1.8195 0.7302
4.8357 -1.6278 0.7224
4.8450 -1.4400 0.7157
4.8542 -1.2554 0.7100
4.8632 -1.0736 0.7053
4.8721 -0.8939 0.7015
4.8809 -0.7159 0.6987
4.8896 -0.5392 0.6968
4.8984 -0.3632 0.6958
4.9071 -0.1876 0.6957
4.9158 -0.0117 0.6965
4.9245 0.1647 0.6981
4.9333 0.3421 0.7007
4.9422 0.5211 0.7042
4.9511 0.7021 0.7087
4.9602 0.8856 0.7141
4.9695 1.0722 0.7206
4.9789 1.2624 0.7281
4.9885 1.4568 0.7367
4.9984 1.6561 0.7465
5.0085 1.8610 0.7575
5.0190 2.0723 0.7699
5.0298 2.2909 0.7837
5.0411 2.5177 0.7991
5.0528 2.7539 0.8161
5.0650 3.0006 0.8349
5.0778 3.2593 0.8558
5.0913 3.5316 0.8789
5.1055 3.8193 0.9045
5.1207 4.1247 0.9328
5.1368 4.4502 0.9642
5.1541 4.7987 0.9991
5.1727 5.1740 1.0381
5.1928 5.5802 1.0816
5.2147 6.0224 1.1304
5.2387 6.5071 1.1855
5.2652 7.0421 1.2478
5.2947 7.6373 1.3189
4.9035 7.6438 1.2889
4.5915 7.7550 1.2791
4.7826 8.7806 1.4191
5.0099 10.0376 1.5923
4.6471 10.2102 1.5923
4.2784 10.3697 1.5923
3.9042 10.5160 1.5923
3.5250 10.6488 1.5923
3.1414 10.7679 1.5923
0.8471 3.3447 0.4898
0.7265 3.3715 0.4896
0.6051 3.3942 0.4895
0.4830 3.4127 0.4893
0.3604 3.4271 0.4892
0.2374 3.4373 0.4892
0.1142 3.4433 0.4891
-0.0092 3.4451 0.4891
-0.1325 3.4428 0.4891
-0.2558 3.4362 0.4892
-0.3787 3.4254 0.4893
-0.5012 3.4105 0.4894
-0.6232 3.3914 0.4895
-0.7445 3.3682 0.4897
-2.9936 11.5611 1.6954
-3.4057 11.4467 1.6954
-3.8134 11.3176 1.6954
-4.2164 11.1741 1.6954
-4.6139 11.0162 1.6954
-5.0055 10.8442 1.6954
-5.3908 10.6583 1.6954
-5.7692 10.4588 1.6954
-6.1401 10.2459 1.6954
-6.2086 9.5658 1.6186
-6.4412 9.1862 1.5923
-6.7663 8.9500 1.5923
-7.0827 8.7023 1.5923
-7.3901 8.4435 1.5923
-7.6881 8.1739 1.5923
-7.9762 7.8937 1.5923
-8.2542 7.6034 1.5923
-8.5216 7.3034 1.5923
-8.7781 6.9939 1.5923
-9.0234 6.6755 1.5923
-9.2572 6.3485 1.5923
-9.4791 6.0133 1.5923
-9.6889 5.6704 1.5923
-9.8864 5.3201 1.5923
-10.0712 4.9630 1.5923
-9.6298 0.8104 1.5923
-9.6533 0.4651 1.5923
-9.6643 0.1192 1.5923
-9.6630 -0.2270 1.5923
-9.6493 -0.5728 1.5923
-9.6232 -0.9180 1.5923
-9.5847 -1.2621 1.5923
-9.5340 -1.6046 1.5923
-9.4710 -1.9451 1.5923
-9.3959 -2.2831 1.5923
-9.3086 -2.6182 1.5923
-9.2095 -2.9500 1.5923
-9.0985 -3.2780 1.5923
-8.9758 -3.6019 1.5923
-8.8416 -3.9212 1.5923
-8.6960 -4.2355 1.5923
-8.5393 -4.5444 1.5923
-8.3716 -4.8476 1.5923
-8.1931 -5.1445 1.5923
-8.0040 -5.4348 1.5923
-7.8047 -5.7182 1.5923
-7.5954 -5.9943 1.5923
-7.3762 -6.2627 1.5923
-7.1708 -6.5443 1.5975
-7.0014 -6.8650 1.6134
-7.0210 -7.3956 1.6779
-6.8226 -7.7225 1.6954
-6.5420 -7.9622 1.6954
-6.2530 -8.1916 1.6954
-5.9559 -8.4106 1.6954
-5.6511 -8.6188 1.6954
-5.3391 -8.8159 1.6954
-5.0202 -9.0017 1.6954
-4.6948 -9.1760 1.6954
-4.3634 -9.3384 1.6954
-4.0264 -9.4889 1.6954
-3.6841 -9.6273 1.6954
-3.3371 -9.7532 1.6954
-2.9859 -9.8667 1.6954
-2.6307 -9.9674 1.6954
-2.2722 -10.0554 1.6954
-1.9107 -10.1304 1.6954
-1.5468 -10.1925 1.6954
-1.1809 -10.2414 1.6954
-0.8134 -10.2772 1.6954
-0.4450 -10.2998 1.6954
-0.0759 -10.3092 1.6954
0.2933 -10.3053 1.6954
0.6621 -10.2882 1.6954
0.9673 -9.6332 1.5922
1.3116 -9.5923 1.5922
1.6542 -9.5391 1.5922
1.9946 -9.4737 1.5922
2.3325 -9.3961 1.5922
2.6674 -9.3064 1.5922
2.9989 -9.2048 1.5922
3.3264 -9.0913 1.5922
3.6498 -8.9662 1.5922
3.9683 -8.8296 1.5922
4.2819 -8.6816 1.5922
4.5022 -8.3598 1.5618
4.5329 -7.7396 1.4753
4.5605 -7.1838 1.3997
4.5853 -6.6816 1.3330
2.1635 -2.9225 0.5982
4.6287 -5.8057 1.2215
4.6479 -5.4197 1.1746
4.6656 -5.0617 1.1326
4.6821 -4.7281 1.0948
4.6976 -4.4157 1.0608
4.7122 -4.1217 1.0301
4.7259 -3.8440 1.0024
4.7390 -3.5805 0.9774
4.7514 -3.3295 0.9548
4.7633 -3.0896 0.9344
4.7747 -2.8595 0.9160
4.7857 -2.6380 0.8994
4.7963 -2.4241 0.8846
4.8065 -2.2169 0.8713
4.8165 -2.0157 0.8595
4.8262 -1.8195 0.8491
4.8357 -1.6278 0.8400
4.8450 -1.4400 0.8322
4.8542 -1.2555 0.8256
4.8632 -1.0736 0.8201
4.8721 -0.8939 0.8157
4.8809 -0.7160 0.8124
4.8896 -0.5392 0.8102
4.8984 -0.3632 0.8090
4.9071 -0.1876 0.8089
4.9158 -0.0118 0.8098
4.9245 0.1646 0.8117
4.9333 0.3421 0.8147
4.9422 0.5211 0.8188
4.9511 0.7021 0.8240
4.9602 0.8856 0.8303
4.9694 1.0721 0.8378
4.9789 1.2623 0.8465
4.9885 1.4567 0.8565
4.9984 1.6560 0.8679
5.0085 1.8609 0.8807
5.0190 2.0722 0.8951
5.0298 2.2908 0.9111
5.0411 2.5176 0.9289
5.0528 2.7538 0.9487
5.0650 3.0005 0.9706
5.0778 3.2592 0.9949
5.0913 3.5316 1.0217
5.1055 3.8193 1.0514
5.1207 4.1246 1.0843
5.1368 4.4501 1.1209
5.1541 4.7987 1.1614
5.1727 5.1740 1.2067
5.1928 5.5801 1.2573
5.2147 6.0224 1.3140
5.2387 6.5071 1.3780
5.2652 7.0421 1.4505
5.2947 7.6372 1.5331
5.1379 8.0091 1.5698
4.5981 7.7661 1.4890
4.6165 8.4756 1.5923
4.3099 8.6352 1.5923
3.9979 8.7837 1.5923
3.6807 8.9210 1.5923
3.3588 9.0469 1.5923
3.0326 9.1611 1.5923
0.8372 2.8698 0.4933
0.7336 2.8968 0.4931
0.6292 2.9201 0.4929
0.5241 2.9399 0.4928
0.4184 2.9561 0.4927
0.3122 2.9686 0.4926
0.2057 2.9775 0.4925
0.0989 2.9828 0.4925
-0.0080 2.9843 0.4925
-0.1148 2.9823 0.4925
-0.2215 2.9765 0.4926
-0.3280 2.9671 0.4926
-0.4342 2.9541 0.4927
-0.5398 2.9375 0.4929
-0.6448 2.9172 0.4930
-0.7492 2.8933 0.4932
-2.9299 9.8477 1.6954
-3.2807 9.7366 1.6954
-3.6273 9.6131 1.6954
-3.9693 9.4772 1.6954
-4.3062 9.3292 1.6954
-4.6377 9.1693 1.6954
-4.9632 8.9976 1.6954
-5.2823 8.8143 1.6954
-5.5947 8.6198 1.6954
-5.9000 8.4142 1.6954
-6.1977 8.1979 1.6954
-6.2963 7.7361 1.6455
-6.3574 7.2636 1.5923
-6.6137 7.0316 1.5923
-6.8616 6.7905 1.5923
-7.1006 6.5408 1.5923
-7.3306 6.2826 1.5923
-7.5512 6.0164 1.5923
-7.7622 5.7424 1.5923
-7.9632 5.4611 1.5923
-8.1541 5.1727 1.5923
-8.3345 4.8776 1.5923
-8.5043 4.5763 1.5923
-8.6631 4.2691 1.5923
-8.4403 0.7103 1.5923
-8.4608 0.4076 1.5923
-8.4704 0.1044 1.5923
-8.4692 -0.1990 1.5923
-8.4571 -0.5021 1.5923
-8.4342 -0.8047 1.5923
-8.4004 -1.1062 1.5923
-8.3559 -1.4064 1.5923
-8.3006 -1.7047 1.5923
-8.2347 -2.0010 1.5923
-8.1582 -2.2947 1.5923
-8.0712 -2.5854 1.5923
-7.9739 -2.8729 1.5923
-7.8663 -3.1568 1.5923
-7.7487 -3.4366 1.5923
-7.6210 -3.7120 1.5923
-7.4836 -3.9827 1.5923
-7.3366 -4.2483 1.5923
-7.1801 -4.5085 1.5923
-7.0144 -4.7629 1.5923
-6.9131 -5.0650 1.6094
-6.9254 -5.4656 1.6567
-6.8826 -5.8436 1.6954
-6.6692 -6.0866 1.6954
-6.4473 -6.3217 1.6954
-6.2170 -6.5488 1.6954
-5.9788 -6.7675 1.6954
-5.7329 -6.9774 1.6954
-5.4796 -7.1785 1.6954
-5.2192 -7.3703 1.6954
-4.9521 -7.5527 1.6954
-4.6787 -7.7254 1.6954
-4.3992 -7.8882 1.6954
-4.1141 -8.0409 1.6954
-3.8236 -8.1833 1.6954
-3.5282 -8.3151 1.6954
-3.2283 -8.4363 1.6954
-2.9243 -8.5466 1.6954
-2.6164 -8.6460 1.6954
-2.3052 -8.7343 1.6954
-1.9911 -8.8114 1.6954
-1.6743 -8.8771 1.6954
-1.3554 -8.9315 1.6954
-1.0348 -8.9744 1.6954
-0.7128 -9.0057 1.6954
-0.3899 -9.0255 1.6954
-0.0665 -9.0337 1.6954
0.2570 -9.0303 1.6954
0.5802 -9.0153 1.6954
0.9026 -8.9887 1.6954
1.1493 -8.4055 1.5922
1.4495 -8.3589 1.5922
1.7478 -8.3016 1.5922
2.0439 -8.2336 1.5922
2.3374 -8.1550 1.5922
2.6278 -8.0660 1.5922
2.9149 -7.9666 1.5922
3.1982 -7.8570 1.5922
3.4774 -7.7373 1.5922
3.7521 -7.6076 1.5922
4.0220 -7.4683 1.5922
4.2867 -7.3193 1.5922
4.5459 -7.1609 1.5922
4.5853 -6.6816 1.5212
2.1633 -2.9222 0.6825
4.6287 -5.8058 1.3939
4.6479 -5.4197 1.3404
4.6656 -5.0617 1.2924
4.6821 -4.7281 1.2493
4.6976 -4.4157 1.2105
4.7122 -4.1218 1.1755
4.7259 -3.8440 1.1439
4.7390 -3.5805 1.1153
4.7514 -3.3295 1.0895
4.7633 -3.0896 1.0662
4.7747 -2.8595 1.0452
4.7857 -2.6380 1.0263
4.7963 -2.4241 1.0094
4.8065 -2.2170 0.9942
4.8165 -2.0157 0.9808
4.8262 -1.8195 0.9689
4.8357 -1.6279 0.9585
4.8450 -1.4401 0.9496
4.8542 -1.2555 0.9420
4.8632 -1.0736 0.9357
4.8721 -0.8940 0.9307
4.8809 -0.7160 0.9270
4.8896 -0.5393 0.9244
4.8984 -0.3633 0.9231
4.9071 -0.1876 0.9229
4.9158 -0.0118 0.9239
4.9245 0.1646 0.9261
4.9333 0.3421 0.9295
4.9422 0.5210 0.9342
4.9511 0.7020 0.9401
4.9602 0.8855 0.9473
4.9694 1.0721 0.9558
4.9789 1.2623 0.9658
4.9885 1.4567 0.9772
4.9984 1.6560 0.9902
5.0085 1.8609 1.0048
5.0190 2.0722 1.0212
5.0298 2.2908 1.0395
5.0411 2.5176 1.0598
5.0528 2.7538 1.0824
5.0650 3.0005 1.1074
5.0778 3.2592 1.1350
5.0913 3.5315 1.1656
5.1055 3.8192 1.1995
5.1207 4.1246 1.2370
5.1368 4.4501 1.2787
5.1541 4.7987 1.3250
5.1726 5.1739 1.3766
5.1928 5.5801 1.4343
5.2147 6.0223 1.4990
5.2387 6.5070 1.5720
5.0668 6.7767 1.5923
4.8208 6.9535 1.5923
4.5685 7.1215 1.5923
4.3105 7.2803 1.5923
4.0469 7.4297 1.5923
3.7782 7.5697 1.5923
3.5046 7.6999 1.5923
3.2266 7.8203 1.5923
2.9444 7.9306 1.5923
0.8281 2.5015 0.4960
0.7377 2.5285 0.4958
0.6464 2.5524 0.4956
0.5544 2.5731 0.4955
0.4618 2.5906 0.4954
0.3687 2.6049 0.4953
0.2751 2.6160 0.4952
0.1813 2.6239 0.4951
0.0872 2.6286 0.4951
-0.0070 2.6300 0.4951
-0.1012 2.6281 0.4951
-0.1952 2.6230 0.4951
-0.2891 2.6147 0.4952
-0.3826 2.6032 0.4953
-0.4757 2.5884 0.4954
-0.5682 2.5704 0.4956
-0.6601 2.5493 0.4957
-0.7513 2.5250 0.4959
-2.8760 8.5353 1.6954
-3.1798 8.4270 1.6954
-3.4796 8.3079 1.6954
-3.7750 8.1781 1.6954
-4.0655 8.0379 1.6954
-4.3508 7.8874 1.6954
-4.6305 7.7267 1.6954
-4.9044 7.5562 1.6954
-5.1720 7.3759 1.6954
-5.4329 7.1862 1.6954
-5.6870 6.9873 1.6954
-5.9337 6.7794 1.6954
-6.1729 6.5628 1.6954
-6.3640 6.2981 1.6848
-6.3876 5.8840 1.6341
-6.4258 5.5071 1.5923
-6.6192 5.2737 1.5923
-6.8041 5.0336 1.5923
-6.9803 4.7869 1.5923
-7.1475 4.5341 1.5923
-7.3056 4.2754 1.5923
-7.4544 4.0113 1.5923
-7.5936 3.7420 1.5923
-7.5053 0.6315 1.5923
-7.5235 0.3624 1.5923
-7.5320 0.0928 1.5923
-7.5309 -0.1770 1.5923
-7.5201 -0.4465 1.5923
-7.4997 -0.7156 1.5923
-7.4696 -0.9837 1.5923
-7.4299 -1.2506 1.5923
-7.3808 -1.5159 1.5923
-7.3221 -1.7793 1.5923
-7.2540 -2.0404 1.5923
-7.1767 -2.2989 1.5923
-7.0901 -2.5545 1.5923
-6.9944 -2.8069 1.5923
-6.8897 -3.0557 1.5923
-6.8281 -3.3258 1.6045
-6.8363 -3.6382 1.6360
-6.8511 -3.9673 1.6724
-6.7974 -4.2682 1.6954
-6.6405 -4.5090 1.6954
-6.4750 -4.7441 1.6954
-6.3013 -4.9731 1.6954
-6.1194 -5.1957 1.6954
-5.9297 -5.4117 1.6954
-5.7323 -5.6208 1.6954
-5.5276 -5.8226 1.6954
-5.3158 -6.0170 1.6954
-5.0971 -6.2037 1.6954
-4.8719 -6.3824 1.6954
-4.6404 -6.5530 1.6954
-4.4029 -6.7151 1.6954
-4.1597 -6.8686 1.6954
-3.9112 -7.0133 1.6954
-3.6577 -7.1491 1.6954
-3.3995 -7.2756 1.6954
-3.1369 -7.3928 1.6954
-2.8702 -7.5005 1.6954
-2.5999 -7.5986 1.6954
-2.3262 -7.6870 1.6954
-2.0495 -7.7654 1.6954
-1.7702 -7.8339 1.6954
-1.4886 -7.8924 1.6954
-1.2051 -7.9407 1.6954
-0.9200 -7.9788 1.6954
-0.6337 -8.0067 1.6954
-0.3466 -8.0243 1.6954
-0.0591 -8.0316 1.6954
0.2285 -8.0286 1.6954
0.5158 -8.0152 1.6954
0.8024 -7.9916 1.6954
1.0343 -7.5644 1.6116
1.2887 -7.4317 1.5922
1.5539 -7.3807 1.5922
1.8172 -7.3203 1.5922
2.0781 -7.2504 1.5922
2.3363 -7.1713 1.5922
2.5915 -7.0829 1.5922
2.8434 -6.9855 1.5922
3.0917 -6.8791 1.5922
3.3359 -6.7638 1.5922
3.5759 -6.6399 1.5922
3.8112 -6.5075 1.5922
4.0417 -6.3667 1.5922
4.2670 -6.2177 1.5922
2.1630 -2.9219 0.7676
4.6287 -5.8058 1.5678
4.6479 -5.4197 1.5076
4.6656 -5.0618 1.4536
4.6821 -4.7282 1.4051
4.6976 -4.4158 1.3615
4.7122 -4.1218 1.3221
4.7259 -3.8441 1.2865
4.7390 -3.5805 1.2544
4.7514 -3.3296 1.2254
4.7633 -3.0897 1.1992
4.7747 -2.8595 1.1756
4.7857 -2.6380 1.1543
4.7963 -2.4242 1.1352
4.8065 -2.2170 1.1182
4.8165 -2.0157 1.1030
4.8262 -1.8196 1.0897
4.8357 -1.6279 1.0780
4.8450 -1.4401 1.0680
4.8542 -1.2555 1.0594
4.8632 -1.0737 1.0524
4.8721 -0.8940 1.0467
4.8809 -0.7160 1.0425
4.8896 -0.5393 1.0396
4.8984 -0.3633 1.0381
4.9071 -0.1877 1.0379
4.9158 -0.0118 1.0390
4.9245 0.1646 1.0415
4.9333 0.3420 1.0454
4.9422 0.5210 1.0506
4.9511 0.7020 1.0572
4.9602 0.8855 1.0653
4.9694 1.0721 1.0749
4.9789 1.2623 1.0861
4.9885 1.4567 1.0989
4.9984 1.6560 1.1135
5.0085 1.8609 1.1299
5.0190 2.0722 1.1483
5.0298 2.2907 1.1689
5.0411 2.5176 1.1918
5.0528 2.7537 1.2171
5.0650 3.0005 1.2452
5.0778 3.2592 1.2763
5.0913 3.5315 1.3107
5.1055 3.8192 1.3488
5.1207 4.1246 1.3910
5.1368 4.4500 1.4378
5.1541 4.7986 1.4899
5.1726 5.1738 1.5479
5.1269 5.5092 1.5923
4.9261 5.6890 1.5923
4.7191 5.8616 1.5923
4.5061 6.0266 1.5923
4.2872 6.1839 1.5923
4.0629 6.3333 1.5923
3.8334 6.4745 1.5923
3.5991 6.6075 1.5923
3.3601 6.7320 1.5923
3.1168 6.8478 1.5923
2.8695 6.9549 1.5923
0.8192 2.2065 0.4981
0.7394 2.2335 0.4980
0.6587 2.2577 0.4978
0.5772 2.2791 0.4976
0.4951 2.2977 0.4975
0.4124 2.3134 0.4974
0.3293 2.3262 0.4973
0.2457 2.3362 0.4972
0.1619 2.3433 0.4972
0.0778 2.3474 0.4972
-0.0063 2.3487 0.4971
-0.0903 2.3470 0.4972
-0.1743 2.3425 0.4972
-0.2581 2.3350 0.4973
-0.3416 2.3246 0.4973
-0.4248 2.3114 0.4974
-0.5074 2.2953 0.4976
-0.5894 2.2763 0.4977
-0.6708 2.2545 0.4979
-0.7514 2.2299 0.4981
-0.8311 2.2025 0.4983
-3.0946 7.3885 1.6954
-3.3572 7.2731 1.6954
-3.6156 7.1484 1.6954
-3.8693 7.0145 1.6954
-4.1181 6.8716 1.6954
-4.3616 6.7199 1.6954
-4.5996 6.5596 1.6954
-4.8317 6.3908 1.6954
-5.0576 6.2139 1.6954
-5.2770 6.0290 1.6954
-5.4897 5.8364 1.6954
-5.6953 5.6363 1.6954
-5.8937 5.4289 1.6954
-6.0845 5.2146 1.6954
-6.2676 4.9935 1.6954
-6.4193 4.7489 1.6893
-6.4359 4.4136 1.6509
-6.4574 4.0962 1.6177
-6.4968 3.8020 1.5923
-6.6290 3.5671 1.5923
-6.7528 3.3276 1.5923
-6.7504 0.5679 1.5923
-6.7667 0.3259 1.5923
-6.7743 0.0834 1.5923
-6.7733 -0.1592 1.5923
-6.7635 -0.4017 1.5923
-6.7451 -0.6436 1.5923
-6.7181 -0.8848 1.5923
-6.7201 -1.1311 1.6013
-6.7296 -1.3822 1.6143
-6.7387 -1.6375 1.6294
-6.7486 -1.8983 1.6471
-6.7619 -2.1661 1.6682
-6.7755 -2.4413 1.6920
-6.6977 -2.6879 1.6954
-6.5975 -2.9261 1.6954
-6.4887 -3.1606 1.6954
-6.3717 -3.3910 1.6954
-6.2464 -3.6171 1.6954
-6.1131 -3.8386 1.6954
-5.9720 -4.0552 1.6954
-5.8232 -4.2666 1.6954
-5.6669 -4.4725 1.6954
-5.5034 -4.6727 1.6954
-5.3327 -4.8669 1.6954
-5.1552 -5.0549 1.6954
-4.9711 -5.2364 1.6954
-4.7805 -5.4112 1.6954
-4.5839 -5.5791 1.6954
-4.3813 -5.7398 1.6954
-4.1731 -5.8932 1.6954
-3.9595 -6.0389 1.6954
-3.7409 -6.1770 1.6954
-3.5174 -6.3071 1.6954
-3.2894 -6.4292 1.6954
-3.0571 -6.5430 1.6954
-2.8210 -6.6483 1.6954
-2.5812 -6.7452 1.6954
-2.3380 -6.8334 1.6954
-2.0919 -6.9128 1.6954
-1.8431 -6.9834 1.6954
-1.5919 -7.0450 1.6954
-1.3387 -7.0976 1.6954
-1.0837 -7.1410 1.6954
-0.8273 -7.1753 1.6954
-0.5699 -7.2003 1.6954
-0.3117 -7.2161 1.6954
-0.0532 -7.2227 1.6954
0.2055 -7.2200 1.6954
0.4638 -7.2080 1.6954
0.7216 -7.1867 1.6954
0.9785 -7.1563 1.6954
1.1589 -6.6832 1.5922
1.3974 -6.6374 1.5922
1.6342 -6.5830 1.5922
1.8688 -6.5202 1.5922
2.1010 -6.4491 1.5922
2.3305 -6.3696 1.5922
2.5571 -6.2820 1.5922
2.7803 -6.1863 1.5922
3.0000 -6.0827 1.5922
3.2158 -5.9713 1.5922
3.4274 -5.8522 1.5922
3.6347 -5.7256 1.5922
3.8373 -5.5917 1.5922
2.1628 -2.9215 0.8534
4.2274 -5.3024 1.5922
4.4144 -5.1475 1.5922
4.5957 -4.9860 1.5922
4.6821 -4.7282 1.5625
4.6976 -4.4158 1.5139
4.7122 -4.1218 1.4701
4.7259 -3.8441 1.4306
4.7390 -3.5806 1.3948
4.7514 -3.3296 1.3626
4.7633 -3.0897 1.3334
4.7747 -2.8596 1.3071
4.7857 -2.6381 1.2835
4.7963 -2.4242 1.2623
4.8065 -2.2170 1.2433
4.8165 -2.0157 1.2265
4.8262 -1.8196 1.2116
4.8357 -1.6280 1.1987
4.8450 -1.4401 1.1875
4.8542 -1.2556 1.1780
4.8632 -1.0737 1.1701
4.8721 -0.8940 1.1639
4.8809 -0.7161 1.1591
4.8896 -0.5393 1.1559
4.8984 -0.3633 1.1542
4.9071 -0.1877 1.1540
4.9158 -0.0119 1.1553
4.9245 0.1645 1.1580
4.9333 0.3420 1.1623
4.9422 0.5210 1.1681
4.9511 0.7020 1.1754
4.9602 0.8855 1.1844
4.9694 1.0720 1.1951
4.9789 1.2622 1.2075
4.9885 1.4566 1.2218
4.9984 1.6559 1.2380
5.0085 1.8608 1.2562
5.0190 2.0721 1.2767
5.0298 2.2907 1.2996
5.0411 2.5175 1.3250
5.0528 2.7537 1.3532
5.0650 3.0004 1.3844
5.0778 3.2591 1.4190
5.0913 3.5314 1.4572
5.1055 3.8191 1.4996
5.1207 4.1245 1.5465
5.1164 4.4323 1.5922
4.9542 4.6125 1.5922
4.7857 4.7867 1.5922
4.6114 4.9553 1.5923
4.4309 5.1171 1.5923
4.2447 5.2723 1.5923
4.0531 5.4208 1.5923
3.8563 5.5623 1.5923
3.6546 5.6967 1.5923
3.4482 5.8238 1.5923
3.2373 5.9434 1.5923
3.0224 6.0554 1.5923
2.8036 6.1596 1.5923
0.8104 1.9641 0.4999
0.7392 1.9910 0.4997
0.6672 2.0155 0.4996
0.5944 2.0374 0.4994
0.5209 2.0568 0.4993
0.4468 2.0736 0.4991
0.3722 2.0878 0.4990
0.2972 2.0995 0.4990
0.2217 2.1085 0.4989
0.1461 2.1149 0.4989
0.0703 2.1186 0.4988
-0.0056 2.1198 0.4988
-0.0815 2.1183 0.4988
-0.1574 2.1141 0.4989
-0.2330 2.1074 0.4989
-0.3083 2.0980 0.4990
-0.3833 2.0860 0.4991
-0.4579 2.0714 0.4992
-0.5319 2.0542 0.4993
-0.6053 2.0345 0.4995
-0.6780 2.0122 0.4996
-0.7499 1.9874 0.4998
-0.8210 1.9601 0.5000
-3.0199 6.5422 1.6954
-3.2523 6.4300 1.6954
-3.4805 6.3095 1.6954
-3.7043 6.1810 1.6954
-3.9233 6.0445 1.6954
-4.1373 5.9003 1.6954
-4.3461 5.7485 1.6954
-4.5492 5.5893 1.6954
-4.7466 5.4230 1.6954
-4.9379 5.2497 1.6954
-5.1229 5.0697 1.6954
-5.3013 4.8831 1.6954
-5.4729 4.6904 1.6954
-5.6375 4.4915 1.6954
-5.7949 4.2869 1.6954
-5.9450 4.0768 1.6954
-6.0873 3.8615 1.6954
-6.2220 3.6411 1.6954
-6.3486 3.4162 1.6954
-6.4671 3.1868 1.6954
-6.5242 0.5489 1.6954
-6.5399 0.3149 1.6954
-6.5473 0.0806 1.6954
-6.5463 -0.1539 1.6954
-6.5368 -0.3882 1.6954
-6.5190 -0.6221 1.6954
-6.4928 -0.8551 1.6954
-6.4583 -1.0871 1.6954
-6.4155 -1.3177 1.6954
-6.3644 -1.5466 1.6954
-6.3052 -1.7736 1.6954
-6.2379 -1.9983 1.6954
-6.1626 -2.2205 1.6954
-6.0794 -2.4398 1.6954
-5.9884 -2.6560 1.6954
-5.8897 -2.8688 1.6954
-5.7834 -3.0780 1.6954
-5.6697 -3.2832 1.6954
-5.5487 -3.4842 1.6954
-5.4206 -3.6808 1.6954
-5.2855 -3.8726 1.6954
-5.1436 -4.0595 1.6954
-4.9951 -4.2412 1.6954
-4.8402 -4.4175 1.6954
-4.6791 -4.5881 1.6954
-4.5119 -4.7528 1.6954
-4.3390 -4.9115 1.6954
-4.1605 -5.0638 1.6954
