ply
format ascii 1.0
element vertex 2195
property float32 x
property float32 y
property float32 z
end_header
6.2309 3.4280 0.5194
6.2869 3.7590 0.5349
6.3464 4.1108 0.5520
6.4100 4.4867 0.5711
6.4782 4.8902 0.5923
6.5601 5.3323 0.6167
6.5689 5.7431 0.6364
6.6556 6.2544 0.6660
6.7506 6.8164 0.6994
6.8832 7.4684 0.7403
7.0399 8.2116 0.7883
6.0541 7.5975 0.7078
7.3261 9.9034 0.8974
7.5017 10.9417 0.9663
7.7242 12.1820 1.0505
10.6950 18.2877 1.5426
10.6607 19.8303 1.6391
9.9433 20.2030 1.6391
9.2126 20.5495 1.6391
8.4700 20.8694 1.6391
6.6636 18.2757 1.4156
6.9520 21.4278 1.6391
6.1788 21.6655 1.6391
5.2390 21.2332 1.5911
4.4736 21.4090 1.5911
3.7023 21.5571 1.5911
2.9261 21.6771 1.5911
2.1461 21.7689 1.5911
1.4515 23.2471 1.6941
0.6160 23.2846 1.6941
-0.2204 23.2918 1.6941
-1.0565 23.2687 1.6941
-1.8911 23.2154 1.6941
-2.7233 23.1320 1.6941
-3.5519 23.0183 1.6941
-4.3758 22.8749 1.6941
-5.1939 22.7018 1.6941
-6.0052 22.4991 1.6941
-3.5240 11.5252 0.8769
-3.5548 10.2892 0.7921
-3.5802 9.2701 0.7232
-7.5518 -14.6490 1.5909
-7.0203 -14.9093 1.5909
-6.4798 -15.1503 1.5909
-6.0160 -15.5917 1.6136
-5.7238 -16.5845 1.6941
-5.1243 -16.7782 1.6941
-4.5183 -16.9503 1.6941
-3.9066 -17.1006 1.6941
-3.2899 -17.2291 1.6941
-2.6691 -17.3355 1.6941
-2.0449 -17.4195 1.6941
-1.4181 -17.4813 1.6941
-0.6503 -14.4323 1.3955
-0.1328 -14.5693 1.4074
0.3905 -14.5677 1.4077
0.9075 -14.4521 1.3988
1.7269 -17.4536 1.6941
2.2094 -16.3231 1.5911
2.7942 -16.2338 1.5911
3.3754 -16.1236 1.5911
3.9523 -15.9928 1.5911
4.5242 -15.8414 1.5911
5.0904 -15.6697 1.5911
5.6502 -15.4780 1.5911
6.3902 -15.7277 1.6391
6.9514 -15.4895 1.6391
7.3727 -14.9653 1.6105
5.9143 -10.9909 1.2048
6.0295 -10.3006 1.1520
6.1363 -9.6691 1.1052
6.2349 -9.0861 1.0633
6.3264 -8.5448 1.0258
6.4119 -8.0397 0.9920
6.4920 -7.5661 0.9616
5.9026 -6.3992 0.8396
6.6500 -6.7092 0.9109
6.7069 -6.2973 0.8870
6.7247 -5.8743 0.8607
6.7861 -5.5112 0.8426
6.8451 -5.1625 0.8262
6.9019 -4.8266 0.8114
7.0173 -4.5411 0.8052
7.0626 -4.2186 0.7923
7.1106 -3.9080 0.7813
7.1615 -3.6074 0.7720
7.2112 -3.3134 0.7639
7.2600 -3.0250 0.7569
7.3079 -2.7414 0.7510
7.3552 -2.4617 0.7461
7.4020 -2.1852 0.7423
7.4484 -1.9110 0.7394
7.4945 -1.6385 0.7375
7.5404 -1.3669 0.7366
7.5863 -1.0955 0.7366
7.6323 -0.8237 0.7375
7.6785 -0.5507 0.7394
7.7249 -0.2758 0.7423
7.7784 0.0018 0.7468
7.8385 0.2834 0.7529
6.6691 0.4814 0.6417
5.7990 0.6285 0.5596
5.8041 0.8409 0.5626
5.8314 1.0598 0.5684
5.8686 1.2858 0.5760
5.9080 1.5187 0.5848
5.9487 1.7591 0.5945
5.9908 2.0081 0.6054
6.0345 2.2668 0.6176
6.0802 2.5367 0.6310
6.1279 2.8190 0.6459
6.1781 3.1155 0.6625
6.2309 3.4281 0.6808
6.2869 3.7591 0.7010
6.3464 4.1110 0.7235
6.4100 4.4868 0.7485
6.4782 4.8903 0.7764
6.5676 5.3385 0.8094
6.6256 5.7928 0.8415
6.6556 6.2546 0.8732
6.7506 6.8165 0.9170
6.9432 7.5337 0.9792
7.0400 8.2117 1.0336
7.1738 9.0028 1.0999
7.3261 9.9037 1.1768
7.5998 11.0849 1.2838
7.7242 12.1823 1.3777
8.6650 14.8168 1.6391
8.1284 15.1200 1.6391
7.5811 15.4037 1.6391
7.0238 15.6674 1.6391
6.4574 15.9109 1.6391
5.7099 15.6605 1.5911
5.1444 15.8566 1.5911
4.5721 16.0321 1.5911
3.9938 16.1869 1.5911
3.4103 16.3206 1.5911
2.8223 16.4333 1.5911
2.2306 16.5246 1.5911
1.7419 17.6697 1.6941
1.1065 17.7212 1.6941
0.4695 17.7497 1.6941
-0.1680 17.7551 1.6941
-0.8053 17.7376 1.6941
-1.4416 17.6970 1.6941
-2.0760 17.6335 1.6941
-2.7076 17.5471 1.6941
-3.3357 17.4379 1.6941
-3.9594 17.3062 1.6941
-3.0528 11.4379 1.1297
-3.4288 11.2140 1.1192
-3.1794 9.2028 0.9293
-3.5113 9.0921 0.9303
-6.1098 -11.8516 1.5909
-6.0285 -12.8028 1.6885
-5.5830 -13.0532 1.6941
-5.1103 -13.2443 1.6941
-4.6312 -13.4184 1.6941
-4.1462 -13.5753 1.6941
-3.6559 -13.7147 1.6941
-3.1610 -13.8365 1.6941
-2.6620 -13.9406 1.6941
-2.1597 -14.0268 1.6941
-1.6546 -14.0949 1.6941
-1.1474 -14.1450 1.6941
-0.6388 -14.1768 1.6941
-0.1294 -14.1905 1.6941
0.3802 -14.1860 1.6941
0.8894 -14.1633 1.6941
1.3974 -14.1225 1.6941
1.9036 -14.0635 1.6941
2.2609 -13.1353 1.5911
2.7312 -13.0461 1.5911
3.1979 -12.9401 1.5911
3.6607 -12.8175 1.5911
4.1187 -12.6785 1.5911
4.5716 -12.5231 1.5911
5.0186 -12.3517 1.5911
5.4592 -12.1644 1.5911
5.8929 -11.9614 1.5911
5.9143 -10.9907 1.4891
6.0295 -10.3005 1.4239
6.2156 -9.7939 1.3837
6.3155 -9.2033 1.3314
6.3265 -8.5447 1.2680
6.4568 -8.0959 1.2349
6.5759 -7.6637 1.2041
5.9027 -6.3991 1.0379
6.6501 -6.7091 1.1261
6.6141 -6.2101 1.0814
6.6779 -5.8333 1.0568
6.7388 -5.4727 1.0345
6.7974 -5.1264 1.0144
6.8538 -4.7929 0.9963
7.0214 -4.5436 0.9962
7.0626 -4.2185 0.9797
7.1107 -3.9079 0.9662
7.1615 -3.6073 0.9547
7.2112 -3.3133 0.9447
7.2600 -3.0249 0.9361
7.3080 -2.7413 0.9288
7.3553 -2.4616 0.9228
7.4020 -2.1851 0.9181
7.4484 -1.9109 0.9146
7.4945 -1.6384 0.9123
7.5404 -1.3668 0.9111
7.5863 -1.0954 0.9112
7.6323 -0.8236 0.9124
7.6785 -0.5506 0.9148
7.7250 -0.2757 0.9184
7.7784 0.0019 0.9240
7.8385 0.2835 0.9316
6.6688 0.4814 0.7940
5.7987 0.6286 0.6925
5.8041 0.8409 0.6962
5.8315 1.0599 0.7034
5.8686 1.2859 0.7129
5.9080 1.5188 0.7237
5.9487 1.7592 0.7358
5.9908 2.0082 0.7494
6.0346 2.2669 0.7644
6.0802 2.5368 0.7811
6.1279 2.8191 0.7996
6.1781 3.1156 0.8201
6.2310 3.4282 0.8428
6.2869 3.7592 0.8679
6.3464 4.1111 0.8958
6.4100 4.4869 0.9268
6.4783 4.8904 0.9613
6.5676 5.3386 1.0022
6.5061 5.6884 1.0232
6.5917 6.1946 1.0708
6.6528 6.7178 1.1191
6.4081 6.9532 1.1191
6.4754 7.5533 1.1773
7.1841 9.0159 1.3641
7.3262 9.9039 1.4575
7.5997 11.0849 1.5899
7.4204 11.7033 1.6391
6.9961 11.9633 1.6391
6.5627 12.2079 1.6391
6.1207 12.4366 1.6391
5.5044 12.2783 1.5911
5.0604 12.4688 1.5911
4.6098 12.6433 1.5911
4.1531 12.8014 1.5911
3.6911 12.9430 1.5911
3.2242 13.0677 1.5911
2.7531 13.1756 1.5911
2.2784 13.2664 1.5911
1.8371 13.6095 1.6232
1.4062 14.2644 1.6941
0.8932 14.3059 1.6941
0.3790 14.3289 1.6941
-0.1356 14.3333 1.6941
-0.6501 14.3191 1.6941
-1.1637 14.2864 1.6941
-1.6759 14.2352 1.6941
-2.1858 14.1655 1.6941
-2.6928 14.0775 1.6941
-3.1964 13.9713 1.6941
-3.0489 11.4234 1.3976
-3.4233 11.1960 1.3840
-3.1157 9.0185 1.1280
-3.4392 8.9054 1.1287
-5.4585 -10.5880 1.6941
-5.0744 -10.7765 1.6941
-4.6839 -10.9510 1.6941
-4.2874 -11.1115 1.6941
-3.8855 -11.2577 1.6941
-3.4786 -11.3894 1.6941
-3.0673 -11.5065 1.6941
-2.6521 -11.6088 1.6941
-2.2335 -11.6961 1.6941
-1.8120 -11.7685 1.6941
-1.3882 -11.8257 1.6941
-0.9627 -11.8677 1.6941
-0.5360 -11.8945 1.6941
-0.1085 -11.9060 1.6941
0.3190 -11.9022 1.6941
0.7462 -11.8832 1.6941
1.1724 -11.8489 1.6941
1.5971 -11.7993 1.6941
2.0097 -11.6760 1.6857
2.2915 -10.9457 1.5911
2.6831 -10.8567 1.5911
2.7055 -9.4729 1.4016
3.4556 -10.6370 1.5911
3.8355 -10.5065 1.5911
4.2105 -10.3626 1.5911
4.5801 -10.2053 1.5911
4.9439 -10.0350 1.5911
5.3014 -9.8516 1.5911
5.6521 -9.6556 1.5911
5.9956 -9.4472 1.5911
6.3155 -9.2032 1.5870
6.3265 -8.5446 1.5115
6.4569 -8.0959 1.4721
6.5759 -7.6636 1.4354
5.9027 -6.3990 1.2373
6.2516 -6.3071 1.2621
6.3155 -5.9296 1.2310
6.3763 -5.5698 1.2030
6.4346 -5.2255 1.1776
6.4497 -4.8641 1.1475
6.5033 -4.5476 1.1271
7.0216 -4.5437 1.1878
7.0627 -4.2184 1.1682
7.1107 -3.9078 1.1520
7.1615 -3.6072 1.1383
7.2112 -3.3132 1.1264
7.2600 -3.0248 1.1162
7.3080 -2.7412 1.1076
7.3553 -2.4615 1.1005
7.4020 -2.1850 1.0949
7.4484 -1.9108 1.0907
7.4945 -1.6383 1.0880
7.5404 -1.3667 1.0867
7.5863 -1.0953 1.0867
7.6323 -0.8235 1.0882
7.6785 -0.5505 1.0911
7.7250 -0.2755 1.0954
7.7784 0.0020 1.1021
7.8383 0.2836 1.1112
6.6684 0.4815 0.9470
5.7984 0.6286 0.8260
5.8041 0.8410 0.8305
5.8315 1.0600 0.8392
5.8687 1.2860 0.8505
5.9080 1.5189 0.8634
5.9487 1.7593 0.8779
5.9908 2.0083 0.8941
6.0346 2.2670 0.9120
6.0802 2.5369 0.9320
6.1280 2.8192 0.9541
6.1781 3.1157 0.9786
6.2310 3.4283 1.0056
6.2870 3.7593 1.0357
6.3465 4.1112 1.0690
6.4100 4.4871 1.1060
6.4783 4.8905 1.1472
6.5677 5.3387 1.1961
6.2984 5.5070 1.1822
6.1802 5.8081 1.1982
6.2685 6.3299 1.2585
6.3627 6.9041 1.3262
6.2030 7.2357 1.3461
7.1840 9.0160 1.6280
6.9031 9.3321 1.6391
6.5642 9.5748 1.6391
6.2168 9.8051 1.6391
5.6893 9.7287 1.5911
5.3367 9.9274 1.5911
4.9772 10.1134 1.5911
4.6112 10.2862 1.5911
4.2393 10.4457 1.5911
3.8617 10.5918 1.5911
3.4792 10.7241 1.5911
3.0921 10.8426 1.5911
0.8265 3.3500 0.4869
0.7054 3.3761 0.4867
0.5836 3.3982 0.4865
0.4611 3.4160 0.4864
0.3381 3.4297 0.4863
0.2147 3.4391 0.4862
0.0911 3.4444 0.4861
-0.0326 3.4454 0.4861
-0.1563 3.4422 0.4862
-0.2798 3.4348 0.4862
-0.4030 3.4232 0.4863
-0.5258 3.4074 0.4865
-0.6480 3.3874 0.4866
-0.7695 3.3633 0.4868
-3.0960 11.5998 1.6941
-3.5102 11.4807 1.6941
-3.1073 8.9944 1.3429
-3.4300 8.8816 1.3437
-4.6971 -9.1111 1.6941
-4.3667 -9.2733 1.6941
-4.0307 -9.4236 1.6941
-3.6895 -9.5618 1.6941
-3.3437 -9.6877 1.6941
-2.9935 -9.8011 1.6941
-2.6396 -9.9019 1.6941
-2.2823 -9.9900 1.6941
-1.9221 -10.0652 1.6941
-1.5594 -10.1275 1.6941
-1.1947 -10.1767 1.6941
-0.8285 -10.2129 1.6941
-0.4612 -10.2360 1.6941
-0.0934 -10.2459 1.6941
0.2746 -10.2427 1.6941
0.6422 -10.2263 1.6941
1.0089 -10.1967 1.6941
1.3745 -10.1541 1.6941
1.7382 -10.0983 1.6941
2.0011 -9.5584 1.6145
2.3090 -9.3427 1.5911
2.6430 -9.2541 1.5911
2.9737 -9.1536 1.5911
3.3006 -9.0413 1.5911
3.6233 -8.9173 1.5911
3.9413 -8.7819 1.5911
4.2544 -8.6352 1.5911
4.5619 -8.4774 1.5911
4.8637 -8.3087 1.5911
5.1593 -8.1292 1.5911
5.4482 -7.9393 1.5911
5.7302 -7.7391 1.5911
6.1864 -7.7566 1.6391
6.4614 -7.5301 1.6391
5.9027 -6.3989 1.4381
6.1041 -6.1581 1.4322
6.1664 -5.7896 1.3969
6.1858 -5.4033 1.3563
6.2423 -5.0692 1.3278
6.4132 -4.8364 1.3262
6.5444 -4.5763 1.3183
7.0218 -4.5437 1.3806
7.0627 -4.2183 1.3578
7.2026 -3.9581 1.3563
7.2541 -3.6537 1.3403
7.3044 -3.3559 1.3263
7.3538 -3.0638 1.3143
7.3080 -2.7411 1.2875
7.3553 -2.4614 1.2793
7.4021 -2.1849 1.2728
7.5447 -1.9354 1.2843
7.5914 -1.6593 1.2812
7.6379 -1.3842 1.2796
7.6844 -1.1094 1.2797
7.6323 -0.8234 1.2652
7.6785 -0.5504 1.2686
7.1256 -0.2541 1.1748
7.1689 0.0019 1.1810
7.8378 0.2837 1.2919
6.6680 0.4815 1.1011
5.7981 0.6287 0.9604
5.8041 0.8411 0.9657
5.8315 1.0601 0.9758
5.8687 1.2861 0.9890
5.9080 1.5189 1.0040
5.9487 1.7593 1.0209
5.9908 2.0083 1.0397
6.0346 2.2671 1.0606
6.0802 2.5370 1.0838
6.1280 2.8193 1.1096
6.1781 3.1158 1.1380
6.2310 3.4284 1.1696
6.2870 3.7594 1.2045
6.4592 4.1844 1.2654
6.5239 4.5669 1.3092
6.5934 4.9776 1.3580
6.5677 5.3389 1.3912
6.2983 5.5070 1.3750
5.9266 5.5698 1.3365
6.0602 6.1197 1.4152
6.1547 6.6785 1.4922
6.0522 7.0599 1.5277
6.2182 7.8039 1.6391
5.7604 7.7874 1.5911
5.4775 7.9898 1.5911
5.1875 8.1819 1.5911
4.8908 8.3634 1.5911
4.5877 8.5342 1.5911
4.2786 8.6939 1.5911
3.9639 8.8424 1.5911
3.6442 8.9795 1.5911
3.3196 9.1050 1.5911
2.9907 9.2187 1.5911
0.8199 2.8750 0.4908
0.7158 2.9014 0.4906
0.6110 2.9242 0.4904
0.5055 2.9435 0.4902
0.3994 2.9590 0.4901
0.2929 2.9709 0.4900
0.1860 2.9792 0.4899
0.0789 2.9837 0.4899
-0.0282 2.9846 0.4899
-0.1354 2.9819 0.4899
-0.2424 2.9754 0.4900
-0.3491 2.9653 0.4901
-0.4554 2.9515 0.4902
-0.5612 2.9340 0.4903
-0.6664 2.9130 0.4905
-0.7709 2.8883 0.4907
-3.0174 9.8690 1.6941
-3.1561 9.1359 1.5868
-3.4860 9.0267 1.5886
-4.1184 -7.9884 1.6941
-3.8287 -8.1308 1.6941
-3.5341 -8.2626 1.6941
-3.2350 -8.3838 1.6941
-2.9318 -8.4942 1.6941
-2.6248 -8.5937 1.6941
-2.3145 -8.6821 1.6941
-2.0012 -8.7594 1.6941
-1.6853 -8.8254 1.6941
-1.3673 -8.8800 1.6941
-1.0475 -8.9232 1.6941
-0.7265 -8.9550 1.6941
-0.4044 -8.9752 1.6941
-0.0819 -8.9839 1.6941
0.2407 -8.9811 1.6941
0.5631 -8.9667 1.6941
0.8847 -8.9407 1.6941
1.2052 -8.9033 1.6941
1.5241 -8.8544 1.6941
1.8411 -8.7942 1.6941
2.0246 -8.1919 1.5911
2.3175 -8.1141 1.5911
2.6074 -8.0259 1.5911
2.8940 -7.9274 1.5911
3.1769 -7.8187 1.5911
3.4558 -7.6999 1.5911
3.7302 -7.5713 1.5911
3.9999 -7.4328 1.5911
4.2644 -7.2848 1.5911
4.5235 -7.1274 1.5911
4.7768 -6.9608 1.5911
5.0240 -6.7853 1.5911
5.2648 -6.6010 1.5911
5.4988 -6.4081 1.5911
5.7258 -6.2070 1.5911
5.9455 -5.9979 1.5911
5.9815 -5.6158 1.5456
6.1082 -5.3354 1.5277
6.2827 -5.1020 1.5244
6.3373 -4.7791 1.4948
6.3899 -4.4682 1.4683
7.0221 -4.5438 1.5749
7.0627 -4.2182 1.5488
7.2026 -3.9581 1.5472
7.2541 -3.6536 1.5289
7.3044 -3.3558 1.5130
7.3538 -3.0637 1.4993
7.3080 -2.7410 1.4688
7.3553 -2.4613 1.4594
7.4021 -2.1848 1.4520
7.5447 -1.9353 1.4652
7.5914 -1.6592 1.4616
7.6379 -1.3841 1.4599
7.6844 -1.1093 1.4600
7.6323 -0.8233 1.4434
7.6785 -0.5502 1.4473
6.6252 -0.2361 1.2462
7.1690 0.0020 1.3475
6.2119 0.2249 1.1683
6.6676 0.4816 1.2563
5.7979 0.6287 1.0958
5.8041 0.8412 1.1019
5.8315 1.0602 1.1134
5.8687 1.2862 1.1285
5.9081 1.5190 1.1457
5.9487 1.7594 1.1650
6.0973 2.0441 1.2075
6.1418 2.3075 1.2318
6.1883 2.5821 1.2588
6.2369 2.8695 1.2887
6.1781 3.1159 1.2987
6.2310 3.4285 1.3347
6.2870 3.7595 1.3746
6.4593 4.1845 1.4441
6.5240 4.5670 1.4941
6.5934 4.9777 1.5498
6.5677 5.3390 1.5877
6.2982 5.5070 1.5692
5.9356 5.5784 1.5277
5.8017 5.8588 1.5463
5.7500 6.2395 1.5911
5.5227 6.4424 1.5911
5.2882 6.6370 1.5911
5.0469 6.8230 1.5911
4.7991 7.0003 1.5911
4.5449 7.1685 1.5911
4.2849 7.3275 1.5911
4.0193 7.4771 1.5911
3.7485 7.6169 1.5911
3.4728 7.7470 1.5911
3.1926 7.8670 1.5911
2.9083 7.9769 1.5911
0.8132 2.5066 0.4938
0.7224 2.5331 0.4936
0.6308 2.5566 0.4934
0.5384 2.5768 0.4932
0.4454 2.5938 0.4931
0.3520 2.6076 0.4930
0.2581 2.6181 0.4929
0.1639 2.6254 0.4928
0.0696 2.6295 0.4928
-0.0249 2.6303 0.4928
-0.1193 2.6278 0.4928
-0.2136 2.6221 0.4929
-0.3076 2.6131 0.4930
-0.4013 2.6009 0.4931
-0.4945 2.5854 0.4932
-0.5872 2.5668 0.4934
-0.6792 2.5449 0.4935
-0.7704 2.5199 0.4937
-2.9521 8.5454 1.6941
-3.2569 8.4336 1.6941
-3.6633 -7.1055 1.6941
-3.4056 -7.2321 1.6941
-3.1436 -7.3494 1.6941
-2.8775 -7.4572 1.6941
-2.6078 -7.5555 1.6941
-2.3348 -7.6440 1.6941
-2.0587 -7.7227 1.6941
-1.7801 -7.7914 1.6941
-1.4991 -7.8501 1.6941
-1.2162 -7.8987 1.6941
-0.9318 -7.9372 1.6941
-0.6462 -7.9655 1.6941
-0.3598 -7.9835 1.6941
-0.0729 -7.9912 1.6941
0.2141 -7.9887 1.6941
0.5009 -7.9759 1.6941
0.7869 -7.9528 1.6941
1.0720 -7.9195 1.6941
1.3557 -7.8760 1.6941
1.6377 -7.8224 1.6941
1.9176 -7.7587 1.6941
2.0614 -7.2174 1.5911
2.3193 -7.1390 1.5911
2.5742 -7.0513 1.5911
2.8259 -6.9546 1.5911
3.0739 -6.8489 1.5911
3.3180 -6.7344 1.5911
3.5578 -6.6112 1.5911
3.7931 -6.4796 1.5911
4.0235 -6.3395 1.5911
4.2488 -6.1913 1.5911
4.4687 -6.0351 1.5911
4.6828 -5.8711 1.5911
4.8909 -5.6996 1.5911
5.0927 -5.5207 1.5911
5.2881 -5.3346 1.5911
5.4766 -5.1417 1.5911
5.6581 -4.9421 1.5911
5.8324 -4.7361 1.5911
6.1805 -4.6608 1.6391
6.3310 -4.4269 1.6357
6.5001 -4.2059 1.6391
6.6475 -3.9702 1.6391
6.7864 -3.7293 1.6391
6.9166 -3.4835 1.6391
7.0379 -3.2332 1.6391
7.1501 -2.9787 1.6391
7.2531 -2.7203 1.6391
7.3468 -2.4584 1.6391
7.4021 -2.1847 1.6328
7.5058 -1.9252 1.6391
7.5709 -1.6547 1.6391
7.6262 -1.3819 1.6391
7.6717 -1.1073 1.6391
7.6324 -0.8232 1.6232
7.6785 -0.5501 1.6276
6.6245 -0.2360 1.4013
6.1471 0.0018 1.2994
6.1847 0.2240 1.3081
6.6673 0.4817 1.4127
5.7976 0.6288 1.2323
5.8041 0.8413 1.2392
5.8315 1.0603 1.2522
5.8687 1.2863 1.2692
5.9081 1.5191 1.2886
5.9487 1.7595 1.3102
6.0973 2.0442 1.3581
6.1418 2.3076 1.3855
6.1883 2.5822 1.4158
6.2369 2.8696 1.4495
6.1782 3.1160 1.4608
6.2310 3.4286 1.5013
6.2870 3.7596 1.5462
6.4593 4.1846 1.6243
6.3631 4.4545 1.6391
6.1996 4.6804 1.6391
5.8512 4.7566 1.5911
5.6771 4.9640 1.5911
5.4956 5.1650 1.5911
5.3071 5.3594 1.5911
5.1116 5.5469 1.5911
4.9095 5.7272 1.5911
4.7011 5.9002 1.5911
4.4865 6.0655 1.5911
4.2661 6.2231 1.5911
4.0402 6.3726 1.5911
3.8091 6.5138 1.5911
3.5729 6.6467 1.5911
3.3322 6.7710 1.5911
3.0871 6.8866 1.5911
2.8380 6.9933 1.5911
0.8063 2.2115 0.4962
0.7261 2.2381 0.4960
0.6450 2.2619 0.4958
0.5632 2.2829 0.4956
0.4808 2.3010 0.4955
0.3978 2.3163 0.4954
0.3143 2.3287 0.4953
0.2305 2.3381 0.4952
0.1464 2.3447 0.4951
0.0621 2.3483 0.4951
-0.0222 2.3490 0.4951
-0.1065 2.3468 0.4951
-0.1907 2.3417 0.4952
-0.2747 2.3336 0.4953
-0.3584 2.3226 0.4953
-0.4416 2.3088 0.4955
-0.5244 2.2920 0.4956
-0.6065 2.2724 0.4958
-0.6879 2.2500 0.4960
-0.7685 2.2247 0.4962
-2.8951 7.4969 1.6941
-3.2956 -6.3921 1.6941
-3.0638 -6.5061 1.6941
-2.8281 -6.6116 1.6941
-2.5887 -6.7087 1.6941
-2.3461 -6.7971 1.6941
-2.1005 -6.8767 1.6941
-1.8521 -6.9475 1.6941
-1.6014 -7.0094 1.6941
-1.3487 -7.0622 1.6941
-1.0942 -7.1060 1.6941
-0.8383 -7.1406 1.6941
-0.5814 -7.1660 1.6941
-0.3237 -7.1822 1.6941
-0.0655 -7.1892 1.6941
0.1927 -7.1869 1.6941
0.4506 -7.1754 1.6941
0.7080 -7.1546 1.6941
0.9644 -7.1247 1.6941
1.2197 -7.0856 1.6941
1.4733 -7.0373 1.6941
1.7251 -6.9800 1.6941
1.9747 -6.9137 1.6941
2.0865 -6.4224 1.5911
2.3159 -6.3435 1.5911
2.5422 -6.2565 1.5911
2.7654 -6.1614 1.5911
2.9849 -6.0584 1.5911
3.2007 -5.9475 1.5911
3.4124 -5.8290 1.5911
3.6196 -5.7030 1.5911
3.8223 -5.5697 1.5911
4.0200 -5.4291 1.5911
4.2126 -5.2816 1.5911
4.3998 -5.1272 1.5911
4.5814 -4.9662 1.5911
4.7570 -4.7988 1.5911
4.9266 -4.6252 1.5911
5.0899 -4.4457 1.5911
5.2466 -4.2603 1.5911
5.3966 -4.0695 1.5911
5.5396 -3.8734 1.5911
5.6756 -3.6723 1.5911
5.8042 -3.4664 1.5911
5.9254 -3.2560 1.5911
6.2216 -3.1334 1.6391
6.3306 -2.9082 1.6391
6.4315 -2.6793 1.6391
6.5241 -2.4468 1.6391
6.6083 -2.2112 1.6391
6.6841 -1.9727 1.6391
6.7512 -1.7316 1.6391
6.8097 -1.4882 1.6391
6.8593 -1.2428 1.6391
6.9002 -0.9959 1.6391
6.9321 -0.7476 1.6391
6.9552 -0.4982 1.6391
6.6238 -0.2359 1.5579
6.1471 0.0019 1.4447
6.1847 0.2241 1.4544
6.6669 0.4817 1.5707
5.7973 0.6288 1.3701
5.8041 0.8414 1.3779
5.8315 1.0603 1.3924
5.8687 1.2863 1.4113
5.9081 1.5192 1.4328
5.9488 1.7596 1.4569
6.0973 2.0443 1.5102
6.1419 2.3077 1.5406
6.1883 2.5823 1.5744
6.2369 2.8697 1.6118
6.1782 3.1161 1.6243
6.1181 3.3666 1.6391
5.8179 3.4792 1.5911
5.6897 3.6861 1.5911
5.5541 3.8883 1.5911
5.4114 4.0855 1.5911
5.2616 4.2775 1.5911
5.1050 4.4639 1.5911
4.9418 4.6447 1.5911
4.7723 4.8194 1.5911
4.5965 4.9879 1.5911
4.4147 5.1501 1.5911
4.2272 5.3055 1.5911
4.0343 5.4542 1.5911
3.8361 5.5958 1.5911
3.6329 5.7302 1.5911
3.4250 5.8573 1.5911
3.2127 5.9767 1.5911
2.9962 6.0885 1.5911
2.7758 6.1924 1.5911
0.7990 1.9690 0.4982
0.7276 1.9956 0.4980
0.6552 2.0197 0.4978
0.5821 2.0413 0.4976
0.5083 2.0603 0.4975
0.4339 2.0767 0.4973
0.3590 2.0905 0.4972
0.2837 2.1017 0.4971
0.2080 2.1103 0.4971
0.1321 2.1162 0.4970
0.0561 2.1195 0.4970
-0.0201 2.1201 0.4970
-0.0962 2.1181 0.4970
-0.1721 2.1135 0.4970
-0.2479 2.1062 0.4971
-0.3234 2.0962 0.4972
-0.3986 2.0837 0.4973
-0.4732 2.0685 0.4974
-0.5473 2.0508 0.4976
-0.6208 2.0304 0.4977
-0.6935 2.0075 0.4979
-0.7654 1.9821 0.4981
-2.9920 -5.8033 1.6941
-2.7816 -5.9068 1.6941
-2.5676 -6.0026 1.6941
-2.3503 -6.0907 1.6941
-2.1300 -6.1710 1.6941
-1.9070 -6.2434 1.6941
-1.6816 -6.3077 1.6941
-1.4540 -6.3638 1.6941
-1.2245 -6.4118 1.6941
-0.9934 -6.4516 1.6941
-0.7611 -6.4830 1.6941
-0.5278 -6.5061 1.6941
-0.2939 -6.5208 1.6941
-0.0595 -6.5271 1.6941
0.1749 -6.5251 1.6941
0.4091 -6.5146 1.6941
0.6428 -6.4957 1.6941
0.8756 -6.4685 1.6941
1.1074 -6.4330 1.6941
1.3377 -6.3892 1.6941
1.5663 -6.3372 1.6941
1.7928 -6.2770 1.6941
1.9705 -6.0652 1.6550
2.1026 -5.7593 1.5911
2.3081 -5.6802 1.5911
2.5107 -5.5939 1.5911
2.7100 -5.5003 1.5911
2.9059 -5.3997 1.5911
3.0980 -5.2921 1.5911
3.2862 -5.1776 1.5911
3.4702 -5.0565 1.5911
3.6497 -4.9289 1.5911
3.8245 -4.7949 1.5911
3.9945 -4.6548 1.5911
4.1593 -4.5086 1.5911
4.3187 -4.3566 1.5911
4.4726 -4.1990 1.5911
4.6208 -4.0359 1.5911
4.7631 -3.8676 1.5911
4.8992 -3.6944 1.5911
5.0291 -3.5163 1.5911
5.1524 -3.3337 1.5911
5.2692 -3.1468 1.5911
5.3792 -2.9558 1.5911
5.4823 -2.7609 1.5911
5.5783 -2.5625 1.5911
5.6672 -2.3608 1.5911
5.7488 -2.1559 1.5911
5.8229 -1.9483 1.5911
5.8896 -1.7381 1.5911
5.9487 -1.5257 1.5911
6.1815 -1.3508 1.6391
6.2266 -1.1281 1.6391
6.2636 -0.9039 1.6391
6.2926 -0.6785 1.6391
6.3134 -0.4522 1.6391
6.3261 -0.2252 1.6391
6.1471 0.0020 1.5916
6.1847 0.2242 1.6023
6.3153 0.4564 1.6391
5.7970 0.6289 1.5094
5.8041 0.8414 1.5180
5.8315 1.0604 1.5340
5.8687 1.2864 1.5548
5.9081 1.5193 1.5786
5.8966 1.7443 1.5911
5.8306 1.9550 1.5911
5.7572 2.1632 1.5911
5.6762 2.3687 1.5911
5.5880 2.5712 1.5911
5.4925 2.7704 1.5911
5.3899 2.9660 1.5911
5.2804 3.1578 1.5911
5.1640 3.3456 1.5911
5.0409 3.5291 1.5911
4.9113 3.7080 1.5911
4.7754 3.8822 1.5911
4.6332 4.0514 1.5911
4.4851 4.2154 1.5911
4.3311 4.3740 1.5911
4.1716 4.5269 1.5911
4.0066 4.6740 1.5911
3.8364 4.8151 1.5911
3.6613 4.9500 1.5911
3.4814 5.0785 1.5911
3.2970 5.2005 1.5911
3.1083 5.3157 1.5911
2.9156 5.4241 1.5911
2.7191 5.5255 1.5911
0.7914 1.7656 0.4999
0.7273 1.7921 0.4996
0.6622 1.8164 0.4994
0.5964 1.8384 0.4993
0.5299 1.8581 0.4991
0.4627 1.8754 0.4990
0.3950 1.8904 0.4989
0.3268 1.9030 0.4988
0.2582 1.9133 0.4987
0.1894 1.9211 0.4986
0.1203 1.9265 0.4986
0.0510 1.9295 0.4985
-0.0183 1.9301 0.4985
-0.0875 1.9282 0.4986
-0.1567 1.9240 0.4986
-0.2257 1.9173 0.4987
-0.2944 1.9083 0.4987
-0.3628 1.8968 0.4988
-0.4308 1.8830 0.4989
-0.4982 1.8668 0.4991
-0.5650 1.8482 0.4992
-0.6312 1.8273 0.4994
-0.6967 1.8041 0.4996
-2.7370 -5.3085 1.6941
-2.5445 -5.4032 1.6941
-2.3488 -5.4909 1.6941
-2.1500 -5.5715 1.6941
-1.9485 -5.6450 1.6941
-1.7445 -5.7112 1.6941
-1.5383 -5.7700 1.6941
-1.3300 -5.8214 1.6941
-1.1201 -5.8653 1.6941
-0.9088 -5.9017 1.6941
-0.6962 -5.9304 1.6941
-0.4828 -5.9515 1.6941
-0.2688 -5.9650 1.6941
-0.0544 -5.9708 1.6941
0.1600 -5.9689 1.6941
0.3742 -5.9593 1.6941
0.5880 -5.9421 1.6941
0.8010 -5.9172 1.6941
1.0130 -5.8847 1.6941
1.2237 -5.8446 1.6941
1.4328 -5.7970 1.6941
1.6400 -5.7419 1.6941
1.8452 -5.6794 1.6941
1.9687 -5.3924 1.6285
2.1114 -5.1960 1.5911
2.2967 -5.1170 1.5911
2.4790 -5.0314 1.5911
2.6582 -4.9393 1.5911
2.8340 -4.8409 1.5911
3.0061 -4.7362 1.5911
3.1744 -4.6254 1.5911
3.3386 -4.5086 1.5911
3.4985 -4.3860 1.5911
3.6539 -4.2578 1.5911
3.8046 -4.1241 1.5911
3.9505 -3.9850 1.5911
4.0912 -3.8408 1.5911
4.2268 -3.6917 1.5911
4.3569 -3.5377 1.5911
4.4814 -3.3792 1.5911
4.6001 -3.2163 1.5911
4.7129 -3.0493 1.5911
4.8197 -2.8783 1.5911
4.9203 -2.7035 1.5911
5.0146 -2.5253 1.5911
5.1024 -2.3438 1.5911
5.1836 -2.1593 1.5911
5.2582 -1.9719 1.5911
5.3260 -1.7820 1.5911
5.3870 -1.5897 1.5911
5.4410 -1.3954 1.5911
5.4880 -1.1992 1.5911
5.5280 -1.0015 1.5911
5.5608 -0.8024 1.5911
5.5865 -0.6023 1.5911
5.6049 -0.4013 1.5911
5.6162 -0.1999 1.5911
5.6202 0.0019 1.5911
5.6169 0.2037 1.5911
5.6065 0.4053 1.5911
5.5887 0.6063 1.5911
5.5638 0.8067 1.5911
5.5317 1.0060 1.5911
5.4925 1.2040 1.5911
5.4461 1.4006 1.5911
5.3927 1.5953 1.5911
5.3324 1.7880 1.5911
5.2652 1.9784 1.5911
5.1911 2.1664 1.5911
5.1104 2.3515 1.5911
5.0230 2.5336 1.5911
4.9292 2.7125 1.5911
4.8290 2.8879 1.5911
4.7225 3.0597 1.5911
4.6099 3.2275 1.5911
4.4914 3.3911 1.5911
4.3670 3.5504 1.5911
4.2370 3.7051 1.5911
4.1015 3.8550 1.5911
3.9607 4.0000 1.5911
3.8148 4.1398 1.5911
3.6639 4.2744 1.5911
3.5083 4.4034 1.5911
3.3481 4.5267 1.5911
3.1836 4.6442 1.5911
3.0150 4.7557 1.5911
2.8424 4.8611 1.5911
2.6662 4.9602 1.5911
0.7834 1.5920 0.5013
0.7255 1.6184 0.5011
0.6667 1.6428 0.5009
0.6071 1.6651 0.5007
0.5467 1.6854 0.5005
0.4857 1.7035 0.5004
0.4242 1.7194 0.5003
0.3621 1.7332 0.5001
0.2996 1.7447 0.5000
0.2368 1.7541 0.5000
0.1736 1.7613 0.4999
0.1103 1.7663 0.4999
0.0468 1.7690 0.4999
-0.0167 1.7696 0.4999
-0.0803 1.7679 0.4999
-0.1437 1.7640 0.4999
-0.2069 1.7579 0.5000
-0.2699 1.7495 0.5000
-0.3326 1.7390 0.5001
-0.3949 1.7263 0.5002
-0.4567 1.7114 0.5004
-0.5180 1.6943 0.5005
-0.5787 1.6751 0.5007
-0.6386 1.6538 0.5008
-2.5195 -4.8866 1.6941
-2.3423 -4.9737 1.6941
-2.1621 -5.0545 1.6941
-1.9792 -5.1287 1.6941
-1.7937 -5.1963 1.6941
-1.6059 -5.2573 1.6941
-1.4160 -5.3114 1.6941
-1.2244 -5.3588 1.6941
-1.0311 -5.3992 1.6941
-0.8366 -5.4327 1.6941
-0.6409 -5.4591 1.6941
-0.4445 -5.4786 1.6941
-0.2475 -5.4910 1.6941
-0.0501 -5.4963 1.6941
0.1473 -5.4946 1.6941
0.3445 -5.4858 1.6941
0.5413 -5.4699 1.6941
0.7374 -5.4469 1.6941
0.9325 -5.4170 1.6941
1.1264 -5.3801 1.6941
1.3189 -5.3363 1.6941
1.5097 -5.2856 1.6941
1.6986 -5.2281 1.6941
1.8853 -5.1638 1.6941
1.9688 -4.8449 1.6117
2.1142 -4.7103 1.5911
2.2820 -4.6315 1.5911
2.4469 -4.5467 1.5911
2.6087 -4.4560 1.5911
2.7672 -4.3597 1.5911
2.9221 -4.2577 1.5911
3.0732 -4.1502 1.5911
3.2204 -4.0373 1.5911
3.3634 -3.9193 1.5911
3.5022 -3.7961 1.5911
3.6364 -3.6681 1.5911
3.7660 -3.5354 1.5911
3.8907 -3.3981 1.5911
4.0104 -3.2564 1.5911
4.1250 -3.1104 1.5911
4.2343 -2.9605 1.5911
4.3381 -2.8067 1.5911
4.4364 -2.6493 1.5911
4.5290 -2.4885 1.5911
4.6157 -2.3244 1.5911
4.6965 -2.1573 1.5911
4.7713 -1.9874 1.5911
4.8399 -1.8149 1.5911
4.9023 -1.6401 1.5911
4.9584 -1.4631 1.5911
5.0081 -1.2843 1.5911
5.0513 -1.1037 1.5911
5.0880 -0.9217 1.5911
5.1182 -0.7385 1.5911
5.1418 -0.5543 1.5911
5.1588 -0.3693 1.5911
5.1691 -0.1839 1.5911
5.1728 0.0018 1.5911
5.1698 0.1876 1.5911
5.1601 0.3731 1.5911
5.1437 0.5582 1.5911
5.1208 0.7425 1.5911
5.0912 0.9260 1.5911
5.0550 1.1082 1.5911
5.0124 1.2891 1.5911
4.9632 1.4683 1.5911
4.9076 1.6457 1.5911
4.8457 1.8209 1.5911
4.7776 1.9939 1.5911
4.7032 2.1642 1.5911
4.6228 2.3319 1.5911
4.5364 2.4965 1.5911
4.4442 2.6579 1.5911
4.3462 2.8159 1.5911
4.2425 2.9703 1.5911
4.1334 3.1209 1.5911
4.0190 3.2675 1.5911
3.8993 3.4098 1.5911
3.7746 3.5478 1.5911
3.6450 3.6812 1.5911
3.5107 3.8099 1.5911
3.3718 3.9337 1.5911
3.2286 4.0524 1.5911
3.0812 4.1658 1.5911
2.9298 4.2740 1.5911
2.7746 4.3766 1.5911
0.8265 1.4135 0.5027
0.7749 1.4417 0.5025
0.7224 1.4680 0.5023
0.6690 1.4924 0.5021
0.6148 1.5150 0.5019
0.5598 1.5356 0.5018
0.5042 1.5543 0.5016
0.4480 1.5710 0.5015
0.3912 1.5857 0.5013
0.3340 1.5985 0.5012
0.2763 1.6092 0.5012
0.2184 1.6179 0.5011
0.1601 1.6245 0.5010
0.1017 1.6291 0.5010
0.0432 1.6316 0.5010
-0.0154 1.6321 0.5010
-0.0740 1.6306 0.5010
-0.1325 1.6270 0.5010
-0.1909 1.6213 0.5011
-0.2490 1.6136 0.5011
-0.3068 1.6039 0.5012
-0.3642 1.5921 0.5013
-0.4212 1.5783 0.5014
-0.4777 1.5626 0.5016
-0.5336 1.5448 0.5017
-0.5889 1.5252 0.5019
-2.3316 -4.5221 1.6941
-2.1676 -4.6028 1.6941
-2.0009 -4.6775 1.6941
-1.8316 -4.7462 1.6941
-1.6599 -4.8088 1.6941
-1.4861 -4.8652 1.6941
-1.3104 -4.9153 1.6941
-1.1331 -4.9591 1.6941
-0.9542 -4.9965 1.6941
-0.7742 -5.0275 1.6941
-0.5931 -5.0520 1.6941
-0.4113 -5.0700 1.6941
-0.2290 -5.0815 1.6941
-0.0464 -5.0864 1.6941
0.1363 -5.0848 1.6941
0.3188 -5.0767 1.6941
0.5009 -5.0620 1.6941
0.6824 -5.0408 1.6941
0.8630 -5.0131 1.6941
1.0424 -4.9789 1.6941
1.2206 -4.9383 1.6941
1.3972 -4.8914 1.6941
1.5719 -4.8382 1.6941
1.7447 -4.7787 1.6941
1.9152 -4.7131 1.6941
1.9681 -4.3849 1.6005
2.1118 -4.2860 1.5911
2.2645 -4.2076 1.5911
2.4142 -4.1237 1.5911
2.5608 -4.0345 1.5911
2.7041 -3.9401 1.5911
2.8440 -3.8406 1.5911
2.9802 -3.7361 1.5911
3.1126 -3.6269 1.5911
3.2409 -3.5129 1.5911
3.3651 -3.3944 1.5911
3.4850 -3.2716 1.5911
3.6005 -3.1445 1.5911
3.7112 -3.0133 1.5911
3.8173 -2.8783 1.5911
3.9184 -2.7395 1.5911
4.0144 -2.5972 1.5911
4.1054 -2.4515 1.5911
4.1910 -2.3027 1.5911
4.2712 -2.1508 1.5911
4.3460 -1.9962 1.5911
4.4152 -1.8390 1.5911
4.4786 -1.6794 1.5911
4.5363 -1.5176 1.5911
4.5882 -1.3538 1.5911
4.6342 -1.1883 1.5911
4.6742 -1.0212 1.5911
4.7082 -0.8528 1.5911
4.7361 -0.6832 1.5911
4.7579 -0.5128 1.5911
4.7735 -0.3417 1.5911
4.7831 -0.1701 1.5911
4.7864 0.0018 1.5911
4.7836 0.1736 1.5911
4.7746 0.3453 1.5911
4.7595 0.5165 1.5911
4.7382 0.6871 1.5911
4.7108 0.8568 1.5911
4.6773 1.0255 1.5911
4.6378 1.1928 1.5911
4.5923 1.3587 1.5911
4.5409 1.5227 1.5911
4.4836 1.6849 1.5911
4.4205 1.8449 1.5911
4.3517 2.0026 1.5911
4.2773 2.1576 1.5911
4.1973 2.3099 1.5911
4.1119 2.4593 1.5911
4.0212 2.6055 1.5911
3.9254 2.7483 1.5911
3.8244 2.8876 1.5911
3.7185 3.0232 1.5911
3.6077 3.1549 1.5911
3.4923 3.2826 1.5911
3.3724 3.4060 1.5911
3.2481 3.5250 1.5911
3.1196 3.6395 1.5911
2.9871 3.7494 1.5911
2.8507 3.8543 1.5911
2.7106 3.9543 1.5911
0.8129 1.2822 0.5038
0.7660 1.3100 0.5036
0.7182 1.3362 0.5034
0.6695 1.3606 0.5032
0.6200 1.3833 0.5030
0.5698 1.4042 0.5028
0.5189 1.4234 0.5027
0.4673 1.4407 0.5025
0.4152 1.4562 0.5024
0.3626 1.4699 0.5023
0.3096 1.4817 0.5022
0.2561 1.4917 0.5021
0.2024 1.4997 0.5021
0.1484 1.5059 0.5020
0.0943 1.5101 0.5020
0.0400 1.5125 0.5020
-0.0143 1.5130 0.5020
-0.0686 1.5115 0.5020
-0.1228 1.5082 0.5020
-0.1769 1.5029 0.5020
-0.2308 1.4958 0.5021
-0.2844 1.4867 0.5022
-0.3376 1.4758 0.5023
-0.3904 1.4630 0.5024
-0.4428 1.4484 0.5025
-0.4946 1.4319 0.5026
-0.5459 1.4136 0.5028
-2.1675 -4.2038 1.6941
-2.0151 -4.2788 1.6941
-1.8601 -4.3483 1.6941
-1.7027 -4.4122 1.6941
-1.5431 -4.4704 1.6941
-1.3816 -4.5228 1.6941
-1.2182 -4.5694 1.6941
-1.0533 -4.6101 1.6941
-0.8871 -4.6449 1.6941
-0.7197 -4.6737 1.6941
-0.5514 -4.6965 1.6941
-0.3824 -4.7133 1.6941
-0.2129 -4.7239 1.6941
-0.0431 -4.7285 1.6941
0.1267 -4.7270 1.6941
0.2964 -4.7194 1.6941
0.4657 -4.7058 1.6941
0.6344 -4.6860 1.6941
0.8022 -4.6603 1.6941
0.9691 -4.6285 1.6941
1.1347 -4.5908 1.6941
1.2988 -4.5472 1.6941
1.4613 -4.4977 1.6941
1.6219 -4.4424 1.6941
1.7805 -4.3814 1.6941
1.9367 -4.3147 1.6941
1.9669 -3.9918 1.5940
2.1051 -3.9114 1.5911
2.2443 -3.8334 1.5911
2.3806 -3.7505 1.5911
2.5138 -3.6627 1.5911
2.6438 -3.5702 1.5911
2.7704 -3.4731 1.5911
2.8935 -3.3715 1.5911
3.0128 -3.2656 1.5911
3.1283 -3.1554 1.5911
3.2397 -3.0412 1.5911
3.3470 -2.9231 1.5911
3.4500 -2.8011 1.5911
3.5485 -2.6756 1.5911
3.6425 -2.5466 1.5911
3.7318 -2.4143 1.5911
3.8163 -2.2789 1.5911
3.8959 -2.1405 1.5911
3.9705 -1.9993 1.5911
4.0399 -1.8556 1.5911
4.1042 -1.7094 1.5911
4.1632 -1.5610 1.5911
4.2168 -1.4106 1.5911
4.2650 -1.2584 1.5911
4.3077 -1.1045 1.5911
4.3449 -0.9492 1.5911
4.3765 -0.7927 1.5911
4.4024 -0.6351 1.5911
4.4226 -0.4766 1.5911
4.4372 -0.3175 1.5911
4.4460 -0.1580 1.5911
4.4491 0.0017 1.5911
4.4465 0.1614 1.5911
4.4381 0.3210 1.5911
4.4240 0.4802 1.5911
4.4042 0.6387 1.5911
4.3787 0.7965 1.5911
4.3476 0.9533 1.5911
4.3109 1.1088 1.5911
4.2685 1.2629 1.5911
4.2207 1.4154 1.5911
4.1674 1.5662 1.5911
4.1088 1.7149 1.5911
4.0448 1.8614 1.5911
3.9756 2.0055 1.5911
3.9013 2.1471 1.5911
3.8219 2.2859 1.5911
3.7376 2.4218 1.5911
3.6485 2.5545 1.5911
3.5546 2.6840 1.5911
3.4561 2.8100 1.5911
3.3532 2.9324 1.5911
3.2459 3.0511 1.5911
3.1345 3.1658 1.5911
3.0189 3.2764 1.5911
2.8995 3.3828 1.5911
2.7763 3.4849 1.5911
2.6496 3.5824 1.5911
0.7993 1.1660 0.5048
0.7566 1.1935 0.5045
0.7130 1.2194 0.5043
0.6685 1.2438 0.5041
0.6232 1.2665 0.5040
0.5772 1.2877 0.5038
0.5304 1.3072 0.5036
0.4830 1.3251 0.5035
0.4351 1.3412 0.5033
0.3866 1.3557 0.5032
0.3376 1.3684 0.5031
0.2882 1.3795 0.5030
0.2385 1.3887 0.5030
0.1884 1.3962 0.5029
0.1382 1.4020 0.5029
0.0878 1.4060 0.5028
0.0372 1.4082 0.5028
-0.0133 1.4086 0.5028
-0.0639 1.4072 0.5028
-0.1144 1.4041 0.5029
-0.1647 1.3992 0.5029
-0.2148 1.3925 0.5030
-0.2647 1.3841 0.5030
-0.3143 1.3739 0.5031
-0.3635 1.3620 0.5032
-0.4122 1.3484 0.5033
-0.4605 1.3330 0.5034
-0.5081 1.3160 0.5036
-2.0228 -3.9232 1.6941
-1.8806 -3.9932 1.6941
-1.7360 -4.0580 1.6941
-1.5891 -4.1177 1.6941
-1.4401 -4.1720 1.6941
-1.2894 -4.2209 1.6941
-1.1369 -4.2644 1.6941
-0.9831 -4.3024 1.6941
-0.8279 -4.3349 1.6941
-0.6717 -4.3618 1.6941
-0.5146 -4.3830 1.6941
-0.3569 -4.3987 1.6941
-0.1987 -4.4086 1.6941
-0.0402 -4.4129 1.6941
0.1183 -4.4115 1.6941
0.2766 -4.4044 1.6941
0.4346 -4.3917 1.6941
0.5920 -4.3733 1.6941
0.7487 -4.3492 1.6941
0.9044 -4.3196 1.6941
1.0590 -4.2844 1.6941
1.2122 -4.2437 1.6941
1.3638 -4.1975 1.6941
1.5137 -4.1459 1.6941
1.6616 -4.0889 1.6941
1.8074 -4.0267 1.6941
1.9509 -3.9593 1.6941
1.9651 -3.6512 1.5914
2.0945 -3.5775 1.5911
2.2217 -3.5001 1.5911
2.3460 -3.4182 1.5911
2.4673 -3.3318 1.5911
2.5855 -3.2412 1.5911
2.7003 -3.1464 1.5911
2.8117 -3.0475 1.5911
2.9194 -2.9447 1.5911
3.0234 -2.8381 1.5911
3.1235 -2.7279 1.5911
3.2196 -2.6141 1.5911
3.3116 -2.4969 1.5911
3.3993 -2.3765 1.5911
3.4826 -2.2530 1.5911
3.5614 -2.1266 1.5911
3.6357 -1.9975 1.5911
3.7053 -1.8657 1.5911
3.7701 -1.7316 1.5911
3.8301 -1.5952 1.5911
3.8851 -1.4567 1.5911
3.9351 -1.3164 1.5911
3.9801 -1.1743 1.5911
4.0199 -1.0307 1.5911
4.0546 -0.8857 1.5911
4.0841 -0.7396 1.5911
4.1082 -0.5926 1.5911
4.0824 -0.4399 1.5738
4.0959 -0.2930 1.5738
4.1040 -0.1458 1.5738
4.1063 0.0016 1.5737
4.1493 0.1507 1.5911
4.1415 0.2996 1.5911
4.1283 0.4481 1.5911
4.1098 0.5961 1.5911
4.0860 0.7433 1.5911
4.0570 0.8896 1.5911
4.0226 1.0347 1.5911
3.9832 1.1786 1.5911
3.9385 1.3209 1.5911
3.8888 1.4615 1.5911
3.8340 1.6003 1.5911
3.7743 1.7370 1.5911
3.7098 1.8715 1.5911
3.6404 2.0036 1.5911
3.5663 2.1331 1.5911
3.4876 2.2598 1.5911
3.4044 2.3837 1.5911
3.3168 2.5045 1.5911
3.2249 2.6221 1.5911
3.1289 2.7363 1.5911
3.0288 2.8470 1.5911
2.9248 2.9540 1.5911
2.8170 3.0572 1.5911
2.7055 3.1565 1.5911
0.8236 1.0338 0.5058
0.7857 1.0623 0.5056
0.7467 1.0894 0.5054
0.7069 1.1150 0.5052
0.6661 1.1393 0.5050
0.6246 1.1621 0.5048
0.5823 1.1834 0.5046
0.5393 1.2032 0.5045
0.4956 1.2214 0.5043
0.4514 1.2381 0.5042
0.4065 1.2533 0.5041
0.3612 1.2668 0.5040
0.3154 1.2787 0.5039
0.2693 1.2890 0.5038
0.2228 1.2977 0.5037
0.1761 1.3047 0.5037
0.1291 1.3101 0.5036
0.0820 1.3138 0.5036
0.0348 1.3159 0.5036
-0.0125 1.3163 0.5036
-0.0597 1.3150 0.5036
-0.1069 1.3121 0.5036
-0.1539 1.3075 0.5036
-0.2008 1.3013 0.5037
-0.2474 1.2934 0.5038
-0.2937 1.2839 0.5038
-0.3396 1.2727 0.5039
-0.3852 1.2600 0.5040
-0.4302 1.2456 0.5042
-0.4748 1.2296 0.5043
-1.8942 -3.6736 1.6941
-1.7610 -3.7392 1.6941
-1.6256 -3.7999 1.6941
-1.4880 -3.8558 1.6941
-1.3486 -3.9067 1.6941
-1.2074 -3.9525 1.6941
-1.0647 -3.9932 1.6941
-0.9206 -4.0288 1.6941
-0.7753 -4.0592 1.6941
-0.6290 -4.0844 1.6941
-0.4819 -4.1043 1.6941
-0.3342 -4.1190 1.6941
-0.1861 -4.1283 1.6941
-0.0377 -4.1323 1.6941
0.1107 -4.1310 1.6941
0.2590 -4.1244 1.6941
0.4070 -4.1124 1.6941
0.5544 -4.0952 1.6941
0.7011 -4.0727 1.6941
0.8469 -4.0449 1.6941
0.9917 -4.0119 1.6941
1.1351 -3.9738 1.6941
1.2771 -3.9305 1.6941
1.4175 -3.8822 1.6941
1.5560 -3.8289 1.6941
1.6925 -3.7706 1.6941
1.8269 -3.7075 1.6941
1.9535 -3.6295 1.6895
1.9628 -3.3525 1.5923
2.0804 -3.2775 1.5911
2.1968 -3.2008 1.5911
2.3104 -3.1199 1.5911
2.4211 -3.0350 1.5911
2.5286 -2.9462 1.5911
2.6329 -2.8537 1.5911
2.7338 -2.7574 1.5911
2.8311 -2.6576 1.5911
2.9249 -2.5543 1.5911
3.0148 -2.4477 1.5911
3.1009 -2.3380 1.5911
3.1830 -2.2252 1.5911
3.2611 -2.1096 1.5911
3.3349 -1.9913 1.5911
3.4044 -1.8703 1.5911
3.4695 -1.7470 1.5911
3.5302 -1.6213 1.5911
3.5864 -1.4936 1.5911
3.6379 -1.3640 1.5911
3.6847 -1.2325 1.5911
3.7268 -1.0995 1.5911
3.7641 -0.9650 1.5911
3.7966 -0.8293 1.5911
3.8241 -0.6925 1.5911
3.8051 -0.5488 1.5738
3.8226 -0.4118 1.5738
3.8351 -0.2743 1.5738
3.8427 -0.1365 1.5738
3.8454 0.0016 1.5738
3.8431 0.1397 1.5738
3.8778 0.2806 1.5911
3.8654 0.4197 1.5911
3.8481 0.5582 1.5911
3.8258 0.6960 1.5911
3.7986 0.8330 1.5911
3.7665 0.9689 1.5911
3.7295 1.1035 1.5911
3.6876 1.2368 1.5911
3.6411 1.3685 1.5911
3.5898 1.4984 1.5911
3.5339 1.6264 1.5911
3.4734 1.7523 1.5911
3.4085 1.8760 1.5911
3.3391 1.9972 1.5911
3.2654 2.1159 1.5911
3.1875 2.2319 1.5911
3.1055 2.3450 1.5911
3.0194 2.4551 1.5911
2.9295 2.5620 1.5911
2.8358 2.6656 1.5911
2.7384 2.7658 1.5911
2.6374 2.8625 1.5911
0.8066 0.9410 0.5066
0.7719 0.9690 0.5064
0.7364 0.9957 0.5062
0.6999 1.0211 0.5060
0.6626 1.0452 0.5058
0.6244 1.0679 0.5056
0.5855 1.0893 0.5054
0.5458 1.1093 0.5052
0.5055 1.1279 0.5051
0.4646 1.1450 0.5050
0.4231 1.1607 0.5048
0.3811 1.1749 0.5047
0.3386 1.1876 0.5046
0.2957 1.1988 0.5045
0.2525 1.2085 0.5044
0.2089 1.2166 0.5044
0.1651 1.2232 0.5043
0.1211 1.2282 0.5043
0.0769 1.2317 0.5043
0.0326 1.2337 0.5042
-0.0117 1.2341 0.5042
-0.0560 1.2329 0.5043
-0.1002 1.2301 0.5043
-0.1443 1.2258 0.5043
-0.1882 1.2199 0.5044
-0.2319 1.2125 0.5044
-0.2753 1.2036 0.5045
-0.3184 1.1931 0.5046
-0.3611 1.1812 0.5047
-0.4033 1.1677 0.5048
-0.4451 1.1527 0.5049
-1.7790 -3.4501 1.6941
-1.6539 -3.5117 1.6941
-1.5267 -3.5688 1.6941
-1.3975 -3.6212 1.6941
-1.2666 -3.6690 1.6941
-1.1340 -3.7120 1.6941
-0.9999 -3.7503 1.6941
-0.8646 -3.7837 1.6941
-0.7281 -3.8123 1.6941
-0.5907 -3.8359 1.6941
-0.4526 -3.8546 1.6941
-0.3139 -3.8684 1.6941
-0.1747 -3.8772 1.6941
-0.0354 -3.8809 1.6941
0.1040 -3.8797 1.6941
0.2433 -3.8735 1.6941
0.3822 -3.8622 1.6941
0.5207 -3.8460 1.6941
0.6585 -3.8249 1.6941
0.7954 -3.7988 1.6941
0.9313 -3.7679 1.6941
1.0661 -3.7320 1.6941
1.1994 -3.6914 1.6941
1.3312 -3.6460 1.6941
1.4613 -3.5959 1.6941
1.5896 -3.5412 1.6941
1.7158 -3.4819 1.6941
1.8397 -3.4182 1.6941
1.9514 -3.3330 1.6855
1.9601 -3.0878 1.5961
2.0632 -3.0060 1.5911
2.1699 -2.9300 1.5911
2.2738 -2.8503 1.5911
2.3748 -2.7669 1.5911
2.4727 -2.6800 1.5911
2.5674 -2.5896 1.5911
2.6589 -2.4958 1.5911
2.7469 -2.3988 1.5911
2.8314 -2.2987 1.5911
2.9122 -2.1957 1.5911
2.9893 -2.0898 1.5911
3.0626 -1.9812 1.5911
3.1319 -1.8700 1.5911
3.1972 -1.7564 1.5911
3.2584 -1.6406 1.5911
3.3154 -1.5226 1.5911
3.3681 -1.4027 1.5911
3.4164 -1.2809 1.5911
3.4604 -1.1575 1.5911
3.4999 -1.0325 1.5911
3.5349 -0.9062 1.5911
3.5654 -0.7788 1.5911
3.5913 -0.6503 1.5911
3.5734 -0.5153 1.5738
3.5898 -0.3867 1.5738
3.6016 -0.2576 1.5738
3.6087 -0.1281 1.5738
3.6112 0.0016 1.5738
3.6086 0.1312 1.5737
3.6416 0.2636 1.5911
3.6300 0.3942 1.5911
3.6137 0.5243 1.5911
3.5928 0.6537 1.5911
3.5672 0.7823 1.5911
3.5370 0.9099 1.5911
3.5022 1.0364 1.5911
3.4630 1.1615 1.5911
3.4192 1.2852 1.5911
3.3711 1.4071 1.5911
3.3186 1.5273 1.5911
3.2618 1.6456 1.5911
3.2007 1.7617 1.5911
3.1356 1.8756 1.5911
3.0664 1.9870 1.5911
2.9932 2.0959 1.5911
2.9162 2.2021 1.5911
2.8354 2.3055 1.5911
2.7509 2.4059 1.5911
2.6629 2.5032 1.5911
0.8203 0.8285 0.5075
0.7897 0.8570 0.5073
0.7581 0.8845 0.5071
0.7256 0.9108 0.5069
0.6921 0.9359 0.5067
0.6579 0.9598 0.5065
0.6228 0.9825 0.5063
0.5869 1.0039 0.5061
0.5504 1.0240 0.5059
0.5131 1.0428 0.5058
0.4752 1.0603 0.5056
0.4368 1.0764 0.5055
0.3978 1.0912 0.5054
0.3583 1.1045 0.5053
0.3183 1.1165 0.5052
0.2780 1.1270 0.5051
0.2373 1.1361 0.5050
0.1964 1.1438 0.5050
0.1552 1.1500 0.5049
0.1138 1.1547 0.5049
0.0723 1.1580 0.5049
0.0307 1.1599 0.5048
-0.0110 1.1602 0.5048
-0.0526 1.1591 0.5049
-0.0942 1.1565 0.5049
-0.1356 1.1524 0.5049
-0.1769 1.1469 0.5050
-0.2180 1.1399 0.5050
-0.2588 1.1315 0.5051
-0.2993 1.1217 0.5052
-0.3395 1.1104 0.5053
-0.3792 1.0977 0.5054
-0.4184 1.0836 0.5055
-1.6751 -3.2486 1.6941
-1.5573 -3.3065 1.6941
-1.4375 -3.3603 1.6941
-1.3159 -3.4096 1.6941
-1.1926 -3.4546 1.6941
-1.0677 -3.4951 1.6941
-0.9415 -3.5312 1.6941
-0.8141 -3.5627 1.6941
-0.6856 -3.5896 1.6941
-0.5562 -3.6118 1.6941
-0.4262 -3.6295 1.6941
-0.2955 -3.6424 1.6941
-0.1645 -3.6507 1.6941
-0.0333 -3.6542 1.6941
0.0979 -3.6530 1.6941
0.2291 -3.6472 1.6941
0.3599 -3.6366 1.6941
0.4903 -3.6214 1.6941
0.6200 -3.6015 1.6941
0.7490 -3.5769 1.6941
0.8769 -3.5477 1.6941
1.0038 -3.5140 1.6941
1.1294 -3.4757 1.6941
1.2535 -3.4330 1.6941
1.3760 -3.3858 1.6941
1.4967 -3.3343 1.6941
1.6155 -3.2785 1.6941
1.7323 -3.2184 1.6941
1.8468 -3.1542 1.6941
1.9496 -3.0712 1.6861
1.9569 -2.8511 1.6027
2.0431 -2.7588 1.5911
2.1410 -2.6838 1.5911
2.2360 -2.6052 1.5911
2.3282 -2.5234 1.5911
2.4174 -2.4382 1.5911
2.5035 -2.3499 1.5911
2.5864 -2.2586 1.5911
2.6659 -2.1644 1.5911
2.7421 -2.0673 1.5911
2.8147 -1.9676 1.5911
2.8836 -1.8653 1.5911
2.9489 -1.7607 1.5911
3.0104 -1.6537 1.5911
3.0679 -1.5446 1.5911
3.1216 -1.4336 1.5911
3.1712 -1.3206 1.5911
3.2167 -1.2060 1.5911
3.2581 -1.0897 1.5911
3.2953 -0.9721 1.5911
3.3283 -0.8532 1.5911
3.3570 -0.7332 1.5911
3.3813 -0.6122 1.5911
3.4013 -0.4904 1.5911
3.4028 -0.3665 1.5845
3.3906 -0.2424 1.5737
3.3973 -0.1205 1.5737
3.4303 0.0015 1.5879
3.4351 0.1249 1.5911
3.4286 0.2482 1.5911
3.4177 0.3712 1.5911
3.4024 0.4936 1.5911
3.3826 0.6155 1.5911
3.3585 0.7366 1.5911
3.3301 0.8567 1.5911
3.2974 0.9758 1.5911
3.2604 1.0936 1.5911
3.2192 1.2100 1.5911
3.1738 1.3249 1.5911
3.1244 1.4380 1.5911
3.0709 1.5493 1.5911
3.0135 1.6587 1.5911
2.9521 1.7659 1.5911
2.8870 1.8708 1.5911
2.8181 1.9733 1.5911
2.7455 2.0733 1.5911
2.6695 2.1706 1.5911
0.8276 0.7238 0.5084
0.8007 0.7527 0.5082
0.7729 0.7806 0.5079
0.7440 0.8075 0.5077
0.7143 0.8334 0.5075
0.6837 0.8582 0.5073
0.6522 0.8819 0.5071
0.6199 0.9045 0.5069
0.5869 0.9258 0.5067
0.5531 0.9460 0.5066
0.5186 0.9650 0.5064
0.4835 0.9827 0.5063
0.4479 0.9992 0.5061
0.4116 1.0144 0.5060
0.3749 1.0283 0.5059
0.3376 1.0409 0.5058
0.3000 1.0522 0.5057
0.2620 1.0622 0.5056
0.2237 1.0708 0.5056
0.1851 1.0780 0.5055
0.1463 1.0838 0.5055
0.1073 1.0883 0.5054
0.0681 1.0914 0.5054
0.0289 1.0931 0.5054
-0.0103 1.0935 0.5054
-0.0496 1.0924 0.5054
-0.0888 1.0900 0.5054
-0.1278 1.0861 0.5055
-0.1668 1.0810 0.5055
-0.2055 1.0744 0.5056
-0.2439 1.0664 0.5056
-0.2821 1.0571 0.5057
-0.3199 1.0465 0.5058
-0.3573 1.0345 0.5059
-0.3943 1.0212 0.5060
-1.5808 -3.0656 1.6941
-1.4697 -3.1204 1.6941
-1.3566 -3.1711 1.6941
-1.2418 -3.2177 1.6941
-1.1255 -3.2601 1.6941
-1.0076 -3.2984 1.6941
-0.8885 -3.3324 1.6941
-0.7683 -3.3621 1.6941
-0.6470 -3.3875 1.6941
-0.5249 -3.4085 1.6941
-0.4022 -3.4251 1.6941
-0.2789 -3.4374 1.6941
-0.1553 -3.4452 1.6941
-0.0314 -3.4485 1.6941
0.0924 -3.4474 1.6941
0.2162 -3.4419 1.6941
0.3396 -3.4319 1.6941
0.4627 -3.4175 1.6941
0.5851 -3.3987 1.6941
0.7068 -3.3755 1.6941
0.8276 -3.3480 1.6941
0.9473 -3.3162 1.6941
1.0658 -3.2801 1.6941
1.1829 -3.2397 1.6941
1.2985 -3.1952 1.6941
1.4125 -3.1466 1.6941
1.5246 -3.0939 1.6941
1.6348 -3.0372 1.6941
1.7428 -2.9766 1.6941
1.8487 -2.9122 1.6941
1.9479 -2.8379 1.6905
1.9533 -2.6375 1.6118
2.0204 -2.5326 1.5911
2.1102 -2.4585 1.5911
2.1972 -2.3813 1.5911
2.2813 -2.3009 1.5911
2.3626 -2.2176 1.5911
2.4408 -2.1314 1.5911
2.5159 -2.0424 1.5911
2.5877 -1.9509 1.5911
2.6562 -1.8568 1.5911
2.7213 -1.7603 1.5911
2.7828 -1.6615 1.5911
2.8408 -1.5606 1.5911
2.8952 -1.4576 1.5911
2.9458 -1.3528 1.5911
2.9926 -1.2462 1.5911
3.0356 -1.1380 1.5911
3.0746 -1.0283 1.5911
3.1097 -0.9173 1.5911
3.1408 -0.8051 1.5911
3.1679 -0.6918 1.5911
3.1908 -0.5777 1.5911
3.2097 -0.4627 1.5911
3.2244 -0.3472 1.5911
3.2350 -0.2313 1.5911
3.2413 -0.1150 1.5911
3.2436 0.0015 1.5911
3.2416 0.1180 1.5911
3.2354 0.2343 1.5911
3.2251 0.3503 1.5911
3.2106 0.4659 1.5911
3.1920 0.5809 1.5911
3.1693 0.6951 1.5911
3.1424 0.8085 1.5911
3.1115 0.9209 1.5911
3.0766 1.0320 1.5911
3.0377 1.1419 1.5911
2.9949 1.2503 1.5911
2.9483 1.3570 1.5911
2.8978 1.4621 1.5911
2.8436 1.5652 1.5911
2.7857 1.6664 1.5911
2.7242 1.7654 1.5911
2.6592 1.8621 1.5911
0.8291 0.6261 0.5092
0.8058 0.6552 0.5089
0.7814 0.6834 0.5087
0.7561 0.7108 0.5085
0.7298 0.7372 0.5083
0.7026 0.7626 0.5081
0.6745 0.7870 0.5079
0.6456 0.8105 0.5077
0.6159 0.8328 0.5075
0.5854 0.8542 0.5073
0.5542 0.8743 0.5072
0.5223 0.8934 0.5070
0.4898 0.9114 0.5069
0.4567 0.9281 0.5067
0.4230 0.9437 0.5066
0.3887 0.9581 0.5065
0.3540 0.9712 0.5064
0.3189 0.9832 0.5063
0.2834 0.9938 0.5062
0.2475 1.0032 0.5061
0.2113 1.0113 0.5061
0.1748 1.0182 0.5060
0.1382 1.0237 0.5060
0.1013 1.0279 0.5059
0.0643 1.0309 0.5059
0.0273 1.0325 0.5059
-0.0098 1.0328 0.5059
-0.0468 1.0318 0.5059
-0.0838 1.0295 0.5059
-0.1207 1.0259 0.5059
-0.1575 1.0210 0.5060
-0.1941 1.0148 0.5060
-0.2304 1.0072 0.5061
-0.2664 0.9985 0.5062
-0.3021 0.9884 0.5063
-0.3375 0.9771 0.5064
-0.3724 0.9645 0.5065
-1.4948 -2.8988 1.6941
-1.3897 -2.9505 1.6941
-1.2828 -2.9985 1.6941
-1.1743 -3.0425 1.6941
-1.0642 -3.0827 1.6941
-0.9528 -3.1189 1.6941
-0.8402 -3.1510 1.6941
-0.7265 -3.1791 1.6941
-0.6118 -3.2031 1.6941
-0.4964 -3.2230 1.6941
-0.3803 -3.2388 1.6941
-0.2637 -3.2503 1.6941
-0.1468 -3.2577 1.6941
-0.0297 -3.2608 1.6941
0.0874 -3.2598 1.6941
0.2044 -3.2545 1.6941
0.3212 -3.2451 1.6941
0.4375 -3.2315 1.6941
0.5533 -3.2137 1.6941
0.6684 -3.1918 1.6941
0.7826 -3.1658 1.6941
0.8958 -3.1357 1.6941
1.0078 -3.1015 1.6941
1.1186 -3.0634 1.6941
1.2279 -3.0213 1.6941
1.3356 -2.9753 1.6941
1.4417 -2.9255 1.6941
1.5458 -2.8719 1.6941
1.6480 -2.8146 1.6941
1.7481 -2.7537 1.6941
1.8459 -2.6892 1.6941
1.9413 -2.6213 1.6941
1.9493 -2.4434 1.6234
1.9953 -2.3247 1.5911
2.0776 -2.2516 1.5911
2.1572 -2.1756 1.5911
2.2340 -2.0968 1.5911
2.3079 -2.0153 1.5911
2.3789 -1.9312 1.5911
2.4468 -1.8446 1.5911
2.5116 -1.7556 1.5911
2.5731 -1.6644 1.5911
2.6314 -1.5710 1.5911
2.6862 -1.4755 1.5911
2.7376 -1.3782 1.5911
2.7854 -1.2791 1.5911
2.8297 -1.1783 1.5911
2.8703 -1.0760 1.5911
2.9072 -0.9723 1.5911
2.9404 -0.8673 1.5911
2.9698 -0.7612 1.5911
2.9954 -0.6541 1.5911
3.0171 -0.5462 1.5911
3.0349 -0.4375 1.5911
3.0488 -0.3283 1.5911
3.0588 -0.2186 1.5911
3.0648 -0.1086 1.5911
3.0669 0.0015 1.5911
3.0650 0.1116 1.5911
3.0592 0.2216 1.5911
3.0494 0.3313 1.5911
3.0357 0.4406 1.5911
3.0181 0.5493 1.5911
2.9966 0.6573 1.5911
2.9712 0.7645 1.5911
2.9420 0.8707 1.5911
2.9090 0.9758 1.5911
2.8722 1.0797 1.5911
2.8317 1.1822 1.5911
2.7876 1.2831 1.5911
2.7399 1.3824 1.5911
2.6886 1.4800 1.5911
2.6339 1.5756 1.5911
0.8255 0.5350 0.5099
0.8054 0.5640 0.5097
0.7844 0.5923 0.5095
0.7623 0.6199 0.5092
0.7392 0.6466 0.5090
0.7153 0.6724 0.5088
0.6904 0.6974 0.5086
0.6647 0.7215 0.5084
0.6382 0.7447 0.5082
0.6109 0.7668 0.5080
0.5828 0.7880 0.5079
0.5539 0.8082 0.5077
0.5244 0.8273 0.5076
0.4943 0.8454 0.5074
0.4635 0.8624 0.5073
0.4321 0.8783 0.5071
0.4002 0.8930 0.5070
0.3679 0.9066 0.5069
0.3350 0.9191 0.5068
0.3018 0.9304 0.5067
0.2681 0.9405 0.5066
0.2342 0.9494 0.5066
0.1999 0.9570 0.5065
0.1654 0.9635 0.5064
0.1307 0.9688 0.5064
0.0959 0.9728 0.5064
0.0609 0.9755 0.5064
0.0258 0.9771 0.5063
-0.0092 0.9774 0.5063
-0.0443 0.9764 0.5064
-0.0793 0.9743 0.5064
-0.1143 0.9708 0.5064
-0.1490 0.9662 0.5064
-0.1836 0.9603 0.5065
-0.2180 0.9532 0.5065
-0.2521 0.9449 0.5066
-0.2859 0.9353 0.5067
-0.3194 0.9246 0.5068
-0.3524 0.9127 0.5069
-1.4159 -2.7458 1.6941
-1.3164 -2.7948 1.6941
-1.2151 -2.8402 1.6941
-1.1123 -2.8820 1.6941
-1.0081 -2.9200 1.6941
-0.9025 -2.9543 1.6941
-0.7959 -2.9848 1.6941
-0.6881 -3.0114 1.6941
-0.5795 -3.0341 1.6941
-0.4702 -3.0530 1.6941
-0.3602 -3.0678 1.6941
-0.2498 -3.0788 1.6941
-0.1391 -3.0858 1.6941
-0.0282 -3.0887 1.6941
0.0828 -3.0878 1.6941
0.1936 -3.0828 1.6941
0.3042 -3.0739 1.6941
0.4144 -3.0610 1.6941
0.5241 -3.0442 1.6941
0.6331 -3.0234 1.6941
0.7413 -2.9987 1.6941
0.8485 -2.9702 1.6941
0.9546 -2.9379 1.6941
1.0596 -2.9017 1.6941
1.1631 -2.8619 1.6941
1.2652 -2.8183 1.6941
1.3656 -2.7711 1.6941
1.4643 -2.7203 1.6941
1.5611 -2.6661 1.6941
1.6558 -2.6083 1.6941
1.7485 -2.5473 1.6941
1.8389 -2.4829 1.6941
1.9269 -2.4153 1.6941
1.9448 -2.2658 1.6372
1.9680 -2.1328 1.5911
2.0433 -2.0608 1.5911
2.1322 -2.0012 1.6031
2.1861 -1.9089 1.5911
2.2534 -1.8293 1.5911
2.3177 -1.7472 1.5911
2.3790 -1.6629 1.5911
0.7943 -0.5138 0.5185
0.8119 -0.4847 0.5183
2.5444 -1.3976 1.5911
2.5931 -1.3054 1.5911
2.6384 -1.2115 1.5911
2.6803 -1.1160 1.5911
2.7188 -1.0191 1.5911
2.7538 -0.9209 1.5911
2.7852 -0.8215 1.5911
2.8130 -0.7210 1.5911
2.8372 -0.6195 1.5911
2.8578 -0.5173 1.5911
2.8746 -0.4143 1.5911
2.8878 -0.3109 1.5911
2.8973 -0.2070 1.5911
2.9030 -0.1028 1.5911
2.9049 0.0014 1.5911
2.9032 0.1057 1.5911
2.8976 0.2099 1.5911
2.8884 0.3138 1.5911
2.8754 0.4173 1.5911
2.8587 0.5203 1.5911
2.8383 0.6227 1.5911
2.8143 0.7242 1.5911
2.7866 0.8248 1.5911
2.7553 0.9243 1.5911
2.7205 1.0227 1.5911
2.6821 1.1198 1.5911
2.6403 1.2154 1.5911
2.5951 1.3094 1.5911
0.8173 0.4499 0.5106
0.8003 0.4788 0.5104
0.7822 0.5069 0.5102
0.7632 0.5345 0.5099
0.7433 0.5613 0.5097
0.7224 0.5874 0.5095
0.7006 0.6127 0.5093
0.6779 0.6373 0.5091
0.6543 0.6610 0.5089
0.6300 0.6838 0.5087
0.6048 0.7058 0.5085
0.5789 0.7268 0.5084
0.5523 0.7469 0.5082
0.5250 0.7660 0.5081
0.4970 0.7842 0.5079
0.4685 0.8013 0.5078
0.4393 0.8174 0.5076
0.4096 0.8325 0.5075
0.3794 0.8465 0.5074
0.3487 0.8594 0.5073
0.3176 0.8712 0.5072
0.2860 0.8819 0.5071
0.2542 0.8915 0.5070
0.2220 0.8999 0.5070
0.1895 0.9072 0.5069
0.1568 0.9133 0.5069
0.1239 0.9183 0.5068
0.0909 0.9221 0.5068
0.0577 0.9247 0.5068
0.0245 0.9262 0.5068
-0.0088 0.9265 0.5068
-0.0420 0.9256 0.5068
-0.0752 0.9235 0.5068
-0.1083 0.9203 0.5068
-0.1413 0.9159 0.5069
-0.1741 0.9103 0.5069
-0.2067 0.9035 0.5070
-0.2390 0.8956 0.5070
-0.2710 0.8866 0.5071
-0.3027 0.8764 0.5072
-0.3340 0.8651 0.5073
-1.3433 -2.6049 1.6941
-1.2488 -2.6514 1.6941
-1.1528 -2.6945 1.6941
-1.0553 -2.7341 1.6941
-0.9564 -2.7702 1.6941
-0.8562 -2.8027 1.6941
-0.7550 -2.8316 1.6941
-0.6528 -2.8568 1.6941
-0.5498 -2.8784 1.6941
-0.4461 -2.8963 1.6941
-0.3418 -2.9104 1.6941
-0.2370 -2.9208 1.6941
-0.1319 -2.9274 1.6941
-0.0267 -2.9303 1.6941
0.0785 -2.9293 1.6941
0.1837 -2.9246 1.6941
0.2886 -2.9162 1.6941
0.3932 -2.9039 1.6941
0.4972 -2.8879 1.6941
0.6006 -2.8683 1.6941
0.7032 -2.8449 1.6941
0.8050 -2.8178 1.6941
0.9057 -2.7871 1.6941
1.0052 -2.7528 1.6941
1.1034 -2.7150 1.6941
1.2003 -2.6737 1.6941
