ply
format ascii 1.0
element vertex 2097
property float32 x
property float32 y
property float32 z
end_header
10.4278 -21.0797 -3.1046
10.7356 -19.8693 -2.9806
10.9459 -18.6234 -2.8502
10.0309 -15.7411 -2.4621
10.3845 -15.0707 -2.4134
10.9017 -14.6626 -2.4086
11.6473 -14.5419 -2.4552
10.5078 -12.1928 -2.1204
11.0103 -11.8830 -2.1333
11.3596 -11.4077 -2.1192
11.8911 -11.1117 -2.1415
12.6556 -11.0003 -2.2055
12.5341 -10.1266 -2.1186
12.9297 -9.6986 -2.1241
13.0599 -9.0808 -2.0895
13.2190 -8.5027 -2.0637
13.3426 -7.9185 -2.0363
13.4631 -7.3483 -2.0120
13.5952 -6.7974 -1.9929
12.8741 -5.8677 -1.8541
12.5557 -5.1855 -1.7794
12.4928 -4.6408 -1.7447
12.6483 -4.1873 -1.7434
13.0024 -3.7912 -1.7713
13.6929 -3.4633 -1.8462
39.3580 -8.4608 -5.2594
38.1273 -6.7713 -5.0563
37.6458 -5.2967 -4.9613
38.9951 -4.0623 -5.1137
11.8793 -0.3783 -1.5485
12.1866 0.0505 -1.5869
12.2011 0.4898 -1.5892
12.2395 0.9333 -1.5967
12.2569 1.3796 -1.6035
12.2752 1.8309 -1.6126
12.2603 2.2823 -1.6195
12.2756 2.7454 -1.6326
12.2912 3.2172 -1.6481
12.3607 3.7153 -1.6734
12.3856 4.2141 -1.6953
12.4456 4.7406 -1.7249
12.3574 5.2234 -1.7367
12.3753 5.7641 -1.7663
12.4086 6.3323 -1.8015
12.5320 6.9745 -1.8538
12.4858 7.5494 -1.8850
12.4543 8.1561 -1.9224
12.1763 8.6153 -1.9253
12.2505 9.3468 -1.9880
12.5762 10.3316 -2.0989
12.7230 11.2425 -2.1886
12.6312 11.9976 -2.2447
12.6618 12.9241 -2.3304
12.8160 14.0592 -2.4494
12.7309 15.0169 -2.5338
12.8921 16.3659 -2.6805
12.8138 17.5284 -2.7926
12.5540 18.5374 -2.8785
20.0739 32.0681 -4.8628
19.8510 34.4045 -5.1040
14.4533 36.2457 -5.0092
12.9803 36.2943 -4.9472
11.5409 36.3418 -4.8930
10.1304 36.3884 -4.8463
8.7443 36.4341 -4.8067
7.3786 36.4792 -4.7739
6.2949 38.1325 -4.9569
-7.8529 48.6163 -6.3160
-9.2281 46.4490 -6.0743
-8.1354 34.4214 -4.5373
-9.0049 32.7842 -4.3620
-10.0383 31.9935 -4.3027
-9.1443 25.8501 -3.5191
-9.6701 24.4965 -3.3807
-10.5124 24.0586 -3.3710
-10.7934 22.4630 -3.2005
-9.2890 17.6740 -2.5648
-9.6253 16.8160 -2.4896
-10.1604 16.3568 -2.4749
-10.8682 16.1684 -2.5047
-9.5804 13.2009 -2.0977
-9.8314 12.5696 -2.0530
-10.2488 12.1743 -2.0480
-10.8355 11.9696 -2.0786
-11.0867 11.3950 -2.0476
-11.1270 10.6423 -1.9838
-11.1081 9.8842 -1.9165
-11.1732 9.2439 -1.8699
-11.1575 8.5741 -1.8153
-11.2145 7.9932 -1.7774
-11.2337 7.4124 -1.7378
-9.8142 5.9805 -1.4846
-9.9177 5.5646 -1.4698
-9.9078 5.0994 -1.4409
-10.1019 4.7478 -1.4440
-6.2338 2.6604 -0.8773
-10.8128 4.1616 -1.5004
-12.0483 4.1460 -1.6509
-13.6230 4.1461 -1.8460
-14.9966 3.9808 -2.0125
-11.3392 2.5772 -1.5091
-10.7048 2.0311 -1.4148
-10.4609 1.5974 -1.3748
-10.5867 1.2287 -1.3854
-10.5994 0.8451 -1.3829
-10.6817 0.4659 -1.3913
-11.1564 0.0849 -1.4526
-11.9891 -0.3403 -1.5625
-12.0034 -0.7736 -1.5678
-11.9817 -1.2063 -1.5705
-12.0891 -1.6583 -1.5922
7.9848 -32.1496 -3.6209
7.7383 -26.9691 -3.0663
8.4437 -25.8766 -2.9742
8.5903 -23.4311 -2.7263
9.1466 -22.4178 -2.6444
10.0292 -22.2559 -2.6655
10.4026 -21.0297 -2.5611
10.6911 -19.7879 -2.4544
10.7650 -18.3165 -2.3177
10.0728 -15.8077 -2.0442
10.4139 -15.1141 -2.0009
10.9312 -14.7032 -1.9966
11.6882 -14.5938 -2.0367
10.9129 -12.6635 -1.8202
11.0185 -11.8926 -1.7645
11.3671 -11.4160 -1.7526
11.9000 -11.1207 -1.7711
12.7016 -11.0410 -1.8291
12.8417 -10.3758 -1.7935
12.9428 -9.7091 -1.7567
13.0712 -9.0894 -1.7277
13.2012 -8.4919 -1.7024
13.4027 -7.9549 -1.6894
13.4410 -7.3369 -1.6589
13.5951 -6.7980 -1.6457
13.1539 -5.9960 -1.5643
12.5558 -5.1862 -1.4691
12.6569 -4.7024 -1.4593
12.6481 -4.1878 -1.4390
13.0029 -3.7920 -1.4620
13.7476 -3.4778 -1.5297
17.9391 -3.8572 -1.9781
38.1082 -6.7696 -4.1698
37.9485 -5.3410 -4.1259
38.0672 -3.9673 -4.1179
11.8793 -0.3789 -1.2771
12.1866 0.0500 -1.3086
12.2011 0.4893 -1.3103
12.2157 0.9309 -1.3138
12.2304 1.3761 -1.3189
12.2453 1.8259 -1.3259
12.2603 2.2817 -1.3347
12.2756 2.7448 -1.3453
12.2912 3.2166 -1.3580
12.3071 3.6986 -1.3727
12.3234 4.1924 -1.3895
12.3401 4.6998 -1.4087
12.3367 5.2140 -1.4279
12.3753 5.7634 -1.4546
12.3259 6.2896 -1.4735
12.3778 6.8881 -1.5075
12.4376 7.5196 -1.5458
12.4543 8.1554 -1.5825
12.1763 8.6146 -1.5846
12.2505 9.3461 -1.6361
12.5762 10.3309 -1.7273
12.7230 11.2417 -1.8009
12.6311 11.9967 -1.8469
12.6617 12.9233 -1.9172
12.8160 14.0583 -2.0149
12.7308 15.0160 -2.0843
12.8921 16.3649 -2.2047
12.8137 17.5274 -2.2968
12.5539 18.5363 -2.3673
20.3175 32.4555 -4.0475
20.1244 34.8764 -4.2548
14.4540 36.2456 -4.1184
12.9809 36.2943 -4.0673
11.5414 36.3418 -4.0225
10.1308 36.3884 -3.9840
8.7447 36.4341 -3.9513
7.3789 36.4792 -3.9243
6.2948 38.1303 -4.0744
-7.5384 46.6671 -4.9837
-9.2285 46.4490 -4.9932
-8.2661 34.9725 -3.7895
-9.0053 32.7842 -3.5858
-10.0384 31.9922 -3.5371
-9.1447 25.8500 -2.8931
-9.6808 24.5223 -2.7824
-10.5129 24.0585 -2.7716
-10.6380 22.1386 -2.5936
-9.3636 17.8150 -2.1258
-9.6546 16.8664 -2.0534
-10.1942 16.4104 -2.0419
-10.8997 16.2144 -2.0658
-9.6696 13.3231 -1.7413
-9.8401 12.5801 -1.6901
-10.3363 12.2775 -1.6990
-10.8466 11.9811 -1.7117
-11.1017 11.4097 -1.6868
-11.1817 10.6939 -1.6402
-11.1096 9.8848 -1.5772
-11.1339 9.2108 -1.5334
-11.2630 8.6545 -1.5081
-11.2145 7.9926 -1.4629
-11.2337 7.4118 -1.4305
-9.8141 5.9799 -1.2222
-9.9177 5.5641 -1.2101
-9.9080 5.0990 -1.1864
-10.1021 4.7474 -1.1891
-6.2332 2.6599 -0.7224
-10.8134 4.1613 -1.2359
-12.0501 4.1460 -1.3601
-14.0042 4.2615 -1.5634
-16.1149 4.2769 -1.7818
-11.3395 2.5767 -1.2435
-10.7045 2.0305 -1.1659
-10.4609 1.5969 -1.1331
-10.5867 1.2283 -1.1420
-10.5994 0.8447 -1.1401
-10.6819 0.4654 -1.1472
-11.1561 0.0843 -1.1978
-11.9891 -0.3408 -1.2886
-12.0035 -0.7741 -1.2931
-11.9817 -1.2068 -1.2955
-12.0891 -1.6588 -1.3135
3.0593 -12.3184 -1.0988
3.5012 -12.2029 -1.0988
3.9390 -12.0719 -1.0988
4.3719 -11.9256 -1.0988
4.7996 -11.7640 -1.0988
10.0045 -22.2024 -2.1054
10.4530 -21.1327 -2.0376
10.7353 -19.8707 -1.9512
10.9489 -18.6303 -1.8661
10.1768 -15.9718 -1.6348
10.4211 -15.1254 -1.5848
10.9932 -14.7873 -1.5890
11.6981 -14.6070 -1.6131
10.8681 -12.6123 -1.4343
11.0183 -11.8931 -1.3960
11.3667 -11.4163 -1.3863
12.0259 -11.2391 -1.4156
12.7015 -11.0417 -1.4465
12.8415 -10.3764 -1.4181
13.0387 -9.7818 -1.3992
13.1574 -9.1501 -1.3748
13.2011 -8.4926 -1.3456
13.4209 -7.9664 -1.3370
13.4408 -7.3375 -1.3108
13.5949 -6.7986 -1.3002
13.1549 -5.9970 -1.2358
12.5560 -5.1869 -1.1603
12.6568 -4.7030 -1.1523
12.6479 -4.1883 -1.1362
13.0034 -3.7927 -1.1542
13.7477 -3.4784 -1.2074
39.1078 -8.4105 -3.4030
39.4228 -7.0049 -3.4035
37.9877 -5.3483 -3.2582
37.9181 -3.9535 -3.2352
11.8793 -0.3794 -1.0069
11.8934 0.0482 -1.0068
11.9076 0.4770 -1.0079
11.9218 0.9080 -1.0104
11.9361 1.3424 -1.0142
11.9506 1.7814 -1.0194
11.9653 2.2263 -1.0259
11.9803 2.6782 -1.0340
11.9955 3.1387 -1.0435
12.3071 3.6980 -1.0806
12.3234 4.1918 -1.0937
12.3401 4.6992 -1.1086
12.3574 5.2222 -1.1254
12.3752 5.7628 -1.1443
12.3938 6.3235 -1.1654
12.4130 6.9070 -1.1889
12.4331 7.5163 -1.2151
12.4542 8.1547 -1.2441
12.1763 8.6140 -1.2457
12.2505 9.3454 -1.2860
12.5761 10.3301 -1.3574
12.6027 11.1347 -1.4017
12.5864 11.9534 -1.4459
12.6170 12.8768 -1.5007
12.7086 13.9397 -1.5694
12.7308 15.0151 -1.6369
12.8789 16.3473 -1.7295
12.8137 17.5263 -1.8034
12.5539 18.5353 -1.8586
20.3174 32.4537 -3.1773
20.3794 35.3166 -3.3821
14.4547 36.2456 -3.2318
12.9815 36.2943 -3.1915
11.5419 36.3418 -3.1562
10.1313 36.3883 -3.1258
8.7451 36.4341 -3.1000
7.3793 36.4792 -3.0787
6.2947 38.1281 -3.1961
-7.8536 48.6163 -4.0729
-9.2289 46.4491 -3.9172
-7.8046 33.0185 -2.8070
-9.0057 32.7842 -2.8134
-10.0384 31.9909 -2.7751
-9.0341 25.5361 -2.2426
-9.6231 24.3751 -2.1703
-10.4916 24.0084 -2.1705
-10.7048 22.2765 -2.0482
-9.4685 18.0137 -1.6872
-9.6623 16.8789 -1.6131
-10.2495 16.4985 -1.6116
-10.9082 16.2261 -1.6231
-9.6871 13.3465 -1.3697
-9.8404 12.5797 -1.3271
-10.3366 12.2772 -1.3343
-10.8472 11.9810 -1.3445
-11.1017 11.4090 -1.3250
-11.1817 10.6933 -1.2886
-11.1096 9.8842 -1.2393
-11.1339 9.2101 -1.2050
-11.2494 8.6435 -1.1838
-11.2145 7.9920 -1.1499
-11.2337 7.4112 -1.1246
-9.8140 5.9794 -0.9610
-9.9178 5.5636 -0.9516
-9.9082 5.0987 -0.9332
-10.1023 4.7470 -0.9355
-6.2326 2.6594 -0.5684
-10.8140 4.1610 -0.9726
-12.0520 4.1461 -1.0707
-14.0042 4.2609 -1.2307
-16.1149 4.2762 -1.4029
-11.3398 2.5763 -0.9793
-10.7042 2.0300 -0.9182
-10.4608 1.5964 -0.8926
-10.5867 1.2278 -0.8997
-10.5994 0.8442 -0.8984
-10.6822 0.4649 -0.9042
-11.1557 0.0839 -0.9442
-11.9892 -0.3414 -1.0160
-12.0035 -0.7746 -1.0197
-11.9816 -1.2073 -1.0217
-12.0891 -1.6594 -1.0362
7.9835 -32.1476 -2.1173
7.6741 -26.7477 -1.7782
4.4987 -13.7881 -0.9265
8.5894 -23.4309 -1.5936
9.2079 -22.5702 -1.5560
10.0333 -22.2671 -1.5583
10.5049 -21.2387 -1.5111
10.7352 -19.8714 -1.4397
11.0267 -18.7637 -1.3865
10.1767 -15.9724 -1.2059
10.4208 -15.1258 -1.1688
10.9927 -14.7875 -1.1717
11.6974 -14.6070 -1.1892
10.8674 -12.6123 -1.0572
11.0181 -11.8936 -1.0288
11.3662 -11.4166 -1.0215
11.9923 -11.2084 -1.0400
12.7013 -11.0423 -1.0654
12.8414 -10.3770 -1.0443
13.0262 -9.7731 -1.0291
13.1573 -9.1507 -1.0119
13.2010 -8.4932 -0.9901
13.4081 -7.9594 -0.9826
13.4406 -7.3380 -0.9641
13.5948 -6.7992 -0.9560
13.1559 -5.9981 -0.9084
12.5562 -5.1876 -0.8527
12.6567 -4.7035 -0.8466
12.6477 -4.1889 -0.8345
13.0039 -3.7935 -0.8475
13.7479 -3.4791 -0.8863
39.3577 -8.4661 -2.5132
39.4804 -7.0170 -2.5005
39.9265 -5.6230 -2.5115
38.5805 -4.0243 -2.4134
11.8793 -0.3799 -0.7378
11.8934 0.0477 -0.7375
11.9075 0.4765 -0.7381
11.9218 0.9075 -0.7397
11.9361 1.3419 -0.7422
11.9506 1.7809 -0.7458
11.9653 2.2257 -0.7504
11.9802 2.6777 -0.7560
11.9954 3.1381 -0.7628
12.0110 3.6085 -0.7706
12.0269 4.0904 -0.7798
12.0432 4.5856 -0.7901
12.0601 5.0960 -0.8019
12.0775 5.6236 -0.8151
12.0956 6.1708 -0.8299
12.1144 6.7402 -0.8465
12.1340 7.3348 -0.8648
12.1546 7.9579 -0.8853
12.1762 8.6133 -0.9080
12.2505 9.3447 -0.9371
12.2748 10.0819 -0.9652
12.3007 10.8672 -0.9965
12.3285 11.7078 -1.0313
12.6617 12.9216 -1.0965
12.6948 13.9237 -1.1411
12.7308 15.0142 -1.1912
12.7702 16.2083 -1.2477
12.8137 17.5253 -1.3118
12.5538 18.5342 -1.3517
20.0770 32.0680 -2.2832
19.8508 34.3988 -2.3952
14.4554 36.2456 -2.3485
12.9821 36.2942 -2.3189
11.5425 36.3418 -2.2931
10.1318 36.3883 -2.2708
8.7455 36.4341 -2.2518
7.3796 36.4792 -2.2362
-7.5391 46.6672 -2.8396
-8.8224 44.4012 -2.7198
-7.8049 33.0185 -2.0389
-9.0062 32.7843 -2.0438
-10.0385 31.9895 -2.0161
-9.1449 25.8483 -1.6493
-9.6855 24.5319 -1.5872
-10.5185 24.0689 -1.5814
-10.7852 22.4426 -1.4999
-9.4689 18.0136 -1.2265
-9.6626 16.8785 -1.1728
-10.2499 16.4982 -1.1719
-10.9087 16.2260 -1.1805
-9.6871 13.3458 -0.9963
-9.8406 12.5793 -0.9656
-10.3370 12.2769 -0.9710
-10.8478 11.9810 -0.9786
-11.1017 11.4083 -0.9646
-11.1879 10.6985 -0.9388
-11.1097 9.8836 -0.9026
-11.1339 9.2095 -0.8778
-11.2494 8.6428 -0.8626
-11.2145 7.9914 -0.8382
-11.2337 7.4106 -0.8199
-9.8140 5.9788 -0.7008
-9.9178 5.5631 -0.6941
-9.9084 5.0983 -0.6809
-10.1025 4.7466 -0.6828
-6.2321 2.6588 -0.4149
-10.8146 4.1607 -0.7103
-12.0538 4.1462 -0.7822
-14.0042 4.2602 -0.8993
-16.1150 4.2754 -1.0254
-11.3400 2.5758 -0.7160
-10.7040 2.0295 -0.6715
-10.4608 1.5959 -0.6530
-10.5868 1.2273 -0.6584
-10.5994 0.8437 -0.6576
-10.6824 0.4645 -0.6621
-11.1554 0.0834 -0.6916
-11.9892 -0.3419 -0.7444
-12.0035 -0.7752 -0.7474
-11.9815 -1.2079 -0.7491
-12.0891 -1.6599 -0.7599
3.4589 -13.9287 -0.5933
4.0015 -13.9478 -0.5996
4.5579 -13.9700 -0.6069
3.9092 -10.6644 -0.4688
4.3651 -10.7001 -0.4767
10.0328 -22.2671 -1.0068
10.5047 -21.2394 -0.9760
10.7350 -19.8721 -0.9296
11.0271 -18.7654 -0.8950
10.1765 -15.9731 -0.7782
10.4205 -15.1262 -0.7540
10.9922 -14.7877 -0.7556
11.6967 -14.6069 -0.7666
10.8667 -12.6122 -0.6812
11.0179 -11.8941 -0.6627
11.3658 -11.4169 -0.6577
12.0249 -11.2396 -0.6711
12.7012 -11.0429 -0.6854
12.8413 -10.3777 -0.6714
13.0261 -9.7737 -0.6614
13.1571 -9.1513 -0.6500
13.2009 -8.4938 -0.6357
13.4080 -7.9601 -0.6305
13.4404 -7.3386 -0.6183
13.5947 -6.7998 -0.6128
13.1569 -5.9992 -0.5820
12.5564 -5.1883 -0.5459
12.6565 -4.7041 -0.5417
12.6475 -4.1894 -0.5336
13.0044 -3.7942 -0.5417
13.7481 -3.4798 -0.5661
39.4746 -8.4930 -1.6090
38.3734 -6.8219 -1.5504
37.8901 -5.3379 -1.5194
38.7327 -4.0419 -1.5437
12.1721 -0.3898 -0.4810
12.1866 0.0483 -0.4805
12.2011 0.4877 -0.4806
12.2156 0.9293 -0.4813
12.2303 1.3744 -0.4826
12.2452 1.8243 -0.4846
12.2603 2.2801 -0.4873
12.2755 2.7431 -0.4906
12.2911 3.2149 -0.4947
12.3070 3.6969 -0.4995
12.3233 4.1907 -0.5051
12.3401 4.6981 -0.5115
12.3573 5.2210 -0.5188
12.3752 5.7616 -0.5270
12.3937 6.3223 -0.5363
12.4130 6.9057 -0.5466
12.4331 7.5150 -0.5582
12.2406 8.0136 -0.5612
12.1762 8.6126 -0.5712
12.2504 9.3440 -0.5892
12.2748 10.0812 -0.6066
12.3007 10.8664 -0.6259
12.3285 11.7070 -0.6475
12.3583 12.6112 -0.6715
12.3906 13.5893 -0.6985
12.4257 14.6536 -0.7289
12.4642 15.8191 -0.7631
12.5066 17.1045 -0.8020
12.5538 18.5332 -0.8463
20.2457 32.3356 -1.4410
20.3418 35.2478 -1.5356
14.4561 36.2456 -1.4676
12.9827 36.2942 -1.4488
11.5430 36.3417 -1.4323
10.1322 36.3883 -1.4181
8.7459 36.4341 -1.4060
7.3799 36.4792 -1.3960
6.2631 37.9331 -1.4416
-7.7087 47.7150 -1.8122
-8.8222 44.3982 -1.6977
-8.1463 34.4612 -1.3286
-9.0124 32.8054 -1.2771
-10.0385 31.9882 -1.2592
-9.1453 25.8482 -1.0304
-9.6859 24.5316 -0.9918
-10.5190 24.0689 -0.9885
-10.7758 22.4220 -0.9369
-9.4693 18.0136 -0.7671
-9.6628 16.8781 -0.7337
-10.2277 16.4616 -0.7318
-10.9092 16.2259 -0.7391
-9.6872 13.3451 -0.6240
-9.8408 12.5789 -0.6050
-10.3374 12.2767 -0.6087
-10.8484 11.9809 -0.6138
-11.1017 11.4076 -0.6052
-11.1818 10.6919 -0.5890
-11.1097 9.8830 -0.5669
-11.1339 9.2088 -0.5516
-10.2235 7.8540 -0.4929
-11.0615 7.8817 -0.5200
-11.2337 7.4101 -0.5161
-9.8139 5.9783 -0.4413
-9.9178 5.5626 -0.4374
-9.9086 5.0979 -0.4293
-10.1027 4.7462 -0.4308
-6.2316 2.6583 -0.2619
-10.8152 4.1604 -0.4487
-12.0556 4.1462 -0.4945
-14.0043 4.2596 -0.5688
-16.1150 4.2747 -0.6489
-11.3403 2.5754 -0.4534
-10.7037 2.0289 -0.4255
-10.4607 1.5954 -0.4141
-10.4122 1.2066 -0.4109
-10.4711 0.8331 -0.4125
-10.6827 0.4640 -0.4207
-11.1550 0.0829 -0.4397
-11.9892 -0.3424 -0.4736
-12.0035 -0.7757 -0.4758
-10.9965 -1.1091 -0.4379
-12.0891 -1.6605 -0.4844
3.4718 -13.9811 -0.2708
4.0161 -13.9991 -0.2735
4.5577 -13.9700 -0.2756
3.9090 -10.6644 -0.2128
4.3649 -10.7001 -0.2162
10.0323 -22.2671 -0.4562
10.4232 -21.0756 -0.4385
10.7348 -19.8728 -0.4205
11.0259 -18.7643 -0.4045
10.0373 -15.7553 -0.3465
10.4202 -15.1265 -0.3400
10.9063 -14.6728 -0.3376
11.6961 -14.6069 -0.3448
10.8637 -12.6095 -0.3059
11.0177 -11.8946 -0.2972
11.3654 -11.4171 -0.2945
11.8976 -11.1214 -0.2970
12.7011 -11.0436 -0.3060
12.4886 -10.0933 -0.2911
13.0259 -9.7744 -0.2943
12.2733 -8.5372 -0.2693
13.1695 -8.4743 -0.2812
13.4078 -7.9607 -0.2791
12.6200 -6.8913 -0.2564
13.5946 -6.8004 -0.2702
12.7067 -5.7946 -0.2473
12.4397 -5.1406 -0.2375
12.4450 -4.6260 -0.2334
12.6013 -4.1747 -0.2325
12.9043 -3.7656 -0.2345
13.4884 -3.4147 -0.2418
39.4694 -8.4937 -0.6988
38.5580 -6.8565 -0.6751
38.2872 -5.3956 -0.6639
40.3742 -4.2150 -0.6941
12.1721 -0.3904 -0.2065
12.1865 0.0478 -0.2058
12.2010 0.4871 -0.2054
12.2156 0.9288 -0.2052
12.2303 1.3739 -0.2053
12.2452 1.8237 -0.2056
12.2602 2.2795 -0.2062
12.2755 2.7426 -0.2071
12.2911 3.2143 -0.2084
12.3070 3.6963 -0.2099
12.3233 4.1901 -0.2117
12.3401 4.6975 -0.2139
12.3573 5.2204 -0.2164
12.3752 5.7610 -0.2193
12.3937 6.3217 -0.2227
12.3867 6.8905 -0.2260
12.4068 7.4984 -0.2302
12.4542 8.1527 -0.2355
12.4763 8.8242 -0.2409
12.5511 9.5726 -0.2479
12.5761 10.3279 -0.2547
12.6026 11.1324 -0.2623
12.6310 11.9936 -0.2708
12.6616 12.9199 -0.2803
12.6947 13.9220 -0.2910
12.7307 15.0124 -0.3031
12.7701 16.2064 -0.3168
12.8136 17.5233 -0.3324
20.5544 30.3428 -0.5597
24.3012 38.8110 -0.6975
23.8807 41.3778 -0.7260
14.4568 36.2456 -0.5882
12.9833 36.2942 -0.5801
11.5436 36.3417 -0.5729
10.1327 36.3883 -0.5668
8.7463 36.4341 -0.5616
7.3803 36.4791 -0.5572
7.1891 43.5393 -0.6601
3.6701 28.5924 -0.4309
-7.7087 47.7132 -0.7229
-8.8223 44.3966 -0.6776
-8.2766 35.0109 -0.5390
-9.0128 32.8054 -0.5103
-9.9229 31.6184 -0.4978
-9.1158 25.7635 -0.4111
-9.6285 24.3852 -0.3950
-10.0876 23.0807 -0.3802
-10.2662 21.3606 -0.3584
-9.3570 17.7990 -0.3047
-9.6048 16.7758 -0.2936
-10.1426 16.3239 -0.2926
-10.8478 16.1337 -0.2967
-9.5105 13.1011 -0.2477
-9.7739 12.4927 -0.2434
-10.1926 12.1041 -0.2435
-10.1718 11.2330 -0.2339
-10.7325 11.0276 -0.2383
-11.1888 10.6980 -0.2405
-10.4448 9.2908 -0.2179
-11.1339 9.2082 -0.2260
-10.2243 7.8541 -0.2024
-10.9279 7.7860 -0.2113
-10.3469 6.8245 -0.1960
-9.8138 5.9777 -0.1823
-9.7780 5.4837 -0.1786
-9.9089 5.0975 -0.1782
-10.1029 4.7458 -0.1792
-6.2310 2.6578 -0.1092
-10.8158 4.1601 -0.1875
-12.0575 4.1463 -0.2072
-13.8259 4.2047 -0.2358
-15.7105 4.1667 -0.2663
-11.1915 2.5411 -0.1888
-10.7035 2.0284 -0.1800
-10.4606 1.5950 -0.1756
-10.4121 1.2061 -0.1746
-10.4712 0.8326 -0.1758
-10.6829 0.4636 -0.1797
-10.9313 0.0807 -0.1844
-11.9891 -0.3429 -0.2032
-12.0023 -0.7762 -0.2046
-10.9965 -1.1096 -0.1888
-12.0892 -1.6610 -0.2093
3.4716 -13.9811 0.0537
4.0159 -13.9991 0.0545
4.5575 -13.9700 0.0553
3.9088 -10.6644 0.0430
4.3647 -10.7001 0.0441
9.5320 -21.1577 0.0892
9.5981 -19.4083 0.0838
9.7609 -18.0706 0.0802
10.6443 -18.1157 0.0828
10.1763 -15.9743 0.0753
10.4199 -15.1269 0.0737
10.9913 -14.7880 0.0747
11.6954 -14.6069 0.0767
10.8654 -12.6122 0.0690
11.0175 -11.8951 0.0679
11.3651 -11.4176 0.0683
12.0238 -11.2400 0.0706
11.5696 -10.0604 0.0666
12.5531 -10.1462 0.0709
13.0258 -9.7750 0.0725
11.9403 -8.3062 0.0656
13.2006 -8.4951 0.0717
13.4077 -7.9613 0.0721
12.3616 -6.7508 0.0660
13.5934 -6.8006 0.0722
13.1588 -6.0014 0.0696
12.5568 -5.1896 0.0663
12.6563 -4.7052 0.0667
12.6471 -4.1904 0.0667
13.0053 -3.7957 0.0688
13.7483 -3.4811 0.0730
46.0838 -9.9192 0.2458
38.7569 -6.8936 0.2080
38.3529 -5.4065 0.2073
46.2518 -4.8306 0.2522
12.1721 -0.3909 0.0677
12.1865 0.0473 0.0687
12.2010 0.4866 0.0696
12.2156 0.9282 0.0707
12.2303 1.3733 0.0719
12.2452 1.8232 0.0732
12.2602 2.2789 0.0746
12.2755 2.7420 0.0761
12.2911 3.2138 0.0778
12.3070 3.6957 0.0795
12.3233 4.1895 0.0814
12.3400 4.6969 0.0835
12.3573 5.2198 0.0857
12.3752 5.7604 0.0881
12.3937 6.3210 0.0907
12.3867 6.8898 0.0932
12.4067 7.4977 0.0963
12.4541 8.1520 0.0997
12.4763 8.8235 0.1033
12.5511 9.5719 0.1076
12.5760 10.3271 0.1118
12.6026 11.1316 0.1164
12.6310 11.9928 0.1215
12.6616 12.9191 0.1271
12.6947 13.9211 0.1333
12.7307 15.0115 0.1402
12.7701 16.2055 0.1479
12.7865 17.4854 0.1562
16.0484 23.6897 0.2074
14.5025 23.1605 0.1992
14.5398 25.1916 0.2131
15.2837 28.8287 0.2401
19.6355 40.4934 0.3326
19.7786 44.8284 0.3636
14.4574 36.2455 0.2907
12.9840 36.2942 0.2881
11.5441 36.3417 0.2858
10.1332 36.3883 0.2839
8.7467 36.4340 0.2823
7.3806 36.4791 0.2810
7.1894 43.5392 0.3337
-7.8612 48.6547 0.3729
-8.8223 44.3949 0.3419
-8.2770 35.0109 0.2712
-9.0132 32.8054 0.2559
-9.9234 31.6184 0.2486
-9.1156 25.7617 0.2044
-9.1919 23.2785 0.1866
-9.3219 21.3278 0.1729
-9.5433 19.8555 0.1630
-9.3569 17.7978 0.1481
-9.6633 16.8772 0.1426
-10.1688 16.3651 0.1406
-10.9103 16.2258 0.1419
-9.6872 13.3437 0.1190
-9.8413 12.5781 0.1146
-10.3382 12.2762 0.1145
-9.9621 11.0008 0.1052
-10.7329 11.0273 0.1083
-9.7749 9.3455 0.0945
-10.4453 9.2907 0.0970
-11.1339 9.2075 0.0994
-10.1030 7.7603 0.0870
-10.9290 7.7861 0.0909
-11.2331 7.4084 0.0903
-9.8137 5.9772 0.0764
-9.9178 5.5616 0.0750
-9.9091 5.0971 0.0728
-10.1032 4.7454 0.0722
-6.2305 2.6572 0.0434
-10.8164 4.1599 0.0734
-12.0593 4.1464 0.0800
-13.8283 4.2048 0.0897
-16.1454 4.2813 0.1025
-11.3406 2.5744 0.0706
-10.7033 2.0279 0.0654
-10.4606 1.5945 0.0627
-10.5868 1.2259 0.0625
-10.5995 0.8423 0.0616
-10.6832 0.4631 0.0612
-11.1543 0.0819 0.0630
-11.9891 -0.3435 0.0669
-12.0023 -0.7767 0.0662
-10.6576 -1.0758 0.0582
-12.0892 -1.6615 0.0655
3.4714 -13.9811 0.3782
4.0157 -13.9991 0.3826
4.5572 -13.9700 0.3864
3.9087 -10.6644 0.2989
4.3559 -10.6792 0.3038
8.8750 -19.7003 0.5697
9.6194 -19.4523 0.5729
9.6754 -17.9133 0.5381
10.6438 -18.1159 0.5561
10.0844 -15.8309 0.4974
10.4196 -15.1273 0.4875
10.9364 -14.7150 0.4873
11.6947 -14.6069 0.4982
10.9127 -12.6677 0.4459
11.0565 -11.9380 0.4347
11.4018 -11.4552 0.4326
11.9410 -11.1633 0.4383
11.3217 -9.8455 0.4031
12.5513 -10.1455 0.4345
11.5124 -8.6399 0.3883
11.8276 -8.2285 0.3895
13.2005 -8.4957 0.4253
13.4076 -7.9619 0.4234
12.4765 -6.8142 0.3869
13.5933 -6.8012 0.4146
12.8781 -5.8740 0.3870
12.5569 -5.1903 0.3724
12.5435 -4.6638 0.3676
12.6961 -4.2072 0.3683
13.0083 -3.7972 0.3741
13.6845 -3.4655 0.3906
37.3201 -8.0345 1.0590
38.3875 -6.8296 1.0843
38.9134 -5.4873 1.0956
46.2518 -4.8327 1.2998
12.1720 -0.3914 0.3421
12.1865 0.0467 0.3432
12.2010 0.4860 0.3447
12.2156 0.9277 0.3467
12.2303 1.3728 0.3492
12.2451 1.8226 0.3521
12.2602 2.2784 0.3555
12.2755 2.7415 0.3595
12.2911 3.2132 0.3640
12.3070 3.6951 0.3690
12.3233 4.1889 0.3747
12.3400 4.6963 0.3809
12.3573 5.2192 0.3879
12.3751 5.7598 0.3956
12.3937 6.3204 0.4041
12.3866 6.8892 0.4126
12.4067 7.4971 0.4228
12.4541 8.1513 0.4350
12.4763 8.8228 0.4475
12.5511 9.5712 0.4632
12.5760 10.3264 0.4784
12.6026 11.1309 0.4952
12.6310 11.9920 0.5139
12.6616 12.9183 0.5346
12.6946 13.9203 0.5577
12.7307 15.0106 0.5836
12.7701 16.2045 0.6127
12.7865 17.4843 0.6442
14.9030 21.9977 0.7912
14.1647 22.6199 0.7958
14.3964 24.9419 0.8598
14.0523 26.5046 0.8966
19.6354 40.4913 1.3464
19.7785 44.8261 1.4674
14.4581 36.2455 1.1698
12.9846 36.2942 1.1565
11.5446 36.3417 1.1449
10.1336 36.3883 1.1349
8.7471 36.4340 1.1265
7.3809 36.4791 1.1195
7.1897 43.5392 1.3279
0.9828 10.6883 0.3232
0.5974 10.7133 0.3231
0.2118 10.7383 0.3235
-0.1750 10.7633 0.3242
-5.0814 31.4486 0.9587
-8.8224 44.3932 1.3616
-8.2774 35.0110 1.0817
-9.0136 32.8054 1.0223
-9.9238 31.6184 0.9952
-9.1466 25.8481 0.8228
-8.5463 21.6423 0.6977
-9.3395 21.3671 0.6986
-9.5438 19.8555 0.6593
-9.4707 18.0134 0.6084
-9.6635 16.8768 0.5807
-10.2514 16.4972 0.5793
-10.9108 16.2258 0.5824
-9.5497 13.1536 0.4835
-9.8415 12.5777 0.4744
-9.3517 11.1041 0.4306
-9.9627 11.0008 0.4395
-9.2993 9.5537 0.3942
-9.6914 9.2651 0.3957
-10.4463 9.2910 0.4119
-9.5309 7.8813 0.3637
-10.1037 7.7603 0.3740
-10.9301 7.7863 0.3932
-11.2331 7.4079 0.3935
-9.8702 6.0110 0.3372
-9.8258 5.5095 0.3280
-9.9093 5.0967 0.3238
-10.1034 4.7450 0.3237
-6.2299 2.6567 0.1959
-10.8841 4.1854 0.3366
-12.0611 4.1464 0.3673
-13.8307 4.2049 0.4153
-16.1151 4.2725 0.4779
-11.3705 2.5807 0.3334
-10.7030 2.0274 0.3108
-10.5137 1.6021 0.3026
-10.4146 1.2055 0.2976
-10.5233 0.8358 0.2989
-10.6834 0.4626 0.3021
-11.0075 0.0803 0.3102
-11.9891 -0.3440 0.3371
-12.0024 -0.7772 0.3372
-10.4024 -1.0505 0.2924
-12.0892 -1.6621 0.3404
3.4713 -13.9811 0.7031
4.0155 -13.9991 0.7111
4.5570 -13.9700 0.7178
3.9085 -10.6644 0.5551
4.3642 -10.7001 0.5650
8.6723 -19.2513 1.0330
8.7420 -17.6788 0.9654
9.6749 -17.9132 0.9973
10.6432 -18.1157 1.0299
10.1554 -15.9432 0.9273
10.4193 -15.1277 0.9018
10.9893 -14.7870 0.9052
11.6940 -14.6068 0.9202
10.8641 -12.6121 0.8194
11.0171 -11.8961 0.7989
11.3678 -11.4217 0.7948
12.0227 -11.2405 0.8126
11.3808 -9.8976 0.7454
11.9966 -9.6978 0.7632
11.2183 -8.4198 0.6948
11.8266 -8.2283 0.7144
12.4562 -8.0173 0.7354
11.5731 -6.8731 0.6691
12.4747 -6.8139 0.7074
13.5934 -6.8019 0.7574
13.1607 -6.0035 0.7218
12.5571 -5.1910 0.6788
12.6561 -4.7063 0.6755
12.6467 -4.1915 0.6674
13.0063 -3.7972 0.6796
13.7487 -3.4824 0.7124
31.8312 -6.8543 1.6377
32.0129 -5.6969 1.6377
32.1526 -4.5354 1.6377
32.2502 -3.3711 1.6377
32.3055 -2.2057 1.6377
12.1720 -0.3920 0.6168
12.1865 0.0462 0.6181
12.2010 0.4855 0.6202
12.2156 0.9271 0.6231
12.2303 1.3722 0.6268
12.2451 1.8221 0.6314
12.2602 2.2778 0.6368
12.2755 2.7409 0.6432
12.2910 3.2126 0.6505
12.3070 3.6946 0.6589
12.3232 4.1883 0.6683
12.3400 4.6957 0.6788
12.3573 5.2186 0.6905
12.3751 5.7592 0.7035
12.3936 6.3198 0.7179
12.3866 6.8886 0.7323
12.4067 7.4964 0.7498
12.4541 8.1507 0.7708
12.4763 8.8222 0.7922
12.5510 9.5705 0.8192
12.5760 10.3257 0.8454
12.6026 11.1301 0.8745
12.6310 11.9912 0.9068
12.6616 12.9174 0.9427
12.6946 13.9194 0.9827
12.7306 15.0096 1.0276
12.7700 16.2036 1.0781
12.7865 17.4833 1.1328
14.8666 21.9428 1.3872
9.5202 15.2021 0.9395
15.2389 26.4001 1.5977
14.2698 26.9136 1.5977
13.2842 27.3928 1.5977
12.2831 27.8371 1.5977
11.2678 28.2462 1.5977
10.2394 28.6197 1.5977
9.1992 28.9570 1.5977
8.1483 29.2578 1.5977
7.0736 29.4619 1.5944
6.0073 29.6886 1.5944
4.9341 29.8782 1.5944
3.8552 30.0304 1.5944
0.9830 10.6905 0.5654
0.5976 10.7155 0.5653
0.2119 10.7405 0.5659
-0.1751 10.7656 0.5672
-1.6831 32.1849 1.6977
-2.8401 32.1064 1.6977
-3.9940 31.9880 1.6977
-4.9360 30.5472 1.6293
-5.2311 26.3211 1.4127
-5.5552 23.4960 1.2706
-8.0307 29.2269 1.5946
-3.3607 10.7071 0.5902
-3.7022 10.4619 0.5834
-8.4253 21.3350 1.2052
-8.6671 19.8277 1.1364
-9.5443 19.8556 1.1563
-9.4711 18.0133 1.0675
-9.6638 16.8763 1.0194
-10.2517 16.4969 1.0175
-10.9114 16.2257 1.0236
-9.6616 13.3071 0.8602
-9.8417 12.5772 0.8347
-9.2443 10.9760 0.7494
-9.9634 11.0009 0.7744
-9.1347 9.3841 0.6826
-9.6921 9.2652 0.6982
-10.2301 9.0981 0.7122
-9.3083 7.6967 0.6277
-10.1045 7.7604 0.6614
-10.9312 7.7865 0.6960
-11.2331 7.4073 0.6970
-9.8136 5.9761 0.5945
-9.9179 5.5606 0.5876
-9.9095 5.0964 0.5752
-10.1036 4.7446 0.5754
-6.2294 2.6562 0.3487
-10.8176 4.1593 0.5960
-12.0630 4.1465 0.6551
-14.0043 4.2570 0.7507
-16.1151 4.2718 0.8540
-11.3411 2.5735 0.5949
-10.7028 2.0268 0.5565
-10.4605 1.5935 0.5398
-10.4120 1.2047 0.5340
-10.4715 0.8312 0.5344
-10.6837 0.4622 0.5433
-10.9328 0.0793 0.5547
-11.9891 -0.3446 0.6076
-12.0026 -0.7778 0.6085
-10.1587 -1.0264 0.5158
-11.3338 -1.5587 0.5772
3.4581 -13.9287 1.0248
4.0003 -13.9466 1.0363
4.5568 -13.9700 1.0499
3.9083 -10.6644 0.8118
4.3640 -10.7001 0.8262
8.6719 -19.2514 1.5102
8.7632 -17.7226 1.4147
9.6742 -17.9129 1.4574
10.6426 -18.1156 1.5048
10.1759 -15.9762 1.3573
10.4190 -15.1280 1.3170
10.9899 -14.7886 1.3218
11.6933 -14.6068 1.3431
10.8636 -12.6122 1.1956
11.0169 -11.8966 1.1654
11.3692 -11.4238 1.1593
10.3684 -9.6945 1.0216
11.3799 -9.8975 1.0863
11.6018 -9.3793 1.0754
10.6799 -8.0163 0.9633
11.8253 -8.2282 1.0400
12.1294 -7.8076 1.0422
10.9923 -6.5287 0.9245
12.4730 -6.8136 1.0286
13.5935 -6.8026 1.1011
13.1617 -6.0046 1.0489
12.5573 -5.1916 0.9860
12.6559 -4.7068 0.9807
12.6465 -4.1920 0.9686
13.0068 -3.7979 0.9860
13.7489 -3.4831 1.0330
21.4240 -4.6142 1.5977
21.5556 -3.8369 1.5977
21.6589 -3.0561 1.5977
21.7339 -2.2728 1.5977
21.7806 -1.4881 1.5977
12.1720 -0.3925 0.8921
12.1865 0.0456 0.8936
12.2010 0.4850 0.8962
12.2156 0.9266 0.9000
12.2303 1.3717 0.9050
12.2451 1.8215 0.9113
12.2602 2.2773 0.9188
12.2755 2.7403 0.9276
12.2910 3.2121 0.9377
12.3069 3.6940 0.9494
12.3232 4.1877 0.9625
12.3400 4.6951 0.9773
12.3572 5.2180 0.9938
12.3751 5.7585 1.0121
12.3936 6.3192 1.0324
12.3866 6.8879 1.0527
12.4067 7.4958 1.0775
12.4541 8.1500 1.1073
12.4762 8.8215 1.1377
12.5510 9.5698 1.1761
12.5760 10.3249 1.2133
9.2580 8.1758 0.9217
9.3368 8.8633 0.9613
9.3162 9.5039 0.9945
12.6946 13.9185 1.4086
12.7306 15.0087 1.4725
12.7700 16.2026 1.5445
12.5911 17.2152 1.5977
11.9570 17.6474 1.5977
9.5842 15.3036 1.3541
10.6463 18.4429 1.5977
9.9713 18.8054 1.5977
9.2843 19.1438 1.5977
6.4481 14.6126 1.1999
7.8776 19.7467 1.5977
7.1597 20.0106 1.5977
6.4200 20.2078 1.5944
3.9425 14.1556 1.1053
4.9477 20.6067 1.5944
4.2023 20.7671 1.5944
3.4518 20.9013 1.5944
1.5070 11.7382 0.8909
0.9832 10.6927 0.8084
0.5977 10.7177 0.8082
0.2119 10.7427 0.8090
-0.1751 10.7678 0.8108
-1.1776 22.5181 1.6977
-1.9871 22.4626 1.6977
-2.7943 22.3787 1.6977
-3.5981 22.2666 1.6977
-4.3976 22.1264 1.6977
-5.1919 21.9582 1.6977
-5.6168 20.4408 1.5946
-3.3607 10.7066 0.8439
-3.3964 9.5974 0.7654
-3.7508 9.4975 0.7674
-5.6655 12.9604 1.0627
-9.1993 19.1369 1.5946
-9.3564 17.7944 1.5092
-9.6640 16.8759 1.4592
-10.2521 16.4967 1.4567
-10.9119 16.2256 1.4657
-9.6872 13.3416 1.2352
-8.5709 10.9526 1.0413
-9.2451 10.9763 1.0739
-8.6015 9.4967 0.9582
-8.9959 9.2409 0.9638
-9.6928 9.2653 1.0015
-2.9114 2.5890 0.2908
-3.0201 2.4970 0.2923
-3.1266 2.4011 0.2938
-3.2308 2.3012 0.2954
-3.3327 2.1975 0.2970
-3.4320 2.0898 0.2988
-3.5286 1.9782 0.3005
-3.6225 1.8628 0.3024
-3.7133 1.7436 0.3042
-3.8010 1.6206 0.3062
-3.8855 1.4938 0.3082
-3.9665 1.3633 0.3102
-4.0439 1.2291 0.3123
-4.1176 1.0913 0.3145
-4.1874 0.9500 0.3167
-4.2530 0.8052 0.3190
-4.3143 0.6570 0.3213
-4.3712 0.5056 0.3237
-4.4234 0.3509 0.3261
-4.4709 0.1932 0.3285
-4.5133 0.0325 0.3310
-4.5505 -0.1310 0.3336
-4.5823 -0.2971 0.3361
-4.6086 -0.4658 0.3387
-4.6291 -0.6369 0.3414
4.0833 -16.4476 1.5944
4.6713 -16.2869 1.5944
4.5566 -13.9700 1.3831
4.0595 -11.0776 1.1107
6.4068 -15.7094 1.5977
6.9656 -15.4642 1.5977
7.5149 -15.1988 1.5977
8.0539 -14.9136 1.5977
8.5820 -14.6088 1.5977
9.0983 -14.2851 1.5977
9.6022 -13.9428 1.5977
10.0931 -13.5825 1.5977
10.5702 -13.2046 1.5977
10.8636 -12.6129 1.5732
11.0167 -11.8971 1.5331
11.3705 -11.4258 1.5249
10.3809 -9.7067 1.3452
11.1567 -9.7040 1.4003
11.2819 -9.1213 1.3747
10.7258 -8.0514 1.2716
11.5168 -8.0141 1.3311
11.6749 -7.5157 1.3181
11.0376 -6.5562 1.2195
12.4712 -6.8132 1.3508
13.5937 -6.8034 1.4459
13.1627 -6.0057 1.3771
12.5575 -5.1923 1.2943
12.6558 -4.7074 1.2870
12.6463 -4.1925 1.2707
13.0066 -3.7985 1.2933
13.7491 -3.4838 1.3547
16.3402 -3.5200 1.5977
16.4442 -2.9278 1.5977
16.5268 -2.3327 1.5977
16.5878 -1.7354 1.5977
16.6272 -1.1367 1.5977
12.1720 -0.3930 1.1684
12.1864 0.0451 1.1700
12.2010 0.4844 1.1732
12.2155 0.9260 1.1779
12.2302 1.3712 1.1842
12.2451 1.8210 1.1921
9.0857 1.6872 0.8905
9.0951 2.0300 0.8986
9.1285 2.3852 0.9105
9.1327 2.7408 0.9208
9.1133 3.0965 0.9301
12.3400 4.6945 1.2768
12.3572 5.2174 1.2980
12.3751 5.7579 1.3217
12.3936 6.3185 1.3480
12.3866 6.8873 1.3742
12.4067 7.4951 1.4064
12.4541 8.1493 1.4449
12.4762 8.8208 1.4843
12.5510 9.5690 1.5341
12.5759 10.3242 1.5825
9.1777 8.1043 1.1914
8.8559 8.4062 1.1888
9.3520 9.5398 1.3014
11.0471 12.1115 1.5977
10.5990 12.4950 1.5977
10.1379 12.8623 1.5977
9.6643 13.2129 1.5977
6.3827 9.4197 1.1110
8.6820 13.8623 1.5977
8.1746 14.1603 1.5977
7.6571 14.4402 1.5977
7.1302 14.7015 1.5977
6.4737 14.6698 1.5684
6.0387 15.1363 1.5944
5.4887 15.3398 1.5944
4.9321 15.5237 1.5944
4.0076 14.3886 1.4624
3.8015 15.8320 1.5944
3.2289 15.9560 1.5944
2.6523 16.0597 1.5944
1.4640 11.4032 1.1263
0.9835 10.6949 1.0522
0.5979 10.7199 1.0520
0.2120 10.7449 1.0530
-0.1752 10.7700 1.0554
-0.6137 11.7353 1.1514
-1.5270 17.2604 1.6977
-2.1472 17.1956 1.6977
-2.7648 17.1089 1.6977
-3.3790 17.0005 1.6977
-3.9891 16.8705 1.6977
-4.5943 16.7191 1.6977
-3.3607 10.7062 1.0985
-3.3965 9.5970 0.9964
-3.7511 9.4977 0.9992
-5.6601 12.9473 1.3822
-7.0651 14.6966 1.5946
-7.5918 14.4375 1.5946
-8.1092 14.1600 1.5946
-8.6166 13.8642 1.5946
-9.1134 13.5506 1.5946
-9.5917 13.2094 1.5934
-8.5723 10.9538 1.3571
-9.2458 10.9764 1.3996
-8.6144 9.5104 1.2508
-8.9966 9.2410 1.2565
-9.4140 8.9981 1.2681
-2.8313 2.5177 0.3687
-2.8378 2.3462 0.3582
-2.8440 2.1839 0.3486
-2.8499 2.0297 0.3399
-2.8555 1.8826 0.3321
-2.8608 1.7418 0.3250
-2.8659 1.6066 0.3186
-2.8709 1.4762 0.3129
-2.8945 1.3590 0.3097
-2.9582 1.2611 0.3112
-3.0189 1.1605 0.3128
-3.0767 1.0573 0.3144
-3.1314 0.9516 0.3161
-3.1828 0.8434 0.3178
-3.2308 0.7328 0.3195
-3.2754 0.6200 0.3213
-3.3164 0.5049 0.3231
-3.3537 0.3877 0.3249
-3.3871 0.2686 0.3267
-3.4167 0.1475 0.3286
-3.4421 0.0247 0.3305
-3.4634 -0.0998 0.3325
-3.4804 -0.2258 0.3344
-3.4930 -0.3532 0.3364
-3.5011 -0.4818 0.3384
3.2875 -13.2425 1.5944
3.7610 -13.1136 1.5944
4.2295 -12.9676 1.5944
4.6922 -12.8045 1.5944
5.1485 -12.6247 1.5944
5.5979 -12.4284 1.5944
6.0520 -12.2407 1.5977
6.4866 -12.0118 1.5977
6.9123 -11.7672 1.5977
7.3287 -11.5074 1.5977
7.7353 -11.2326 1.5977
8.1314 -10.9432 1.5977
8.5166 -10.6397 1.5977
8.8903 -10.3225 1.5977
9.2520 -9.9920 1.5977
9.6014 -9.6487 1.5977
9.9379 -9.2931 1.5977
10.2611 -8.9256 1.5977
10.5705 -8.5468 1.5977
10.7380 -8.0611 1.5789
11.1468 -7.7572 1.5977
11.4097 -7.3455 1.5973
11.0497 -6.5640 1.5136
11.8992 -6.5013 1.5977
12.1188 -6.0658 1.5977
12.3224 -5.6229 1.5977
12.5097 -5.1732 1.5977
12.4924 -4.6472 1.5740
12.6461 -4.1930 1.5742
12.9720 -3.7890 1.5977
13.0923 -3.3180 1.5977
13.1954 -2.8432 1.5977
13.2813 -2.3653 1.5977
13.3498 -1.8849 1.5977
13.4010 -1.4026 1.5977
13.4347 -0.9191 1.5977
12.1720 -0.3936 1.4458
12.1864 0.0446 1.4476
12.2009 0.4839 1.4514
12.2155 0.9255 1.4570
12.2302 1.3706 1.4645
12.2451 1.8204 1.4741
9.0566 1.6814 1.0975
9.0651 2.0228 1.1073
9.0989 2.3770 1.1218
9.1037 2.7317 1.1344
9.0843 3.0862 1.1458
12.3399 4.6939 1.5776
12.3116 5.1975 1.5977
12.1100 5.6340 1.5977
11.8931 6.0628 1.5977
11.6611 6.4833 1.5977
11.4144 6.8951 1.5977
11.1533 7.2976 1.5977
10.8781 7.6903 1.5977
10.5893 8.0728 1.5977
10.2872 8.4446 1.5977
9.9722 8.8053 1.5977
9.6447 9.1543 1.5977
9.3051 9.4914 1.5977
8.9539 9.8160 1.5977
8.5915 10.1278 1.5977
6.6180 8.3960 1.2866
6.2476 8.5411 1.2740
6.2712 9.2546 1.3463
7.0399 11.2398 1.5977
6.6289 11.4823 1.5977
6.1970 11.6861 1.5944
4.0016 8.2503 1.1056
3.6517 8.2746 1.0908
3.5685 8.9442 1.1616
4.4522 12.4423 1.5944
4.0008 12.5920 1.5944
3.5446 12.7257 1.5944
3.0839 12.8430 1.5944
2.6195 12.9440 1.5944
2.2911 13.8721 1.6977
1.4617 11.3848 1.3861
0.9837 10.6972 1.2973
0.5980 10.7222 1.2969
0.2120 10.7472 1.2982
-0.1752 10.7723 1.3012
-0.6145 11.7484 1.4208
-1.2389 14.0031 1.6977
-1.7420 13.9503 1.6977
-2.2431 13.8797 1.6977
-2.7413 13.7914 1.6977
-3.2362 13.6856 1.6977
-3.7270 13.5622 1.6977
-3.3607 10.7057 1.3542
-3.3965 9.5966 1.2283
-3.7513 9.4979 1.2319
-5.5239 12.6353 1.6632
-5.7394 11.9383 1.5972
-6.1568 11.7080 1.5946
-6.5759 11.4821 1.5946
-6.9869 11.2415 1.5946
-7.3893 10.9864 1.5946
-7.7824 10.7170 1.5946
-8.1659 10.4338 1.5946
-8.5392 10.1370 1.5946
-8.6275 9.5242 1.5455
-8.9972 9.2411 1.5505
-9.2161 8.8084 1.5319
-2.8313 2.5175 0.4551
-2.8378 2.3460 0.4420
-2.8440 2.1838 0.4303
-2.8499 2.0295 0.4196
-2.8555 1.8825 0.4100
-2.8608 1.7417 0.4013
-2.8659 1.6064 0.3935
-2.8709 1.4761 0.3864
-2.8757 1.3500 0.3801
-2.8803 1.2277 0.3744
-2.8849 1.1088 0.3693
-2.8893 0.9927 0.3649
-2.8936 0.8792 0.3610
-2.8978 0.7678 0.3576
-2.9020 0.6581 0.3548
-2.9061 0.5499 0.3524
-2.9102 0.4429 0.3506
-2.9142 0.3368 0.3492
-2.9182 0.2313 0.3482
-2.9222 0.1260 0.3477
-2.9262 0.0208 0.3477
-2.9302 -0.0846 0.3481
-2.9343 -0.1905 0.3489
-2.9383 -0.2973 0.3502
-2.9424 -0.4051 0.3520
2.7488 -11.0733 1.5944
3.1449 -10.9658 1.5944
3.5367 -10.8440 1.5944
3.9237 -10.7080 1.5944
4.3055 -10.5580 1.5944
4.6815 -10.3943 1.5944
5.0512 -10.2169 1.5944
5.4141 -10.0263 1.5944
5.7697 -9.8226 1.5944
6.1301 -9.6258 1.5977
6.4705 -9.3964 1.5977
6.8022 -9.1549 1.5977
7.1249 -8.9016 1.5977
7.4379 -8.6367 1.5977
7.7411 -8.3608 1.5977
8.0340 -8.0741 1.5977
8.3161 -7.7771 1.5977
8.5872 -7.4701 1.5977
8.8469 -7.1536 1.5977
9.0948 -6.8280 1.5977
9.3306 -6.4938 1.5977
9.5541 -6.1514 1.5977
9.7649 -5.8013 1.5977
9.9628 -5.4439 1.5977
10.1476 -5.0797 1.5977
10.3190 -4.7092 1.5977
10.4768 -4.3330 1.5977
10.6209 -3.9515 1.5977
10.7510 -3.5652 1.5977
10.8669 -3.1746 1.5977
10.9687 -2.7803 1.5977
11.0562 -2.3828 1.5977
11.1292 -1.9825 1.5977
11.1877 -1.5801 1.5977
11.2316 -1.1761 1.5977
11.2609 -0.7709 1.5977
11.2756 -0.3651 1.5977
11.2757 0.0407 1.5977
11.2613 0.4461 1.5977
11.2323 0.8505 1.5977
11.1887 1.2534 1.5977
11.1308 1.6543 1.5977
9.0752 1.6845 1.3111
10.9721 2.4479 1.5977
10.8716 2.8396 1.5977
10.7572 3.2273 1.5977
9.1638 3.1128 1.3775
10.4872 3.9887 1.5977
10.3321 4.3613 1.5977
10.1638 4.7280 1.5977
9.9826 5.0883 1.5977
9.7887 5.4418 1.5977
9.5824 5.7879 1.5977
9.3639 6.1263 1.5977
9.1336 6.4565 1.5977
8.8918 6.7782 1.5977
8.6387 7.0909 1.5977
8.3748 7.3943 1.5977
8.1003 7.6880 1.5977
7.8157 7.9716 1.5977
7.5212 8.2448 1.5977
7.2173 8.5073 1.5977
6.6366 8.4191 1.5358
6.2724 8.5746 1.5224
6.2400 9.2082 1.5944
5.9031 9.4242 1.5944
5.5587 9.6280 1.5944
5.2074 9.8194 1.5944
4.8496 9.9981 1.5944
3.7487 8.4939 1.3325
3.7797 9.4731 1.4640
3.7418 10.4564 1.5944
3.3626 10.5826 1.5944
2.9791 10.6951 1.5944
0.8053 3.3536 0.4954
0.6839 3.3791 0.4952
0.5617 3.4004 0.4951
0.4388 3.4176 0.4950
0.3155 3.4305 0.4950
0.1918 3.4392 0.4949
0.0680 3.4437 0.4949
-0.0560 3.4439 0.4949
-0.1799 3.4399 0.4949
-0.3036 3.4317 0.4950
-0.4270 3.4192 0.4951
-0.5499 3.4026 0.4952
-0.6722 3.3817 0.4953
-0.7938 3.3567 0.4954
-3.1325 11.3983 1.6977
-3.5411 11.2798 1.6977
-3.9453 11.1468 1.6977
-4.3446 10.9996 1.6977
-4.7385 10.8382 1.6977
-5.1265 10.6629 1.6977
-5.5081 10.4739 1.6977
-5.6221 9.8162 1.6225
-5.8707 9.4450 1.5946
-6.2084 9.2302 1.5946
-6.5383 9.0034 1.5946
-6.8601 8.7649 1.5946
-7.1733 8.5151 1.5946
-7.4775 8.2542 1.5946
-7.7724 7.9826 1.5946
-8.0574 7.7005 1.5946
-2.8313 2.5173 0.5418
-2.8378 2.3459 0.5264
-2.8440 2.1836 0.5124
-2.8499 2.0294 0.4998
-2.8555 1.8823 0.4884
-2.8608 1.7415 0.4780
-2.8659 1.6063 0.4687
-2.8709 1.4759 0.4603
-2.8757 1.3499 0.4528
-2.8803 1.2276 0.4461
-2.8849 1.1087 0.4401
-2.8893 0.9926 0.4349
-2.8936 0.8791 0.4303
-2.8978 0.7676 0.4263
-2.9020 0.6580 0.4229
-2.9061 0.5498 0.4202
-2.9102 0.4428 0.4180
-2.9142 0.3367 0.4163
-2.9182 0.2311 0.4153
-2.9222 0.1259 0.4147
-2.9262 0.0207 0.4147
-2.9303 -0.0847 0.4152
-2.9343 -0.1907 0.4163
-2.9383 -0.2974 0.4179
-2.9424 -0.4052 0.4201
2.3597 -9.5063 1.5944
2.6998 -9.4142 1.5944
3.0362 -9.3098 1.5944
3.3685 -9.1933 1.5944
3.6964 -9.0647 1.5944
4.0193 -8.9244 1.5944
4.3368 -8.7724 1.5944
4.6485 -8.6090 1.5944
4.9540 -8.4345 1.5944
5.2530 -8.2489 1.5944
5.5449 -8.0527 1.5944
5.8294 -7.8461 1.5944
6.1186 -7.6448 1.5977
6.3878 -7.4177 1.5977
6.6485 -7.1811 1.5977
6.9003 -6.9352 1.5977
7.1430 -6.6804 1.5977
7.3762 -6.4171 1.5977
7.5997 -6.1456 1.5977
7.8131 -5.8662 1.5977
8.0161 -5.5794 1.5977
8.2086 -5.2856 1.5977
8.3903 -4.9850 1.5977
8.5608 -4.6782 1.5977
8.7202 -4.3656 1.5977
8.8680 -4.0475 1.5977
9.0042 -3.7244 1.5977
9.1286 -3.3967 1.5977
9.2410 -3.0649 1.5977
9.3414 -2.7294 1.5977
9.4295 -2.3906 1.5977
9.5053 -2.0490 1.5977
9.5687 -1.7050 1.5977
9.6197 -1.3591 1.5977
9.6581 -1.0117 1.5977
9.6840 -0.6634 1.5977
9.6973 -0.3144 1.5977
9.6981 0.0346 1.5977
9.6863 0.3833 1.5977
9.6620 0.7312 1.5977
9.6253 1.0778 1.5977
9.5761 1.4228 1.5977
9.1467 1.6973 1.5359
9.4409 2.1058 1.5977
9.3550 2.4431 1.5977
9.2571 2.7769 1.5977
6.4285 2.1833 1.1228
6.4372 2.4480 1.1395
6.4462 2.7207 1.1581
6.0864 2.8310 1.1115
6.0677 3.0925 1.1281
8.4269 4.6843 1.5977
8.2498 4.9826 1.5977
8.0622 5.2742 1.5977
7.8644 5.5589 1.5977
7.6566 5.8362 1.5977
7.4391 6.1058 1.5977
7.2121 6.3674 1.5977
6.9761 6.6206 1.5977
6.7313 6.8652 1.5977
6.4780 7.1008 1.5977
6.2038 7.3123 1.5944
5.9351 7.5287 1.5944
5.6588 7.7353 1.5944
5.3755 7.9319 1.5944
5.0854 8.1183 1.5944
4.7889 8.2942 1.5944
4.4863 8.4593 1.5944
4.1782 8.6136 1.5944
3.7489 8.4939 1.5466
3.5466 8.8886 1.5944
3.2240 9.0091 1.5944
2.8973 9.1180 1.5944
0.8019 2.8786 0.4981
0.6975 2.9044 0.4979
0.5923 2.9267 0.4978
0.4865 2.9453 0.4977
0.3801 2.9602 0.4976
0.2733 2.9715 0.4976
0.1662 2.9790 0.4975
0.0589 2.9829 0.4975
-0.0485 2.9831 0.4975
-0.1558 2.9797 0.4975
-0.2630 2.9725 0.4976
-0.3699 2.9616 0.4976
-0.4763 2.9471 0.4977
-0.5822 2.9289 0.4978
-0.6875 2.9071 0.4980
-0.7920 2.8816 0.4981
-3.0512 9.7188 1.6977
-3.3994 9.6040 1.6977
-3.7434 9.4769 1.6977
-4.0827 9.3376 1.6977
-4.4168 9.1863 1.6977
-4.7454 9.0232 1.6977
-5.0681 8.8485 1.6977
-5.3844 8.6623 1.6977
-5.6632 8.4191 1.6885
-5.6902 7.8351 1.6110
-5.9092 7.5495 1.5946
-6.1787 7.3340 1.5946
-6.4404 7.1090 1.5946
-6.6941 6.8747 1.5946
-6.9392 6.6314 1.5946
-2.8313 2.5172 0.6292
-2.8378 2.3457 0.6113
-2.8440 2.1834 0.5951
-2.8499 2.0292 0.5804
-2.8555 1.8822 0.5672
-2.8608 1.7414 0.5553
-2.8660 1.6061 0.5445
-2.8709 1.4758 0.5348
-2.8757 1.3497 0.5261
-2.8804 1.2275 0.5183
-2.8849 1.1085 0.5114
-2.8893 0.9925 0.5053
-2.8936 0.8789 0.5000
-2.8978 0.7675 0.4954
-2.9020 0.6579 0.4915
-2.9061 0.5497 0.4884
-2.9102 0.4427 0.4858
-2.9142 0.3365 0.4840
-2.9182 0.2310 0.4827
-2.9222 0.1258 0.4821
-2.9262 0.0206 0.4821
-2.9303 -0.0849 0.4828
-2.9343 -0.1908 0.4840
-2.9384 -0.2975 0.4860
-2.9424 -0.4053 0.4885
2.0652 -8.3202 1.5944
2.3628 -8.2397 1.5944
2.6573 -8.1485 1.5944
2.9482 -8.0466 1.5944
2.7252 -6.6834 1.3431
2.6654 -5.9186 1.2080
3.7959 -7.6788 1.5944
4.0689 -7.5360 1.5944
4.3365 -7.3833 1.5944
4.5982 -7.2212 1.5944
4.8539 -7.0496 1.5944
5.1031 -6.8689 1.5944
5.3456 -6.6794 1.5944
5.5809 -6.4812 1.5944
5.8089 -6.2747 1.5944
6.0415 -6.0724 1.5977
6.2542 -5.8496 1.5977
6.4586 -5.6192 1.5977
6.6546 -5.3817 1.5977
6.8417 -5.1373 1.5977
7.0198 -4.8864 1.5977
7.1887 -4.6292 1.5977
7.3481 -4.3662 1.5977
7.4979 -4.0977 1.5977
7.6378 -3.8241 1.5977
7.7676 -3.5456 1.5977
7.8873 -3.2628 1.5977
7.9967 -2.9759 1.5977
8.0956 -2.6854 1.5977
8.1839 -2.3916 1.5977
8.2615 -2.0949 1.5977
8.3284 -1.7956 1.5977
8.3844 -1.4943 1.5977
8.4294 -1.1913 1.5977
8.4636 -0.8870 1.5977
8.4867 -0.5817 1.5977
8.4989 -0.2760 1.5977
8.5000 0.0299 1.5977
8.4901 0.3356 1.5977
8.4693 0.6405 1.5977
8.4375 0.9444 1.5977
8.3948 1.2469 1.5977
8.3413 1.5475 1.5977
8.2771 1.8459 1.5977
8.2022 2.1416 1.5977
8.1169 2.4344 1.5977
6.0413 2.0516 1.2034
6.0414 2.2972 1.2195
6.0499 2.5531 1.2394
6.0586 2.8178 1.2616
6.0677 3.0922 1.2863
7.3910 4.1081 1.5977
7.2360 4.3699 1.5977
7.0718 4.6259 1.5977
6.8985 4.8758 1.5977
6.7166 5.1193 1.5977
6.5260 5.3560 1.5977
6.3144 5.5743 1.5944
6.1079 5.7963 1.5944
5.8938 6.0106 1.5944
5.6722 6.2172 1.5944
5.4434 6.4156 1.5944
5.2078 6.6057 1.5944
4.9655 6.7873 1.5944
4.7170 6.9600 1.5944
4.4626 7.1237 1.5944
4.2025 7.2782 1.5944
3.9371 7.4234 1.5944
3.6668 7.5589 1.5944
3.3919 7.6847 1.5944
3.1127 7.8006 1.5944
2.8296 7.9065 1.5944
0.7977 2.5101 0.5001
0.7065 2.5362 0.5000
0.6146 2.5591 0.4999
0.5219 2.5788 0.4998
0.4287 2.5952 0.4997
0.3350 2.6085 0.4996
0.2408 2.6184 0.4996
0.1464 2.6252 0.4995
0.0519 2.6286 0.4995
-0.0428 2.6288 0.4995
-0.1373 2.6257 0.4995
-0.2318 2.6193 0.4996
-0.3259 2.6097 0.4996
-0.4197 2.5968 0.4997
-0.5130 2.5807 0.4998
-0.6058 2.5614 0.4999
-0.6978 2.5388 0.5000
-0.7890 2.5131 0.5002
-2.9835 8.4287 1.6977
-3.2854 8.3170 1.6977
-3.5830 8.1945 1.6977
-3.8762 8.0616 1.6977
-4.1645 7.9182 1.6977
-4.4476 7.7647 1.6977
-4.7251 7.6011 1.6977
-4.9966 7.4277 1.6977
-5.2618 7.2447 1.6977
-5.5203 7.0523 1.6977
-5.7171 6.7857 1.6816
-5.7379 6.3331 1.6192
-5.8732 6.0313 1.5946
-6.0881 5.8176 1.5946
-2.8313 2.5170 0.7172
-2.8379 2.3456 0.6968
-2.8440 2.1833 0.6784
-2.8499 2.0291 0.6617
-2.8555 1.8820 0.6466
-2.8608 1.7412 0.6330
-2.8660 1.6060 0.6208
-2.8709 1.4756 0.6097
-2.8757 1.3496 0.5998
-2.8804 1.2273 0.5910
-2.8849 1.1084 0.5832
-2.8893 0.9923 0.5762
-2.8936 0.8788 0.5702
-2.8979 0.7674 0.5650
-2.9020 0.6577 0.5606
-2.9061 0.5496 0.5571
-2.9102 0.4426 0.5542
-2.9142 0.3364 0.5521
-2.9182 0.2309 0.5507
-2.9223 0.1256 0.5500
-2.9263 0.0204 0.5501
-2.9303 -0.0850 0.5508
-2.9343 -0.1909 0.5523
-2.9384 -0.2977 0.5545
-2.9424 -0.4055 0.5575
1.8665 -7.5198 1.6224
2.0987 -7.3190 1.5944
2.3603 -7.2380 1.5944
2.6173 -7.1438 1.5936
2.4465 -6.0002 1.3574
2.5577 -5.6798 1.3051
2.7667 -5.5971 1.3083
3.6144 -6.6945 1.5944
3.8521 -6.5591 1.5944
4.0848 -6.4151 1.5944
4.3120 -6.2629 1.5944
4.5335 -6.1026 1.5944
4.7490 -5.9343 1.5944
4.9582 -5.7584 1.5944
5.1609 -5.5751 1.5944
5.3567 -5.3845 1.5944
5.5456 -5.1871 1.5944
5.7270 -4.9830 1.5944
5.9010 -4.7726 1.5944
6.0795 -4.5653 1.5977
6.2379 -4.3424 1.5977
6.3882 -4.1141 1.5977
6.5301 -3.8805 1.5977
6.6634 -3.6421 1.5977
6.7880 -3.3990 1.5977
6.9037 -3.1516 1.5977
7.0103 -2.9004 1.5977
7.1078 -2.6455 1.5977
7.1960 -2.3873 1.5977
7.2748 -2.1262 1.5977
7.3441 -1.8626 1.5977
7.4038 -1.5967 1.5977
7.4539 -1.3289 1.5977
7.4943 -1.0595 1.5977
7.5250 -0.7890 1.5977
7.5459 -0.5176 1.5977
7.5569 -0.2457 1.5977
7.5583 0.0263 1.5977
7.5498 0.2981 1.5977
7.5316 0.5693 1.5977
7.5036 0.8396 1.5977
7.4660 1.1086 1.5977
7.4187 1.3760 1.5977
7.3619 1.6414 1.5977
7.2956 1.9046 1.5977
7.2200 2.1651 1.5977
6.0421 2.0515 1.3530
6.0414 2.2969 1.3709
6.0499 2.5528 1.3932
6.0586 2.8175 1.4181
6.0677 3.0919 1.4458
6.5758 3.6546 1.5977
6.4381 3.8877 1.5977
6.2922 4.1156 1.5977
6.1258 4.3293 1.5944
5.9644 4.5456 1.5944
5.7954 4.7560 1.5944
3.8238 3.3755 1.0850
5.4355 5.1578 1.5944
5.2451 5.3487 1.5944
5.0480 5.5327 1.5944
4.8446 5.7095 1.5944
4.6350 5.8788 1.5944
4.4195 6.0405 1.5944
4.1984 6.1944 1.5944
3.9720 6.3403 1.5944
3.7406 6.4779 1.5944
3.5045 6.6073 1.5944
3.2639 6.7280 1.5944
3.0193 6.8401 1.5944
2.7708 6.9434 1.5944
0.7927 2.2149 0.5018
0.7122 2.2411 0.5017
0.6309 2.2645 0.5015
0.5488 2.2850 0.5014
0.4661 2.3027 0.5013
0.3828 2.3175 0.5012
0.2991 2.3293 0.5012
0.2151 2.3383 0.5011
0.1308 2.3443 0.5011
0.0463 2.3474 0.5011
-0.0382 2.3475 0.5011
-0.1227 2.3448 0.5011
-0.2070 2.3391 0.5012
-0.2911 2.3304 0.5012
-0.3748 2.3189 0.5013
-0.4581 2.3044 0.5014
-0.5409 2.2871 0.5015
-0.6231 2.2668 0.5016
-0.7045 2.2438 0.5017
-0.7851 2.2179 0.5019
-2.9245 7.4030 1.6977
-3.1894 7.2939 1.6977
-3.4503 7.1755 1.6977
-3.7069 7.0477 1.6977
-3.9588 6.9109 1.6977
-4.2056 6.7652 1.6977
-4.4472 6.6107 1.6977
-4.6831 6.4477 1.6977
-4.9131 6.2763 1.6977
-5.1369 6.0967 1.6977
-5.3542 5.9093 1.6977
-5.5647 5.7141 1.6977
-5.7595 5.5032 1.6951
-2.8313 2.5168 0.8059
-2.8379 2.3454 0.7830
-2.8440 2.1831 0.7623
-2.8499 2.0289 0.7436
-2.8555 1.8819 0.7267
-2.8608 1.7411 0.7115
-2.8660 1.6058 0.6977
-2.8709 1.4755 0.6853
-2.8757 1.3494 0.6742
-2.8804 1.2272 0.6643
-2.8849 1.1083 0.6555
-2.8893 0.9922 0.6478
-2.8936 0.8786 0.6410
-2.8979 0.7672 0.6352
-2.9020 0.6576 0.6303
-2.9061 0.5494 0.6263
-2.9102 0.4424 0.6231
-2.9143 0.3363 0.6208
-2.9183 0.2307 0.6193
-2.9223 0.1255 0.6185
-2.9263 0.0203 0.6186
-2.9303 -0.0851 0.6195
-2.9343 -0.1911 0.6212
-2.9384 -0.2978 0.6237
-2.9425 -0.4056 0.6270
1.7550 -7.0712 1.6977
1.9000 -6.6265 1.6064
2.1209 -6.5044 1.5944
2.3532 -6.4233 1.5944
2.5824 -6.3338 1.5944
2.8081 -6.2360 1.5944
3.0301 -6.1302 1.5944
3.2481 -6.0164 1.5944
3.4618 -5.8948 1.5944
3.6709 -5.7655 1.5944
3.8752 -5.6288 1.5944
4.0743 -5.4848 1.5944
4.2681 -5.3337 1.5944
4.4563 -5.1757 1.5944
4.6385 -5.0111 1.5944
4.8147 -4.8400 1.5944
4.9845 -4.6626 1.5944
5.1477 -4.4793 1.5944
5.3042 -4.2902 1.5944
5.4537 -4.0957 1.5944
5.5960 -3.8959 1.5944
5.7310 -3.6911 1.5944
5.8584 -3.4817 1.5944
5.9782 -3.2678 1.5944
6.1026 -3.0561 1.5977
6.2068 -2.8338 1.5977
6.3028 -2.6080 1.5977
6.3907 -2.3789 1.5977
6.4702 -2.1468 1.5977
6.5412 -1.9122 1.5977
6.6038 -1.6751 1.5977
6.6577 -1.4361 1.5977
6.7030 -1.1953 1.5977
6.7395 -0.9531 1.5977
6.7673 -0.7098 1.5977
6.7863 -0.4658 1.5977
6.7965 -0.2213 1.5977
6.7979 0.0233 1.5977
6.7905 0.2678 1.5977
6.7744 0.5117 1.5977
6.7494 0.7548 1.5977
6.7158 0.9969 1.5977
6.6735 1.2374 1.5977
6.6226 1.4763 1.5977
6.5632 1.7130 1.5977
6.4954 1.9475 1.5977
6.1065 2.0731 1.5199
6.0654 2.3057 1.5298
6.0739 2.5627 1.5546
6.0837 2.8288 1.5826
6.0209 3.0677 1.5944
5.9049 3.2815 1.5944
5.7814 3.4908 1.5944
5.6506 3.6956 1.5944
3.7514 2.6510 1.0850
3.6526 2.7835 1.0850
3.5492 2.9124 1.0850
3.4413 3.0375 1.0850
3.3844 3.2113 1.1031
4.7206 4.8135 1.5944
4.5433 4.9792 1.5944
4.3603 5.1384 1.5944
4.1717 5.2909 1.5944
3.9778 5.4366 1.5944
3.7789 5.5752 1.5944
3.5752 5.7066 1.5944
3.3670 5.8306 1.5944
3.1545 5.9471 1.5944
2.9380 6.0559 1.5944
2.7178 6.1569 1.5944
0.7871 1.9724 0.5032
0.7153 1.9986 0.5030
0.6427 2.0223 0.5029
0.5693 2.0435 0.5028
0.4953 2.0621 0.5027
0.4206 2.0781 0.5026
0.3455 2.0914 0.5025
0.2700 2.1022 0.5025
0.1941 2.1103 0.5024
0.1180 2.1157 0.5024
0.0418 2.1185 0.5024
-0.0345 2.1187 0.5024
-0.1107 2.1162 0.5024
-0.1868 2.1110 0.5024
-0.2627 2.1032 0.5025
-0.3383 2.0927 0.5025
-0.4135 2.0796 0.5026
-0.4881 2.0639 0.5027
-0.5623 2.0456 0.5028
-0.6357 2.0247 0.5029
-0.7085 2.0012 0.5031
-0.7803 1.9752 0.5032
-2.8710 6.5654 1.6977
-3.1058 6.4587 1.6977
-3.3367 6.3436 1.6977
-3.5634 6.2204 1.6977
-3.7855 6.0891 1.6977
-4.0029 5.9499 1.6977
-4.2152 5.8030 1.6977
-4.4221 5.6487 1.6977
-4.6235 5.4870 1.6977
-4.8189 5.3181 1.6977
-5.0082 5.1424 1.6977
-5.1912 4.9599 1.6977
-2.8314 2.5167 0.8955
-2.8379 2.3452 0.8701
-2.8440 2.1830 0.8471
-2.8499 2.0288 0.8264
-2.8555 1.8817 0.8076
-2.8608 1.7409 0.7907
-2.8660 1.6057 0.7754
-2.8709 1.4753 0.7617
-2.8757 1.3493 0.7494
-2.8804 1.2270 0.7384
-2.8849 1.1081 0.7286
-2.8893 0.9921 0.7200
-2.8936 0.8785 0.7126
-2.8979 0.7671 0.7061
-2.9020 0.6574 0.7007
-2.9061 0.5493 0.6963
-2.9102 0.4423 0.6928
-2.9143 0.3361 0.6902
-2.9183 0.2306 0.6885
-2.9223 0.1254 0.6877
-2.9263 0.0202 0.6878
