ply
format ascii 1.0
element vertex 2202
property float32 x
property float32 y
property float32 z
end_header
-6.5198 9.7218 1.7003
-6.8668 9.4864 1.7003
-7.2055 9.2389 1.7003
-7.5355 8.9796 1.7003
-5.0611 5.6102 1.0954
-8.1678 8.4266 1.7003
-7.3220 7.0319 1.4700
-8.2293 7.3554 1.5972
-3.7313 3.1020 0.7017
-3.6994 2.8579 0.6756
-8.9888 6.4438 1.5972
-9.2204 6.1223 1.5972
-9.4408 5.7927 1.5972
-9.6496 5.4552 1.5972
-9.8466 5.1104 1.5972
-10.0314 4.7585 1.5972
-10.3514 4.4637 1.6203
-10.5135 4.0938 1.6203
-10.6626 3.7181 1.6203
-10.7985 3.3370 1.6203
-10.6140 2.8681 1.5748
-9.0248 2.0952 1.3258
-11.1248 2.1662 1.6203
-11.2058 1.7683 1.6203
-6.5940 0.7999 0.9478
-6.6498 0.5661 0.9514
-11.3637 0.5586 1.6203
-8.3656 0.1115 1.1903
-2.5178 -10.2552 1.7003
-2.1501 -10.3419 1.7003
-1.7793 -10.4151 1.7003
-1.4061 -10.4747 1.7003
-1.0308 -10.5206 1.7003
-0.6540 -10.5527 1.7003
-0.2762 -10.5710 1.7003
0.1020 -10.5755 1.7003
0.4741 -10.4320 1.6788
0.8058 -9.9036 1.5972
1.1595 -9.8688 1.5972
1.5117 -9.8210 1.5972
1.8619 -9.7603 1.5972
2.2097 -9.6869 1.5972
2.5545 -9.6008 1.5972
2.8958 -9.5020 1.5972
3.2333 -9.3909 1.5972
3.5664 -9.2675 1.5972
3.8947 -9.1320 1.5972
4.2177 -8.9846 1.5972
3.1512 -6.1324 1.1098
4.8463 -8.6550 1.5972
5.1510 -8.4733 1.5972
5.4487 -8.2806 1.5972
5.7391 -8.0772 1.5972
6.0218 -7.8634 1.5972
6.3652 -7.7230 1.6147
6.6341 -7.4868 1.6147
6.8942 -7.2411 1.6147
7.1450 -6.9861 1.6147
7.3862 -6.7224 1.6147
7.6175 -6.4502 1.6147
4.3818 -3.4490 0.9026
4.4676 -3.2646 0.8962
8.2491 -5.5865 1.6147
4.7249 -2.9590 0.9042
8.6157 -4.9757 1.6147
8.7820 -4.6610 1.6147
8.9366 -4.3407 1.6147
9.0795 -4.0153 1.6147
9.2103 -3.6851 1.6147
9.3291 -3.3506 1.6147
9.4355 -3.0124 1.6147
9.5296 -2.6707 1.6147
9.6113 -2.3262 1.6147
5.3616 -1.0962 0.8943
5.4230 -0.9080 0.8993
5.4835 -0.7175 0.9053
5.5408 -0.5241 0.9118
5.5947 -0.3278 0.9190
5.6455 -0.1284 0.9267
5.7020 0.0744 0.9367
5.7525 0.2812 0.9468
5.7974 0.4918 0.9573
5.8364 0.7063 0.9682
5.8732 0.9250 0.9800
5.9124 1.1494 0.9936
5.9459 1.3785 1.0078
5.9748 1.6125 1.0227
6.0001 1.8521 1.0386
6.0154 2.0954 1.0545
6.0269 2.3445 1.0714
6.0232 2.5950 1.0875
6.0158 2.8512 1.1048
6.0010 3.1120 1.1227
5.9850 3.3808 1.1426
5.9690 3.6596 1.1647
5.9563 3.9519 1.1900
6.0851 4.3590 1.2471
7.5882 5.8578 1.5984
6.0766 5.0482 1.3182
7.1467 6.3831 1.6001
6.9118 6.6332 1.6008
5.8554 6.0367 1.4063
6.4163 7.1072 1.6021
6.1563 7.3307 1.6028
5.8852 7.5404 1.6025
5.6060 7.7386 1.6019
5.3196 7.9258 1.6011
5.0151 8.0833 1.5965
4.7288 8.2688 1.5995
4.4253 8.4245 1.5987
4.1170 8.5693 1.5980
3.8413 8.7886 1.6129
3.6036 9.1216 1.6499
3.3563 9.4751 1.6917
3.0290 9.6344 1.7004
0.7933 2.8800 0.5031
0.6894 2.9054 0.5031
0.5848 2.9272 0.5031
0.4794 2.9455 0.5030
0.3736 2.9601 0.5030
0.2673 2.9711 0.5031
0.1607 2.9784 0.5031
0.0540 2.9821 0.5031
-0.0529 2.9821 0.5032
-0.1596 2.9785 0.5033
-0.2662 2.9712 0.5034
-0.3725 2.9603 0.5035
-0.4784 2.9458 0.5036
-0.5837 2.9276 0.5037
-0.6884 2.9058 0.5039
-0.7924 2.8805 0.5040
-3.0246 9.6320 1.7030
-3.3672 9.5166 1.7026
-3.7056 9.3893 1.7021
-4.0393 9.2504 1.7017
-4.3680 9.0999 1.7013
-4.6920 8.9395 1.7012
-5.0103 8.7678 1.7011
-5.3225 8.5851 1.7010
-5.6281 8.3914 1.7008
-5.9268 8.1871 1.7007
-6.2181 7.9721 1.7005
-6.5017 7.7469 1.7003
-5.0609 5.6094 1.2696
-6.6190 6.8280 1.5972
-6.8627 6.5901 1.5972
-7.0981 6.3436 1.5972
-7.3249 6.0888 1.5972
-7.5426 5.8261 1.5972
-7.7511 5.5557 1.5972
-7.9501 5.2780 1.5972
-3.5877 2.2010 0.7040
-3.5552 2.0095 0.6826
-8.4872 4.4041 1.5972
-8.6456 4.1003 1.5972
-8.9204 3.8458 1.6203
-9.0591 3.5266 1.6203
-9.1865 3.2025 1.6203
-9.3024 2.8738 1.6203
-9.4067 2.5410 1.6203
-9.0252 2.0944 1.5395
-9.5798 1.8645 1.6203
-7.4350 1.1726 1.2486
-6.6044 0.8006 1.1027
-6.6587 0.5662 1.1067
-7.8075 0.3831 1.2935
-7.9386 0.1051 1.3126
-2.2005 -8.9642 1.7003
-1.8790 -9.0396 1.7003
-1.5550 -9.1032 1.7003
-1.2287 -9.1551 1.7003
-0.9007 -9.1949 1.7003
-0.5714 -9.2228 1.7003
-0.2413 -9.2386 1.7003
0.0893 -9.2424 1.7003
0.4198 -9.2340 1.7003
0.7497 -9.2136 1.7003
1.0759 -9.1566 1.6958
1.3344 -8.6689 1.6133
1.6272 -8.5298 1.5972
1.9310 -8.4657 1.5972
2.2323 -8.3905 1.5972
2.5307 -8.3044 1.5972
2.8256 -8.2074 1.5972
3.1168 -8.0998 1.5972
3.4038 -7.9816 1.5972
3.6863 -7.8530 1.5972
3.1472 -6.1251 1.2682
4.2359 -7.5655 1.5972
4.5024 -7.4070 1.5972
4.7629 -7.2388 1.5972
5.0169 -7.0614 1.5972
5.2643 -6.8749 1.5972
5.5046 -6.6795 1.5972
5.7375 -6.4757 1.5972
5.9628 -6.2635 1.5972
6.1801 -6.0434 1.5972
6.3892 -5.8157 1.5972
6.5897 -5.5806 1.5972
4.3883 -3.4545 1.0336
4.4652 -3.2633 1.0241
4.5423 -3.0766 1.0164
4.6192 -2.8932 1.0104
4.6959 -2.7123 1.0059
4.7723 -2.5333 1.0029
4.8484 -2.3554 1.0011
4.9234 -2.1778 1.0005
4.9978 -2.0001 1.0011
5.0728 -1.8224 1.0031
5.1451 -1.6431 1.0058
5.2156 -1.4622 1.0095
5.2855 -1.2797 1.0142
5.3550 -1.0953 1.0201
5.4247 -0.9088 1.0273
5.4940 -0.7193 1.0356
5.5578 -0.5262 1.0442
5.6187 -0.3297 1.0536
5.6759 -0.1296 1.0635
5.7310 0.0743 1.0745
5.7761 0.2818 1.0850
5.8154 0.4928 1.0958
5.8485 0.7072 1.1070
5.8764 0.9250 1.1187
5.9024 1.1469 1.1316
5.9287 1.3739 1.1462
5.9500 1.6052 1.1615
5.9696 1.8421 1.1784
6.0050 2.0912 1.2003
7.8802 3.0647 1.5972
6.1797 2.6617 1.2720
7.6296 3.6153 1.5972
7.4899 3.8832 1.5972
7.3408 4.1459 1.5972
7.1827 4.4029 1.5972
7.0156 4.6540 1.5972
6.0852 4.3583 1.4210
6.6557 5.1371 1.5972
6.0778 5.0484 1.5020
6.2676 5.5971 1.5984
6.0621 5.8169 1.5991
5.8490 6.0292 1.5998
5.6285 6.2337 1.6005
5.4009 6.4302 1.6012
5.1664 6.6185 1.6018
4.9256 6.7985 1.6025
4.7202 7.0319 1.6175
4.5501 7.3329 1.6489
4.3823 7.6619 1.6873
4.1349 7.8706 1.7003
3.8491 8.0108 1.7005
3.5587 8.1410 1.7006
3.2640 8.2608 1.7008
2.9653 8.3702 1.7009
0.7897 2.5116 0.5045
0.6990 2.5373 0.5044
0.6075 2.5598 0.5044
0.5153 2.5791 0.5044
0.4225 2.5953 0.5044
0.3292 2.6082 0.5044
0.2356 2.6180 0.5044
0.1417 2.6245 0.5044
0.0476 2.6278 0.5045
-0.0466 2.6278 0.5045
-0.1407 2.6246 0.5046
-0.2346 2.6181 0.5047
-0.3282 2.6084 0.5048
-0.4215 2.5955 0.5049
-0.5143 2.5795 0.5050
-0.6066 2.5602 0.5051
-0.6981 2.5377 0.5052
-0.7889 2.5121 0.5054
-2.9593 8.3634 1.7025
-3.2571 8.2525 1.7024
-3.5508 8.1312 1.7022
-3.8401 7.9995 1.7019
-4.1245 7.8577 1.7017
-4.4037 7.7057 1.7014
-4.6773 7.5437 1.7010
-4.9450 7.3723 1.7007
-5.2071 7.1923 1.7006
-5.4630 7.0034 1.7005
-5.7122 6.8055 1.7003
-5.0608 5.6087 1.4451
-5.8145 5.9975 1.5972
-6.0283 5.7882 1.5972
-6.2347 5.5713 1.5972
-6.4334 5.3472 1.5972
-6.6242 5.1161 1.5972
-6.8068 4.8782 1.5972
-6.9810 4.6340 1.5972
-7.1466 4.3836 1.5972
-7.3033 4.1274 1.5972
-3.4941 1.8128 0.7490
-7.5893 3.5987 1.5972
-7.7183 3.3268 1.5972
-7.9509 3.0945 1.6203
-8.0620 2.8098 1.6203
-8.1630 2.5211 1.6203
-8.2537 2.2288 1.6203
-8.3341 1.9333 1.6203
-8.4040 1.6349 1.6203
-7.4353 1.1720 1.4235
-6.6148 0.8012 1.2592
-3.8699 0.3287 0.7334
-7.8078 0.3824 1.4751
-7.9390 0.1044 1.4971
-1.9524 -7.9544 1.7003
-1.6671 -8.0211 1.7003
-1.3795 -8.0774 1.7003
-1.0900 -8.1232 1.7003
-0.7990 -8.1583 1.7003
-0.5068 -8.1829 1.7003
-0.2139 -8.1968 1.7003
0.0793 -8.2000 1.7003
0.3725 -8.1926 1.7003
0.6652 -8.1744 1.7003
0.9571 -8.1456 1.7003
1.2478 -8.1062 1.7003
1.5368 -8.0562 1.7003
1.7634 -7.7311 1.6441
1.9805 -7.4443 1.5972
2.2462 -7.3712 1.5979
2.5069 -7.2821 1.5972
2.7653 -7.1867 1.5972
3.0200 -7.0820 1.5972
3.2706 -6.9681 1.5972
3.1432 -6.1178 1.4275
3.7585 -6.7134 1.5972
3.9951 -6.5729 1.5972
4.2264 -6.4240 1.5972
4.4520 -6.2668 1.5972
4.6717 -6.1015 1.5972
4.8851 -5.9284 1.5972
5.0921 -5.7478 1.5972
5.2923 -5.5598 1.5972
5.4854 -5.3647 1.5972
5.6713 -5.1628 1.5972
5.8496 -4.9544 1.5972
4.3640 -3.4359 1.1578
4.4444 -3.2486 1.1482
4.5244 -3.0649 1.1403
4.6036 -2.8839 1.1342
4.6824 -2.7050 1.1296
4.7613 -2.5279 1.1267
4.8387 -2.3512 1.1250
4.9141 -2.1741 1.1244
4.9879 -1.9966 1.1249
5.0609 -1.8186 1.1267
5.1306 -1.6389 1.1291
5.1985 -1.4579 1.1325
5.2659 -1.2754 1.1373
5.3322 -1.0912 1.1432
5.3980 -0.9048 1.1504
5.4640 -0.7159 1.1590
5.5275 -0.5239 1.1685
5.5884 -0.3285 1.1789
5.6577 -0.1297 1.1926
5.7299 0.0737 1.2085
7.5597 0.3681 1.5972
7.5365 0.6380 1.5972
7.5037 0.9066 1.5972
7.4613 1.1738 1.5972
7.4094 1.4391 1.5972
7.3481 1.7021 1.5972
6.1320 1.6538 1.3458
7.1977 2.2204 1.5972
7.1089 2.4749 1.5972
7.0110 2.7259 1.5972
6.1797 2.6611 1.4296
6.7891 3.2163 1.5972
6.6653 3.4550 1.5972
6.5331 3.6890 1.5972
6.3929 3.9180 1.5972
6.2446 4.1418 1.5972
6.0852 4.3576 1.5964
5.9251 4.5725 1.5972
5.7542 4.7789 1.5972
5.5763 4.9790 1.5972
5.4403 5.2195 1.6117
5.2038 5.3633 1.5984
5.0749 5.6198 1.6205
4.9844 5.9336 1.6593
4.8843 6.2563 1.7003
4.6551 6.4243 1.7004
4.4204 6.5844 1.7005
4.1803 6.7360 1.7007
3.9350 6.8790 1.7008
3.6850 7.0132 1.7009
3.4304 7.1385 1.7010
3.1717 7.2547 1.7012
2.9091 7.3617 1.7013
0.7854 2.2166 0.5056
0.7052 2.2424 0.5055
0.6242 2.2654 0.5055
0.5425 2.2856 0.5055
0.4602 2.3029 0.5055
0.3773 2.3174 0.5054
0.2940 2.3290 0.5055
0.2104 2.3378 0.5055
0.1265 2.3436 0.5055
0.0425 2.3465 0.5055
-0.0416 2.3465 0.5056
-0.1256 2.3437 0.5056
-0.2095 2.3379 0.5057
-0.2931 2.3292 0.5058
-0.3764 2.3176 0.5059
-0.4593 2.3032 0.5060
-0.5416 2.2859 0.5061
-0.6233 2.2657 0.5062
-0.7043 2.2428 0.5063
-0.7845 2.2170 0.5065
-2.9019 7.3520 1.7020
-3.1635 7.2438 1.7018
-3.4212 7.1264 1.7016
-3.6747 7.0001 1.7014
-3.9235 6.8649 1.7012
-4.1675 6.7211 1.7010
-4.4063 6.5686 1.7009
-4.6396 6.4078 1.7006
-4.8671 6.2388 1.7004
-4.7803 5.6948 1.5972
-4.9831 5.5220 1.5972
-5.1797 5.3421 1.5972
-3.9875 3.8282 1.1861
-5.5534 4.9619 1.5972
-5.7301 4.7620 1.5972
-5.8997 4.5559 1.5972
-6.0620 4.3438 1.5972
-6.2168 4.1261 1.5972
-6.3638 3.9029 1.5972
-6.5030 3.6745 1.5972
-3.4930 1.8119 0.8410
-6.7568 3.2033 1.5972
-6.8711 2.9610 1.5972
-6.9768 2.7148 1.5972
-7.0738 2.4647 1.5972
-7.1619 2.2113 1.5972
-7.2410 1.9547 1.5972
-7.4167 1.7198 1.6203
-7.4783 1.4542 1.6203
-7.4232 1.1694 1.5972
-6.6254 0.8019 1.4176
-6.6768 0.5666 1.4224
-7.5208 0.3677 1.5972
-7.5342 0.0984 1.5972
-1.7528 -7.1424 1.7003
-1.4966 -7.2021 1.7003
-1.2384 -7.2524 1.7003
-0.9785 -7.2934 1.7003
-0.7172 -7.3248 1.7003
-0.4549 -7.3468 1.7003
-0.1920 -7.3592 1.7003
0.0713 -7.3620 1.7003
0.3345 -7.3553 1.7003
0.5973 -7.3389 1.7003
0.8593 -7.3130 1.7003
1.1202 -7.2777 1.7003
1.3797 -7.2328 1.7003
1.6373 -7.1785 1.7003
1.8928 -7.1149 1.7003
2.1175 -6.9493 1.6779
2.2865 -6.6422 1.6227
2.4826 -6.4525 1.5972
2.7168 -6.3714 1.6005
2.9364 -6.2565 1.5972
3.1392 -6.1104 1.5879
3.3746 -6.0281 1.5972
3.5871 -5.9021 1.5972
3.7948 -5.7686 1.5972
3.9975 -5.6276 1.5972
4.1949 -5.4794 1.5972
4.3868 -5.3241 1.5972
4.5728 -5.1621 1.5972
4.7527 -4.9935 1.5972
4.9264 -4.8185 1.5972
5.0935 -4.6374 1.5972
5.2539 -4.4504 1.5972
5.4073 -4.2578 1.5972
5.5537 -4.0599 1.5972
5.6314 -3.8154 1.5800
4.7542 -2.9787 1.3038
5.8840 -3.3998 1.5800
6.0359 -3.2052 1.5898
6.1722 -2.9997 1.5972
6.2722 -2.7755 1.5972
6.3640 -2.5480 1.5972
6.4475 -2.3175 1.5972
6.5226 -2.0842 1.5972
6.5892 -1.8485 1.5972
6.6472 -1.6106 1.5972
6.6966 -1.3710 1.5972
6.7373 -1.1299 1.5972
6.7694 -0.8875 1.5972
6.7927 -0.6444 1.5972
6.8072 -0.4007 1.5972
6.8129 -0.1568 1.5972
6.8100 0.0870 1.5972
6.7982 0.3304 1.5972
6.7778 0.5731 1.5972
6.7488 0.8148 1.5972
6.7111 1.0551 1.5972
6.6649 1.2938 1.5972
6.6102 1.5305 1.5972
6.1320 1.6531 1.4960
6.4757 1.9970 1.5972
6.3962 2.2261 1.5972
6.3085 2.4521 1.5972
6.1797 2.6605 1.5887
6.1096 2.8937 1.5972
5.9986 3.1087 1.5972
5.8800 3.3195 1.5972
5.7541 3.5259 1.5972
5.6408 3.7406 1.6029
5.4809 3.9242 1.5972
5.3340 4.1156 1.5972
5.2897 4.3924 1.6309
5.2445 4.6820 1.6685
5.1677 4.9572 1.7003
4.9845 5.1365 1.7003
4.7954 5.3095 1.7005
4.6003 5.4756 1.7006
4.3996 5.6347 1.7007
4.1936 5.7866 1.7008
3.9823 5.9310 1.7010
3.7661 6.0679 1.7011
3.5453 6.1970 1.7012
3.3202 6.3182 1.7014
3.0910 6.4313 1.7015
2.8579 6.5362 1.7017
0.7802 1.9741 0.5065
0.7087 2.0000 0.5064
0.6364 2.0234 0.5064
0.5633 2.0442 0.5064
0.4896 2.0625 0.5063
0.4153 2.0782 0.5063
0.3406 2.0913 0.5063
0.2654 2.1018 0.5063
0.1899 2.1097 0.5063
0.1142 2.1150 0.5064
0.0384 2.1176 0.5064
-0.0375 2.1177 0.5064
-0.1133 2.1151 0.5065
-0.1890 2.1098 0.5065
-0.2645 2.1020 0.5066
-0.3397 2.0915 0.5067
-0.4145 2.0784 0.5068
-0.4888 2.0627 0.5069
-0.5625 2.0445 0.5070
-0.6356 2.0237 0.5071
-0.7079 2.0004 0.5072
-0.7794 1.9745 0.5074
-2.8499 6.5251 1.7016
-3.0820 6.4193 1.7014
-3.3103 6.3055 1.7013
-3.5344 6.1837 1.7011
-3.7542 6.0539 1.7009
-3.9692 5.9165 1.7007
-4.1793 5.7716 1.7006
-4.3842 5.6193 1.7004
-4.3060 5.1292 1.5972
-4.4885 4.9734 1.5972
-4.6654 4.8112 1.5972
-4.8365 4.6427 1.5972
-5.0016 4.4683 1.5972
-5.1605 4.2881 1.5972
-5.3130 4.1023 1.5972
-5.4590 3.9112 1.5972
-5.5981 3.7149 1.5972
-5.7302 3.5137 1.5972
-5.8552 3.3079 1.5972
-3.4932 1.8117 0.9341
-6.0831 2.8833 1.5972
-6.1857 2.6651 1.5972
-6.2805 2.4432 1.5972
-6.3674 2.2180 1.5972
-6.4463 1.9898 1.5972
-6.5172 1.7587 1.5972
-6.5797 1.5252 1.5972
-6.6340 1.2894 1.5972
-6.6799 1.0517 1.5972
-6.6361 0.8026 1.5779
-6.6860 0.5667 1.5830
-6.7664 0.3302 1.5972
-6.7781 0.0879 1.5972
-1.5886 -6.4745 1.7003
-1.3564 -6.5284 1.7003
-1.1224 -6.5740 1.7003
-0.8868 -6.6110 1.7003
-0.6499 -6.6394 1.7003
-0.4122 -6.6592 1.7003
-0.1739 -6.6704 1.7003
0.0647 -6.6729 1.7003
0.3032 -6.6667 1.7003
0.5414 -6.6519 1.7003
0.7789 -6.6285 1.7003
1.0153 -6.5964 1.7003
1.2505 -6.5557 1.7003
1.4840 -6.5066 1.7003
1.7155 -6.4489 1.7003
1.9448 -6.3830 1.7003
2.1716 -6.3087 1.7003
2.3954 -6.2263 1.7003
2.5640 -6.0136 1.6665
2.7040 -5.7617 1.6227
2.8621 -5.5714 1.5972
3.0588 -5.4644 1.5972
3.2515 -5.3504 1.5972
3.4399 -5.2295 1.5972
3.6237 -5.1018 1.5972
3.8028 -4.9676 1.5972
3.9768 -4.8270 1.5972
4.1455 -4.6802 1.5972
4.3088 -4.5275 1.5972
4.4663 -4.3690 1.5972
4.6180 -4.2050 1.5972
4.7636 -4.0357 1.5972
4.9029 -3.8612 1.5972
5.0358 -3.6819 1.5972
5.1621 -3.4980 1.5972
4.7540 -2.9791 1.4377
5.3941 -3.1172 1.5972
5.4996 -2.9210 1.5972
5.5978 -2.7211 1.5972
5.6888 -2.5179 1.5972
5.7724 -2.3117 1.5972
5.8484 -2.1027 1.5972
5.9168 -1.8912 1.5972
5.9775 -1.6774 1.5972
6.0305 -1.4617 1.5972
6.0756 -1.2444 1.5972
6.1129 -1.0257 1.5972
6.1423 -0.8059 1.5972
6.1637 -0.5853 1.5972
6.1772 -0.3642 1.5972
6.1828 -0.1429 1.5972
6.1804 0.0784 1.5972
6.1701 0.2993 1.5972
6.1519 0.5196 1.5972
6.1259 0.7390 1.5972
6.0920 0.9572 1.5972
6.0504 1.1739 1.5972
6.0011 1.3889 1.5972
5.9441 1.6019 1.5972
5.8796 1.8126 1.5972
5.8077 2.0207 1.5972
5.7285 2.2261 1.5972
5.6787 2.4441 1.6076
5.5484 2.6273 1.5972
5.4478 2.8227 1.5972
5.4201 3.0593 1.6211
5.3965 3.3061 1.6492
5.3596 3.5535 1.6767
5.3001 3.7940 1.7003
5.1583 3.9794 1.7003
5.0103 4.1597 1.7004
4.8561 4.3346 1.7005
4.6959 4.5039 1.7007
4.5299 4.6674 1.7008
4.3582 4.8248 1.7009
4.1811 4.9760 1.7010
3.9988 5.1207 1.7011
3.8117 5.2589 1.7012
3.6197 5.3903 1.7013
3.4234 5.5149 1.7015
3.2228 5.6324 1.7016
3.0182 5.7427 1.7017
0.8377 1.7427 0.5073
0.7744 1.7708 0.5073
0.7101 1.7966 0.5072
0.6451 1.8202 0.5072
0.5793 1.8416 0.5071
0.5128 1.8606 0.5071
0.4457 1.8773 0.5071
0.3781 1.8916 0.5070
0.3100 1.9036 0.5070
0.2416 1.9132 0.5070
0.1729 1.9204 0.5070
0.1040 1.9252 0.5071
0.0350 1.9276 0.5071
-0.0341 1.9276 0.5071
-0.1031 1.9252 0.5072
-0.1720 1.9205 0.5072
-0.2408 1.9133 0.5073
-0.3092 1.9037 0.5074
-0.3773 1.8918 0.5075
-0.4449 1.8775 0.5076
-0.5120 1.8608 0.5077
-0.5785 1.8418 0.5078
-0.6443 1.8206 0.5079
-0.7094 1.7970 0.5080
-0.7736 1.7711 0.5081
-2.8013 5.8343 1.7013
-3.0088 5.7308 1.7012
-3.2125 5.6200 1.7010
-3.4122 5.5020 1.7009
-3.6076 5.3771 1.7007
-3.7985 5.2453 1.7006
-3.9847 5.1068 1.7004
-4.2138 5.0188 1.7198
-4.0792 4.5195 1.5972
-4.2399 4.3719 1.5972
-4.3953 4.2187 1.5972
-4.5452 4.0600 1.5972
-3.7585 3.1227 1.2802
-4.8278 3.7272 1.5972
-3.6680 2.6276 1.1811
-5.0864 3.3749 1.5972
-5.2063 3.1919 1.5972
-5.3196 3.0048 1.5972
-3.4934 1.8114 1.0283
-5.5262 2.6188 1.5972
-5.6191 2.4204 1.5972
-5.7050 2.2188 1.5972
-5.7837 2.0142 1.5972
-5.8551 1.8067 1.5972
-5.9191 1.5968 1.5972
-5.9757 1.3846 1.5972
-6.0246 1.1704 1.5972
-6.0660 0.9545 1.5972
-6.0996 0.7372 1.5972
-6.1255 0.5187 1.5972
-6.1436 0.2993 1.5972
-6.1538 0.0792 1.5972
-1.4512 -5.9150 1.7003
-1.2390 -5.9642 1.7003
-1.0252 -6.0057 1.7003
-0.8100 -6.0394 1.7003
-0.5936 -6.0653 1.7003
-0.3765 -6.0834 1.7003
-0.1588 -6.0935 1.7003
0.0592 -6.0957 1.7003
0.2770 -6.0901 1.7003
0.4946 -6.0765 1.7003
0.7115 -6.0551 1.7003
0.9275 -6.0258 1.7003
1.1423 -5.9887 1.7003
1.3556 -5.9438 1.7003
1.5671 -5.8912 1.7003
1.7765 -5.8309 1.7003
1.9837 -5.7632 1.7003
2.1882 -5.6879 1.7003
2.3898 -5.6053 1.7003
2.5882 -5.5155 1.7003
2.7833 -5.4185 1.7003
2.9334 -5.2409 1.6768
3.0528 -5.0239 1.6416
3.1684 -4.8172 1.6104
3.3105 -4.6613 1.5972
3.4742 -4.5388 1.5972
3.6505 -4.4314 1.6048
3.7875 -4.2765 1.5972
3.9367 -4.1371 1.5972
4.0808 -3.9924 1.5972
4.2195 -3.8426 1.5972
4.3527 -3.6880 1.5972
4.4801 -3.5287 1.5972
4.6017 -3.3650 1.5972
4.7172 -3.1970 1.5972
4.7538 -2.9794 1.5732
4.9296 -2.8493 1.5972
5.0262 -2.6700 1.5972
5.1162 -2.4875 1.5972
5.1996 -2.3019 1.5972
5.2761 -2.1135 1.5972
5.3458 -1.9225 1.5972
5.4086 -1.7292 1.5972
5.4643 -1.5339 1.5972
5.5130 -1.3368 1.5972
5.5545 -1.1382 1.5972
5.5888 -0.9383 1.5972
5.6159 -0.7373 1.5972
5.6358 -0.5357 1.5972
5.6484 -0.3335 1.5972
5.6537 -0.1312 1.5972
5.6518 0.0712 1.5972
5.6427 0.2732 1.5972
5.6263 0.4747 1.5972
5.6027 0.6754 1.5972
5.5929 0.8782 1.6032
5.5342 1.0733 1.5972
5.4893 1.2699 1.5972
5.4375 1.4648 1.5972
5.3787 1.6576 1.5972
5.3727 1.8688 1.6151
5.3730 2.0874 1.6375
5.3725 2.3118 1.6624
5.3760 2.5451 1.6914
5.3066 2.7489 1.7003
5.2022 2.9357 1.7004
5.0916 3.1187 1.7004
4.9745 3.2976 1.7005
4.8512 3.4721 1.7006
4.7219 3.6421 1.7007
4.5866 3.8073 1.7008
4.4456 3.9676 1.7009
4.2991 4.1227 1.7010
4.1472 4.2725 1.7011
3.9902 4.4167 1.7012
3.8282 4.5553 1.7013
3.6614 4.6880 1.7014
3.4901 4.8146 1.7015
3.3145 4.9351 1.7017
3.1347 5.0492 1.7018
2.9511 5.1569 1.7019
0.8249 1.5694 0.5080
0.7678 1.5972 0.5079
0.7098 1.6230 0.5079
0.6510 1.6468 0.5078
0.5914 1.6685 0.5078
0.5311 1.6881 0.5077
0.4702 1.7055 0.5077
0.4086 1.7209 0.5077
0.3467 1.7340 0.5076
0.2843 1.7450 0.5076
0.2215 1.7539 0.5076
0.1586 1.7605 0.5077
0.0954 1.7649 0.5077
0.0321 1.7671 0.5077
-0.0312 1.7671 0.5077
-0.0945 1.7650 0.5078
-0.1577 1.7606 0.5078
-0.2207 1.7540 0.5079
-0.2834 1.7452 0.5080
-0.3458 1.7342 0.5080
-0.4078 1.7211 0.5081
-0.4693 1.7058 0.5082
-0.5303 1.6883 0.5083
-0.5906 1.6687 0.5084
-0.6502 1.6471 0.5085
-0.7091 1.6233 0.5087
-0.7671 1.5975 0.5088
-0.8242 1.5697 0.5089
-2.9416 5.1456 1.7010
-3.1244 5.0375 1.7009
-3.3033 4.9230 1.7008
-3.4781 4.8023 1.7006
-3.6485 4.6755 1.7005
-3.8144 4.5427 1.7003
-3.8424 4.2566 1.6433
-3.8817 4.0021 1.5972
-4.0239 3.8618 1.5972
-4.1610 3.7164 1.5972
-4.2929 3.5663 1.5972
-4.4195 3.4115 1.5972
-4.5405 3.2522 1.5972
-4.6559 3.0887 1.5972
-3.5820 2.1957 1.2006
-4.8690 2.7498 1.5972
-3.4936 1.8112 1.1235
-5.0577 2.3963 1.5972
-5.1426 2.2147 1.5972
-5.2210 2.0301 1.5972
-5.2928 1.8427 1.5972
-5.3579 1.6528 1.5972
-5.4163 1.4606 1.5972
-5.4678 1.2664 1.5972
-5.5124 1.0704 1.5972
-5.5499 0.8728 1.5972
-5.5805 0.6739 1.5972
-5.6039 0.4740 1.5972
-5.6202 0.2732 1.5972
-5.6293 0.0719 1.5972
-1.3342 -5.4390 1.7003
-1.1391 -5.4842 1.7003
-0.9425 -5.5223 1.7003
-0.7446 -5.5532 1.7003
-0.5457 -5.5770 1.7003
-0.3460 -5.5935 1.7003
-0.1459 -5.6028 1.7003
0.0545 -5.6048 1.7003
0.2548 -5.5996 1.7003
0.4548 -5.5871 1.7003
0.6542 -5.5674 1.7003
0.8528 -5.5405 1.7003
1.0503 -5.5063 1.7003
1.2464 -5.4651 1.7003
1.4408 -5.4168 1.7003
1.6334 -5.3614 1.7003
1.8238 -5.2991 1.7003
2.0119 -5.2300 1.7003
2.1973 -5.1541 1.7003
2.3797 -5.0715 1.7003
2.5591 -4.9824 1.7003
2.7351 -4.8869 1.7003
2.9075 -4.7851 1.7003
3.0760 -4.6771 1.7003
3.2405 -4.5632 1.7003
3.3523 -4.3800 1.6761
3.4526 -4.1916 1.6506
3.5499 -4.0087 1.6280
3.6422 -3.8280 1.6070
3.7527 -3.6718 1.5972
3.8804 -3.5342 1.5972
4.0030 -3.3921 1.5972
4.1203 -3.2457 1.5972
4.2513 -3.1092 1.6044
4.3386 -2.9408 1.5972
4.4393 -2.7827 1.5972
4.5342 -2.6212 1.5972
4.6232 -2.4564 1.5972
4.7061 -2.2886 1.5972
4.7829 -2.1179 1.5972
4.8535 -1.9447 1.5972
4.9178 -1.7691 1.5972
4.9757 -1.5913 1.5972
5.0272 -1.4117 1.5972
5.0721 -1.2304 1.5972
5.1216 -1.0499 1.6007
5.1871 -0.8713 1.6112
5.2451 -0.6892 1.6212
5.1859 -0.4934 1.5972
5.1977 -0.3074 1.5972
5.2028 -0.1212 1.5972
5.2013 0.0650 1.5972
5.1931 0.2510 1.5972
5.2054 0.4387 1.6056
5.2372 0.6308 1.6222
5.2689 0.8269 1.6409
5.3006 1.0274 1.6620
5.3208 1.2304 1.6819
5.3294 1.4352 1.7006
5.2711 1.6239 1.7003
5.2071 1.8106 1.7003
5.1366 1.9950 1.7004
5.0596 2.1766 1.7004
4.9763 2.3553 1.7005
4.8867 2.5309 1.7006
4.7910 2.7031 1.7007
4.6893 2.8717 1.7008
4.5816 3.0366 1.7009
4.4682 3.1974 1.7009
4.3492 3.3541 1.7010
4.2247 3.5064 1.7011
4.0950 3.6541 1.7012
3.9601 3.7971 1.7013
3.8204 3.9351 1.7014
3.6758 4.0681 1.7015
3.5267 4.1959 1.7016
3.3731 4.3182 1.7017
3.2154 4.4350 1.7018
3.0537 4.5461 1.7019
2.8881 4.6514 1.7020
0.8124 1.4194 0.5086
0.7607 1.4470 0.5085
0.7081 1.4727 0.5084
0.6546 1.4965 0.5084
0.6004 1.5185 0.5083
0.5454 1.5385 0.5083
0.4898 1.5566 0.5082
0.4336 1.5728 0.5082
0.3769 1.5869 0.5082
0.3197 1.5991 0.5082
0.2622 1.6093 0.5082
0.2043 1.6174 0.5082
0.1463 1.6236 0.5082
0.0880 1.6276 0.5082
0.0296 1.6297 0.5082
-0.0288 1.6297 0.5083
-0.0872 1.6277 0.5083
-0.1454 1.6236 0.5083
-0.2035 1.6175 0.5084
-0.2614 1.6094 0.5085
-0.3189 1.5992 0.5085
-0.3761 1.5871 0.5086
-0.4328 1.5730 0.5087
-0.4890 1.5568 0.5088
-0.5446 1.5388 0.5089
-0.5996 1.5187 0.5090
-0.6539 1.4968 0.5091
-0.7073 1.4730 0.5092
-0.7600 1.4473 0.5093
-0.8117 1.4197 0.5095
-2.8785 4.6406 1.7009
-3.0433 4.5351 1.7008
-3.2043 4.4238 1.7007
-3.3613 4.3069 1.7005
-3.5140 4.1845 1.7004
-3.6625 4.0569 1.7003
-3.6260 3.7381 1.6197
-3.7066 3.5569 1.5972
-3.8328 3.4229 1.5972
-3.9543 3.2845 1.5972
-4.0707 3.1418 1.5972
-4.1821 2.9951 1.5972
-4.2883 2.8444 1.5972
-4.3890 2.6900 1.5972
-4.4843 2.5321 1.5972
-3.4937 1.8109 1.2200
-3.5216 1.6682 1.2076
-3.5483 1.5277 1.1967
-3.5788 1.3912 1.1890
-3.6115 1.2570 1.1836
-3.6459 1.1244 1.1804
-4.9871 1.3444 1.5972
-5.0344 1.1656 1.5972
-5.0752 0.9850 1.5972
-5.1096 0.8031 1.5972
-5.1376 0.6200 1.5972
-5.1590 0.4359 1.5972
-5.1738 0.2510 1.5972
-5.1820 0.0657 1.5972
-1.2334 -5.0288 1.7003
-1.0530 -5.0705 1.7003
-0.8712 -5.1056 1.7003
-0.6883 -5.1342 1.7003
-0.5044 -5.1561 1.7003
-0.3198 -5.1714 1.7003
-0.1348 -5.1799 1.7003
0.0504 -5.1818 1.7003
0.2356 -5.1769 1.7003
0.4205 -5.1654 1.7003
0.6048 -5.1472 1.7003
0.7884 -5.1222 1.7003
0.9709 -5.0907 1.7003
1.1522 -5.0526 1.7003
1.3320 -5.0079 1.7003
1.5100 -4.9568 1.7003
1.6861 -4.8992 1.7003
1.8599 -4.8354 1.7003
2.0313 -4.7652 1.7003
2.2001 -4.6890 1.7003
2.3659 -4.6066 1.7003
2.5286 -4.5184 1.7003
2.6880 -4.4243 1.7003
2.8439 -4.3246 1.7003
2.9960 -4.2193 1.7003
3.1442 -4.1086 1.7003
3.2883 -3.9926 1.7004
3.4280 -3.8715 1.7003
3.5633 -3.7455 1.7003
3.6939 -3.6147 1.7003
3.7840 -3.4469 1.6845
3.8635 -3.2744 1.6672
3.9454 -3.1084 1.6540
4.0251 -2.9442 1.6428
4.1029 -2.7815 1.6334
4.1792 -2.6202 1.6260
4.2517 -2.4584 1.6196
4.3206 -2.2961 1.6141
4.3883 -2.1344 1.6104
4.4549 -1.9731 1.6085
4.5207 -1.8117 1.6085
4.5858 -1.6501 1.6103
4.6505 -1.4877 1.6140
4.7148 -1.3244 1.6195
4.7789 -1.1597 1.6269
4.8428 -0.9933 1.6362
4.9068 -0.8247 1.6476
4.9654 -0.6529 1.6591
4.9988 -0.4761 1.6642
5.0316 -0.2981 1.6713
5.0647 -0.1185 1.6806
5.1011 0.0633 1.6931
5.1150 0.2467 1.7003
5.1005 0.4294 1.7003
5.0795 0.6113 1.7003
5.0521 0.7923 1.7004
5.0183 0.9722 1.7004
4.9782 1.1507 1.7005
4.9317 1.3276 1.7005
4.8789 1.5026 1.7006
4.8199 1.6755 1.7006
4.7549 1.8462 1.7007
4.6838 2.0144 1.7007
4.6068 2.1799 1.7008
4.5240 2.3425 1.7009
4.4355 2.5020 1.7010
4.3414 2.6582 1.7010
4.2419 2.8109 1.7011
4.1371 2.9599 1.7012
4.0270 3.1050 1.7013
3.9118 3.2461 1.7014
3.7918 3.3830 1.7015
3.6670 3.5154 1.7015
3.5376 3.6434 1.7016
3.4038 3.7666 1.7017
3.2658 3.8850 1.7018
3.1237 3.9983 1.7019
2.9777 4.1066 1.7020
2.8280 4.2096 1.7021
0.7999 1.2881 0.5091
0.7529 1.3153 0.5090
0.7050 1.3409 0.5089
0.6563 1.3648 0.5089
0.6067 1.3869 0.5088
0.5565 1.4073 0.5088
0.5056 1.4259 0.5087
0.4540 1.4427 0.5087
0.4020 1.4577 0.5087
0.3494 1.4708 0.5086
0.2964 1.4821 0.5086
0.2431 1.4916 0.5086
0.1895 1.4992 0.5086
0.1356 1.5048 0.5086
0.0816 1.5086 0.5086
0.0275 1.5105 0.5087
-0.0267 1.5106 0.5087
-0.0808 1.5087 0.5087
-0.1348 1.5049 0.5088
-0.1886 1.4992 0.5088
-0.2423 1.4917 0.5089
-0.2956 1.4823 0.5090
-0.3486 1.4710 0.5090
-0.4012 1.4579 0.5091
-0.4533 1.4429 0.5092
-0.5048 1.4261 0.5093
-0.5557 1.4075 0.5094
-0.6060 1.3872 0.5095
-0.6556 1.3650 0.5096
-0.7043 1.3412 0.5097
-0.7522 1.3156 0.5098
-0.7992 1.2884 0.5100
-2.8184 4.1996 1.7008
-2.9674 4.0965 1.7007
-3.1128 3.9881 1.7006
-3.2542 3.8747 1.7005
-3.3916 3.7564 1.7004
-3.5248 3.6333 1.7003
-3.5460 3.4023 1.6502
-3.5490 3.1690 1.5972
-3.6673 3.0457 1.5998
-3.7692 2.9086 1.5972
-3.8722 2.7727 1.5972
-3.9704 2.6331 1.5972
-4.0636 2.4901 1.5972
-4.1517 2.3438 1.5972
-3.4939 1.8106 1.3179
-4.3121 2.0422 1.5972
-4.3841 1.8872 1.5972
-4.4507 1.7297 1.5972
-4.5116 1.5699 1.5972
-4.5668 1.4079 1.5972
-4.6163 1.2440 1.5972
-4.6599 1.0784 1.5972
-4.6975 0.9113 1.5972
-4.7292 0.7428 1.5972
-4.7549 0.5733 1.5972
-3.8771 0.3272 1.2970
-4.7881 0.2319 1.5972
-4.7955 0.0604 1.5972
-1.1455 -4.6712 1.7003
-0.9780 -4.7099 1.7003
-0.8091 -4.7425 1.7003
-0.6392 -4.7690 1.7003
-0.4684 -4.7893 1.7003
-0.2970 -4.8035 1.7003
-0.1251 -4.8114 1.7003
0.0469 -4.8131 1.7003
0.2189 -4.8086 1.7003
0.3906 -4.7978 1.7003
0.5618 -4.7809 1.7003
0.7323 -4.7578 1.7003
0.9018 -4.7285 1.7003
1.0702 -4.6931 1.7003
1.2372 -4.6516 1.7003
1.4025 -4.6041 1.7003
1.5660 -4.5507 1.7003
1.7275 -4.4914 1.7003
1.8867 -4.4263 1.7003
2.0434 -4.3555 1.7003
2.1975 -4.2791 1.7003
2.3487 -4.1972 1.7003
2.4967 -4.1099 1.7003
2.6416 -4.0172 1.7003
2.7829 -3.9195 1.7003
2.9207 -3.8169 1.7004
3.0547 -3.7094 1.7005
3.1845 -3.5969 1.7005
3.3102 -3.4798 1.7004
3.4315 -3.3583 1.7004
3.5483 -3.2326 1.7004
3.6605 -3.1027 1.7004
3.7679 -2.9690 1.7004
3.8704 -2.8315 1.7003
3.9679 -2.6904 1.7003
4.0602 -2.5460 1.7003
4.1472 -2.3983 1.7003
4.2288 -2.2477 1.7003
4.3049 -2.0943 1.7003
4.3754 -1.9383 1.7003
4.4402 -1.7799 1.7003
4.4993 -1.6194 1.7003
4.5525 -1.4569 1.7003
4.5999 -1.2926 1.7003
4.6413 -1.1268 1.7003
4.6767 -0.9596 1.7003
4.7061 -0.7914 1.7004
4.7295 -0.6223 1.7004
4.7468 -0.4525 1.7004
4.7579 -0.2823 1.7004
4.7629 -0.1119 1.7005
4.7619 0.0586 1.7005
4.7547 0.2288 1.7005
4.7415 0.3987 1.7005
4.7222 0.5678 1.7006
4.6970 0.7362 1.7006
4.6657 0.9034 1.7007
4.6285 1.0694 1.7007
4.5854 1.2339 1.7008
4.5365 1.3966 1.7008
4.4818 1.5575 1.7009
4.4214 1.7162 1.7009
4.3554 1.8727 1.7010
4.2839 2.0266 1.7011
4.2070 2.1779 1.7011
4.1248 2.3262 1.7012
4.0375 2.4716 1.7013
3.9450 2.6136 1.7013
3.8475 2.7523 1.7014
3.7453 2.8873 1.7015
3.6383 3.0186 1.7016
3.5267 3.1460 1.7017
3.4107 3.2692 1.7018
3.2905 3.3883 1.7018
3.1661 3.5030 1.7019
3.0378 3.6131 1.7020
2.9056 3.7187 1.7021
0.8292 1.1434 0.5096
0.7873 1.1718 0.5095
0.7445 1.1988 0.5094
0.7008 1.2242 0.5094
0.6563 1.2480 0.5093
0.6109 1.2703 0.5092
0.5648 1.2909 0.5092
0.5181 1.3099 0.5091
0.4707 1.3273 0.5091
0.4227 1.3429 0.5091
0.3742 1.3569 0.5090
0.3253 1.3692 0.5090
0.2760 1.3797 0.5090
0.2263 1.3885 0.5090
0.1764 1.3956 0.5090
0.1263 1.4009 0.5090
0.0760 1.4044 0.5090
0.0256 1.4062 0.5091
-0.0248 1.4062 0.5091
-0.0752 1.4044 0.5091
-0.1255 1.4009 0.5092
-0.1756 1.3956 0.5092
-0.2255 1.3886 0.5093
-0.2752 1.3798 0.5093
-0.3245 1.3693 0.5094
-0.3735 1.3570 0.5095
-0.4219 1.3431 0.5095
-0.4699 1.3274 0.5096
-0.5173 1.3101 0.5097
-0.5641 1.2911 0.5098
-0.6102 1.2705 0.5099
-0.6556 1.2483 0.5100
-0.7001 1.2244 0.5101
-0.7439 1.1990 0.5103
-0.7867 1.1721 0.5104
-0.8286 1.1437 0.5105
-2.8956 3.7095 1.7007
-3.0271 3.6040 1.7006
-3.1549 3.4938 1.7005
-3.2787 3.3792 1.7004
-3.3984 3.2603 1.7003
-3.4733 3.1011 1.6807
-3.4312 2.8493 1.6094
-3.5055 2.7048 1.5972
-3.6013 2.5783 1.5972
-3.6925 2.4484 1.5972
-3.7791 2.3154 1.5972
-3.8609 2.1793 1.5972
-3.4941 1.8104 1.4172
-4.0099 1.8987 1.5972
-4.0768 1.7545 1.5972
-4.1386 1.6080 1.5972
-4.1952 1.4593 1.5972
-4.2464 1.3087 1.5972
-4.2923 1.1563 1.5972
-4.3327 1.0023 1.5972
-4.3676 0.8468 1.5972
-4.3969 0.6902 1.5972
-4.4207 0.5326 1.5972
-3.8755 0.3267 1.3945
-4.4513 0.2151 1.5972
-4.4581 0.0557 1.5972
-1.0682 -4.3565 1.7003
-0.9119 -4.3925 1.7003
-0.7545 -4.4229 1.7003
-0.5960 -4.4476 1.7003
-0.4367 -4.4665 1.7003
-0.2769 -4.4797 1.7003
-0.1166 -4.4870 1.7003
0.0438 -4.4886 1.7003
0.2041 -4.4844 1.7003
0.3643 -4.4743 1.7003
0.5239 -4.4585 1.7003
0.6829 -4.4370 1.7003
0.8410 -4.4097 1.7003
0.9980 -4.3767 1.7003
1.1537 -4.3380 1.7003
1.3079 -4.2938 1.7003
1.4604 -4.2440 1.7003
1.6110 -4.1887 1.7003
1.7594 -4.1280 1.7003
1.9056 -4.0620 1.7003
2.0493 -3.9908 1.7003
2.1903 -3.9144 1.7003
2.3284 -3.8331 1.7003
2.4634 -3.7467 1.7003
2.5954 -3.6558 1.7004
2.7241 -3.5603 1.7006
2.8490 -3.4600 1.7006
2.9702 -3.3551 1.7006
3.0874 -3.2460 1.7005
3.2006 -3.1327 1.7005
3.3096 -3.0155 1.7005
3.4143 -2.8944 1.7005
3.5146 -2.7697 1.7005
3.6102 -2.6415 1.7005
3.7012 -2.5100 1.7004
3.7874 -2.3753 1.7005
3.8688 -2.2378 1.7005
3.9450 -2.0973 1.7005
4.0161 -1.9542 1.7005
4.0819 -1.8087 1.7005
4.1425 -1.6610 1.7005
4.1977 -1.5112 1.7005
4.2475 -1.3596 1.7005
4.2918 -1.2064 1.7005
4.3306 -1.0518 1.7006
4.3638 -0.8959 1.7006
4.3913 -0.7389 1.7006
4.4133 -0.5811 1.7006
4.4295 -0.4227 1.7007
4.4400 -0.2639 1.7007
4.4448 -0.1048 1.7007
4.4439 0.0542 1.7007
4.4374 0.2131 1.7007
4.4252 0.3716 1.7008
4.4073 0.5295 1.7008
4.3838 0.6866 1.7009
4.3547 0.8428 1.7009
4.3201 0.9977 1.7009
4.2800 1.1512 1.7010
4.2344 1.3032 1.7011
4.1835 1.4534 1.7011
4.1272 1.6016 1.7012
4.0657 1.7477 1.7012
3.9991 1.8914 1.7013
3.9274 2.0327 1.7013
3.8508 2.1712 1.7014
3.7693 2.3069 1.7015
3.6830 2.4396 1.7016
3.5921 2.5691 1.7016
3.4967 2.6952 1.7017
3.3969 2.8178 1.7018
3.2928 2.9368 1.7019
3.1846 3.0520 1.7020
3.0723 3.1632 1.7020
2.9563 3.2703 1.7021
2.8365 3.3732 1.7022
0.8128 1.0401 0.5100
0.7747 1.0681 0.5099
0.7356 1.0947 0.5098
0.6956 1.1199 0.5097
0.6548 1.1436 0.5097
0.6132 1.1659 0.5096
0.5708 1.1867 0.5096
0.5278 1.2060 0.5095
0.4841 1.2238 0.5095
0.4398 1.2401 0.5094
0.3950 1.2547 0.5094
0.3497 1.2678 0.5094
0.3040 1.2793 0.5094
0.2579 1.2891 0.5094
0.2115 1.2974 0.5094
0.1649 1.3040 0.5094
0.1180 1.3089 0.5094
0.0710 1.3122 0.5094
0.0239 1.3139 0.5094
-0.0232 1.3139 0.5094
-0.0702 1.3123 0.5095
-0.1172 1.3090 0.5095
-0.1641 1.3040 0.5095
-0.2107 1.2974 0.5096
-0.2571 1.2892 0.5097
-0.3032 1.2794 0.5097
-0.3489 1.2679 0.5098
-0.3942 1.2549 0.5099
-0.4391 1.2402 0.5099
-0.4834 1.2240 0.5100
-0.5271 1.2062 0.5101
-0.5701 1.1869 0.5102
-0.6125 1.1661 0.5103
-0.6541 1.1439 0.5104
-0.6950 1.1201 0.5105
-0.7350 1.0949 0.5106
-0.7741 1.0683 0.5108
-0.8122 1.0404 0.5109
-2.8266 3.3649 1.7007
-2.9459 3.2620 1.7006
-3.0615 3.1550 1.7005
-3.1732 3.0439 1.7004
-3.2809 2.9288 1.7003
-3.4062 2.8281 1.7112
-3.3705 2.6003 1.6449
-3.3622 2.4068 1.5972
-3.4473 2.2855 1.5972
-3.5281 2.1612 1.5972
-3.6044 2.0341 1.5972
-3.4943 1.8101 1.5182
-3.7433 1.7721 1.5972
-3.8057 1.6375 1.5972
-3.8633 1.5007 1.5972
-3.9160 1.3618 1.5972
-3.9638 1.2212 1.5972
-4.0065 1.0789 1.5972
-4.0441 0.9351 1.5972
-4.0766 0.7900 1.5972
-4.1039 0.6438 1.5972
-4.1260 0.4967 1.5972
-3.8755 0.3263 1.4942
-4.1543 0.2004 1.5972
-4.1605 0.0516 1.5972
-0.9995 -4.0771 1.7003
-0.8533 -4.1108 1.7003
-0.7059 -4.1392 1.7003
-0.5576 -4.1622 1.7003
-0.4086 -4.1799 1.7003
-0.2590 -4.1922 1.7003
-0.1091 -4.1991 1.7003
0.0410 -4.2005 1.7003
0.1911 -4.1966 1.7003
0.3409 -4.1872 1.7003
0.4903 -4.1724 1.7003
0.6391 -4.1522 1.7003
0.7870 -4.1267 1.7003
0.9339 -4.0958 1.7003
1.0796 -4.0596 1.7003
1.2239 -4.0182 1.7003
1.3666 -3.9717 1.7003
1.5075 -3.9199 1.7003
1.6464 -3.8632 1.7003
1.7832 -3.8015 1.7003
1.9177 -3.7348 1.7003
2.0496 -3.6634 1.7003
2.1789 -3.5873 1.7003
2.3054 -3.5068 1.7004
2.4291 -3.4218 1.7006
2.5495 -3.3324 1.7007
2.6664 -3.2385 1.7007
2.7798 -3.1404 1.7007
2.8895 -3.0383 1.7006
2.9955 -2.9324 1.7006
3.0976 -2.8227 1.7006
3.1956 -2.7094 1.7006
3.2895 -2.5928 1.7006
3.3791 -2.4728 1.7006
3.4643 -2.3497 1.7006
3.5453 -2.2238 1.7007
3.6216 -2.0951 1.7008
3.6930 -1.9637 1.7007
3.7596 -1.8298 1.7007
3.8213 -1.6936 1.7007
3.8781 -1.5554 1.7007
3.9298 -1.4152 1.7007
3.9765 -1.2733 1.7008
4.0181 -1.1299 1.7008
4.0545 -0.9851 1.7008
4.0856 -0.8392 1.7008
4.1115 -0.6922 1.7008
4.1322 -0.5445 1.7009
4.1474 -0.3962 1.7009
4.1574 -0.2475 1.7009
4.1620 -0.0986 1.7009
4.1613 0.0504 1.7009
4.1552 0.1991 1.7010
4.1439 0.3476 1.7010
4.1272 0.4954 1.7010
4.1053 0.6426 1.7011
4.0781 0.7888 1.7011
4.0458 0.9339 1.7011
4.0083 1.0777 1.7012
3.9657 1.2201 1.7012
3.9181 1.3607 1.7013
3.8655 1.4996 1.7014
3.8080 1.6365 1.7014
3.7457 1.7711 1.7015
3.6786 1.9035 1.7015
3.6069 2.0333 1.7016
3.5306 2.1604 1.7017
3.4499 2.2847 1.7017
3.3648 2.4061 1.7018
3.2755 2.5243 1.7019
3.1821 2.6392 1.7020
3.0846 2.7507 1.7020
2.9833 2.8586 1.7021
2.8782 2.9629 1.7022
0.8304 0.9185 0.5104
0.7966 0.9472 0.5103
0.7618 0.9747 0.5103
0.7261 1.0009 0.5102
0.6895 1.0259 0.5101
0.6520 1.0495 0.5100
0.6138 1.0718 0.5100
0.5748 1.0928 0.5099
0.5351 1.1123 0.5099
0.4947 1.1304 0.5098
0.4538 1.1471 0.5098
0.4123 1.1623 0.5097
0.3703 1.1761 0.5097
0.3278 1.1884 0.5097
0.2850 1.1991 0.5097
0.2418 1.2084 0.5097
0.1983 1.2161 0.5097
0.1546 1.2223 0.5097
0.1106 1.2270 0.5097
0.0666 1.2301 0.5097
0.0225 1.2316 0.5097
-0.0217 1.2316 0.5097
-0.0658 1.2301 0.5098
-0.1099 1.2270 0.5098
-0.1538 1.2224 0.5098
-0.1975 1.2162 0.5099
-0.2410 1.2085 0.5099
-0.2842 1.1992 0.5100
-0.3271 1.1885 0.5101
-0.3696 1.1762 0.5101
-0.4116 1.1625 0.5102
-0.4531 1.1473 0.5103
-0.4940 1.1306 0.5104
-0.5344 1.1125 0.5105
-0.5741 1.0930 0.5106
-0.6131 1.0721 0.5107
-0.6514 1.0498 0.5108
-0.6888 1.0261 0.5109
-0.7255 1.0012 0.5110
-0.7612 0.9750 0.5111
-0.7960 0.9475 0.5112
-0.8298 0.9188 0.5114
-2.8681 2.9554 1.7006
-2.9728 2.8513 1.7005
-3.0736 2.7435 1.7005
-3.1706 2.6322 1.7004
-3.2637 2.5175 1.7003
-3.3154 2.3729 1.6814
-3.3288 2.2066 1.6465
-3.3414 2.0465 1.6149
-3.3762 1.9050 1.5972
-3.4434 1.7834 1.5972
-3.5062 1.6595 1.5972
-3.5646 1.5333 1.5972
-3.6184 1.4052 1.5972
-3.6677 1.2751 1.5972
-3.7124 1.1434 1.5972
-3.7523 1.0101 1.5972
-3.7874 0.8754 1.5972
-3.8178 0.7395 1.5972
-3.8433 0.6026 1.5972
-3.8638 0.4648 1.5972
-3.8755 0.3259 1.5956
-3.8902 0.1873 1.5972
-3.8959 0.0479 1.5972
-0.9381 -3.8271 1.7003
-0.8008 -3.8587 1.7003
-0.6625 -3.8853 1.7003
-0.5233 -3.9069 1.7003
-0.3835 -3.9235 1.7003
-0.2431 -3.9350 1.7003
-0.1023 -3.9415 1.7003
0.0386 -3.9428 1.7003
0.1794 -3.9391 1.7003
0.3200 -3.9303 1.7003
0.4602 -3.9164 1.7003
0.5999 -3.8974 1.7003
0.7387 -3.8735 1.7003
0.8766 -3.8445 1.7003
1.0133 -3.8106 1.7003
1.1488 -3.7717 1.7003
1.2827 -3.7280 1.7003
1.4149 -3.6795 1.7003
1.5454 -3.6263 1.7003
1.6737 -3.5684 1.7003
1.8000 -3.5059 1.7003
1.9238 -3.4388 1.7003
2.0453 -3.3676 1.7004
2.1641 -3.2922 1.7006
2.2802 -3.2124 1.7007
2.3932 -3.1285 1.7008
2.5029 -3.0403 1.7008
2.6094 -2.9483 1.7007
2.7124 -2.8525 1.7007
2.8120 -2.7531 1.7007
2.9078 -2.6501 1.7007
2.9999 -2.5439 1.7007
3.0881 -2.4344 1.7007
3.1723 -2.3218 1.7007
3.2524 -2.2063 1.7007
3.3285 -2.0882 1.7008
3.4003 -1.9675 1.7010
3.4673 -1.8441 1.7009
3.5299 -1.7184 1.7009
3.5879 -1.5906 1.7009
3.6413 -1.4608 1.7009
3.6900 -1.3292 1.7009
3.7339 -1.1960 1.7009
3.7730 -1.0614 1.7010
3.8072 -0.9254 1.7010
3.8366 -0.7884 1.7010
3.8610 -0.6504 1.7010
3.8804 -0.5118 1.7010
3.8948 -0.3725 1.7011
3.9043 -0.2328 1.7011
3.9087 -0.0930 1.7011
3.9081 0.0469 1.7011
3.9025 0.1866 1.7012
3.8919 0.3260 1.7012
3.8763 0.4649 1.7012
3.8558 0.6031 1.7012
3.8304 0.7405 1.7013
3.8001 0.8768 1.7013
3.7649 1.0119 1.7014
3.7250 1.1456 1.7014
3.6804 1.2778 1.7015
3.6310 1.4082 1.7015
3.5771 1.5368 1.7016
3.5186 1.6633 1.7016
3.4557 1.7877 1.7017
3.3884 1.9096 1.7018
3.3168 2.0291 1.7018
3.2410 2.1459 1.7019
3.1611 2.2600 1.7020
3.0772 2.3710 1.7020
2.9895 2.4790 1.7021
2.8980 2.5838 1.7022
2.8028 2.6853 1.7023
0.8113 0.8350 0.5107
0.7805 0.8632 0.5107
0.7488 0.8902 0.5106
0.7161 0.9160 0.5105
0.6825 0.9407 0.5104
0.6481 0.9642 0.5104
0.6129 0.9864 0.5103
0.5770 1.0074 0.5102
0.5403 1.0271 0.5102
0.5030 1.0455 0.5101
0.4651 1.0625 0.5101
0.4266 1.0782 0.5101
0.3876 1.0926 0.5100
0.3481 1.1055 0.5100
0.3082 1.1171 0.5100
0.2679 1.1272 0.5100
0.2273 1.1359 0.5100
0.1864 1.1432 0.5099
0.1453 1.1490 0.5099
0.1040 1.1534 0.5100
0.0626 1.1563 0.5100
0.0211 1.1578 0.5100
-0.0204 1.1578 0.5100
-0.0619 1.1564 0.5100
-0.1033 1.1534 0.5101
-0.1446 1.1491 0.5101
-0.1857 1.1433 0.5102
-0.2266 1.1360 0.5102
-0.2672 1.1273 0.5103
-0.3075 1.1172 0.5103
-0.3474 1.1056 0.5104
-0.3869 1.0927 0.5105
-0.4259 1.0784 0.5105
-0.4644 1.0627 0.5106
-0.5023 1.0457 0.5107
-0.5397 1.0273 0.5108
-0.5763 1.0076 0.5109
-0.6123 0.9866 0.5110
-0.6475 0.9644 0.5111
-0.6819 0.9409 0.5112
-0.7155 0.9163 0.5113
-0.7482 0.8904 0.5114
-0.7799 0.8634 0.5115
-0.8107 0.8353 0.5117
-2.7931 2.6786 1.7006
-2.8878 2.5773 1.7005
-2.9789 2.4727 1.7005
-3.0663 2.3649 1.7004
-3.1498 2.2540 1.7004
-3.2294 2.1403 1.7003
-3.3250 2.0361 1.7106
-3.3395 1.8839 1.6818
-3.3509 1.7351 1.6546
-3.3617 1.5907 1.6302
-3.3718 1.4501 1.6084
-3.3990 1.3196 1.5972
-3.4452 1.1974 1.5972
-3.4871 1.0736 1.5972
-3.5245 0.9484 1.5972
-3.5575 0.8219 1.5972
-3.5859 0.6942 1.5972
-3.6098 0.5656 1.5972
-3.6290 0.4361 1.5972
-3.6436 0.3061 1.5972
-3.6536 0.1755 1.5972
-3.6589 0.0446 1.5972
-0.8827 -3.6019 1.7003
-0.7536 -3.6316 1.7003
-0.6234 -3.6567 1.7003
-0.4924 -3.6770 1.7003
-0.3608 -3.6926 1.7003
-0.2287 -3.7034 1.7003
-0.0962 -3.7094 1.7003
0.0363 -3.7107 1.7003
0.1689 -3.7072 1.7003
0.3012 -3.6989 1.7003
0.4331 -3.6858 1.7003
0.5645 -3.6680 1.7003
0.6952 -3.6454 1.7003
0.8249 -3.6182 1.7003
0.9536 -3.5863 1.7003
1.0811 -3.5497 1.7003
1.2071 -3.5086 1.7003
1.3316 -3.4630 1.7003
1.4543 -3.4129 1.7003
1.5751 -3.3584 1.7003
1.6939 -3.2996 1.7003
1.8106 -3.2368 1.7005
1.9250 -3.1699 1.7006
2.0368 -3.0988 1.7007
2.1461 -3.0238 1.7009
2.2524 -2.9447 1.7009
2.3557 -2.8617 1.7008
2.4559 -2.7752 1.7008
2.5529 -2.6850 1.7008
2.6466 -2.5915 1.7008
2.7369 -2.4947 1.7008
2.8236 -2.3947 1.7008
2.9066 -2.2916 1.7007
2.9859 -2.1857 1.7007
3.0614 -2.0771 1.7008
3.1331 -1.9660 1.7010
3.2007 -1.8524 1.7011
3.2640 -1.7363 1.7011
3.3229 -1.6180 1.7011
3.3776 -1.4977 1.7011
3.4279 -1.3755 1.7011
3.4738 -1.2517 1.7011
3.5152 -1.1263 1.7011
3.5521 -0.9996 1.7011
3.5843 -0.8716 1.7011
3.6120 -0.7426 1.7012
3.6350 -0.6128 1.7012
3.6534 -0.4822 1.7012
3.6671 -0.3511 1.7012
3.6760 -0.2196 1.7013
3.6802 -0.0879 1.7013
3.6797 0.0438 1.7013
3.6745 0.1754 1.7013
3.6646 0.3066 1.7013
3.6500 0.4374 1.7014
3.6308 0.5675 1.7014
3.6069 0.6969 1.7014
3.5784 0.8252 1.7015
3.5454 0.9525 1.7015
3.5079 1.0784 1.7016
3.4659 1.2029 1.7016
3.4195 1.3258 1.7017
3.3687 1.4469 1.7017
3.3137 1.5660 1.7018
3.2545 1.6832 1.7018
3.1912 1.7981 1.7019
3.1238 1.9106 1.7020
3.0525 2.0207 1.7020
2.9773 2.1281 1.7021
2.8983 2.2328 1.7022
2.8157 2.3345 1.7022
0.8196 0.7306 0.5111
0.7925 0.7591 0.5110
0.7645 0.7867 0.5110
0.7355 0.8132 0.5109
0.7055 0.8387 0.5108
0.6748 0.8630 0.5107
0.6432 0.8863 0.5107
0.6108 0.9085 0.5106
0.5776 0.9294 0.5105
0.5437 0.9492 0.5105
0.5092 0.9678 0.5104
0.4741 0.9851 0.5104
0.4383 1.0012 0.5103
0.4021 1.0160 0.5103
0.3653 1.0295 0.5103
0.3281 1.0418 0.5102
0.2905 1.0527 0.5102
0.2525 1.0622 0.5102
0.2143 1.0704 0.5102
0.1757 1.0773 0.5102
0.1370 1.0828 0.5102
0.0981 1.0869 0.5102
0.0590 1.0897 0.5102
0.0199 1.0911 0.5102
-0.0192 1.0911 0.5103
-0.0583 1.0897 0.5103
-0.0973 1.0870 0.5103
-0.1363 1.0828 0.5104
-0.1750 1.0774 0.5104
-0.2135 1.0705 0.5104
-0.2518 1.0623 0.5105
-0.2898 1.0528 0.5106
-0.3274 1.0419 0.5106
-0.3646 1.0297 0.5107
-0.4014 1.0162 0.5108
-0.4376 1.0014 0.5108
-0.4734 0.9853 0.5109
-0.5085 0.9680 0.5110
-0.5431 0.9494 0.5111
-0.5770 0.9296 0.5112
-0.6101 0.9087 0.5113
-0.6425 0.8865 0.5114
-0.6741 0.8633 0.5115
-0.7049 0.8389 0.5116
-0.7348 0.8134 0.5117
-0.7639 0.7869 0.5118
-0.7919 0.7594 0.5119
-0.8190 0.7308 0.5121
-2.8060 2.3287 1.7006
-2.8882 2.2272 1.7005
-2.9669 2.1228 1.7005
-3.0417 2.0156 1.7004
-3.1128 1.9058 1.7004
-3.1799 1.7935 1.7003
-3.2430 1.6789 1.7003
-3.3021 1.5621 1.7003
-3.3570 1.4433 1.7004
-3.3682 1.3073 1.6807
-3.3775 1.1735 1.6627
-3.3863 1.0422 1.6471
-3.3946 0.9131 1.6336
-3.4055 0.7864 1.6237
-3.4428 0.6661 1.6285
-3.4801 0.5449 1.6353
-3.5174 0.4224 1.6441
-3.5549 0.2982 1.6550
-3.5927 0.1722 1.6680
-3.6309 0.0439 1.6833
-0.8325 -3.3979 1.7003
-0.7107 -3.4259 1.7003
-0.5880 -3.4494 1.7003
-0.4644 -3.4686 1.7003
-0.3403 -3.4833 1.7003
-0.2156 -3.4935 1.7003
-0.0907 -3.4992 1.7003
0.0343 -3.5003 1.7003
0.1593 -3.4970 1.7003
0.2841 -3.4892 1.7003
0.4086 -3.4768 1.7003
0.5325 -3.4600 1.7003
0.6558 -3.4388 1.7003
0.7781 -3.4131 1.7003
0.8995 -3.3830 1.7003
1.0197 -3.3485 1.7003
1.1386 -3.3097 1.7003
1.2560 -3.2667 1.7003
1.3718 -3.2195 1.7003
1.4858 -3.1682 1.7004
1.5979 -3.1129 1.7005
1.7080 -3.0537 1.7006
1.8159 -2.9905 1.7007
1.9214 -2.9235 1.7008
2.0245 -2.8527 1.7010
2.1247 -2.7781 1.7009
2.2222 -2.6999 1.7009
2.3167 -2.6182 1.7009
2.4083 -2.5333 1.7009
2.4967 -2.4450 1.7009
2.5819 -2.3537 1.7008
2.6637 -2.2594 1.7008
2.7421 -2.1622 1.7008
2.8169 -2.0624 1.7008
2.8883 -1.9600 1.7010
2.9560 -1.8552 1.7011
3.0198 -1.7480 1.7012
3.0795 -1.6385 1.7013
3.1352 -1.5269 1.7013
3.1868 -1.4135 1.7013
3.2344 -1.2982 1.7013
3.2777 -1.1814 1.7013
3.3168 -1.0631 1.7013
3.3516 -0.9435 1.7013
3.3822 -0.8228 1.7013
3.4083 -0.7011 1.7013
3.4301 -0.5786 1.7013
3.4475 -0.4554 1.7014
3.4604 -0.3317 1.7014
3.4689 -0.2076 1.7014
3.4730 -0.0833 1.7014
3.4726 0.0409 1.7015
3.4677 0.1651 1.7015
3.4584 0.2890 1.7015
3.4447 0.4124 1.7015
3.4266 0.5352 1.7016
3.4041 0.6573 1.7016
3.3773 0.7785 1.7016
3.3462 0.8986 1.7017
3.3108 1.0174 1.7017
3.2712 1.1349 1.7018
3.2275 1.2509 1.7018
3.1796 1.3653 1.7019
3.1277 1.4778 1.7019
3.0719 1.5883 1.7020
3.0122 1.6968 1.7020
2.9486 1.8031 1.7021
2.8813 1.9070 1.7022
2.8104 2.0084 1.7022
0.8221 0.6332 0.5115
0.7985 0.6619 0.5114
0.7739 0.6897 0.5113
0.7483 0.7167 0.5112
0.7219 0.7427 0.5111
0.6945 0.7678 0.5111
0.6663 0.7919 0.5110
0.6372 0.8149 0.5109
0.6074 0.8369 0.5109
0.5768 0.8578 0.5108
0.5455 0.8776 0.5107
0.5135 0.8963 0.5107
0.4809 0.9139 0.5106
0.4477 0.9303 0.5106
0.4140 0.9455 0.5106
0.3797 0.9595 0.5105
0.3450 0.9723 0.5105
0.3099 0.9838 0.5105
0.2744 0.9941 0.5105
0.2385 1.0032 0.5104
0.2024 1.0109 0.5104
0.1660 1.0174 0.5104
0.1294 1.0226 0.5104
0.0926 1.0265 0.5104
0.0558 1.0291 0.5104
0.0188 1.0304 0.5105
-0.0181 1.0304 0.5105
-0.0551 1.0291 0.5105
-0.0919 1.0265 0.5105
-0.1287 1.0226 0.5106
-0.1653 1.0175 0.5106
-0.2017 1.0110 0.5107
-0.2378 1.0032 0.5107
-0.2737 0.9942 0.5108
-0.3092 0.9839 0.5108
-0.3443 0.9724 0.5109
-0.3791 0.9596 0.5110
-0.4133 0.9456 0.5110
-0.4471 0.9304 0.5111
-0.4803 0.9141 0.5112
-0.5129 0.8965 0.5113
-0.5448 0.8778 0.5114
-0.5762 0.8580 0.5114
-0.6068 0.8371 0.5115
-0.6366 0.8151 0.5116
-0.6657 0.7921 0.5117
-0.6939 0.7680 0.5118
-0.7213 0.7429 0.5120
-0.7478 0.7169 0.5121
-0.7733 0.6900 0.5122
-0.7979 0.6621 0.5123
-0.8215 0.6334 0.5124
-2.8008 2.0036 1.7006
-2.8714 1.9024 1.7006
-2.9384 1.7987 1.7005
-3.0018 1.6927 1.7005
-3.0613 1.5845 1.7004
-3.1169 1.4742 1.7004
-3.1686 1.3620 1.7004
-3.2163 1.2480 1.7003
-3.2599 1.1323 1.7003
-3.2994 1.0152 1.7003
-3.3347 0.8966 1.7003
-3.3658 0.7769 1.7003
-3.3926 0.6561 1.7003
-3.4150 0.5344 1.7003
-3.4332 0.4119 1.7003
-3.4469 0.2888 1.7003
-3.4562 0.1653 1.7003
-3.4611 0.0415 1.7003
-0.7868 -3.2118 1.7003
-0.6717 -3.2383 1.7003
-0.5557 -3.2606 1.7003
-0.4389 -3.2786 1.7003
-0.3215 -3.2925 1.7003
-0.2038 -3.3021 1.7003
-0.0857 -3.3075 1.7003
0.0325 -3.3086 1.7003
0.1506 -3.3055 1.7003
0.2686 -3.2981 1.7003
0.3862 -3.2864 1.7003
0.5033 -3.2705 1.7003
0.6198 -3.2504 1.7003
0.7355 -3.2261 1.7003
0.8502 -3.1977 1.7003
0.9638 -3.1651 1.7003
1.0762 -3.1285 1.7003
1.1872 -3.0878 1.7003
1.2966 -3.0434 1.7004
1.4045 -2.9950 1.7005
1.5105 -2.9428 1.7006
1.6145 -2.8868 1.7007
1.7165 -2.8271 1.7008
1.8162 -2.7638 1.7010
1.9136 -2.6968 1.7010
2.0083 -2.6262 1.7010
2.1005 -2.5523 1.7010
2.1899 -2.4752 1.7010
2.2765 -2.3949 1.7009
2.3601 -2.3115 1.7009
2.4406 -2.2252 1.7009
2.5180 -2.1361 1.7009
2.5921 -2.0443 1.7009
2.6630 -1.9500 1.7010
2.7305 -1.8532 1.7011
2.7944 -1.7541 1.7012
2.8548 -1.6528 1.7014
2.9114 -1.5494 1.7014
2.9640 -1.4439 1.7014
3.0129 -1.3366 1.7014
3.0579 -1.2277 1.7014
3.0989 -1.1173 1.7014
3.1359 -1.0055 1.7014
3.1689 -0.8924 1.7014
3.1978 -0.7783 1.7014
3.2225 -0.6632 1.7015
3.2432 -0.5474 1.7015
3.2597 -0.4309 1.7015
3.2720 -0.3139 1.7015
3.2800 -0.1967 1.7015
3.2839 -0.0792 1.7016
3.2836 0.0384 1.7016
3.2790 0.1558 1.7016
3.2703 0.2729 1.7016
3.2574 0.3896 1.7017
3.2403 0.5058 1.7017
3.2191 0.6212 1.7017
3.1938 0.7358 1.7018
3.1644 0.8494 1.7018
3.1310 0.9618 1.7018
3.0936 1.0729 1.7019
3.0523 1.1826 1.7019
3.0070 1.2908 1.7020
2.9580 1.3972 1.7020
2.9052 1.5018 1.7021
2.8488 1.6044 1.7021
2.7887 1.7049 1.7022
0.8194 0.5422 0.5118
0.7991 0.5709 0.5117
0.7777 0.5989 0.5117
0.7554 0.6261 0.5116
0.7322 0.6524 0.5115
0.7080 0.6780 0.5114
0.6830 0.7026 0.5113
0.6571 0.7263 0.5112
0.6304 0.7491 0.5112
0.6029 0.7709 0.5111
0.5747 0.7917 0.5110
0.5458 0.8115 0.5110
0.5162 0.8303 0.5109
0.4859 0.8480 0.5109
0.4551 0.8647 0.5108
0.4237 0.8802 0.5108
0.3918 0.8946 0.5108
0.3594 0.9078 0.5107
0.3265 0.9199 0.5107
0.2933 0.9309 0.5107
0.2597 0.9406 0.5107
0.2257 0.9492 0.5107
0.1915 0.9565 0.5106
0.1571 0.9627 0.5106
0.1225 0.9676 0.5106
0.0877 0.9713 0.5106
0.0528 0.9738 0.5107
0.0178 0.9750 0.5107
-0.0171 0.9750 0.5107
-0.0521 0.9738 0.5107
-0.0870 0.9713 0.5107
-0.1218 0.9676 0.5108
-0.1564 0.9627 0.5108
-0.1908 0.9566 0.5109
-0.2250 0.9492 0.5109
-0.2590 0.9407 0.5110
-0.2926 0.9310 0.5110
-0.3258 0.9200 0.5111
-0.3587 0.9079 0.5111
-0.3911 0.8947 0.5112
-0.4230 0.8803 0.5113
-0.4544 0.8648 0.5114
-0.4853 0.8482 0.5114
-0.5155 0.8305 0.5115
-0.5451 0.8117 0.5116
-0.5741 0.7919 0.5117
-0.6023 0.7711 0.5118
-0.6298 0.7493 0.5119
-0.6565 0.7265 0.5120
-0.6824 0.7028 0.5121
-0.7074 0.6782 0.5122
-0.7316 0.6526 0.5123
-0.7549 0.6263 0.5124
-0.7772 0.5991 0.5125
-0.7985 0.5711 0.5126
-0.8189 0.5424 0.5128
-0.8382 0.5130 0.5129
-2.8391 1.6007 1.7006
-2.8954 1.4983 1.7006
-2.9480 1.3940 1.7005
-2.9969 1.2878 1.7005
-3.0419 1.1800 1.7005
-3.0831 1.0706 1.7005
-3.1204 0.9597 1.7004
-3.1537 0.8476 1.7004
-3.1830 0.7343 1.7004
-3.2083 0.6201 1.7004
-3.2295 0.5050 1.7004
-3.2466 0.3892 1.7004
-3.2595 0.2727 1.7004
-3.2683 0.1559 1.7004
-3.2729 0.0389 1.7004
-0.7450 -3.0414 1.7003
-0.6359 -3.0665 1.7003
-0.5261 -3.0876 1.7003
-0.4155 -3.1047 1.7003
-0.3044 -3.1178 1.7003
-0.1929 -3.1269 1.7003
-0.0811 -3.1320 1.7003
0.0308 -3.1330 1.7003
0.1427 -3.1300 1.7003
0.2544 -3.1230 1.7003
0.3657 -3.1120 1.7003
0.4766 -3.0969 1.7003
0.5869 -3.0779 1.7003
0.6964 -3.0549 1.7003
0.8050 -3.0280 1.7003
0.9126 -2.9971 1.7003
1.0190 -2.9625 1.7004
1.1241 -2.9242 1.7005
1.2278 -2.8821 1.7005
1.3299 -2.8363 1.7006
1.4303 -2.7869 1.7007
1.5288 -2.7339 1.7009
1.6254 -2.6773 1.7010
1.7199 -2.6174 1.7011
1.8120 -2.5539 1.7011
1.9017 -2.4871 1.7010
1.9890 -2.4172 1.7010
2.0737 -2.3441 1.7010
2.1557 -2.2681 1.7010
2.2349 -2.1892 1.7010
2.3111 -2.1075 1.7010
2.3844 -2.0231 1.7010
2.4547 -1.9362 1.7010
2.5219 -1.8470 1.7011
0.7841 -0.5323 0.5159
0.8023 -0.5037 0.5158
0.8193 -0.4745 0.5156
2.7572 -1.4677 1.7016
2.8072 -1.3678 1.7016
2.8535 -1.2662 1.7015
2.8961 -1.1631 1.7015
2.9350 -1.0585 1.7016
2.9700 -0.9526 1.7016
3.0013 -0.8456 1.7016
3.0287 -0.7375 1.7016
3.0522 -0.6285 1.7016
3.0718 -0.5188 1.7016
3.0875 -0.4085 1.7016
3.0992 -0.2977 1.7017
3.1068 -0.1866 1.7017
3.1106 -0.0753 1.7017
3.1103 0.0360 1.7017
3.1060 0.1472 1.7017
3.0978 0.2582 1.7018
3.0856 0.3687 1.7018
3.0695 0.4788 1.7018
3.0494 0.5881 1.7019
3.0255 0.6967 1.7019
2.9977 0.8043 1.7019
2.9661 0.9108 1.7020
2.9307 1.0161 1.7020
2.8916 1.1200 1.7020
2.8488 1.2225 1.7021
2.8024 1.3233 1.7021
0.8283 0.4281 0.5123
0.8120 0.4572 0.5122
0.7948 0.4858 0.5121
0.7765 0.5137 0.5120
0.7572 0.5409 0.5119
0.7370 0.5674 0.5118
0.7159 0.5932 0.5117
0.6939 0.6182 0.5116
0.6710 0.6424 0.5115
0.6473 0.6658 0.5115
0.6228 0.6883 0.5114
0.5975 0.7099 0.5113
0.5714 0.7305 0.5113
0.5447 0.7503 0.5112
0.5173 0.7691 0.5112
0.4892 0.7869 0.5111
0.4606 0.8037 0.5111
0.4314 0.8194 0.5110
0.4016 0.8342 0.5110
0.3713 0.8478 0.5109
0.3406 0.8604 0.5109
0.3095 0.8719 0.5109
0.2780 0.8822 0.5109
0.2461 0.8915 0.5109
0.2140 0.8996 0.5108
