ply
format ascii 1.0
element vertex 2190
property float32 x
property float32 y
property float32 z
end_header
9.4244 -13.9983 1.6154
9.9207 -13.6498 1.6154
10.4041 -13.2836 1.6154
10.8739 -12.9003 1.6154
11.3296 -12.5003 1.6154
11.7705 -12.0842 1.6154
12.1961 -11.6525 1.6154
12.6059 -11.2058 1.6154
12.9992 -10.7447 1.6154
13.3757 -10.2697 1.6154
13.7348 -9.7815 1.6154
14.0760 -9.2808 1.6154
14.3990 -8.7682 1.6154
14.7033 -8.2443 1.6154
14.9673 -7.6989 1.6131
15.1735 -7.1276 1.6069
15.3716 -6.5572 1.6020
15.5523 -5.9833 1.5976
15.6930 -5.3985 1.5912
15.7982 -4.8072 1.5835
15.9167 -4.2248 1.5793
16.0205 -3.6415 1.5758
16.1081 -3.0573 1.5728
16.1963 -2.4748 1.5719
16.2874 -1.8927 1.5733
16.3894 -1.3098 1.5778
16.4525 -0.7212 1.5805
16.5040 -0.1298 1.5842
16.5373 0.4644 1.5881
16.5524 1.0611 1.5924
16.5490 1.6597 1.5970
16.5172 2.2586 1.6009
16.4742 2.8591 1.6059
16.4110 3.4598 1.6110
16.3188 4.0579 1.6154
16.1307 4.6325 1.6124
15.9549 5.2095 1.6127
15.7691 5.7838 1.6141
15.5619 6.3511 1.6154
15.3219 6.9054 1.6154
15.0622 7.4507 1.6154
14.7830 7.9862 1.6154
14.4850 8.5113 1.6154
14.1683 9.0253 1.6154
13.8334 9.5276 1.6154
13.4807 10.0175 1.6154
13.1107 10.4944 1.6154
12.7239 10.9577 1.6154
12.3208 11.4068 1.6154
11.9019 11.8410 1.6154
11.4677 12.2600 1.6154
11.0188 12.6630 1.6154
10.5557 13.0497 1.6154
10.0792 13.4195 1.6154
9.5897 13.7720 1.6154
9.0880 14.1067 1.6154
8.5746 14.4231 1.6154
8.0503 14.7210 1.6154
4.0220 8.0272 0.8645
6.8717 15.0412 1.5923
6.3264 15.2776 1.5923
5.7731 15.4943 1.5923
5.2123 15.6910 1.5923
4.6449 15.8674 1.5923
4.0716 16.0235 1.5923
3.5572 16.4558 1.6216
3.0984 17.3271 1.6954
2.4738 17.4268 1.6954
1.8459 17.5040 1.6954
1.2157 17.5587 1.6954
0.5839 17.5909 1.6954
-0.0486 17.6003 1.6954
-0.6810 17.5871 1.6954
-1.3125 17.5513 1.6954
-1.9424 17.4929 1.6954
-2.5697 17.4119 1.6954
-3.1938 17.3086 1.6954
-3.8137 17.1829 1.6954
-4.4288 17.0351 1.6954
-4.7314 15.8383 1.5922
-5.2976 15.6585 1.5922
-5.8571 15.4586 1.5922
-6.4090 15.2387 1.5922
-6.7498 14.5614 1.5457
-7.0888 13.9552 1.5073
-7.5450 13.6181 1.4992
-4.7154 7.8329 0.8804
-8.2246 12.6131 1.4498
-7.5956 10.7809 1.2697
-7.9793 10.5026 1.2698
-8.2855 10.1284 1.2597
-7.8998 8.9781 1.1512
-7.7204 8.1631 1.0815
-7.6511 7.5285 1.0331
-7.6592 7.0129 0.9994
-7.6188 6.4884 0.9630
-7.7107 6.1025 0.9462
-7.8151 5.7407 0.9330
-5.3287 3.6269 0.6201
-7.8826 4.9604 0.8959
-7.9645 4.6210 0.8857
-8.0450 4.2889 0.8768
-8.1342 3.9679 0.8703
-8.2506 3.6638 0.8680
-8.3671 3.3610 0.8669
-8.4642 3.0516 0.8649
-8.4130 2.6957 0.8492
-8.3630 2.3519 0.8350
-8.2681 2.0076 0.8176
-8.2189 1.6854 0.8062
-8.1712 1.3717 0.7960
-8.1623 1.0703 0.7908
-8.2398 0.7805 0.7950
-8.3184 0.4872 0.8003
-7.3786 0.1665 0.7088
-7.2601 -0.0972 0.6972
-7.2944 -0.3601 0.7012
-7.3152 -0.6253 0.7048
-2.3108 -14.1232 1.6954
-1.8019 -14.1974 1.6954
-1.2906 -14.2532 1.6954
-0.7776 -14.2905 1.6954
-0.2637 -14.3094 1.6954
0.2507 -14.3097 1.6954
0.7647 -14.2915 1.6954
1.2777 -14.2547 1.6954
1.7891 -14.1996 1.6954
2.2981 -14.1260 1.6954
2.8042 -14.0341 1.6954
3.3066 -13.9241 1.6954
3.8047 -13.7960 1.6954
4.0365 -12.8201 1.5923
4.4944 -12.6665 1.5923
4.9465 -12.4964 1.5923
5.3921 -12.3102 1.5923
5.8308 -12.1081 1.5923
6.2618 -11.8903 1.5923
6.6848 -11.6571 1.5923
4.1947 -6.7414 0.9409
7.5040 -11.1459 1.5923
7.8992 -10.8685 1.5923
8.4043 -10.7305 1.6154
8.7840 -10.4210 1.6154
9.1522 -10.0980 1.6154
9.5085 -9.7620 1.6154
9.8525 -9.4134 1.6154
10.1837 -9.0527 1.6154
10.5016 -8.6803 1.6154
10.8060 -8.2968 1.6154
11.0963 -7.9025 1.6154
11.3722 -7.4981 1.6154
11.6333 -7.0841 1.6154
11.8794 -6.6610 1.6154
12.1100 -6.2293 1.6154
12.3250 -5.7896 1.6154
12.5240 -5.3426 1.6154
12.7067 -4.8887 1.6154
12.8730 -4.4285 1.6154
13.0226 -3.9628 1.6154
13.1554 -3.4919 1.6154
13.2711 -3.0167 1.6154
13.3697 -2.5376 1.6154
13.4509 -2.0554 1.6154
13.5148 -1.5706 1.6154
13.5612 -1.0838 1.6154
13.5900 -0.5958 1.6154
13.6013 -0.1071 1.6154
13.5951 0.3817 1.6154
13.5712 0.8699 1.6154
13.5299 1.3568 1.6154
13.4711 1.8419 1.6154
13.3949 2.3246 1.6154
13.3014 2.8041 1.6154
13.1908 3.2800 1.6154
13.0631 3.7515 1.6154
12.9187 4.2180 1.6154
12.7575 4.6791 1.6154
12.5800 5.1340 1.6154
12.3862 5.5822 1.6154
12.1765 6.0232 1.6154
11.9512 6.4562 1.6154
11.7104 6.8809 1.6154
11.4546 7.2966 1.6154
11.1841 7.7029 1.6154
10.8991 8.0991 1.6154
10.6002 8.4848 1.6154
10.2877 8.8595 1.6154
9.9619 9.2228 1.6154
9.6234 9.5741 1.6154
9.2724 9.9130 1.6154
8.9096 10.2391 1.6154
8.5353 10.5519 1.6154
8.1501 10.8511 1.6154
7.6436 10.9771 1.5923
7.2438 11.2440 1.5923
6.8347 11.4964 1.5923
6.4168 11.7339 1.5923
3.9601 7.9037 1.0526
5.5569 12.1633 1.5923
5.1161 12.3546 1.5923
4.6686 12.5299 1.5923
4.2152 12.6891 1.5923
3.7564 12.8320 1.5923
3.5059 13.7972 1.6954
3.0078 13.9139 1.6954
2.5058 14.0126 1.6954
2.0006 14.0933 1.6954
1.4928 14.1559 1.6954
0.9832 14.2001 1.6954
0.4722 14.2262 1.6954
-0.0393 14.2339 1.6954
-0.5507 14.2232 1.6954
-1.0615 14.1942 1.6954
-1.5708 14.1469 1.6954
-2.0782 14.0815 1.6954
-2.5829 13.9978 1.6954
-3.0843 13.8962 1.6954
-3.5817 13.7766 1.6954
-4.0745 13.6393 1.6954
-4.4412 13.1269 1.6505
-4.7367 12.5014 1.5922
-5.1830 12.3235 1.5922
-5.6227 12.1297 1.5922
-6.0551 11.9203 1.5922
-6.4799 11.6955 1.5922
-4.6740 7.7641 1.0791
-7.3038 11.2009 1.5922
-7.7019 10.9317 1.5922
-7.9988 10.5281 1.5742
-8.0603 9.8530 1.5155
-7.5520 8.5828 1.3609
-7.4958 7.9255 1.2985
-7.5012 7.3809 1.2526
-7.5582 6.9204 1.2197
-7.5713 6.4478 1.1835
-7.6698 6.0700 1.1640
-7.7827 5.7169 1.1491
-5.3246 3.6241 0.7664
-7.9056 4.9748 1.1113
-7.9892 4.6352 1.0988
-8.0711 4.3028 1.0880
-8.1094 3.9558 1.0732
-8.2264 3.6530 1.0705
-8.3427 3.3511 1.0692
-8.3994 3.0282 1.0617
-8.3460 2.6741 1.0421
-8.2940 2.3324 1.0243
-8.2551 2.0044 1.0099
-8.2104 1.6836 0.9963
-8.1666 1.3709 0.9843
-8.1394 1.0672 0.9756
-8.2114 0.7777 0.9802
-8.2610 0.4837 0.9833
-7.2985 0.1646 0.8674
-7.2142 -0.0966 0.8571
-7.2480 -0.3578 0.8620
-7.2995 -0.6240 0.8702
-1.9364 -11.8353 1.6954
-1.5100 -11.8974 1.6954
-1.0815 -11.9441 1.6954
-0.6517 -11.9754 1.6954
-0.2209 -11.9912 1.6954
0.2101 -11.9915 1.6954
0.6408 -11.9762 1.6954
1.0707 -11.9454 1.6954
1.4992 -11.8992 1.6954
1.9258 -11.8375 1.6954
2.3499 -11.7606 1.6954
2.7709 -11.6684 1.6954
3.1883 -11.5611 1.6954
3.6016 -11.4389 1.6954
3.9969 -11.2643 1.6898
4.1452 -10.4722 1.5923
4.5187 -10.3162 1.5923
4.8863 -10.1469 1.5923
5.2476 -9.9644 1.5923
5.6020 -9.7691 1.5923
4.1869 -6.7288 1.1206
6.2886 -9.3408 1.5923
6.6199 -9.1084 1.5923
6.9426 -8.8643 1.5923
7.2563 -8.6087 1.5923
7.5605 -8.3419 1.5923
7.8550 -8.0645 1.5923
8.2573 -7.8894 1.6154
8.5349 -7.5871 1.6154
8.8015 -7.2751 1.6154
9.0567 -6.9537 1.6154
9.3001 -6.6234 1.6154
9.5314 -6.2845 1.6154
9.7504 -5.9376 1.6154
9.9568 -5.5830 1.6154
10.1503 -5.2213 1.6154
10.3306 -4.8528 1.6154
10.4975 -4.4782 1.6154
10.6508 -4.0978 1.6154
10.7904 -3.7122 1.6154
10.9160 -3.3218 1.6154
11.0274 -2.9272 1.6154
11.1246 -2.5288 1.6154
11.2073 -2.1273 1.6154
11.2756 -1.7231 1.6154
11.3294 -1.3167 1.6154
11.3684 -0.9087 1.6154
11.3928 -0.4995 1.6154
11.4024 -0.0898 1.6154
11.3974 0.3199 1.6154
11.3775 0.7292 1.6154
11.3431 1.1374 1.6154
11.2939 1.5442 1.6154
11.2302 1.9488 1.6154
11.1520 2.3509 1.6154
11.0594 2.7499 1.6154
10.9526 3.1453 1.6154
10.8316 3.5365 1.6154
10.6967 3.9231 1.6154
10.5480 4.3046 1.6154
10.3857 4.6805 1.6154
10.2100 5.0503 1.6154
10.0212 5.4135 1.6154
9.8195 5.7697 1.6154
9.6051 6.1184 1.6154
9.3784 6.4591 1.6154
9.1396 6.7915 1.6154
8.8890 7.1150 1.6154
8.6270 7.4293 1.6154
8.3539 7.7340 1.6154
8.0701 8.0287 1.6154
7.6648 8.1942 1.5923
7.3649 8.4638 1.5923
7.0556 8.7225 1.5923
6.7373 8.9699 1.5923
6.4103 9.2058 1.5923
6.0750 9.4297 1.5923
5.7320 9.6414 1.5923
5.3816 9.8408 1.5923
3.9559 7.8951 1.2537
4.6605 10.2010 1.5923
4.2908 10.3615 1.5923
3.9155 10.5086 1.5923
3.6411 10.9607 1.6400
3.3544 11.4588 1.6954
2.9404 11.5717 1.6954
0.7287 3.3710 0.4898
0.6069 3.3939 0.4896
0.4844 3.4125 0.4895
0.3614 3.4270 0.4894
0.2380 3.4372 0.4893
0.1143 3.4433 0.4893
-0.0095 3.4451 0.4893
-0.1333 3.4427 0.4893
-0.2570 3.4361 0.4893
-0.3803 3.4252 0.4894
-0.5033 3.4102 0.4895
-0.6257 3.3910 0.4897
-0.7474 3.3676 0.4899
-3.0040 11.5545 1.6954
-3.4173 11.4393 1.6954
-3.8263 11.3094 1.6954
-4.2303 11.1648 1.6954
-4.4059 10.4758 1.6137
-4.7157 10.1730 1.5922
-5.0784 9.9973 1.5922
-5.4345 9.8087 1.5922
-4.6688 7.7555 1.2852
-6.1255 9.3938 1.5922
-6.4594 9.1680 1.5922
-6.7849 8.9304 1.5922
-7.1018 8.6812 1.5922
-7.4095 8.4208 1.5922
-7.3483 7.7695 1.5179
-7.3950 7.2763 1.4725
-7.4412 6.8131 1.4319
-7.5256 6.4089 1.4028
-7.6227 6.0327 1.3795
-7.7504 5.6931 1.3646
-5.3205 3.6213 0.9131
-7.9261 4.9876 1.3287
-8.0096 4.6470 1.3137
-8.0298 4.2807 1.2909
-8.0644 3.9338 1.2728
-8.1809 3.6327 1.2696
-8.2934 3.3313 1.2676
-8.3424 3.0076 1.2576
-8.2903 2.6563 1.2345
-8.2520 2.3205 1.2155
-8.2179 1.9953 1.1990
-8.1740 1.6761 1.1830
-8.1164 1.3624 1.1667
-8.0464 1.0549 1.1503
-8.1171 0.7687 1.1557
-8.0135 0.4692 1.1377
-7.2437 0.1633 1.0268
-7.1854 -0.0963 1.0183
-7.2292 -0.3570 1.0256
-7.2977 -0.6239 1.0377
-1.6650 -10.1762 1.6954
-1.2983 -10.2296 1.6954
-0.9299 -10.2698 1.6954
-0.5603 -10.2967 1.6954
-0.1900 -10.3102 1.6954
0.1806 -10.3105 1.6954
0.5510 -10.2973 1.6954
0.9206 -10.2709 1.6954
1.2891 -10.2311 1.6954
1.6558 -10.1781 1.6954
2.0205 -10.1120 1.6954
2.3825 -10.0327 1.6954
2.7414 -9.9405 1.6954
3.0967 -9.8354 1.6954
3.4481 -9.7176 1.6954
3.7949 -9.5873 1.6954
3.9654 -9.0531 1.6251
4.2014 -8.7247 1.5923
4.5120 -8.5678 1.5923
4.8168 -8.3999 1.5923
4.1790 -6.7162 1.3008
5.4073 -8.0317 1.5923
5.6921 -7.8320 1.5923
5.9697 -7.6221 1.5923
6.2394 -7.4023 1.5923
6.5011 -7.1730 1.5923
6.7543 -6.9345 1.5923
6.9988 -6.6870 1.5923
7.2342 -6.4309 1.5923
7.4602 -6.1665 1.5923
7.6765 -5.8941 1.5923
7.8829 -5.6142 1.5923
8.1963 -5.4043 1.6154
8.3847 -5.1060 1.6154
8.5622 -4.8011 1.6154
8.7287 -4.4901 1.6154
8.8838 -4.1733 1.6154
9.0274 -3.8511 1.6154
9.1594 -3.5240 1.6154
9.2795 -3.1925 1.6154
9.3876 -2.8568 1.6154
9.4835 -2.5174 1.6154
9.5672 -2.1749 1.6154
9.6385 -1.8296 1.6154
9.6973 -1.4820 1.6154
9.7436 -1.1325 1.6154
9.7774 -0.7816 1.6154
9.7984 -0.4297 1.6154
9.8068 -0.0773 1.6154
9.8026 0.2751 1.6154
9.7857 0.6271 1.6154
9.7561 0.9782 1.6154
9.7140 1.3281 1.6154
9.6593 1.6762 1.6154
9.5921 2.0220 1.6154
9.5126 2.3652 1.6154
9.4208 2.7053 1.6154
9.3169 3.0419 1.6154
9.2009 3.3745 1.6154
9.0731 3.7026 1.6154
8.9336 4.0260 1.6154
8.7825 4.3441 1.6154
8.6202 4.6566 1.6154
8.4468 4.9631 1.6154
8.2624 5.2630 1.6154
8.0675 5.5562 1.6154
7.8621 5.8421 1.6154
7.5374 6.0330 1.5923
7.3153 6.2996 1.5923
7.0838 6.5581 1.5923
6.8432 6.8080 1.5923
6.5938 7.0492 1.5923
6.3359 7.2812 1.5923
6.0698 7.5038 1.5923
5.7960 7.7167 1.5923
5.5147 7.9196 1.5923
5.2264 8.1123 1.5923
4.9313 8.2945 1.5923
4.6298 8.4661 1.5923
3.9516 7.8864 1.4557
4.0095 8.7761 1.5923
3.6915 8.9142 1.5923
3.5867 9.6262 1.6954
3.2384 9.7486 1.6954
0.8399 2.8690 0.4934
0.7359 2.8962 0.4932
0.6312 2.9197 0.4930
0.5257 2.9396 0.4929
0.4196 2.9559 0.4928
0.3131 2.9685 0.4927
0.2062 2.9775 0.4927
0.0990 2.9827 0.4926
-0.0082 2.9843 0.4926
-0.1155 2.9822 0.4926
-0.2226 2.9764 0.4927
-0.3295 2.9670 0.4928
-0.4359 2.9538 0.4929
-0.5419 2.9371 0.4930
-0.6474 2.9166 0.4931
-0.7520 2.8926 0.4933
-2.9401 9.8417 1.6954
-3.2919 9.7299 1.6954
-3.6395 9.6055 1.6954
-3.9824 9.4687 1.6954
-4.3202 9.3197 1.6954
-4.3807 8.6238 1.5964
-4.6755 8.4386 1.5922
-4.6636 7.7467 1.4922
-5.2699 8.0816 1.5922
-5.5571 7.8873 1.5922
-5.8371 7.6828 1.5922
-6.1097 7.4684 1.5922
-6.3744 7.2443 1.5922
-6.6309 7.0109 1.5922
-6.8789 6.7684 1.5922
-7.1180 6.5172 1.5922
-7.3480 6.2575 1.5922
-7.5685 5.9897 1.5922
-7.7118 5.6646 1.5783
-5.3164 3.6184 1.0607
-7.9468 5.0006 1.5486
-8.0086 4.6464 1.5270
-7.9779 4.2529 1.4909
-8.0197 3.9119 1.4714
-8.1341 3.6119 1.4675
-8.2438 3.3113 1.4648
-8.2858 2.9871 1.4521
-8.2387 2.6396 1.4262
-8.2145 2.3099 1.4067
-8.1809 1.9862 1.3877
-8.1376 1.6686 1.3692
-8.0258 1.3471 1.3413
-7.9549 1.0429 1.3222
-8.0244 0.7599 1.3283
-7.6694 0.4490 1.2659
-7.2185 0.1627 1.1897
-7.1567 -0.0960 1.1792
-7.2135 -0.3563 1.1898
-7.2787 -0.6223 1.2034
-1.4589 -8.9170 1.6954
-1.1376 -8.9638 1.6954
-0.8148 -8.9990 1.6954
-0.4909 -9.0225 1.6954
-0.1664 -9.0344 1.6954
0.1583 -9.0345 1.6954
0.4828 -9.0230 1.6954
0.8067 -8.9998 1.6954
1.1295 -8.9650 1.6954
1.4509 -8.9186 1.6954
1.7704 -8.8606 1.6954
2.0876 -8.7912 1.6954
2.4021 -8.7104 1.6954
2.7135 -8.6184 1.6954
3.0214 -8.5152 1.6954
3.3253 -8.4010 1.6954
3.6249 -8.2759 1.6954
3.9199 -8.1401 1.6954
3.9537 -7.5077 1.5923
4.2208 -7.3606 1.5923
4.1711 -6.7036 1.4817
4.7383 -7.0380 1.5923
4.9879 -6.8630 1.5923
5.2311 -6.6791 1.5923
5.4675 -6.4866 1.5923
5.6968 -6.2857 1.5923
5.9188 -6.0767 1.5923
6.1330 -5.8599 1.5923
6.3393 -5.6355 1.5923
6.5374 -5.4038 1.5923
6.7271 -5.1652 1.5923
6.9080 -4.9199 1.5923
7.0799 -4.6683 1.5923
7.2427 -4.4107 1.5923
7.3961 -4.1473 1.5923
7.5400 -3.8787 1.5923
7.6741 -3.6051 1.5923
7.7982 -3.3268 1.5923
8.0270 -3.0884 1.6154
8.1323 -2.7978 1.6154
8.2271 -2.5037 1.6154
8.3113 -2.2063 1.6154
8.3847 -1.9061 1.6154
8.4472 -1.6035 1.6154
8.4989 -1.2989 1.6154
8.5395 -0.9926 1.6154
8.5691 -0.6851 1.6154
8.5877 -0.3767 1.6154
8.5951 -0.0679 1.6154
8.5915 0.2410 1.6154
8.5767 0.5496 1.6154
8.5509 0.8573 1.6154
8.5140 1.1640 1.6154
8.4661 1.4690 1.6154
8.4074 1.7722 1.6154
8.3377 2.0730 1.6154
8.2573 2.3711 1.6154
8.1663 2.6662 1.6154
8.0647 2.9577 1.6154
7.9528 3.2454 1.6154
7.7186 3.4784 1.5923
7.5882 3.7533 1.5923
7.4480 4.0233 1.5923
7.2982 4.2881 1.5923
7.1390 4.5474 1.5923
6.9706 4.8007 1.5923
6.7932 5.0478 1.5923
6.6071 5.2884 1.5923
6.4125 5.5221 1.5923
6.2096 5.7487 1.5923
5.9987 5.9678 1.5923
5.7801 6.1792 1.5923
5.5541 6.3827 1.5923
5.3209 6.5778 1.5923
5.0809 6.7645 1.5923
4.8343 6.9424 1.5923
4.5816 7.1114 1.5923
4.3229 7.2712 1.5923
4.0587 7.4216 1.5923
3.7892 7.5624 1.5923
3.6869 8.0698 1.6702
3.4456 8.3205 1.6954
3.1443 8.4387 1.6954
0.8307 2.5006 0.4961
0.7400 2.5278 0.4959
0.6485 2.5519 0.4957
0.5562 2.5727 0.4956
0.4632 2.5903 0.4955
0.3698 2.6048 0.4954
0.2759 2.6159 0.4953
0.1817 2.6239 0.4952
0.0873 2.6285 0.4952
-0.0073 2.6299 0.4952
-0.1018 2.6281 0.4952
-0.1961 2.6229 0.4953
-0.2903 2.6145 0.4953
-0.3842 2.6029 0.4954
-0.4776 2.5880 0.4955
-0.5704 2.5699 0.4957
-0.6626 2.5486 0.4958
-0.7541 2.5241 0.4960
-2.8859 8.5297 1.6954
-3.1906 8.4206 1.6954
-3.4912 8.3007 1.6954
-3.7873 8.1701 1.6954
-4.0785 8.0289 1.6954
-4.3568 7.8633 1.6924
-4.3620 7.2458 1.5922
-4.6197 7.0845 1.5922
-4.8715 6.9142 1.5922
-5.1170 6.7349 1.5922
-5.3559 6.5469 1.5922
-5.5879 6.3505 1.5922
-5.8127 6.1458 1.5922
-6.0301 5.9332 1.5922
-6.2397 5.7129 1.5922
-6.4412 5.4853 1.5922
-6.6345 5.2505 1.5922
-6.8192 5.0090 1.5922
-5.3122 3.6155 1.2091
-7.1620 4.5067 1.5922
-7.3198 4.2467 1.5922
-7.4680 3.9811 1.5922
-7.6067 3.7104 1.5922
-7.7355 3.4348 1.5922
-7.8544 3.1548 1.5922
-7.9631 2.8707 1.5922
-8.0616 2.5829 1.5922
-8.1497 2.2916 1.5922
-8.1439 1.9772 1.5760
-8.0604 1.6527 1.5473
-7.9365 1.3321 1.5132
-7.8649 1.0310 1.4914
-7.9331 0.7512 1.4982
-7.2223 0.4228 1.3601
-7.1563 0.1612 1.3456
-7.1280 -0.0956 1.3400
-7.1877 -0.3550 1.3527
-7.2596 -0.6207 1.3694
-1.2971 -7.9277 1.6954
-1.0114 -7.9692 1.6954
-0.7244 -8.0005 1.6954
-0.4365 -8.0214 1.6954
-0.1480 -8.0320 1.6954
0.1407 -8.0321 1.6954
0.4292 -8.0219 1.6954
0.7172 -8.0013 1.6954
1.0042 -7.9703 1.6954
1.2899 -7.9291 1.6954
1.5740 -7.8775 1.6954
1.8560 -7.8158 1.6954
2.1356 -7.7440 1.6954
2.4124 -7.6622 1.6954
2.6861 -7.5704 1.6954
2.9564 -7.4689 1.6954
3.2228 -7.3577 1.6954
3.4850 -7.2370 1.6954
3.7427 -7.1070 1.6954
3.9260 -6.8466 1.6659
3.9852 -6.4048 1.5923
4.2126 -6.2573 1.5923
4.4346 -6.1018 1.5923
4.6508 -5.9383 1.5923
4.8610 -5.7672 1.5923
5.0649 -5.5886 1.5923
5.2623 -5.4028 1.5923
5.4528 -5.2100 1.5923
5.6362 -5.0105 1.5923
5.8124 -4.8046 1.5923
5.9810 -4.5924 1.5923
6.1419 -4.3744 1.5923
6.2948 -4.1507 1.5923
6.4396 -3.9216 1.5923
6.5761 -3.6875 1.5923
6.7040 -3.4487 1.5923
6.8232 -3.2054 1.5923
6.9337 -2.9580 1.5923
7.0351 -2.7068 1.5923
7.1275 -2.4522 1.5923
7.2106 -2.1944 1.5923
7.2844 -1.9338 1.5923
7.3488 -1.6707 1.5923
7.4036 -1.4055 1.5923
7.4489 -1.1385 1.5923
7.4846 -0.8700 1.5923
7.5106 -0.6005 1.5923
7.5269 -0.3302 1.5923
7.5335 -0.0595 1.5923
7.5304 0.2112 1.5923
7.5175 0.4816 1.5923
7.4949 0.7514 1.5923
7.4626 1.0202 1.5923
7.4207 1.2876 1.5923
7.3692 1.5533 1.5923
7.3083 1.8170 1.5923
7.2378 2.0783 1.5923
7.1581 2.3370 1.5923
7.0691 2.5925 1.5923
6.9710 2.8447 1.5923
6.8639 3.0932 1.5923
6.7480 3.3377 1.5923
6.6233 3.5778 1.5923
6.4902 3.8133 1.5923
6.3486 4.0439 1.5923
6.1989 4.2692 1.5923
6.0412 4.4890 1.5923
5.8757 4.7029 1.5923
5.7027 4.9108 1.5923
5.5223 5.1123 1.5923
5.3348 5.3072 1.5923
5.1404 5.4953 1.5923
4.9394 5.6762 1.5923
4.7321 5.8498 1.5923
4.5186 6.0159 1.5923
4.2994 6.1741 1.5923
4.0746 6.3244 1.5923
3.8446 6.4665 1.5923
3.7089 6.7820 1.6361
3.5882 7.1610 1.6954
3.3284 7.2851 1.6954
3.0644 7.3998 1.6954
0.8218 2.2055 0.4982
0.7417 2.2327 0.4980
0.6608 2.2571 0.4979
0.5790 2.2786 0.4977
0.4966 2.2973 0.4976
0.4137 2.3132 0.4975
0.3302 2.3261 0.4974
0.2464 2.3361 0.4973
0.1622 2.3432 0.4973
0.0779 2.3474 0.4972
-0.0065 2.3486 0.4972
-0.0909 2.3470 0.4973
-0.1752 2.3424 0.4973
-0.2593 2.3348 0.4974
-0.3430 2.3244 0.4974
-0.4265 2.3111 0.4975
-0.5094 2.2948 0.4977
-0.5917 2.2757 0.4978
-0.6733 2.2538 0.4980
-0.7541 2.2290 0.4982
-2.8376 7.4890 1.6954
-3.1049 7.3823 1.6954
-3.3683 7.2661 1.6954
-3.6273 7.1405 1.6954
-3.8816 7.0057 1.6954
-4.1310 6.8619 1.6954
-4.3373 6.6514 1.6808
-4.3414 6.1618 1.5955
-4.5508 5.9896 1.5922
-4.7632 5.8224 1.5922
-4.9696 5.6477 1.5922
-5.1695 5.4656 1.5922
-5.3627 5.2765 1.5922
-5.5491 5.0806 1.5922
-5.7283 4.8781 1.5922
-5.9002 4.6693 1.5922
-6.0644 4.4545 1.5922
-5.3080 3.6126 1.3585
-6.3692 4.0078 1.5922
-6.5095 3.7765 1.5922
-6.6413 3.5403 1.5922
-6.7645 3.2995 1.5922
-6.8791 3.0545 1.5922
-6.9848 2.8055 1.5922
-7.0814 2.5528 1.5922
-7.1690 2.2968 1.5922
-7.2472 2.0378 1.5922
-7.3162 1.7762 1.5922
-7.3757 1.5122 1.5922
-7.4257 1.2463 1.5922
-7.4661 0.9787 1.5922
-7.4969 0.7098 1.5922
-7.0929 0.4151 1.5021
-7.0947 0.1598 1.5002
-7.0992 -0.0953 1.5009
-7.1745 -0.3544 1.5184
-7.2940 -0.6237 1.5474
-1.1664 -7.1291 1.6954
-0.9095 -7.1665 1.6954
-0.6514 -7.1946 1.6954
-0.3925 -7.2134 1.6954
-0.1331 -7.2229 1.6954
0.1265 -7.2231 1.6954
0.3860 -7.2139 1.6954
0.6449 -7.1953 1.6954
0.9030 -7.1675 1.6954
1.1600 -7.1304 1.6954
1.4154 -7.0840 1.6954
1.6690 -7.0286 1.6954
1.9205 -6.9640 1.6954
2.1694 -6.8904 1.6954
2.4156 -6.8079 1.6954
2.6586 -6.7166 1.6954
2.8981 -6.6167 1.6954
3.1339 -6.5081 1.6954
3.3657 -6.3912 1.6954
3.5931 -6.2660 1.6954
3.8158 -6.1327 1.6954
3.9094 -5.8070 1.6432
3.9880 -5.4873 1.5923
4.1824 -5.3403 1.5923
4.3715 -5.1864 1.5923
4.5549 -5.0258 1.5923
4.7323 -4.8588 1.5923
4.9037 -4.6854 1.5923
5.0687 -4.5060 1.5923
5.2271 -4.3208 1.5923
5.3788 -4.1301 1.5923
5.5235 -3.9340 1.5923
5.6611 -3.7328 1.5923
5.7913 -3.5269 1.5923
5.9140 -3.3163 1.5923
6.0291 -3.1016 1.5923
6.1364 -2.8828 1.5923
6.2357 -2.6603 1.5923
6.3270 -2.4344 1.5923
6.4101 -2.2054 1.5923
6.4849 -1.9736 1.5923
6.5513 -1.7392 1.5923
6.6092 -1.5026 1.5923
6.6586 -1.2641 1.5923
6.6994 -1.0240 1.5923
6.7315 -0.7825 1.5923
6.7549 -0.5401 1.5923
6.7696 -0.2970 1.5923
6.7756 -0.0536 1.5923
6.7728 0.1899 1.5923
6.7612 0.4331 1.5923
6.7410 0.6758 1.5923
6.7120 0.9175 1.5923
6.6743 1.1580 1.5923
6.6281 1.3970 1.5923
6.5732 1.6342 1.5923
6.5100 1.8693 1.5923
6.4382 2.1019 1.5923
6.3582 2.3318 1.5923
6.2700 2.5586 1.5923
6.1737 2.7821 1.5923
6.0695 3.0020 1.5923
5.9574 3.2180 1.5923
5.8377 3.4299 1.5923
5.7104 3.6373 1.5923
5.5757 3.8400 1.5923
5.4339 4.0377 1.5923
5.2851 4.2301 1.5923
5.1295 4.4171 1.5923
4.9672 4.5984 1.5923
4.7986 4.7738 1.5923
4.6238 4.9429 1.5923
4.4430 5.1057 1.5923
4.2565 5.2619 1.5923
4.0645 5.4113 1.5923
3.8673 5.5536 1.5923
3.7287 5.7874 1.6199
3.6821 6.1933 1.6954
3.4571 6.3214 1.6954
3.2276 6.4414 1.6954
2.9940 6.5531 1.6954
0.8129 1.9630 0.5000
0.7416 1.9902 0.4998
0.6693 2.0148 0.4996
0.5963 2.0369 0.4995
0.5226 2.0564 0.4993
0.4482 2.0733 0.4992
0.3733 2.0876 0.4991
0.2980 2.0993 0.4990
0.2224 2.1084 0.4990
0.1464 2.1148 0.4989
0.0703 2.1186 0.4989
-0.0058 2.1198 0.4989
-0.0820 2.1182 0.4989
-0.1581 2.1141 0.4990
-0.2340 2.1073 0.4990
-0.3096 2.0978 0.4991
-0.3849 2.0857 0.4992
-0.4597 2.0710 0.4993
-0.5339 2.0537 0.4994
-0.6076 2.0338 0.4996
-0.6805 2.0114 0.4997
-0.7527 1.9864 0.4999
-0.8239 1.9589 0.5001
-3.0299 6.5360 1.6954
-3.2628 6.4231 1.6954
-3.4916 6.3018 1.6954
-3.7159 6.1724 1.6954
-3.9354 6.0350 1.6954
-4.1499 5.8898 1.6954
-4.3219 5.6883 1.6810
-4.3245 5.2860 1.6070
-4.4701 5.0801 1.5922
-4.6500 4.9163 1.5922
-4.8238 4.7462 1.5922
-4.9914 4.5700 1.5922
-5.1526 4.3878 1.5922
-5.3072 4.2000 1.5922
-5.4549 4.0067 1.5922
-5.3038 3.6097 1.5091
-5.7290 3.6049 1.5922
-5.8551 3.3968 1.5922
-5.9736 3.1844 1.5922
-6.0845 2.9678 1.5922
-6.1875 2.7473 1.5922
-6.2825 2.5233 1.5922
-6.3694 2.2961 1.5922
-6.4481 2.0658 1.5922
-6.5185 1.8329 1.5922
-6.5805 1.5975 1.5922
-6.6340 1.3601 1.5922
-6.6789 1.1209 1.5922
-6.7152 0.8802 1.5922
-6.7428 0.6384 1.5922
-6.7618 0.3957 1.5922
-6.7720 0.1525 1.5922
-6.7734 -0.0910 1.5922
-6.7661 -0.3343 1.5922
-6.7501 -0.5773 1.5922
-1.0586 -6.4705 1.6954
-0.8255 -6.5044 1.6954
-0.5912 -6.5299 1.6954
-0.3562 -6.5470 1.6954
-0.1208 -6.5556 1.6954
0.1148 -6.5557 1.6954
0.3503 -6.5473 1.6954
0.5853 -6.5305 1.6954
0.8196 -6.5053 1.6954
1.0528 -6.4716 1.6954
1.2846 -6.4295 1.6954
1.5148 -6.3792 1.6954
1.7430 -6.3206 1.6954
1.9690 -6.2538 1.6954
2.1924 -6.1789 1.6954
2.4129 -6.0961 1.6954
2.6304 -6.0054 1.6954
2.8444 -5.9069 1.6954
3.0547 -5.8007 1.6954
3.2611 -5.6871 1.6954
3.4633 -5.5662 1.6954
3.6610 -5.4380 1.6954
3.8539 -5.3028 1.6954
3.8978 -4.9768 1.6350
3.9676 -4.7073 1.5923
4.1341 -4.5616 1.5923
4.2952 -4.4100 1.5923
4.4507 -4.2527 1.5923
4.6005 -4.0899 1.5923
4.7443 -3.9218 1.5923
4.8820 -3.7487 1.5923
5.0134 -3.5707 1.5923
5.1382 -3.3881 1.5923
5.2565 -3.2012 1.5923
5.3679 -3.0101 1.5923
5.4723 -2.8152 1.5923
5.5697 -2.6166 1.5923
5.6599 -2.4147 1.5923
5.7428 -2.2097 1.5923
5.8182 -2.0018 1.5923
5.8861 -1.7914 1.5923
5.9464 -1.5787 1.5923
5.9991 -1.3639 1.5923
6.0439 -1.1474 1.5923
6.0810 -0.9295 1.5923
6.1101 -0.7103 1.5923
6.1314 -0.4903 1.5923
6.1448 -0.2697 1.5923
6.1502 -0.0487 1.5923
6.1477 0.1723 1.5923
6.1373 0.3931 1.5923
6.1189 0.6134 1.5923
6.0926 0.8328 1.5923
6.0585 1.0511 1.5923
6.0165 1.2681 1.5923
5.9668 1.4834 1.5923
5.9093 1.6968 1.5923
5.8443 1.9079 1.5923
5.7717 2.1166 1.5923
5.6916 2.3225 1.5923
5.6042 2.5254 1.5923
5.5096 2.7251 1.5923
5.4079 2.9212 1.5923
5.2992 3.1135 1.5923
5.1837 3.3018 1.5923
5.0615 3.4858 1.5923
4.9328 3.6652 1.5923
4.7977 3.8400 1.5923
4.6564 4.0097 1.5923
4.5092 4.1743 1.5923
4.3561 4.3335 1.5923
4.1974 4.4871 1.5923
4.0333 4.6349 1.5923
3.8640 4.7767 1.5923
3.7427 4.9827 1.6151
3.7304 5.3569 1.6919
3.5426 5.4987 1.6954
3.3427 5.6223 1.6954
3.1384 5.7386 1.6954
2.9301 5.8475 1.6954
0.8039 1.7596 0.5015
0.7399 1.7867 0.5013
0.6750 1.8114 0.5011
0.6092 1.8339 0.5010
0.5428 1.8540 0.5008
0.4757 1.8718 0.5007
0.4080 1.8873 0.5006
0.3399 1.9004 0.5005
0.2713 1.9110 0.5004
0.2024 1.9193 0.5004
0.1333 1.9252 0.5003
0.0640 1.9287 0.5003
-0.0053 1.9297 0.5003
-0.0747 1.9283 0.5003
-0.1439 1.9245 0.5003
-0.2130 1.9183 0.5004
-0.2818 1.9096 0.5005
-0.3503 1.8986 0.5005
-0.4184 1.8852 0.5006
-0.4860 1.8694 0.5008
-0.5530 1.8512 0.5009
-0.6194 1.8308 0.5010
-0.6850 1.8080 0.5012
-0.7499 1.7829 0.5014
-0.8138 1.7555 0.5016
-2.9621 5.8309 1.6954
-3.1697 5.7208 1.6954
-3.3734 5.6033 1.6954
-3.5726 5.4786 1.6954
-3.7673 5.3468 1.6954
-3.9571 5.2081 1.6954
-4.1418 5.0627 1.6954
-4.3092 4.8971 1.6907
-4.3081 4.5549 1.6249
-4.3790 4.3085 1.5922
-4.5312 4.1485 1.5922
-4.6775 3.9832 1.5922
-4.8178 3.8126 1.5922
-4.9518 3.6372 1.5922
-5.0795 3.4570 1.5922
-5.2007 3.2724 1.5922
-5.3151 3.0835 1.5922
-5.4227 2.8906 1.5922
-5.5233 2.6940 1.5922
-5.6168 2.4939 1.5922
-5.7030 2.2906 1.5922
-5.7819 2.0842 1.5922
-5.8533 1.8752 1.5922
-5.9172 1.6637 1.5922
-5.9734 1.4501 1.5922
-6.0219 1.2346 1.5922
-6.0627 1.0174 1.5922
-6.0956 0.7990 1.5922
-6.1207 0.5794 1.5922
-6.1378 0.3591 1.5922
-6.1471 0.1384 1.5922
-6.1484 -0.0826 1.5922
-6.1417 -0.3035 1.5922
-6.1271 -0.5240 1.5922
-0.9681 -5.9173 1.6954
-0.7549 -5.9484 1.6954
-0.5407 -5.9717 1.6954
-0.3258 -5.9873 1.6954
-0.1104 -5.9952 1.6954
0.1050 -5.9953 1.6954
0.3204 -5.9876 1.6954
0.5353 -5.9722 1.6954
0.7495 -5.9491 1.6954
0.9628 -5.9184 1.6954
1.1748 -5.8799 1.6954
1.3853 -5.8339 1.6954
1.5940 -5.7803 1.6954
1.8006 -5.7192 1.6954
2.0050 -5.6508 1.6954
2.2067 -5.5750 1.6954
2.4055 -5.4920 1.6954
2.6012 -5.4020 1.6954
2.7936 -5.3049 1.6954
2.9824 -5.2010 1.6954
3.1672 -5.0904 1.6954
3.3480 -4.9732 1.6954
3.5245 -4.8496 1.6954
3.6963 -4.7197 1.6954
3.8634 -4.5837 1.6954
3.8863 -4.2882 1.6368
3.9281 -4.0331 1.5923
4.0715 -3.8904 1.5928
4.2073 -3.7404 1.5923
4.3389 -3.5867 1.5923
4.4648 -3.4283 1.5923
4.5850 -3.2656 1.5923
4.6992 -3.0986 1.5923
4.8073 -2.9277 1.5923
4.9092 -2.7530 1.5923
5.0048 -2.5747 1.5923
5.0939 -2.3931 1.5923
5.1763 -2.2085 1.5923
5.2522 -2.0209 1.5923
5.3212 -1.8309 1.5923
5.3833 -1.6384 1.5923
5.4385 -1.4439 1.5923
5.4866 -1.2475 1.5923
5.5276 -1.0495 1.5923
5.5615 -0.8501 1.5923
5.5883 -0.6497 1.5923
5.6077 -0.4485 1.5923
5.6200 -0.2467 1.5923
5.6250 -0.0446 1.5923
5.6227 0.1576 1.5923
5.6132 0.3595 1.5923
5.5964 0.5609 1.5923
5.5724 0.7616 1.5923
5.5412 0.9613 1.5923
5.5028 1.1598 1.5923
5.4573 1.3567 1.5923
5.4048 1.5519 1.5923
5.3453 1.7450 1.5923
5.2790 1.9359 1.5923
5.2058 2.1242 1.5923
5.1259 2.3098 1.5923
5.0393 2.4924 1.5923
4.9463 2.6718 1.5923
4.8469 2.8477 1.5923
4.7413 3.0199 1.5923
4.6295 3.1882 1.5923
4.5118 3.3524 1.5923
4.3883 3.5122 1.5923
4.2591 3.6675 1.5923
4.1244 3.8181 1.5923
3.9844 3.9637 1.5923
3.8393 4.1042 1.5923
3.7524 4.3120 1.6196
3.7421 4.6259 1.6859
3.5935 4.7840 1.6954
3.4191 4.9099 1.6954
3.2404 5.0295 1.6954
3.0575 5.1425 1.6954
2.8706 5.2490 1.6954
0.7947 1.5861 0.5027
0.7369 1.6129 0.5026
0.6782 1.6378 0.5024
0.6187 1.6605 0.5022
0.5585 1.6812 0.5021
0.4976 1.6997 0.5019
0.4361 1.7160 0.5018
0.3740 1.7302 0.5017
0.3116 1.7422 0.5016
0.2487 1.7521 0.5016
0.1856 1.7597 0.5015
0.1222 1.7651 0.5015
0.0587 1.7682 0.5015
-0.0049 1.7692 0.5015
-0.0684 1.7679 0.5015
-0.1319 1.7644 0.5015
-0.1953 1.7587 0.5015
-0.2584 1.7508 0.5016
-0.3212 1.7406 0.5017
-0.3836 1.7283 0.5018
-0.4456 1.7138 0.5019
-0.5070 1.6971 0.5020
-0.5678 1.6783 0.5022
-0.6280 1.6573 0.5023
-0.6874 1.6343 0.5025
-0.7459 1.6091 0.5027
-0.8036 1.5819 0.5029
-2.8993 5.2327 1.6954
-3.0856 5.1253 1.6954
-3.2678 5.0112 1.6954
-3.4459 4.8906 1.6954
-3.6195 4.7637 1.6954
-3.7884 4.6307 1.6954
-3.9525 4.4917 1.6954
-4.1115 4.3469 1.6954
-4.2651 4.1964 1.6954
-4.2937 3.9311 1.6495
-4.3001 3.6618 1.6003
-4.4067 3.4873 1.5922
-4.5293 3.3268 1.5922
-4.6461 3.1620 1.5922
-4.7568 2.9931 1.5922
-4.8615 2.8203 1.5922
-4.9599 2.6439 1.5922
-5.0519 2.4640 1.5922
-5.1374 2.2810 1.5922
-5.2162 2.0950 1.5922
-5.2883 1.9063 1.5922
-5.3537 1.7151 1.5922
-5.4121 1.5217 1.5922
-5.4635 1.3263 1.5922
-5.5078 1.1291 1.5922
-5.5451 0.9305 1.5922
-5.5752 0.7307 1.5922
-5.5981 0.5299 1.5922
-5.6137 0.3284 1.5922
-5.6222 0.1265 1.5922
-5.6233 -0.0756 1.5922
-5.6172 -0.2776 1.5922
-5.6039 -0.4793 1.5922
-0.8910 -5.4458 1.6954
-0.6947 -5.4744 1.6954
-0.4976 -5.4958 1.6954
-0.2998 -5.5102 1.6954
-0.1016 -5.5174 1.6954
0.0967 -5.5175 1.6954
0.2949 -5.5105 1.6954
0.4926 -5.4964 1.6954
0.6898 -5.4751 1.6954
0.8861 -5.4468 1.6954
1.0812 -5.4114 1.6954
1.2749 -5.3690 1.6954
1.4670 -5.3197 1.6954
1.6572 -5.2635 1.6954
1.8452 -5.2005 1.6954
2.0308 -5.1308 1.6954
2.2138 -5.0544 1.6954
2.3940 -4.9716 1.6954
2.5710 -4.8823 1.6954
2.7447 -4.7866 1.6954
2.9149 -4.6848 1.6954
3.0813 -4.5770 1.6954
3.2436 -4.4632 1.6954
3.4018 -4.3437 1.6954
3.5556 -4.2186 1.6954
3.7048 -4.0880 1.6954
3.8492 -3.9521 1.6954
3.8756 -3.7032 1.6474
3.8822 -3.4514 1.5964
3.9932 -3.3010 1.5923
4.1091 -3.1553 1.5923
4.2197 -3.0055 1.5923
4.3248 -2.8518 1.5923
4.4244 -2.6945 1.5923
4.5182 -2.5337 1.5923
4.6061 -2.3697 1.5923
4.6881 -2.2025 1.5923
4.7641 -2.0326 1.5923
4.8339 -1.8600 1.5923
4.8974 -1.6851 1.5923
4.9546 -1.5080 1.5923
5.0054 -1.3289 1.5923
5.0497 -1.1482 1.5923
5.0875 -0.9659 1.5923
5.1187 -0.7825 1.5923
5.1433 -0.5980 1.5923
5.1613 -0.4128 1.5923
5.1726 -0.2271 1.5923
5.1772 -0.0411 1.5923
5.1751 0.1450 1.5923
5.1663 0.3308 1.5923
5.1509 0.5162 1.5923
5.1288 0.7010 1.5923
5.1001 0.8848 1.5923
5.0648 1.0674 1.5923
5.0230 1.2487 1.5923
4.9747 1.4283 1.5923
4.9199 1.6061 1.5923
4.8588 1.7818 1.5923
4.7915 1.9551 1.5923
4.7180 2.1260 1.5923
4.6383 2.2940 1.5923
4.5527 2.4591 1.5923
4.4613 2.6211 1.5923
4.3640 2.7796 1.5923
4.2612 2.9345 1.5923
4.1528 3.0856 1.5923
4.0391 3.2328 1.5923
3.9202 3.3757 1.5923
3.7963 3.5143 1.5923
3.7587 3.7391 1.6320
3.7520 4.0108 1.6906
3.6156 4.1547 1.6954
3.4638 4.2818 1.6954
3.3076 4.4034 1.6954
3.1472 4.5193 1.6954
2.9827 4.6294 1.6954
0.8367 1.4073 0.5040
0.7852 1.4358 0.5038
0.7328 1.4625 0.5036
0.6796 1.4873 0.5035
0.6255 1.5103 0.5033
0.5706 1.5313 0.5032
0.5151 1.5504 0.5030
0.4589 1.5675 0.5029
0.4022 1.5826 0.5028
0.3450 1.5957 0.5027
0.2874 1.6068 0.5026
0.2294 1.6159 0.5026
0.1712 1.6229 0.5025
0.1127 1.6279 0.5025
0.0541 1.6309 0.5025
-0.0045 1.6317 0.5025
-0.0631 1.6306 0.5025
-0.1217 1.6273 0.5025
-0.1801 1.6220 0.5025
-0.2383 1.6147 0.5026
-0.2962 1.6053 0.5027
-0.3538 1.5939 0.5028
-0.4109 1.5805 0.5029
-0.4676 1.5651 0.5030
-0.5237 1.5477 0.5031
-0.5791 1.5283 0.5032
-0.6339 1.5070 0.5034
-0.6879 1.4838 0.5036
-0.7410 1.4587 0.5038
-0.7933 1.4317 0.5040
-2.8402 4.7176 1.6954
-3.0079 4.6126 1.6954
-3.1718 4.5016 1.6954
-3.3316 4.3848 1.6954
-3.4871 4.2623 1.6954
-3.6381 4.1344 1.6954
-3.7844 4.0011 1.6954
-3.9259 3.8626 1.6954
-4.0622 3.7191 1.6954
-4.1934 3.5708 1.6954
-4.2851 3.3910 1.6820
-4.2828 3.1457 1.6356
-4.2891 2.9190 1.5969
-4.3784 2.7549 1.5922
-4.4851 2.6019 1.5958
-4.5653 2.4335 1.5922
-4.6499 2.2679 1.5922
-4.7286 2.0995 1.5922
-4.8012 1.9283 1.5922
-4.8675 1.7546 1.5922
-4.9276 1.5786 1.5922
-4.9814 1.4005 1.5922
-5.0287 1.2207 1.5922
-5.0695 1.0392 1.5922
-5.1037 0.8564 1.5922
-5.1314 0.6725 1.5922
-5.1525 0.4877 1.5922
-5.1669 0.3022 1.5922
-5.1746 0.1164 1.5922
-5.1757 -0.0696 1.5922
-5.1701 -0.2556 1.5922
-5.1577 -0.4412 1.5922
-0.8244 -5.0388 1.6954
-0.6428 -5.0652 1.6954
-0.4604 -5.0850 1.6954
-0.2774 -5.0983 1.6954
-0.0940 -5.1050 1.6954
0.0894 -5.1051 1.6954
0.2728 -5.0986 1.6954
0.4558 -5.0855 1.6954
0.6382 -5.0658 1.6954
0.8198 -5.0396 1.6954
1.0004 -5.0069 1.6954
1.1796 -4.9677 1.6954
1.3573 -4.9220 1.6954
1.5333 -4.8700 1.6954
1.7073 -4.8118 1.6954
1.8790 -4.7473 1.6954
2.0483 -4.6766 1.6954
2.2150 -4.5999 1.6954
2.3788 -4.5173 1.6954
2.5395 -4.4289 1.6954
2.6970 -4.3347 1.6954
2.8509 -4.2349 1.6954
3.0012 -4.1297 1.6954
3.1476 -4.0191 1.6954
3.2899 -3.9033 1.6954
3.4279 -3.7825 1.6954
3.5615 -3.6568 1.6954
3.6905 -3.5264 1.6954
3.8147 -3.3914 1.6954
3.8675 -3.1971 1.6668
3.8690 -2.9709 1.6204
3.9044 -2.7809 1.5923
4.0016 -2.6388 1.5923
4.0937 -2.4932 1.5923
4.1805 -2.3444 1.5923
4.2619 -2.1926 1.5923
4.3378 -2.0380 1.5923
4.4081 -1.8808 1.5923
4.4727 -1.7211 1.5923
4.5315 -1.5592 1.5923
4.5844 -1.3953 1.5923
4.6314 -1.2297 1.5923
4.6724 -1.0624 1.5923
4.7074 -0.8938 1.5923
4.7363 -0.7241 1.5923
4.7591 -0.5534 1.5923
4.7757 -0.3820 1.5923
4.7862 -0.2102 1.5923
4.7905 -0.0380 1.5923
4.7886 0.1341 1.5923
4.7805 0.3061 1.5923
4.7662 0.4776 1.5923
4.7458 0.6486 1.5923
4.7192 0.8187 1.5923
4.6866 0.9877 1.5923
4.6479 1.1554 1.5923
4.6032 1.3216 1.5923
4.5526 1.4861 1.5923
4.4960 1.6487 1.5923
4.4337 1.8091 1.5923
4.3657 1.9672 1.5923
4.2920 2.1227 1.5923
4.2128 2.2755 1.5923
4.1282 2.4253 1.5923
4.0382 2.5720 1.5923
3.9635 2.7295 1.6006
3.8428 2.8552 1.5923
3.7756 3.0218 1.6085
3.7643 3.2414 1.6523
3.7403 3.4625 1.6954
3.6134 3.5945 1.6954
3.4818 3.7220 1.6954
3.3457 3.8446 1.6954
3.2053 3.9622 1.6954
3.0608 4.0747 1.6954
2.9123 4.1820 1.6954
0.8221 1.2760 0.5050
0.7754 1.3042 0.5048
0.7278 1.3307 0.5046
0.6792 1.3555 0.5044
0.6298 1.3785 0.5043
0.5797 1.3998 0.5041
0.5289 1.4193 0.5040
0.4774 1.4370 0.5038
0.4254 1.4529 0.5037
0.3728 1.4670 0.5036
0.3198 1.4791 0.5036
0.2664 1.4895 0.5035
0.2126 1.4979 0.5034
0.1587 1.5044 0.5034
0.1045 1.5090 0.5033
0.0502 1.5118 0.5033
-0.0042 1.5126 0.5033
-0.0585 1.5115 0.5033
-0.1128 1.5085 0.5034
-0.1670 1.5036 0.5034
-0.2209 1.4968 0.5035
-0.2746 1.4881 0.5035
-0.3279 1.4775 0.5036
-0.3809 1.4650 0.5037
-0.4334 1.4507 0.5038
-0.4854 1.4345 0.5039
-0.5368 1.4166 0.5041
-0.5875 1.3968 0.5042
-0.6375 1.3752 0.5044
-0.6868 1.3519 0.5045
-0.7352 1.3269 0.5047
-0.7827 1.3001 0.5049
-0.8293 1.2717 0.5051
-2.9351 4.1656 1.6954
-3.0830 4.0575 1.6954
-3.2268 3.9442 1.6954
-3.3666 3.8258 1.6954
-3.5020 3.7024 1.6954
-3.6329 3.5743 1.6954
-3.7590 3.4415 1.6954
-3.8804 3.3043 1.6954
-3.9967 3.1628 1.6954
-4.1079 3.0172 1.6954
-4.2138 2.8677 1.6954
-4.2738 2.6891 1.6795
-4.2704 2.4773 1.6421
-4.2751 2.2788 1.6113
-4.3028 2.0986 1.5922
-4.3756 1.9427 1.5922
-4.4427 1.7843 1.5922
-4.5041 1.6235 1.5922
-4.5597 1.4607 1.5922
-4.6094 1.2959 1.5922
-4.6532 1.1295 1.5922
-4.6909 0.9616 1.5922
-4.7226 0.7924 1.5922
-4.7482 0.6222 1.5922
-4.7677 0.4512 1.5922
-4.7810 0.2796 1.5922
-4.7882 0.1077 1.5922
-4.7891 -0.0645 1.5922
-4.7839 -0.2365 1.5922
-4.7725 -0.4083 1.5922
-0.7662 -4.6834 1.6954
-0.5974 -4.7079 1.6954
-0.4279 -4.7264 1.6954
-0.2578 -4.7387 1.6954
-0.0874 -4.7449 1.6954
0.0831 -4.7450 1.6954
0.2536 -4.7390 1.6954
0.4237 -4.7268 1.6954
0.5932 -4.7085 1.6954
0.7620 -4.6842 1.6954
0.9298 -4.6537 1.6954
1.0964 -4.6173 1.6954
1.2616 -4.5749 1.6954
1.4251 -4.5266 1.6954
1.5868 -4.4724 1.6954
1.7465 -4.4125 1.6954
1.9039 -4.3468 1.6954
2.0588 -4.2755 1.6954
2.2110 -4.1988 1.6954
2.3604 -4.1165 1.6954
2.5068 -4.0290 1.6954
2.6499 -3.9363 1.6954
2.7895 -3.8384 1.6954
2.9256 -3.7357 1.6954
3.0578 -3.6281 1.6954
3.1862 -3.5158 1.6954
3.3103 -3.3989 1.6954
3.4302 -3.2777 1.6954
3.5457 -3.1523 1.6954
3.6566 -3.0228 1.6954
3.7627 -2.8894 1.6954
3.8603 -2.7496 1.6938
3.8570 -2.5434 1.6512
3.8602 -2.3510 1.6154
3.8858 -2.1792 1.5923
3.9615 -2.0381 1.5923
4.0390 -1.8977 1.5951
4.0973 -1.7482 1.5923
4.1574 -1.5998 1.5923
4.2120 -1.4493 1.5923
4.2612 -1.2970 1.5923
4.3049 -1.1430 1.5923
4.3431 -0.9876 1.5923
4.3756 -0.8308 1.5923
4.4025 -0.6731 1.5923
4.4237 -0.5144 1.5923
4.4391 -0.3551 1.5923
4.4489 -0.1954 1.5923
4.4528 -0.0354 1.5923
4.4511 0.1246 1.5923
4.4436 0.2845 1.5923
4.4303 0.4440 1.5923
4.4113 0.6028 1.5923
4.3867 0.7609 1.5923
4.3563 0.9180 1.5923
4.3204 1.0740 1.5923
4.2789 1.2285 1.5923
4.2318 1.3814 1.5923
4.1793 1.5325 1.5923
4.1214 1.6816 1.5923
4.0581 1.8286 1.5923
3.9897 1.9732 1.5923
3.9161 2.1152 1.5923
3.8374 2.2545 1.5923
3.7860 2.4113 1.6060
3.7751 2.5997 1.6400
3.7713 2.8021 1.6811
3.6993 2.9607 1.6954
3.5904 3.0916 1.6954
3.4769 3.2186 1.6954
3.3589 3.3413 1.6954
3.2366 3.4598 1.6954
3.1101 3.5738 1.6954
2.9796 3.6831 1.6954
2.8452 3.7877 1.6954
0.8077 1.1599 0.5058
0.7652 1.1877 0.5056
0.7217 1.2139 0.5055
0.6774 1.2386 0.5053
0.6322 1.2617 0.5051
0.5863 1.2832 0.5050
0.5396 1.3031 0.5048
0.4923 1.3213 0.5047
0.4444 1.3378 0.5046
0.3960 1.3526 0.5045
0.3470 1.3657 0.5044
0.2977 1.3770 0.5043
0.2480 1.3866 0.5042
0.1980 1.3945 0.5042
0.1477 1.4006 0.5041
0.0973 1.4049 0.5041
0.0467 1.4074 0.5041
-0.0039 1.4082 0.5041
-0.0545 1.4072 0.5041
-0.1050 1.4044 0.5041
-0.1554 1.3998 0.5042
-0.2057 1.3934 0.5042
-0.2556 1.3853 0.5043
-0.3053 1.3755 0.5043
-0.3546 1.3638 0.5044
-0.4035 1.3505 0.5045
-0.4518 1.3354 0.5046
-0.4997 1.3187 0.5048
-0.5469 1.3002 0.5049
-0.5934 1.2801 0.5051
-0.6393 1.2584 0.5052
-0.6843 1.2350 0.5054
-0.7285 1.2101 0.5056
-0.7719 1.1836 0.5058
-0.8143 1.1556 0.5060
-2.8658 3.7717 1.6954
-2.9996 3.6664 1.6954
-3.1295 3.5563 1.6954
-3.2553 3.4416 1.6954
-3.3770 3.3225 1.6954
-3.4943 3.1991 1.6954
-3.6071 3.0715 1.6954
-3.7152 2.9400 1.6954
-3.8186 2.8047 1.6954
-3.9170 2.6657 1.6954
-4.0104 2.5233 1.6954
-4.0986 2.3776 1.6954
-4.1815 2.2289 1.6954
-4.2591 2.0772 1.6954
-4.2610 1.8918 1.6680
-4.2582 1.7101 1.6417
-4.2609 1.5358 1.6203
-4.2630 1.3656 1.6014
-4.2847 1.2046 1.5922
-4.3253 1.0499 1.5922
-4.3604 0.8938 1.5922
-4.3899 0.7366 1.5922
-4.4137 0.5784 1.5922
-4.4494 0.4211 1.5985
-4.4481 0.2601 1.5936
-4.4508 0.1000 1.5922
-4.4516 -0.0600 1.5922
-4.4468 -0.2199 1.5922
-4.4380 -0.3797 1.5928
-0.7150 -4.3702 1.6954
-0.5575 -4.3931 1.6954
-0.3993 -4.4103 1.6954
-0.2406 -4.4218 1.6954
-0.0815 -4.4276 1.6954
0.0776 -4.4277 1.6954
0.2366 -4.4220 1.6954
0.3953 -4.4107 1.6954
0.5535 -4.3936 1.6954
0.7110 -4.3709 1.6954
0.8676 -4.3425 1.6954
1.0231 -4.3085 1.6954
1.1772 -4.2689 1.6954
1.3298 -4.2239 1.6954
1.4807 -4.1733 1.6954
1.6297 -4.1174 1.6954
1.7765 -4.0561 1.6954
1.9211 -3.9896 1.6954
2.0632 -3.9180 1.6954
2.2026 -3.8413 1.6954
2.3391 -3.7596 1.6954
2.4726 -3.6730 1.6954
2.6030 -3.5818 1.6954
2.7299 -3.4859 1.6954
2.8534 -3.3855 1.6954
2.9731 -3.2807 1.6954
3.0890 -3.1717 1.6954
3.2009 -3.0586 1.6954
3.3086 -2.9415 1.6954
3.4121 -2.8207 1.6954
3.5111 -2.6962 1.6954
3.6056 -2.5682 1.6954
3.6955 -2.4369 1.6954
3.7806 -2.3025 1.6954
3.8509 -2.1596 1.6911
3.8480 -1.9797 1.6575
3.8484 -1.8081 1.6287
3.8515 -1.6433 1.6040
3.8794 -1.4929 1.5923
3.9304 -1.3525 1.5923
3.9764 -1.2103 1.5923
4.0256 -1.0689 1.5957
4.0528 -0.9216 1.5923
4.0831 -0.7753 1.5923
4.1082 -0.6281 1.5923
4.1280 -0.4801 1.5923
4.1424 -0.3314 1.5923
4.1515 -0.1824 1.5923
4.1552 -0.0331 1.5923
4.1536 0.1163 1.5923
4.1466 0.2654 1.5923
4.1342 0.4143 1.5923
4.1165 0.5625 1.5923
4.0935 0.7101 1.5923
4.0652 0.8567 1.5923
4.0317 1.0022 1.5923
3.9929 1.1463 1.5923
3.9490 1.2890 1.5923
3.9000 1.4301 1.5923
3.8460 1.5692 1.5923
3.7992 1.7119 1.5974
3.7911 1.8749 1.6214
3.7835 2.0435 1.6485
3.7806 2.2211 1.6811
3.7298 2.3755 1.6954
3.6419 2.5079 1.6954
3.5494 2.6371 1.6954
3.4522 2.7629 1.6954
3.3506 2.8851 1.6954
3.2447 3.0035 1.6954
3.1345 3.1181 1.6954
3.0204 3.2287 1.6954
2.9023 3.3350 1.6954
0.8312 1.0275 0.5068
0.7934 1.0562 0.5066
0.7546 1.0836 0.5064
0.7149 1.1096 0.5062
0.6743 1.1341 0.5060
0.6329 1.1572 0.5059
0.5907 1.1789 0.5057
0.5478 1.1990 0.5056
0.5042 1.2175 0.5054
0.4600 1.2346 0.5053
0.4153 1.2500 0.5052
0.3700 1.2639 0.5051
0.3243 1.2761 0.5050
0.2782 1.2867 0.5050
0.2317 1.2957 0.5049
0.1850 1.3031 0.5048
0.1380 1.3088 0.5048
0.0909 1.3128 0.5048
0.0437 1.3152 0.5048
-0.0036 1.3159 0.5048
-0.0509 1.3149 0.5048
-0.0981 1.3123 0.5048
-0.1452 1.3080 0.5048
-0.1922 1.3021 0.5049
-0.2389 1.2945 0.5049
-0.2853 1.2853 0.5050
-0.3313 1.2744 0.5051
-0.3770 1.2619 0.5052
-0.4222 1.2478 0.5053
-0.4669 1.2321 0.5054
-0.5110 1.2149 0.5055
-0.5545 1.1961 0.5057
-0.5973 1.1757 0.5058
-0.6394 1.1539 0.5060
-0.6807 1.1306 0.5062
-0.7211 1.1058 0.5063
-0.7607 1.0796 0.5065
-0.7994 1.0520 0.5067
-0.8370 1.0231 0.5069
-2.9205 3.3188 1.6954
-3.0379 3.2117 1.6954
-3.1514 3.1006 1.6954
-3.2609 2.9854 1.6954
-3.3662 2.8663 1.6954
-3.4671 2.7436 1.6954
-3.5635 2.6173 1.6954
-3.6554 2.4876 1.6954
-3.7425 2.3547 1.6954
-3.8248 2.2188 1.6954
-3.9022 2.0799 1.6954
-3.9745 1.9384 1.6954
-4.0418 1.7944 1.6954
-4.1038 1.6481 1.6954
-4.1605 1.4996 1.6954
-4.2118 1.3491 1.6954
-4.2498 1.1948 1.6923
-4.2472 1.0309 1.6753
-4.2446 0.8700 1.6609
-4.2421 0.7117 1.6487
-4.2404 0.5556 1.6392
-4.2397 0.4012 1.6322
-4.2385 0.2478 1.6272
-4.2368 0.0952 1.6242
-4.2347 -0.0571 1.6230
-4.2320 -0.2093 1.6238
-4.2289 -0.3619 1.6265
-0.6694 -4.0918 1.6954
-0.5220 -4.1132 1.6954
-0.3738 -4.1293 1.6954
-0.2252 -4.1401 1.6954
-0.0764 -4.1455 1.6954
0.0726 -4.1456 1.6954
0.2215 -4.1403 1.6954
0.3701 -4.1297 1.6954
0.5183 -4.1137 1.6954
0.6657 -4.0924 1.6954
0.8123 -4.0659 1.6954
0.9579 -4.0340 1.6954
1.1022 -3.9970 1.6954
1.2451 -3.9548 1.6954
1.3864 -3.9074 1.6954
1.5258 -3.8551 1.6954
1.6633 -3.7977 1.6954
1.7987 -3.7355 1.6954
1.9317 -3.6684 1.6954
2.0622 -3.5966 1.6954
2.1901 -3.5201 1.6954
2.3151 -3.4391 1.6954
2.4371 -3.3536 1.6954
2.5560 -3.2638 1.6954
2.6716 -3.1698 1.6954
2.7837 -3.0717 1.6954
2.8922 -2.9697 1.6954
2.9970 -2.8638 1.6954
3.0978 -2.7542 1.6954
3.1947 -2.6410 1.6954
3.2875 -2.5245 1.6954
3.3760 -2.4047 1.6954
3.4601 -2.2818 1.6954
3.5398 -2.1559 1.6954
3.6148 -2.0273 1.6954
3.6852 -1.8960 1.6954
3.7509 -1.7623 1.6954
3.8117 -1.6264 1.6954
3.8400 -1.4777 1.6833
3.8374 -1.3205 1.6604
3.8354 -1.1675 1.6403
3.8368 -1.0188 1.6242
3.8376 -0.8727 1.6103
3.8381 -0.7288 1.5985
3.8466 -0.5881 1.5923
3.8651 -0.4495 1.5923
3.8787 -0.3103 1.5923
3.8872 -0.1708 1.5923
3.8907 -0.0310 1.5923
3.8892 0.1088 1.5923
3.8826 0.2485 1.5923
3.8710 0.3878 1.5923
3.8545 0.5267 1.5923
3.8329 0.6648 1.5923
3.8142 0.8037 1.5956
3.8093 0.9468 1.6068
3.8039 1.0920 1.6201
3.7980 1.2397 1.6355
3.7940 1.3911 1.6543
3.7915 1.5469 1.6764
3.7756 1.7012 1.6954
3.7119 1.8357 1.6954
3.6434 1.9678 1.6954
3.5702 2.0974 1.6954
3.4924 2.2243 1.6954
3.4102 2.3483 1.6954
3.3235 2.4693 1.6954
3.2325 2.5870 1.6954
3.1374 2.7014 1.6954
3.0382 2.8124 1.6954
2.9351 2.9197 1.6954
2.8282 3.0232 1.6954
0.8135 0.9347 0.5075
0.7790 0.9630 0.5073
0.7436 0.9899 0.5071
0.7073 1.0156 0.5069
0.6701 1.0400 0.5067
0.6321 1.0631 0.5066
0.5933 1.0847 0.5064
0.5537 1.1050 0.5063
0.5135 1.1239 0.5061
0.4727 1.1413 0.5060
0.4312 1.1573 0.5059
0.3893 1.1718 0.5058
0.3469 1.1848 0.5057
0.3040 1.1963 0.5056
0.2608 1.2063 0.5055
0.2172 1.2147 0.5055
0.1734 1.2216 0.5054
0.1294 1.2269 0.5054
0.0852 1.2307 0.5054
0.0409 1.2330 0.5054
-0.0034 1.2336 0.5054
-0.0477 1.2327 0.5054
-0.0920 1.2303 0.5054
-0.1362 1.2263 0.5054
-0.1802 1.2207 0.5055
-0.2239 1.2135 0.5055
-0.2674 1.2049 0.5056
-0.3106 1.1947 0.5057
-0.3534 1.1830 0.5057
-0.3958 1.1697 0.5058
-0.4377 1.1550 0.5060
-0.4790 1.1388 0.5061
-0.5198 1.1212 0.5062
-0.5599 1.1021 0.5064
-0.5993 1.0816 0.5065
-0.6380 1.0597 0.5067
-0.6759 1.0365 0.5068
-0.7130 1.0119 0.5070
-0.7492 0.9860 0.5072
-0.7845 0.9588 0.5074
-0.8188 0.9304 0.5076
-2.8446 3.0073 1.6954
-2.9509 2.9032 1.6954
-3.0534 2.7954 1.6954
-3.1520 2.6839 1.6954
-3.2465 2.5690 1.6954
-3.3368 2.4507 1.6954
-3.4228 2.3293 1.6954
-3.5044 2.2048 1.6954
-3.5814 2.0775 1.6954
-3.6539 1.9475 1.6954
-3.7216 1.8150 1.6954
-3.7845 1.6802 1.6954
-3.8426 1.5431 1.6954
-3.8957 1.4041 1.6954
-3.9437 1.2632 1.6954
-3.9867 1.1207 1.6954
-4.0245 0.9768 1.6954
-4.0571 0.8316 1.6954
-4.0845 0.6853 1.6954
-4.1067 0.5381 1.6954
-4.1235 0.3902 1.6954
-4.1350 0.2417 1.6954
-4.1411 0.0930 1.6954
-4.1419 -0.0559 1.6954
-4.1374 -0.2047 1.6954
-4.1275 -0.3532 1.6954
-0.6286 -3.8424 1.6954
-0.4902 -3.8625 1.6954
-0.3511 -3.8777 1.6954
-0.2115 -3.8878 1.6954
-0.0717 -3.8929 1.6954
0.0682 -3.8930 1.6954
0.2080 -3.8880 1.6954
0.3476 -3.8780 1.6954
0.4867 -3.8630 1.6954
0.6252 -3.8430 1.6954
0.7628 -3.8181 1.6954
0.8995 -3.7882 1.6954
1.0350 -3.7534 1.6954
1.1692 -3.7138 1.6954
1.3019 -3.6693 1.6954
1.4328 -3.6202 1.6954
1.5620 -3.5663 1.6954
1.6891 -3.5078 1.6954
1.8140 -3.4449 1.6954
1.9366 -3.3774 1.6954
2.0566 -3.3056 1.6954
2.1740 -3.2295 1.6954
2.2886 -3.1493 1.6954
2.4003 -3.0650 1.6954
2.5088 -2.9767 1.6954
2.6141 -2.8846 1.6954
2.7160 -2.7887 1.6954
2.8143 -2.6893 1.6954
2.9091 -2.5864 1.6954
3.0001 -2.4801 1.6954
3.0872 -2.3707 1.6954
3.1703 -2.2582 1.6954
3.2493 -2.1428 1.6954
3.3241 -2.0246 1.6954
3.3946 -1.9038 1.6954
3.4607 -1.7805 1.6954
3.5224 -1.6550 1.6954
3.5795 -1.5273 1.6954
3.6319 -1.3977 1.6954
3.6797 -1.2663 1.6954
3.7227 -1.1332 1.6954
3.7609 -0.9987 1.6954
3.7942 -0.8629 1.6954
3.8227 -0.7260 1.6954
3.8256 -0.5850 1.6864
3.8234 -0.4447 1.6773
3.8212 -0.3058 1.6705
3.8190 -0.1678 1.6658
3.8167 -0.0304 1.6634
3.8146 0.1067 1.6631
3.8123 0.2440 1.6649
3.8101 0.3817 1.6689
3.8079 0.5203 1.6751
3.8057 0.6601 1.6835
3.8034 0.8014 1.6942
3.7747 0.9382 1.6954
3.7384 1.0732 1.6954
3.6973 1.2068 1.6954
3.6515 1.3389 1.6954
3.6009 1.4692 1.6954
3.5457 1.5976 1.6954
3.4859 1.7239 1.6954
3.4216 1.8480 1.6954
3.3529 1.9697 1.6954
3.2798 2.0889 1.6954
3.2026 2.2053 1.6954
3.1212 2.3189 1.6954
3.0357 2.4295 1.6954
2.9464 2.5370 1.6954
2.8532 2.6411 1.6954
0.8264 0.8221 0.5083
0.7960 0.8509 0.5081
0.7646 0.8786 0.5079
0.7322 0.9051 0.5077
0.6990 0.9305 0.5075
0.6648 0.9546 0.5074
0.6299 0.9776 0.5072
0.5941 0.9993 0.5070
0.5577 1.0197 0.5069
0.5205 1.0387 0.5067
0.4827 1.0565 0.5066
0.4444 1.0729 0.5065
0.4054 1.0879 0.5064
0.3660 1.1016 0.5063
0.3261 1.1138 0.5062
0.2858 1.1246 0.5061
0.2452 1.1340 0.5061
0.2042 1.1420 0.5060
0.1631 1.1485 0.5060
0.1217 1.1535 0.5059
0.0801 1.1571 0.5059
0.0385 1.1592 0.5059
-0.0032 1.1598 0.5059
-0.0449 1.1589 0.5059
-0.0865 1.1566 0.5059
-0.1280 1.1528 0.5060
-0.1694 1.1476 0.5060
-0.2105 1.1409 0.5060
-0.2514 1.1327 0.5061
-0.2920 1.1231 0.5062
-0.3322 1.1121 0.5063
-0.3721 1.0996 0.5064
-0.4114 1.0858 0.5065
-0.4503 1.0706 0.5066
-0.4886 1.0539 0.5067
-0.5263 1.0360 0.5068
-0.5634 1.0167 0.5070
-0.5997 0.9961 0.5071
-0.6353 0.9742 0.5073
-0.6702 0.9511 0.5075
-0.7042 0.9268 0.5076
-0.7373 0.9012 0.5078
-0.7695 0.8745 0.5080
-0.8008 0.8466 0.5082
-0.8311 0.8177 0.5084
-2.8676 2.6252 1.6954
-2.9601 2.5205 1.6954
-3.0488 2.4126 1.6954
-3.1336 2.3015 1.6954
-3.2144 2.1874 1.6954
-3.2910 2.0706 1.6954
-3.3634 1.9510 1.6954
-3.4314 1.8289 1.6954
-3.4950 1.7045 1.6954
-3.5541 1.5778 1.6954
-3.6086 1.4492 1.6954
-3.6585 1.3186 1.6954
-3.7036 1.1863 1.6954
-3.7440 1.0525 1.6954
-3.7795 0.9173 1.6954
-3.8101 0.7809 1.6954
-3.8358 0.6435 1.6954
-3.8566 0.5053 1.6954
-3.8724 0.3664 1.6954
-3.8832 0.2270 1.6954
-3.8889 0.0873 1.6954
-3.8897 -0.0525 1.6954
-3.8854 -0.1922 1.6954
-3.8761 -0.3317 1.6954
-0.5918 -3.6176 1.6954
-0.4615 -3.6366 1.6954
-0.3305 -3.6508 1.6954
-0.1991 -3.6603 1.6954
-0.0675 -3.6651 1.6954
0.0642 -3.6652 1.6954
0.1959 -3.6605 1.6954
0.3272 -3.6511 1.6954
0.4582 -3.6370 1.6954
0.5886 -3.6182 1.6954
0.7182 -3.5947 1.6954
0.8469 -3.5666 1.6954
0.9745 -3.5338 1.6954
1.1008 -3.4965 1.6954
1.2257 -3.4547 1.6954
1.3490 -3.4084 1.6954
1.4706 -3.3577 1.6954
1.5902 -3.3026 1.6954
1.7078 -3.2433 1.6954
1.8233 -3.1798 1.6954
1.9363 -3.1122 1.6954
2.0468 -3.0406 1.6954
2.1547 -2.9651 1.6954
2.2598 -2.8857 1.6954
2.3620 -2.8026 1.6954
2.4611 -2.7158 1.6954
2.5571 -2.6256 1.6954
2.6497 -2.5320 1.6954
2.7389 -2.4351 1.6954
2.8246 -2.3351 1.6954
2.9066 -2.2320 1.6954
2.9848 -2.1261 1.6954
3.0592 -2.0174 1.6954
3.1296 -1.9062 1.6954
3.1960 -1.7925 1.6954
3.2583 -1.6764 1.6954
3.3163 -1.5582 1.6954
3.3701 -1.4380 1.6954
3.4195 -1.3160 1.6954
3.4645 -1.1922 1.6954
3.5050 -1.0669 1.6954
3.5409 -0.9403 1.6954
3.5723 -0.8124 1.6954
3.5991 -0.6835 1.6954
3.6212 -0.5537 1.6954
3.6387 -0.4233 1.6954
3.6514 -0.2922 1.6954
3.6595 -0.1608 1.6954
3.6628 -0.0292 1.6954
3.6613 0.1024 1.6954
3.6552 0.2339 1.6954
3.6443 0.3651 1.6954
3.6287 0.4958 1.6954
3.6085 0.6258 1.6954
3.5836 0.7551 1.6954
3.5540 0.8833 1.6954
3.5199 1.0104 1.6954
3.4812 1.1362 1.6954
3.4380 1.2605 1.6954
3.3904 1.3832 1.6954
3.3384 1.5041 1.6954
3.2821 1.6231 1.6954
3.2216 1.7399 1.6954
3.1569 1.8545 1.6954
3.0881 1.9667 1.6954
3.0154 2.0764 1.6954
2.9387 2.1833 1.6954
2.8583 2.2875 1.6954
0.8330 0.7172 0.5091
0.8063 0.7464 0.5089
0.7786 0.7745 0.5087
0.7500 0.8017 0.5085
0.7204 0.8278 0.5083
0.6900 0.8528 0.5081
0.6586 0.8768 0.5079
0.6265 0.8996 0.5078
0.5936 0.9212 0.5076
0.5599 0.9416 0.5075
0.5255 0.9609 0.5073
0.4905 0.9789 0.5072
0.4549 0.9956 0.5071
0.4188 1.0111 0.5070
0.3821 1.0253 0.5069
0.3449 1.0381 0.5068
0.3073 1.0497 0.5067
0.2694 1.0599 0.5066
0.2311 1.0687 0.5065
0.1925 1.0762 0.5065
0.1537 1.0824 0.5065
0.1147 1.0871 0.5064
0.0755 1.0905 0.5064
0.0363 1.0925 0.5064
-0.0030 1.0931 0.5064
-0.0423 1.0923 0.5064
-0.0815 1.0901 0.5064
-0.1206 1.0865 0.5064
-0.1596 1.0815 0.5065
-0.1984 1.0752 0.5065
-0.2370 1.0675 0.5066
-0.2752 1.0585 0.5067
-0.3131 1.0480 0.5067
-0.3506 1.0363 0.5068
-0.3877 1.0232 0.5069
-0.4244 1.0089 0.5070
-0.4604 0.9932 0.5071
-0.4960 0.9763 0.5073
-0.5309 0.9581 0.5074
-0.5651 0.9387 0.5075
-0.5987 0.9180 0.5077
-0.6315 0.8962 0.5079
-0.6635 0.8733 0.5080
-0.6947 0.8492 0.5082
-0.7251 0.8240 0.5084
-0.7545 0.7977 0.5086
-0.7830 0.7704 0.5088
-0.8106 0.7421 0.5090
-0.8371 0.7128 0.5092
-2.8706 2.2715 1.6954
-2.9505 2.1669 1.6954
-3.0265 2.0596 1.6954
-3.0987 1.9495 1.6954
-3.1668 1.8369 1.6954
-3.2308 1.7220 1.6954
-3.2907 1.6048 1.6954
-3.3463 1.4856 1.6954
-3.3977 1.3644 1.6954
