ply
format ascii 1.0
element vertex 2117
property float32 x
property float32 y
property float32 z
end_header
15.4183 23.9700 -0.3277
2.1523 3.6252 -0.0480
13.2179 24.1971 -0.3104
12.1679 24.3055 -0.3031
11.1461 24.4110 -0.2965
11.3651 27.4524 -0.3254
11.7203 31.4530 -0.3647
10.9304 32.8873 -0.3738
11.1116 37.9191 -0.4234
-6.4708 29.4327 -0.3186
-7.2825 28.2581 -0.3100
-11.1727 37.7091 -0.4201
-12.7116 37.8679 -0.4294
-11.4960 30.5710 -0.3536
-11.7043 28.0341 -0.3314
-12.0258 26.1305 -0.3164
-12.1180 24.0259 -0.2986
-13.0872 23.7883 -0.3042
-14.3430 23.9942 -0.3163
-15.5681 24.0444 -0.3276
-16.9174 24.1837 -0.3413
-18.3531 24.3319 -0.3565
-19.8933 24.4972 -0.3736
-21.5363 24.6605 -0.3924
-31.4588 33.5197 -0.5580
-31.6150 31.3561 -0.5476
-33.3551 30.7923 -0.5658
-36.3016 31.1800 -0.6046
-9.9334 7.9319 -0.1628
-9.9146 7.3512 -0.1604
-13.0461 8.2955 -0.2067
-10.0887 5.4427 -0.1578
-10.1761 5.0279 -0.1586
-6.9473 2.8336 -0.1080
-10.2912 3.3606 -0.1605
-13.4451 2.8400 -0.2129
-10.4887 1.4410 -0.1688
-10.5513 1.0662 -0.1715
-10.6838 -0.4551 -0.1828
-10.7236 -0.8424 -0.1864
-39.7453 -7.4734 -0.7287
-10.8895 -2.4543 -0.2037
-25.4492 -8.6928 -0.5087
-32.9760 -18.3703 -0.7540
-8.2334 -9.0150 -0.2639
-18.9655 -27.9121 -0.7490
-25.1022 -39.9508 -1.0532
-23.4257 -40.4282 -1.0487
-21.7300 -40.8045 -1.0429
-20.1346 -41.3105 -1.0417
-18.5619 -41.8248 -1.0417
-16.9343 -42.1701 -1.0388
-15.4000 -42.7134 -1.0417
-13.2072 -41.2007 -0.9960
-11.6890 -41.5267 -0.9961
-10.2286 -42.0605 -1.0021
-8.7203 -42.4236 -1.0049
-7.2279 -42.9033 -1.0115
-5.7129 -43.3346 -1.0178
11.6446 9.3533 0.1437
26.4294 22.8332 0.3422
25.3241 23.5139 0.3446
23.7359 23.6779 0.3400
22.2379 23.8325 0.3358
20.8190 23.9790 0.3322
19.4698 24.1183 0.3289
17.7877 23.7254 0.3189
16.5808 23.8499 0.3164
15.4208 23.9697 0.3141
2.1524 3.6247 0.0470
13.2200 24.1969 0.3105
12.1698 24.3053 0.3091
11.1478 24.4108 0.3079
11.3656 27.4492 0.3437
11.7196 31.4459 0.3911
10.9319 32.8868 0.4067
11.1133 37.9190 0.4665
-6.4717 29.4328 0.3601
-6.7493 26.1851 0.3217
-11.1743 37.7092 0.4656
-11.9693 35.6512 0.4427
-11.4978 30.5712 0.3820
-11.7046 28.0306 0.3528
-12.0261 26.1271 0.3314
-12.1184 24.0227 0.3074
-13.0894 23.7886 0.3073
-14.3455 23.9945 0.3133
-15.5709 24.0447 0.3175
-16.9206 24.1841 0.3234
-18.3567 24.3323 0.3299
-19.9104 24.5138 0.3374
-21.5408 24.6610 0.3450
-28.9293 30.8185 0.4389
-31.6765 31.4106 0.4561
-33.4651 30.8872 0.4580
-36.3108 31.1810 0.4732
-9.9292 7.9267 0.1234
-9.9591 7.3824 0.1181
-12.5566 7.9821 0.1362
-14.5032 8.5060 0.1505
-10.1264 5.4613 0.1007
-10.2551 5.0653 0.0978
-20.4813 9.2192 0.1873
-6.9481 2.8329 0.0610
-26.4445 9.6925 0.2229
-10.3291 3.3714 0.0836
-38.3712 11.0202 0.2985
-48.2198 11.9972 0.3605
-13.4509 2.8393 0.0966
-10.5276 1.4448 0.0699
-10.7238 -0.4584 0.0582
-10.7638 -0.8471 0.0561
-39.6651 -7.4642 0.1818
-10.9302 -2.4651 0.0479
-10.9741 -2.8917 0.0460
-25.4043 -8.6814 0.0969
-40.0780 -22.3334 0.1169
-12.1162 -12.3501 0.0185
-8.2295 -9.0125 0.0111
-12.3324 -14.5174 0.0144
-18.0388 -24.6085 0.0142
-12.7574 -18.7788 0.0075
-12.9386 -20.5957 0.0049
-13.1480 -22.6948 0.0021
-21.7282 -40.8079 -0.0016
-20.1316 -41.3114 -0.0065
-18.5592 -41.8255 -0.0111
-16.9329 -42.1733 -0.0152
-15.3978 -42.7140 -0.0190
-13.2053 -41.2012 -0.0214
-11.6880 -41.5295 -0.0244
-10.2271 -42.0609 -0.0271
-8.7191 -42.4239 -0.0294
-7.2269 -42.9036 -0.0315
-5.7121 -43.3349 -0.0332
11.6444 9.3509 0.4801
26.4347 22.8327 1.1293
25.3290 23.5134 1.1233
23.7404 23.6774 1.0955
22.2420 23.8321 1.0704
20.8228 23.9786 1.0477
11.5077 14.2525 0.6071
17.7907 23.7250 0.9871
11.7789 16.9397 0.6896
15.4234 23.9694 0.9564
2.1524 3.6241 0.1419
12.3664 22.6307 0.8715
12.1718 24.3051 0.9216
11.1495 24.4106 0.9126
11.2985 27.2828 1.0070
11.7188 31.4390 1.1471
10.9336 32.8866 1.1876
11.1150 37.9188 1.3569
10.7087 42.0599 1.4931
9.8377 45.3801 1.6000
8.1945 45.6404 1.6000
6.5469 45.8528 1.6000
5.2118 48.9861 1.7033
3.4514 49.1088 1.7033
1.6893 49.1806 1.7033
-0.0735 49.2005 1.7033
-1.1110 29.7539 1.0307
-2.1901 29.8856 1.0370
-2.0143 18.4102 0.6406
-2.3796 16.3178 0.5699
-2.9914 16.3793 0.5749
-3.6158 16.4421 0.5805
-6.7495 26.1824 0.9310
-11.1760 37.7094 1.3519
-11.9697 35.6472 1.2899
-11.4547 30.4520 1.1136
-11.7050 28.0272 1.0371
-11.9244 25.9020 0.9711
-12.1187 24.0196 0.9136
-13.0917 23.7888 0.9192
-14.2995 23.9135 0.9400
-15.5738 24.0450 0.9631
-16.9238 24.1844 0.9886
-18.3602 24.3327 1.0168
-19.9112 24.5102 1.0489
-16.6595 19.0690 0.8373
-16.8746 17.9730 0.8115
-18.2785 18.1213 0.8431
-19.8137 18.2835 0.8786
-21.5041 18.4621 0.9188
-9.9250 7.9215 0.4094
-9.9600 7.3813 0.3974
-23.8516 16.3862 0.9223
-12.5605 7.9824 0.4715
-14.5034 8.5037 0.5293
-10.1263 5.4596 0.3599
-10.2593 5.0657 0.3556
-20.1866 9.0833 0.6834
-6.9489 2.8321 0.2301
-26.4449 9.6885 0.8574
-10.3292 3.3698 0.3284
-37.1030 10.6504 1.1583
-10.5812 2.6310 0.3247
-13.4567 2.8385 0.4065
-10.5277 1.4433 0.3093
-10.8180 0.3114 0.3075
-10.7236 -0.4599 0.3000
-10.7636 -0.8487 0.2993
-45.5210 -6.8950 1.2550
-39.5934 -7.4565 1.0890
-10.9301 -2.4668 0.3003
-10.9739 -2.8933 0.3016
-25.3596 -8.6700 0.7004
-11.3022 -4.3220 0.3136
-11.4316 -4.8475 0.3191
-43.0699 -22.0246 1.2228
-40.0679 -22.3345 1.1501
-37.3578 -22.6142 1.0861
-34.8932 -22.8686 1.0294
-32.6363 -23.1016 0.9789
-30.5967 -23.3463 0.9350
-12.1165 -12.3529 0.4083
-8.2273 -9.0119 0.2859
-12.3327 -14.5206 0.4435
-12.7161 -17.3504 0.4945
-12.7578 -18.7828 0.5189
-12.9391 -20.6000 0.5528
-13.1485 -22.6994 0.5929
-15.8942 -29.8561 0.7607
-14.6123 -29.9903 0.7467
-10.1187 -22.8075 0.5560
-16.9678 -42.2670 1.0106
-15.3956 -42.7147 1.0037
-13.2034 -41.2018 0.9531
-11.7402 -41.7214 0.9518
-10.2464 -42.1467 0.9498
-6.3229 -30.7696 0.6862
-2.7733 -16.4668 0.3640
-2.1785 -16.5296 0.3629
11.6441 9.3485 0.8170
22.3811 19.3272 1.6233
21.6057 20.0527 1.6233
11.1811 11.1491 0.8722
11.2773 12.0811 0.9155
11.3831 13.1057 0.9644
11.5002 14.2406 1.0197
17.4384 23.2509 1.6233
11.7785 16.9362 1.1550
11.9464 18.5626 1.2387
2.1525 3.6236 0.2371
12.3659 22.6259 1.4533
12.1737 24.3049 1.5351
11.1513 24.4105 1.5183
10.9614 26.4646 1.6233
9.9909 26.7991 1.6233
9.0118 27.1019 1.6233
7.9108 26.9834 1.6002
6.9313 27.2191 1.6002
5.9458 27.4232 1.6002
4.9554 27.5955 1.6002
4.2160 29.5232 1.7033
3.1539 29.6391 1.7033
2.0892 29.7212 1.7033
1.0228 29.7694 1.7033
-0.0444 29.7836 1.7033
-1.1115 29.7640 1.7033
-2.1775 29.7105 1.7033
-2.0144 18.4083 1.0584
-2.3806 16.3219 0.9423
-2.9925 16.3835 0.9509
-3.6173 16.4464 0.9607
-7.0081 27.1816 1.6000
-7.9858 26.9412 1.6000
-9.0307 26.8905 1.6133
-10.0016 26.5850 1.6133
-10.9637 26.2481 1.6133
-11.9161 25.8799 1.6133
-12.1190 24.0164 1.5205
-13.0940 23.7890 1.5320
-14.3020 23.9138 1.5689
-15.4831 23.9010 1.6000
-16.3666 23.3840 1.6000
-17.2351 22.8375 1.6000
-18.0878 22.2615 1.6000
-16.6575 19.0630 1.4084
-16.8783 17.9734 1.3679
-18.2827 18.1218 1.4240
-19.8185 18.2840 1.4872
-23.5064 20.1767 1.7033
-9.9207 7.9162 0.6956
-9.9611 7.3803 0.6772
-25.7918 17.7146 1.7033
-12.5640 7.9825 0.8074
-14.5037 8.5014 0.9086
-10.1261 5.4578 0.6194
-10.2635 5.0662 0.6140
-19.6789 8.8518 1.1530
-6.9496 2.8313 0.3994
-25.9340 9.4974 1.4639
-10.3293 3.3683 0.5735
-30.7804 8.8309 1.6833
-10.5834 2.6300 0.5708
-13.4624 2.8377 0.7170
-31.9611 5.5496 1.6833
-10.5276 1.4417 0.5489
-32.5643 3.2764 1.6833
-32.6145 2.1051 1.6733
-10.8213 0.3099 0.5518
-32.0976 -0.2308 1.6286
-10.7234 -0.4615 0.5421
-10.7634 -0.8502 0.5428
-22.4775 -2.5884 1.1324
-29.8306 -4.5228 1.5029
-29.1008 -5.4848 1.4683
-10.9299 -2.4683 0.5530
-10.9738 -2.8949 0.5576
-31.5422 -9.5414 1.6117
-25.3150 -8.6587 1.3026
-11.2986 -4.3224 0.5863
-11.4281 -4.8479 0.5990
-27.6724 -12.9268 1.4672
-27.8847 -14.2640 1.4981
-30.6733 -17.1029 1.6725
-30.3628 -18.3851 1.6833
-29.8091 -19.5418 1.6833
-29.2095 -20.6811 1.6833
-28.5645 -21.8010 1.6833
-27.8746 -22.8994 1.6833
-26.8308 -23.7009 1.6641
-25.0583 -23.7858 1.6000
-12.1168 -12.3558 0.7985
-8.2253 -9.0115 0.5610
-12.3330 -14.5238 0.8732
-12.5122 -15.8520 0.9225
-12.5994 -17.1943 0.9707
-12.7582 -18.7867 1.0310
-12.9395 -20.6043 1.1015
-13.1958 -22.7851 1.1888
-17.7700 -33.3853 1.7033
-14.5211 -29.8082 1.4897
-10.0711 -22.7038 1.1134
-14.1820 -35.3333 1.7033
-12.9324 -35.8863 1.7033
-11.6593 -36.3892 1.7033
-10.3650 -36.8402 1.7033
-9.0518 -37.2389 1.7033
-6.3274 -30.7964 1.3957
-2.7729 -16.4669 0.7405
-2.1781 -16.5298 0.7388
11.6438 9.3460 1.1546
15.8515 13.6854 1.6233
15.3165 14.2125 1.6233
11.1808 11.1465 1.2292
11.2770 12.0784 1.2893
11.3828 13.1028 1.3569
11.4999 14.2375 1.4336
12.4127 16.5470 1.6233
11.7781 16.9326 1.6215
11.1575 17.3338 1.6233
2.1526 3.6231 0.3324
9.8573 18.0330 1.6233
9.1921 18.3490 1.6233
8.5177 18.6424 1.6233
7.8232 18.8847 1.6208
7.0426 18.8877 1.6002
6.3550 19.1087 1.6002
5.6611 19.3067 1.6002
4.9617 19.4815 1.6002
4.2575 19.6331 1.6002
3.5491 19.7612 1.6002
3.0202 21.1456 1.7033
2.2596 21.2320 1.7033
1.4970 21.2932 1.7033
0.7329 21.3293 1.7033
-0.0318 21.3402 1.7033
-0.7965 21.3259 1.7033
-1.5603 21.2864 1.7033
-2.1378 19.5331 1.5677
-2.3815 16.3261 1.3159
-2.9937 16.3877 1.3281
-3.6187 16.4506 1.3421
-4.2888 16.6321 1.3677
-6.0845 20.5239 1.7033
-6.8218 20.3100 1.7033
-7.5523 20.0716 1.7033
-8.2754 19.8090 1.7033
-8.9902 19.5222 1.7033
-9.6959 19.2115 1.7033
-10.3920 18.8771 1.7033
-11.0776 18.5193 1.7033
-11.7521 18.1383 1.7033
-12.4145 17.7344 1.7033
-13.0643 17.3078 1.7033
-13.7007 16.8591 1.7033
-14.3230 16.3883 1.7033
-14.9304 15.8960 1.7033
-11.6558 11.5508 1.2790
-16.0977 14.8482 1.7033
-16.6562 14.2936 1.7033
-9.9165 7.9110 0.9822
-9.9615 7.3788 0.9575
-11.4587 7.8681 1.0710
-12.5676 7.9826 1.1443
-14.1278 8.2787 1.2554
-10.1260 5.4561 0.8795
-10.2678 5.0666 0.8731
-19.6875 8.8525 1.6416
-6.9504 2.8305 0.5691
-20.9034 7.6518 1.6833
-10.3292 3.3667 0.8191
-21.5229 6.1716 1.6833
-21.7951 5.4129 1.6833
-13.4683 2.8369 1.0285
-22.2615 3.8621 1.6833
-10.5275 1.4401 0.7892
-22.6202 2.2726 1.6832
-22.7313 1.4639 1.6812
-10.8245 0.3084 0.7968
-22.2850 -0.1635 1.6345
-10.7233 -0.4631 0.7847
-10.7633 -0.8518 0.7869
-21.2114 -2.4457 1.5512
-21.1764 -3.2138 1.5511
-21.2814 -4.0142 1.5633
-10.9297 -2.4699 0.8063
-10.9736 -2.8965 0.8141
-19.4079 -5.8738 1.4500
-18.8386 -6.4464 1.4194
-11.2951 -4.3228 0.8595
-11.4247 -4.8482 0.8793
-18.8593 -8.8129 1.4705
-19.6026 -10.0306 1.5508
-20.3769 -11.3652 1.6384
-20.3091 -12.3009 1.6626
-20.1598 -13.2196 1.6833
-19.7281 -13.9716 1.6833
-19.2675 -14.7089 1.6833
-18.7781 -15.4301 1.6833
-18.2606 -16.1340 1.6833
-17.7157 -16.8196 1.6833
-12.1171 -12.3586 1.1897
-8.2233 -9.0111 0.8366
-12.3333 -14.5270 1.3039
-12.4591 -15.7876 1.3731
-12.5997 -17.1979 1.4525
-12.7586 -18.7907 1.5443
-12.5369 -19.9667 1.6000
-11.8356 -20.4399 1.6001
-11.1153 -20.8863 1.6001
-10.3772 -21.3053 1.6001
-9.6223 -21.6957 1.6002
-9.2431 -23.0320 1.6709
-8.5863 -23.8300 1.7033
-7.7366 -24.1499 1.7033
-6.8741 -24.4365 1.7033
-6.0004 -24.6895 1.7033
-5.1168 -24.9082 1.7033
-2.7725 -16.4671 1.1178
-2.1778 -16.5299 1.1154
11.6435 9.3436 1.4934
12.2621 10.5841 1.6233
11.8543 10.9974 1.6233
11.1806 11.1439 1.5874
10.9997 11.7789 1.6233
10.5540 12.1464 1.6233
10.0968 12.4979 1.6233
9.6286 12.8333 1.6233
9.1500 13.1520 1.6233
8.6616 13.4539 1.6233
2.1526 3.6225 0.4280
7.4149 13.5626 1.5719
6.8319 13.6354 1.5526
6.5265 14.2820 1.6002
6.0049 14.4931 1.6002
5.4770 14.6864 1.6002
4.9433 14.8615 1.6002
4.4044 15.0185 1.6002
3.8609 15.1572 1.6002
3.3135 15.2775 1.6002
2.8799 16.0327 1.6682
2.3511 16.4585 1.7033
1.7592 16.5272 1.7033
1.1655 16.5759 1.7033
0.5707 16.6046 1.7033
-0.0248 16.6134 1.7033
-0.6201 16.6021 1.7033
-1.2148 16.5710 1.7033
-1.8082 16.5198 1.7033
-2.3997 16.4487 1.7033
-2.9887 16.3578 1.7033
-3.5745 16.2472 1.7033
-4.1565 16.1168 1.7033
-4.7342 15.9668 1.7033
-5.3069 15.7975 1.7033
-5.8740 15.6087 1.7033
-6.4348 15.4008 1.7033
-6.9889 15.1740 1.7033
-7.5355 14.9283 1.7033
-8.0741 14.6641 1.7033
-8.6040 14.3815 1.7033
-9.1247 14.0808 1.7033
-9.6356 13.7622 1.7033
-10.1361 13.4260 1.7033
-10.6256 13.0725 1.7033
-10.4314 11.9333 1.6002
-10.8689 11.5695 1.6002
-11.2944 11.1904 1.6001
-11.7074 10.7963 1.6001
-12.1074 10.3877 1.6001
-9.9122 7.9058 1.2694
-9.9299 7.3536 1.2349
-9.9817 6.8522 1.2077
-10.0314 6.3700 1.1830
-10.0795 5.9047 1.1607
-10.1260 5.4544 1.1405
-10.1598 5.0117 1.1210
-10.2036 4.5864 1.1046
-6.9512 2.8298 0.7395
-10.2881 3.7644 1.0770
-10.3292 3.3651 1.0656
-10.3697 2.9719 1.0557
-10.4096 2.5837 1.0473
-10.4492 2.1994 1.0402
-10.4884 1.8181 1.0345
-10.5274 1.4386 1.0302
-10.5664 1.0600 1.0272
-10.6053 0.6814 1.0255
-10.6444 0.3017 1.0250
-10.6836 -0.0799 1.0259
-10.7232 -0.4646 1.0282
-10.7632 -0.8534 1.0318
-10.8037 -1.2473 1.0367
-10.8449 -1.6475 1.0431
-10.8868 -2.0551 1.0510
-10.9297 -2.4716 1.0605
-10.9736 -2.8982 1.0715
-11.0187 -3.3365 1.0843
-11.0651 -3.7881 1.0989
-11.1131 -4.2549 1.1155
-11.1629 -4.7389 1.1342
-15.9407 -7.4517 1.6419
-15.6468 -8.0090 1.6365
-15.4240 -8.6054 1.6407
-15.1824 -9.1984 1.6454
-14.9206 -9.7867 1.6504
-14.5623 -10.3158 1.6472
-14.1813 -10.8287 1.6435
-13.8206 -11.3591 1.6445
-13.4895 -11.9212 1.6516
-13.1359 -12.4741 1.6588
-12.1173 -12.3615 1.5822
-8.1635 -8.9474 1.1051
-11.3676 -13.3921 1.6000
-10.8990 -13.8133 1.6001
-10.4140 -14.2172 1.6001
-9.9134 -14.6030 1.6001
-9.3979 -14.9701 1.6001
-8.8682 -15.3178 1.6002
-8.4897 -15.9553 1.6318
-8.2693 -16.9803 1.7033
-7.6647 -17.2847 1.7033
-7.0484 -17.5661 1.7033
-6.4212 -17.8240 1.7033
-5.7840 -18.0579 1.7033
-5.1380 -18.2675 1.7033
-4.4839 -18.4524 1.7033
-3.8228 -18.6121 1.7033
-3.1557 -18.7465 1.7033
-2.4838 -18.8552 1.7033
10.3080 8.2699 1.6233
9.9903 8.6212 1.6233
9.6610 8.9608 1.6233
9.3208 9.2883 1.6233
8.9700 9.6035 1.6233
8.6090 9.9060 1.6233
8.2383 10.1956 1.6233
7.8584 10.4719 1.6233
7.0795 10.1740 1.5385
7.0621 10.9674 1.6208
2.1527 3.6220 0.5241
6.1664 11.2769 1.6002
5.7531 11.4804 1.6002
5.3335 11.6695 1.6002
4.9081 11.8440 1.6002
4.4773 12.0038 1.6002
4.0416 12.1488 1.6002
3.6015 12.2787 1.6002
3.1575 12.3935 1.6002
2.7331 12.5994 1.6138
2.4052 13.3876 1.7033
1.9232 13.4610 1.7033
1.4391 13.5179 1.7033
0.9535 13.5582 1.7033
0.4669 13.5821 1.7033
-0.0202 13.5894 1.7033
-0.5073 13.5802 1.7033
-0.9938 13.5544 1.7033
-1.4792 13.5121 1.7033
-1.9630 13.4534 1.7033
-2.4446 13.3782 1.7033
-2.9236 13.2866 1.7033
-3.3993 13.1788 1.7033
-3.8713 13.0548 1.7033
-4.3391 12.9147 1.7033
-4.8021 12.7587 1.7033
-5.2599 12.5869 1.7033
-5.7119 12.3994 1.7033
-6.1575 12.1965 1.7033
-6.5963 11.9783 1.7033
-7.0278 11.7450 1.7033
-7.4516 11.4969 1.7033
-7.8669 11.2341 1.7033
-8.2736 10.9570 1.7033
-8.1455 10.0195 1.6001
-8.5096 9.7328 1.6000
-8.8640 9.4335 1.6000
-9.2083 9.1217 1.6000
-9.5422 8.7977 1.6000
-9.8651 8.4621 1.6000
-9.9079 7.9005 1.5577
-9.9300 7.3519 1.5165
-9.9818 6.8505 1.4836
-10.0315 6.3683 1.4539
-10.0796 5.9031 1.4269
-10.1261 5.4528 1.4026
-10.1599 5.0101 1.3791
-10.2036 4.5848 1.3595
-6.9520 2.8290 0.9106
-10.2882 3.7629 1.3266
-10.3293 3.3635 1.3131
-10.3698 2.9703 1.3015
-10.4097 2.5821 1.2916
-10.4492 2.1979 1.2835
-10.4885 1.8165 1.2771
-10.5275 1.4370 1.2723
-10.5665 1.0585 1.2691
-10.6054 0.6798 1.2676
-10.6445 0.3002 1.2676
-10.6837 -0.0815 1.2693
-10.7233 -0.4662 1.2727
-10.7633 -0.8550 1.2777
-10.8038 -1.2489 1.2845
-10.8450 -1.6491 1.2930
-10.8869 -2.0568 1.3034
-10.9298 -2.4733 1.3157
-10.9737 -2.8999 1.3301
-11.0188 -3.3382 1.3466
-11.0652 -3.7899 1.3653
-11.1133 -4.2567 1.3866
-11.1630 -4.7408 1.4104
-12.9217 -6.0425 1.6558
-12.6859 -6.4956 1.6514
-12.4578 -6.9526 1.6501
-12.2291 -7.4112 1.6510
-11.6081 -7.6160 1.6002
-11.3472 -8.0403 1.6002
-11.0704 -8.4553 1.6002
-10.7780 -8.8605 1.6002
-10.4703 -9.2551 1.6002
-10.1478 -9.6387 1.6002
-9.8108 -10.0105 1.6002
-8.1522 -8.9368 1.3790
-9.0949 -10.7167 1.6002
-8.7170 -11.0500 1.6002
-8.3264 -11.3692 1.6002
-8.0795 -11.9036 1.6316
-7.9932 -12.7347 1.7033
-7.5404 -13.0267 1.7033
-7.0766 -13.3019 1.7033
-6.6023 -13.5597 1.7033
-6.1183 -13.7996 1.7033
-5.6251 -14.0213 1.7033
-5.1236 -14.2245 1.7033
-4.6144 -14.4087 1.7033
-4.0983 -14.5736 1.7033
-3.5761 -14.7190 1.7033
-3.0485 -14.8447 1.7033
-2.5163 -14.9503 1.7033
-1.9803 -15.0357 1.7033
8.6874 6.9681 1.6233
8.4215 7.2658 1.6233
8.1458 7.5537 1.6233
7.8606 7.8316 1.6233
7.5663 8.0991 1.6233
7.2633 8.3559 1.6233
6.9519 8.6018 1.6233
6.6325 8.8366 1.6233
6.3055 9.0600 1.6233
5.8863 9.1398 1.6002
2.1527 3.6214 0.6206
5.2077 9.5221 1.6002
4.8594 9.6953 1.6002
4.5056 9.8563 1.6002
4.1467 10.0049 1.6002
3.7831 10.1410 1.6002
3.4153 10.2645 1.6002
3.0436 10.3752 1.6002
2.6686 10.4730 1.6002
0.7306 3.3676 0.5104
0.6092 3.3904 0.5104
0.4871 3.4091 0.5104
0.3645 3.4236 0.5104
0.2416 3.4339 0.5104
0.1183 3.4401 0.5104
-0.0051 3.4421 0.5104
-0.1285 3.4398 0.5104
-0.2518 3.4334 0.5104
-0.3747 3.4228 0.5104
-0.4973 3.4080 0.5105
-0.6194 3.3890 0.5105
-0.7407 3.3659 0.5106
-2.8731 11.1370 1.7033
-3.2718 11.0314 1.7033
-3.6669 10.9121 1.7033
-4.0578 10.7793 1.7033
-4.4441 10.6330 1.7033
-4.8254 10.4734 1.7033
-5.2012 10.3007 1.7033
-5.5712 10.1151 1.7033
-5.9348 9.9167 1.7033
-6.2917 9.7057 1.7033
-6.6414 9.4823 1.7033
-6.9835 9.2468 1.7033
-6.8745 8.4545 1.6001
-7.1805 8.2111 1.6001
-7.4781 7.9570 1.6001
-7.7670 7.6923 1.6001
-8.0470 7.4176 1.6001
-8.3175 7.1329 1.6001
-8.5783 6.8386 1.6001
-8.8290 6.5351 1.6001
-9.0693 6.2227 1.6001
-9.2989 5.9016 1.6000
-9.5174 5.5722 1.6000
-9.7247 5.2350 1.6000
-9.9202 4.8903 1.6000
-10.1039 4.5383 1.6000
-6.9528 2.8282 1.0826
-10.2883 3.7613 1.5776
-10.3294 3.3620 1.5620
-10.3698 2.9688 1.5486
-10.4098 2.5806 1.5373
-10.4493 2.1963 1.5281
-10.4886 1.8150 1.5209
-10.5276 1.4355 1.5157
-10.5665 1.0569 1.5124
-10.6055 0.6783 1.5110
-10.6446 0.2986 1.5116
-10.6838 -0.0831 1.5141
-10.7234 -0.4678 1.5185
-10.7634 -0.8566 1.5250
-10.8039 -1.2505 1.5336
-10.8451 -1.6508 1.5443
-10.8871 -2.0585 1.5571
-10.9299 -2.4749 1.5724
-10.9738 -2.9016 1.5900
-10.9491 -3.3188 1.6000
-10.8407 -3.7147 1.6000
-10.7179 -4.1070 1.6000
-10.5807 -4.4952 1.6000
-10.4300 -4.8791 1.6002
-10.2644 -5.2574 1.6002
-10.0848 -5.6299 1.6002
-9.8914 -5.9962 1.6002
-9.6845 -6.3556 1.6002
-9.4642 -6.7078 1.6002
-9.2308 -7.0520 1.6002
-8.9846 -7.3879 1.6002
-8.7259 -7.7149 1.6002
-8.4549 -8.0325 1.6002
-8.1721 -8.3403 1.6002
-7.8778 -8.6377 1.6002
-7.7954 -9.1873 1.6473
-7.7236 -9.7926 1.7033
-7.3760 -10.0734 1.7033
-7.0178 -10.3413 1.7033
-6.6496 -10.5960 1.7033
-6.2719 -10.8371 1.7033
-5.8851 -11.0640 1.7033
-5.4898 -11.2766 1.7033
-5.0865 -11.4744 1.7033
-4.6759 -11.6571 1.7033
-4.2585 -11.8245 1.7033
-3.8348 -11.9762 1.7033
-3.4056 -12.1120 1.7033
-2.9713 -12.2317 1.7033
-2.5328 -12.3351 1.7033
-2.0904 -12.4221 1.7033
-1.6451 -12.4924 1.7033
7.5006 6.0147 1.6233
7.2723 6.2728 1.6233
7.0354 6.5225 1.6233
6.7901 6.7636 1.6233
6.5369 6.9957 1.6233
6.2760 7.2186 1.6233
5.9223 7.3264 1.6002
5.6509 7.5274 1.6002
5.3730 7.7187 1.6002
5.0888 7.9001 1.6002
2.1528 3.6209 0.7178
4.5032 8.2324 1.6002
4.2024 8.3830 1.6002
3.8968 8.5231 1.6002
3.5867 8.6523 1.6002
3.2725 8.7708 1.6002
2.9545 8.8782 1.6002
0.8408 2.8657 0.5110
0.7372 2.8928 0.5109
0.6328 2.9163 0.5109
0.5277 2.9362 0.5109
0.4220 2.9525 0.5109
0.3158 2.9652 0.5109
0.2092 2.9742 0.5109
0.1025 2.9795 0.5109
-0.0044 2.9812 0.5109
-0.1113 2.9793 0.5109
-0.2181 2.9737 0.5109
-0.3246 2.9644 0.5110
-0.4308 2.9515 0.5110
-0.5365 2.9349 0.5110
-0.6415 2.9148 0.5111
-0.7459 2.8910 0.5111
-2.8306 9.5425 1.7033
-3.1722 9.4387 1.7033
-3.5101 9.3231 1.7033
-3.8441 9.1959 1.7033
-4.1735 9.0571 1.7033
-4.4982 8.9069 1.7033
-4.8177 8.7455 1.7033
-5.1316 8.5731 1.7033
-5.4396 8.3897 1.7033
-5.7412 8.1956 1.7033
-6.0362 7.9910 1.7033
-6.3241 7.7761 1.7033
-6.4394 7.3622 1.6606
-6.4612 6.8736 1.6002
-6.7099 6.6440 1.6002
-6.9507 6.4056 1.6001
-7.1832 6.1588 1.6001
-7.4072 5.9037 1.6001
-7.6224 5.6406 1.6001
-7.8286 5.3699 1.6001
-8.0253 5.0919 1.6001
-8.2124 4.8068 1.6001
-8.3896 4.5149 1.6001
-8.5567 4.2167 1.6001
-8.7134 3.9124 1.6001
-6.9537 2.8275 1.2559
-8.9947 3.2869 1.6001
-9.1188 2.9665 1.6001
-9.2318 2.6415 1.6001
-9.3333 2.3123 1.6001
-9.4232 1.9792 1.6001
-9.5013 1.6427 1.6001
-9.5676 1.3031 1.6001
-9.6218 0.9610 1.6001
-9.6639 0.6166 1.6001
-9.6937 0.2705 1.6001
-9.7111 -0.0770 1.6001
-9.7161 -0.4253 1.6001
-9.7087 -0.7741 1.6001
-9.6887 -1.1229 1.6001
-9.6561 -1.4712 1.6001
-9.6111 -1.8187 1.6001
-9.5534 -2.1647 1.6001
-9.4832 -2.5089 1.6001
-9.4005 -2.8509 1.6001
-9.3054 -3.1901 1.6001
-9.1979 -3.5260 1.6001
-9.0782 -3.8583 1.6001
-8.9463 -4.1865 1.6001
-8.8024 -4.5100 1.6001
-8.6468 -4.8287 1.6002
-8.4793 -5.1416 1.6002
-8.3002 -5.4487 1.6002
-8.1098 -5.7493 1.6002
-7.9082 -6.0431 1.6002
-7.6959 -6.3297 1.6002
-7.5431 -6.6706 1.6152
-7.5910 -7.2133 1.6778
-7.4469 -7.6017 1.7033
-7.1775 -7.8714 1.7033
-6.8980 -8.1313 1.7033
-6.6089 -8.3809 1.7033
-6.3105 -8.6199 1.7033
-6.0032 -8.8479 1.7033
-5.6875 -9.0645 1.7033
-5.3637 -9.2695 1.7033
-5.0323 -9.4624 1.7033
-4.6938 -9.6431 1.7033
-4.3485 -9.8112 1.7033
-3.9971 -9.9664 1.7033
-3.6399 -10.1086 1.7033
-3.2775 -10.2374 1.7033
-2.9104 -10.3527 1.7033
-2.5392 -10.4544 1.7033
-2.1643 -10.5421 1.7033
-1.7862 -10.6159 1.7033
-1.4056 -10.6755 1.7033
6.5932 5.2858 1.6233
6.3933 5.5134 1.6233
6.1858 5.7336 1.6233
5.8860 5.8617 1.6002
5.6671 6.0636 1.6002
5.4415 6.2576 1.6002
5.2095 6.4434 1.6002
4.9713 6.6209 1.6002
4.7273 6.7898 1.6002
4.4777 6.9501 1.6002
2.1528 3.6203 0.8158
3.9630 7.2437 1.6002
3.6986 7.3768 1.6002
3.4299 7.5006 1.6002
3.1571 7.6149 1.6002
2.8807 7.7196 1.6002
0.8312 2.4974 0.5114
0.7408 2.5245 0.5114
0.6496 2.5485 0.5113
0.5576 2.5693 0.5113
0.4650 2.5870 0.5113
0.3718 2.6014 0.5113
0.2783 2.6126 0.5113
0.1844 2.6206 0.5113
0.0903 2.6253 0.5113
-0.0039 2.6268 0.5113
-0.0981 2.6251 0.5113
-0.1922 2.6201 0.5113
-0.2861 2.6119 0.5114
-0.3796 2.6005 0.5114
-0.4727 2.5858 0.5114
-0.5653 2.5679 0.5114
-0.6572 2.5469 0.5115
-0.7484 2.5227 0.5115
-2.7927 8.3082 1.7033
-3.0900 8.2060 1.7033
-3.3838 8.0935 1.7033
-3.6736 7.9708 1.7033
-3.9591 7.8381 1.7033
-4.2400 7.6955 1.7033
-4.5159 7.5431 1.7033
-4.7865 7.3811 1.7033
-5.0514 7.2097 1.7033
-5.3105 7.0290 1.7033
-5.5633 6.8393 1.7033
-5.8094 6.6407 1.7033
-6.0487 6.4335 1.7033
-6.2791 6.2160 1.7028
-6.2806 5.7868 1.6444
-6.3237 5.4206 1.6022
-6.5117 5.1887 1.6002
-6.7000 4.9568 1.6002
-6.8803 4.7182 1.6002
-7.0522 4.4732 1.6001
-7.2156 4.2221 1.6001
-7.3703 3.9651 1.6001
-7.5159 3.7025 1.6001
-7.6524 3.4347 1.6001
-6.9548 2.8268 1.4305
-7.8970 2.8846 1.6001
-8.0047 2.6028 1.6001
-8.1026 2.3172 1.6001
-8.1903 2.0279 1.6001
-8.2679 1.7353 1.6001
-8.3350 1.4398 1.6001
-8.3917 1.1417 1.6001
-8.4378 0.8415 1.6001
-8.4733 0.5394 1.6001
-8.4979 0.2359 1.6001
-8.5118 -0.0687 1.6001
-8.5147 -0.3740 1.6001
-8.5067 -0.6795 1.6001
-8.4877 -0.9850 1.6001
-8.4577 -1.2899 1.6001
-8.4167 -1.5940 1.6001
-8.3648 -1.8967 1.6001
-8.3019 -2.1977 1.6001
-8.2281 -2.4966 1.6001
-8.1435 -2.7930 1.6001
-8.0481 -3.0865 1.6001
-7.9420 -3.3767 1.6001
-7.8253 -3.6632 1.6001
-7.6982 -3.9456 1.6002
-7.5607 -4.2234 1.6002
-7.4131 -4.4964 1.6002
-7.3508 -4.8268 1.6212
-7.3871 -5.2383 1.6677
-7.3559 -5.6225 1.7033
-7.1574 -5.8882 1.7033
-6.9490 -6.1467 1.7033
-6.7311 -6.3976 1.7033
-6.5040 -6.6406 1.7033
-6.2679 -6.8753 1.7033
-6.0231 -7.1014 1.7033
-5.7700 -7.3184 1.7033
-5.5088 -7.5262 1.7033
-5.2400 -7.7244 1.7033
-4.9639 -7.9127 1.7033
-4.6809 -8.0908 1.7033
-4.3912 -8.2585 1.7033
-4.0955 -8.4154 1.7033
-3.7939 -8.5614 1.7033
-3.4870 -8.6962 1.7033
-3.1752 -8.8196 1.7033
-2.8589 -8.9314 1.7033
-2.5386 -9.0315 1.7033
-2.2147 -9.1197 1.7033
-1.8876 -9.1959 1.7033
-1.5578 -9.2599 1.7033
-1.2258 -9.3116 1.7033
5.8763 4.7099 1.6233
5.6176 4.8433 1.6002
5.4358 5.0373 1.6002
5.2475 5.2247 1.6002
5.0528 5.4052 1.6002
4.8521 5.5786 1.6002
4.6456 5.7448 1.6002
4.4336 5.9036 1.6002
4.2162 6.0547 1.6002
3.9939 6.1981 1.6002
2.1529 3.6198 0.9145
2.0665 3.7765 0.9353
3.2997 6.5800 1.6002
3.0601 6.6908 1.6002
2.8169 6.7932 1.6002
0.8220 2.2024 0.5117
0.7422 2.2295 0.5117
0.6615 2.2538 0.5117
0.5800 2.2753 0.5117
0.4979 2.2940 0.5116
0.4152 2.3098 0.5116
0.3321 2.3227 0.5116
0.2485 2.3328 0.5116
0.1647 2.3399 0.5116
0.0807 2.3442 0.5116
-0.0035 2.3456 0.5116
-0.0876 2.3440 0.5117
-0.1716 2.3395 0.5117
-0.2554 2.3322 0.5117
-0.3390 2.3219 0.5117
-0.4221 2.3087 0.5117
-0.5048 2.2927 0.5118
-0.5869 2.2738 0.5118
-0.6683 2.2521 0.5118
-0.7489 2.2276 0.5119
-0.8287 2.2003 0.5119
-3.0192 7.2203 1.7033
-3.2776 7.1105 1.7033
-3.5321 6.9917 1.7033
-3.7825 6.8641 1.7033
-4.0284 6.7277 1.7033
-4.2695 6.5827 1.7033
-4.5055 6.4293 1.7033
-4.7362 6.2677 1.7033
-4.9613 6.0980 1.7033
-5.1804 5.9205 1.7033
-5.3933 5.7352 1.7033
-5.5998 5.5424 1.7033
-5.7995 5.3424 1.7033
-5.9923 5.1353 1.7033
-6.1778 4.9215 1.7033
-6.3559 4.7010 1.7033
-6.3958 4.3848 1.6692
-6.4333 4.0795 1.6383
-6.4669 3.7829 1.6097
-6.5657 3.5311 1.6002
-6.7151 3.3069 1.6050
-6.8155 3.0579 1.6002
-6.9278 2.8147 1.6002
-7.0316 2.5673 1.6002
-7.1266 2.3162 1.6002
-7.2128 2.0616 1.6001
-7.2900 1.8038 1.6001
-7.3580 1.5432 1.6001
-7.4168 1.2800 1.6001
-7.4663 1.0147 1.6001
-7.5063 0.7474 1.6001
-7.5368 0.4786 1.6001
-7.5577 0.2086 1.6001
-7.5690 -0.0623 1.6001
-7.5706 -0.3337 1.6001
-7.5624 -0.6053 1.6001
-7.5445 -0.8767 1.6001
-7.5168 -1.1476 1.6002
-7.4794 -1.4176 1.6002
-7.4323 -1.6864 1.6002
-7.3754 -1.9536 1.6002
-7.3088 -2.2188 1.6002
-7.2327 -2.4818 1.6002
-7.1470 -2.7421 1.6002
-7.1660 -3.0479 1.6261
-7.1928 -3.3683 1.6567
-7.2276 -3.7056 1.6925
-7.1430 -3.9913 1.7033
-7.0026 -4.2487 1.7033
-6.8529 -4.5010 1.7033
-6.6938 -4.7480 1.7033
-6.5258 -4.9892 1.7033
-6.3489 -5.2243 1.7033
-6.1634 -5.4530 1.7033
-5.9695 -5.6750 1.7033
-5.7675 -5.8899 1.7033
-5.5575 -6.0974 1.7033
-5.3400 -6.2973 1.7033
-5.1151 -6.4891 1.7033
-4.8832 -6.6728 1.7033
-4.6445 -6.8479 1.7033
-4.3995 -7.0142 1.7033
-4.1483 -7.1715 1.7033
-3.8913 -7.3196 1.7033
-3.6290 -7.4581 1.7033
-3.3616 -7.5870 1.7033
-3.0895 -7.7060 1.7033
-2.8131 -7.8149 1.7033
-2.5327 -7.9136 1.7033
-2.2488 -8.0019 1.7033
-1.9618 -8.0798 1.7033
-1.6720 -8.1470 1.7033
-1.3798 -8.2034 1.7033
-1.0858 -8.2491 1.7033
5.2197 4.1826 1.6002
5.0624 4.3636 1.6002
4.8989 4.5388 1.6002
4.7295 4.7080 1.6002
4.5544 4.8710 1.6002
4.3738 5.0277 1.6002
4.1880 5.1779 1.6002
3.9971 5.3213 1.6002
3.8014 5.4579 1.6002
2.2775 3.5337 1.0120
2.1126 3.5514 0.9953
2.0612 3.7661 1.0346
2.9757 5.9329 1.6002
2.7597 6.0330 1.6002
0.8129 1.9600 0.5120
0.7417 1.9870 0.5120
0.6697 2.0116 0.5120
0.5970 2.0336 0.5119
0.5235 2.0531 0.5119
0.4494 2.0700 0.5119
0.3748 2.0843 0.5119
0.2997 2.0960 0.5119
0.2243 2.1051 0.5119
0.1486 2.1116 0.5119
0.0728 2.1154 0.5119
-0.0031 2.1167 0.5119
-0.0791 2.1152 0.5119
-0.1549 2.1112 0.5119
-0.2305 2.1045 0.5119
-0.3059 2.0952 0.5120
-0.3810 2.0833 0.5120
-0.4556 2.0688 0.5120
-0.5296 2.0517 0.5120
-0.6030 2.0320 0.5121
-0.6758 2.0098 0.5121
-0.7477 1.9851 0.5121
-0.8188 1.9579 0.5122
-2.9559 6.4116 1.7033
-3.1853 6.3042 1.7033
-3.4110 6.1888 1.7033
-3.6325 6.0655 1.7033
-3.8497 5.9344 1.7033
-4.0623 5.7958 1.7033
-4.2701 5.6498 1.7033
-4.4727 5.4964 1.7033
-4.6699 5.3360 1.7033
-4.8615 5.1686 1.7033
-5.0473 4.9945 1.7033
-5.2269 4.8138 1.7033
-5.4002 4.6268 1.7033
-5.5669 4.4337 1.7033
-5.7269 4.2347 1.7033
-5.8799 4.0300 1.7033
-6.0256 3.8199 1.7033
-6.1640 3.6046 1.7033
-6.2949 3.3844 1.7033
-6.4179 3.1595 1.7033
-6.5331 2.9302 1.7033
-6.5697 2.6681 1.6852
-6.5966 2.4074 1.6673
-6.6230 2.1515 1.6518
-6.6517 1.9002 1.6393
-6.6800 1.6518 1.6290
-6.7076 1.4057 1.6208
-6.7344 1.1612 1.6145
-6.7606 0.9177 1.6103
-6.7863 0.6747 1.6079
-6.8115 0.4315 1.6075
-6.8363 0.1877 1.6091
-6.8607 -0.0575 1.6126
-6.8848 -0.3045 1.6181
-6.9086 -0.5540 1.6257
-6.9322 -0.8066 1.6353
-6.9556 -1.0630 1.6470
-6.9818 -1.3244 1.6617
-7.0094 -1.5915 1.6790
-7.0377 -1.8652 1.6990
-6.9910 -2.1235 1.7033
-6.9174 -2.3747 1.7033
-6.8347 -2.6234 1.7033
-6.7430 -2.8692 1.7033
-6.6424 -3.1117 1.7033
-6.5330 -3.3506 1.7033
-6.4149 -3.5856 1.7033
-6.2882 -3.8164 1.7033
-6.1531 -4.0426 1.7033
-6.0097 -4.2639 1.7033
-5.8583 -4.4800 1.7033
-5.6990 -4.6907 1.7033
-5.5320 -4.8955 1.7033
-5.3575 -5.0943 1.7033
-5.1758 -5.2868 1.7033
-4.9870 -5.4726 1.7033
-4.7914 -5.6515 1.7033
-4.5893 -5.8232 1.7033
-4.3809 -5.9875 1.7033
-4.1665 -6.1442 1.7033
-3.9464 -6.2930 1.7033
-3.7209 -6.4337 1.7033
-3.4902 -6.5662 1.7033
-3.2547 -6.6901 1.7033
-3.0147 -6.8053 1.7033
-2.7706 -6.9117 1.7033
-2.5226 -7.0091 1.7033
-2.2711 -7.0973 1.7033
-2.0165 -7.1763 1.7033
-1.7590 -7.2459 1.7033
-1.4992 -7.3059 1.7033
-1.2372 -7.3564 1.7033
-0.9735 -7.3972 1.7033
4.7453 3.8015 1.6002
4.6026 3.9663 1.6002
4.4543 4.1259 1.6002
4.3005 4.2800 1.6002
4.1416 4.4285 1.6002
3.9776 4.5713 1.6002
3.8088 4.7081 1.6002
3.6354 4.8388 1.6002
3.4576 4.9633 1.6002
2.2753 3.5297 1.1115
2.1106 3.5474 1.0931
2.0558 3.7557 1.1343
2.7070 5.3963 1.6002
0.8037 1.7566 0.5122
0.7399 1.7836 0.5122
0.6751 1.8083 0.5122
0.6096 1.8307 0.5122
0.5434 1.8508 0.5121
0.4765 1.8685 0.5121
0.4091 1.8840 0.5121
0.3412 1.8970 0.5121
0.2728 1.9077 0.5121
0.2042 1.9160 0.5121
0.1353 1.9220 0.5121
0.0663 1.9255 0.5121
-0.0028 1.9266 0.5121
-0.0720 1.9253 0.5121
-0.1410 1.9216 0.5121
-0.2099 1.9155 0.5122
-0.2785 1.9070 0.5122
-0.3468 1.8961 0.5122
-0.4147 1.8829 0.5122
-0.4821 1.8673 0.5122
-0.5489 1.8493 0.5123
-0.6151 1.8291 0.5123
-0.6806 1.8065 0.5123
-0.7452 1.7816 0.5124
-0.8090 1.7545 0.5124
-2.8978 5.7341 1.7033
-3.1029 5.6289 1.7033
-3.3043 5.5165 1.7033
-3.5018 5.3971 1.7033
-3.6950 5.2707 1.7033
-3.8837 5.1376 1.7033
-4.0678 4.9979 1.7033
-4.2469 4.8517 1.7033
-4.4209 4.6992 1.7033
-4.5896 4.5406 1.7033
-4.7526 4.3760 1.7033
-4.9099 4.2057 1.7033
-5.0611 4.0299 1.7033
-5.2062 3.8487 1.7033
-5.3449 3.6624 1.7033
-5.4770 3.4711 1.7033
-5.6024 3.2752 1.7033
-5.7209 3.0748 1.7033
-5.8322 2.8701 1.7033
-5.9364 2.6615 1.7033
-6.0332 2.4492 1.7033
-6.1224 2.2334 1.7033
-6.2041 2.0144 1.7033
-6.2779 1.7924 1.7033
-6.3439 1.5677 1.7033
-6.4019 1.3407 1.7033
-6.4518 1.1115 1.7033
-6.4935 0.8805 1.7033
-6.5271 0.6479 1.7033
-6.5523 0.4141 1.7033
-6.5691 0.1793 1.7033
-6.5776 -0.0561 1.7033
-6.5777 -0.2919 1.7033
-6.5692 -0.5278 1.7033
-6.5523 -0.7634 1.7033
-6.5270 -0.9985 1.7033
-6.4932 -1.2327 1.7033
-6.4510 -1.4658 1.7033
-6.4003 -1.6973 1.7033
-6.3413 -1.9272 1.7033
-6.2740 -2.1549 1.7033
-6.1985 -2.3802 1.7033
-6.1148 -2.6029 1.7033
-6.0230 -2.8226 1.7033
-5.9233 -3.0389 1.7033
-5.8157 -3.2517 1.7033
-5.7004 -3.4607 1.7033
-5.5775 -3.6654 1.7033
-5.4471 -3.8658 1.7033
-5.3095 -4.0614 1.7033
-5.1647 -4.2520 1.7033
-5.0130 -4.4373 1.7033
-4.8546 -4.6171 1.7033
-4.6895 -4.7912 1.7033
-4.5182 -4.9592 1.7033
-4.3407 -5.1209 1.7033
-4.1574 -5.2762 1.7033
-3.9684 -5.4248 1.7033
-3.7739 -5.5664 1.7033
-3.5744 -5.7009 1.7033
-3.3699 -5.8280 1.7033
-3.1609 -5.9477 1.7033
-2.9475 -6.0596 1.7033
-2.7300 -6.1637 1.7033
-2.5089 -6.2598 1.7033
-2.2842 -6.3478 1.7033
-2.0564 -6.4275 1.7033
-1.8258 -6.4988 1.7033
-1.5927 -6.5616 1.7033
-1.3573 -6.6159 1.7033
-1.1201 -6.6614 1.7033
-0.8813 -6.6983 1.7033
4.3457 3.4805 1.6002
4.2153 3.6316 1.6002
4.0796 3.7780 1.6002
3.9391 3.9194 1.6002
3.7937 4.0556 1.6002
3.6436 4.1866 1.6002
3.4891 4.3121 1.6002
3.3305 4.4321 1.6002
3.1677 4.5464 1.6002
2.2731 3.5256 1.2120
2.1086 3.5434 1.1919
2.0505 3.7452 1.2347
0.7943 1.5832 0.5124
0.7367 1.6099 0.5124
0.6782 1.6347 0.5124
0.6189 1.6574 0.5124
0.5588 1.6779 0.5123
0.4981 1.6964 0.5123
0.4369 1.7127 0.5123
0.3750 1.7269 0.5123
0.3128 1.7389 0.5123
0.2501 1.7488 0.5123
0.1872 1.7564 0.5123
0.1241 1.7618 0.5123
0.0608 1.7651 0.5123
-0.0026 1.7661 0.5123
-0.0660 1.7649 0.5123
-0.1293 1.7615 0.5123
-0.1924 1.7559 0.5123
-0.2553 1.7481 0.5124
-0.3179 1.7381 0.5124
-0.3802 1.7259 0.5124
-0.4420 1.7116 0.5124
-0.5032 1.6951 0.5124
-0.5639 1.6765 0.5125
-0.6239 1.6557 0.5125
-0.6831 1.6329 0.5125
-0.7416 1.6080 0.5126
-0.7991 1.5810 0.5126
-2.8432 5.1568 1.7033
-3.0276 5.0536 1.7033
-3.2084 4.9440 1.7033
-3.3853 4.8280 1.7033
-3.5580 4.7059 1.7033
-3.7265 4.5776 1.7033
-3.8904 4.4435 1.7033
-4.0496 4.3036 1.7033
-4.2039 4.1581 1.7033
-4.3530 4.0072 1.7033
-4.4968 3.8510 1.7033
-4.6351 3.6897 1.7033
-4.7676 3.5236 1.7033
-4.8943 3.3527 1.7033
-5.0150 3.1774 1.7033
-5.1295 2.9978 1.7033
-5.2376 2.8141 1.7033
-5.3392 2.6266 1.7033
-5.4342 2.4355 1.7033
-5.5225 2.2409 1.7033
-5.6038 2.0433 1.7033
-5.6781 1.8426 1.7033
-5.7453 1.6394 1.7033
-5.8052 1.4337 1.7033
-5.8579 1.2258 1.7033
-5.9031 1.0160 1.7033
-5.9409 0.8046 1.7033
-5.9711 0.5918 1.7033
-5.9937 0.3779 1.7033
-6.0087 0.1631 1.7033
-6.0160 -0.0523 1.7033
-6.0155 -0.2679 1.7033
-6.0074 -0.4836 1.7033
-5.9915 -0.6990 1.7033
-5.9678 -0.9139 1.7033
-5.9365 -1.1280 1.7033
-5.8974 -1.3409 1.7033
-5.8507 -1.5525 1.7033
-5.7963 -1.7625 1.7033
-5.7344 -1.9705 1.7033
-5.6649 -2.1763 1.7033
-5.5880 -2.3796 1.7033
-5.5038 -2.5802 1.7033
-5.4122 -2.7777 1.7033
-5.3136 -2.9719 1.7033
-5.2079 -3.1626 1.7033
-5.0953 -3.3495 1.7033
-4.9758 -3.5322 1.7033
-4.8498 -3.7107 1.7033
-4.7173 -3.8845 1.7033
-4.5784 -4.0536 1.7033
-4.4335 -4.2176 1.7033
-4.2825 -4.3763 1.7033
-4.1258 -4.5295 1.7033
-3.9635 -4.6769 1.7033
-3.7959 -4.8184 1.7033
-3.6232 -4.9538 1.7033
-3.4455 -5.0829 1.7033
-3.2632 -5.2055 1.7033
-3.0764 -5.3213 1.7033
-2.8854 -5.4303 1.7033
-2.6905 -5.5323 1.7033
-2.4919 -5.6272 1.7033
-2.2900 -5.7147 1.7033
-2.0849 -5.7949 1.7033
-1.8769 -5.8674 1.7033
-1.6664 -5.9324 1.7033
-1.4536 -5.9896 1.7033
-1.2388 -6.0390 1.7033
-1.0222 -6.0805 1.7033
-0.8043 -6.1140 1.7033
4.0042 3.2062 1.6002
3.8842 3.3456 1.6002
3.7594 3.4806 1.6002
3.6300 3.6110 1.6002
3.4962 3.7368 1.6002
3.3581 3.8576 1.6002
3.2158 3.9735 1.6002
3.0697 4.0842 1.6002
2.9198 4.1897 1.6002
2.2709 3.5215 1.3136
0.8360 1.4046 0.5126
0.7847 1.4330 0.5126
0.7325 1.4596 0.5126
0.6794 1.4843 0.5126
0.6254 1.5072 0.5125
0.5707 1.5282 0.5125
0.5154 1.5472 0.5125
0.4594 1.5642 0.5125
0.4029 1.5793 0.5125
0.3459 1.5924 0.5125
0.2885 1.6035 0.5125
0.2307 1.6126 0.5125
0.1727 1.6197 0.5125
0.1144 1.6247 0.5125
0.0561 1.6277 0.5125
-0.0024 1.6286 0.5125
-0.0609 1.6275 0.5125
-0.1192 1.6244 0.5125
-0.1775 1.6192 0.5125
-0.2355 1.6120 0.5125
-0.2932 1.6028 0.5125
-0.3506 1.5915 0.5125
-0.4076 1.5782 0.5126
-0.4641 1.5630 0.5126
-0.5200 1.5458 0.5126
-0.5753 1.5266 0.5126
-0.6299 1.5055 0.5127
-0.6838 1.4825 0.5127
-0.7369 1.4576 0.5127
-0.7890 1.4309 0.5128
-2.7909 4.6576 1.7033
-2.9574 4.5564 1.7033
-3.1203 4.4494 1.7033
-3.2795 4.3366 1.7033
-3.4346 4.2183 1.7033
-3.5856 4.0945 1.7033
-3.7322 3.9654 1.7033
-3.8741 3.8311 1.7033
-4.0114 3.6918 1.7033
-4.1437 3.5477 1.7033
-4.2709 3.3990 1.7033
-4.3928 3.2457 1.7033
-4.5093 3.0881 1.7033
-4.6203 2.9265 1.7033
-4.7255 2.7608 1.7033
-4.8249 2.5915 1.7033
-4.9182 2.4186 1.7033
-5.0054 2.2424 1.7033
-5.0864 2.0631 1.7033
-5.1610 1.8809 1.7033
-5.2291 1.6961 1.7033
-5.2906 1.5088 1.7033
-5.3455 1.3193 1.7033
-5.3936 1.1278 1.7033
-5.4349 0.9346 1.7033
-5.4694 0.7399 1.7033
-5.4968 0.5439 1.7033
-5.5173 0.3469 1.7033
-5.5307 0.1492 1.7033
-5.5371 -0.0490 1.7033
-5.5363 -0.2475 1.7033
-5.5285 -0.4459 1.7033
-5.5135 -0.6441 1.7033
-5.4913 -0.8418 1.7033
-5.4622 -1.0387 1.7033
-5.4258 -1.2346 1.7033
-5.3825 -1.4292 1.7033
-5.3321 -1.6222 1.7033
-5.2748 -1.8135 1.7033
-5.2106 -2.0027 1.7033
-5.1396 -2.1895 1.7033
-5.0618 -2.3739 1.7033
-4.9773 -2.5554 1.7033
-4.8863 -2.7338 1.7033
-4.7888 -2.9090 1.7033
-4.6850 -3.0807 1.7033
-4.5749 -3.2485 1.7033
-4.4588 -3.4124 1.7033
-4.3367 -3.5721 1.7033
-4.2089 -3.7273 1.7033
-4.0754 -3.8778 1.7033
-3.9365 -4.0235 1.7033
-3.7922 -4.1641 1.7033
-3.6429 -4.2995 1.7033
-3.4887 -4.4294 1.7033
-3.3298 -4.5536 1.7033
-3.1664 -4.6721 1.7033
-2.9987 -4.7845 1.7033
-2.8270 -4.8908 1.7033
-2.6514 -4.9908 1.7033
-2.4722 -5.0844 1.7033
-2.2897 -5.1714 1.7033
-2.1041 -5.2517 1.7033
-1.9156 -5.3252 1.7033
-1.7245 -5.3918 1.7033
-1.5310 -5.4513 1.7033
-1.3354 -5.5038 1.7033
-1.1381 -5.5491 1.7033
-0.9391 -5.5871 1.7033
-0.7389 -5.6178 1.7033
3.7087 2.9688 1.6002
3.5977 3.0980 1.6002
3.4823 3.2232 1.6002
3.3625 3.3442 1.6002
3.2387 3.4608 1.6002
3.1108 3.5729 1.6002
2.9792 3.6804 1.6002
2.8439 3.7831 1.6002
2.7051 3.8809 1.6002
0.8213 1.2734 0.5128
0.7747 1.3014 0.5128
0.7272 1.3278 0.5127
0.6789 1.3525 0.5127
0.6297 1.3755 0.5127
0.5797 1.3967 0.5127
0.5290 1.4162 0.5126
0.4777 1.4338 0.5126
0.4258 1.4497 0.5126
0.3734 1.4637 0.5126
0.3206 1.4759 0.5126
0.2674 1.4862 0.5126
0.2139 1.4946 0.5126
0.1601 1.5012 0.5126
0.1061 1.5058 0.5126
0.0519 1.5086 0.5126
-0.0022 1.5095 0.5126
-0.0564 1.5084 0.5126
-0.1105 1.5055 0.5126
-0.1645 1.5007 0.5126
-0.2183 1.4940 0.5126
-0.2718 1.4854 0.5127
-0.3250 1.4750 0.5127
-0.3778 1.4627 0.5127
-0.4302 1.4485 0.5127
-0.4820 1.4325 0.5127
-0.5332 1.4147 0.5128
-0.5839 1.3951 0.5128
-0.6338 1.3738 0.5128
-0.6829 1.3507 0.5129
-0.7313 1.3259 0.5129
-0.7787 1.2993 0.5129
-0.8252 1.2712 0.5130
-2.8910 4.1215 1.7033
-3.0383 4.0169 1.7033
-3.1819 3.9071 1.7033
-3.3217 3.7923 1.7033
-3.4573 3.6725 1.7033
-3.5887 3.5480 1.7033
-3.7157 3.4189 1.7033
-3.8381 3.2853 1.7033
-3.9558 3.1474 1.7033
-4.0685 3.0053 1.7033
-4.1763 2.8592 1.7033
-4.2788 2.7094 1.7033
-4.3761 2.5559 1.7033
-4.4678 2.3989 1.7033
-4.5540 2.2387 1.7033
-4.6346 2.0755 1.7033
-4.7093 1.9094 1.7033
-4.7781 1.7406 1.7033
-4.8409 1.5694 1.7033
-4.8976 1.3959 1.7033
-4.9482 1.2204 1.7033
-4.9925 1.0431 1.7033
-5.0304 0.8642 1.7033
-5.0620 0.6839 1.7033
-5.0871 0.5025 1.7033
-5.1058 0.3202 1.7033
-5.1179 0.1373 1.7033
-5.1235 -0.0462 1.7033
-5.1225 -0.2298 1.7033
-5.1150 -0.4134 1.7033
-5.1008 -0.5967 1.7033
-5.0801 -0.7796 1.7033
-5.0528 -0.9617 1.7033
-5.0189 -1.1428 1.7033
-4.9786 -1.3228 1.7033
-4.9317 -1.5012 1.7033
-4.8784 -1.6780 1.7033
-4.8188 -1.8529 1.7033
-4.7528 -2.0256 1.7033
-4.6806 -2.1959 1.7033
-4.6023 -2.3637 1.7033
-4.5179 -2.5286 1.7033
-4.4276 -2.6904 1.7033
-4.3313 -2.8490 1.7033
-4.2294 -3.0040 1.7033
-4.1219 -3.1554 1.7033
-4.0088 -3.3028 1.7033
-3.8905 -3.4461 1.7033
-3.7669 -3.5852 1.7033
-3.6384 -3.7197 1.7033
-3.5049 -3.8495 1.7033
-3.3668 -3.9744 1.7033
-3.2242 -4.0943 1.7033
-3.0772 -4.2090 1.7033
-2.9261 -4.3183 1.7033
-2.7710 -4.4221 1.7033
-2.6122 -4.5202 1.7033
-2.4499 -4.6124 1.7033
-2.2843 -4.6988 1.7033
-2.1156 -4.7790 1.7033
-1.9440 -4.8531 1.7033
-1.7698 -4.9209 1.7033
-1.5932 -4.9823 1.7033
-1.4145 -5.0373 1.7033
-1.2338 -5.0857 1.7033
-1.0514 -5.1274 1.7033
-0.8676 -5.1625 1.7033
-0.6827 -5.1909 1.7033
3.4502 2.7612 1.6002
3.3471 2.8815 1.6002
3.2398 2.9981 1.6002
3.1285 3.1107 1.6002
3.0134 3.2193 1.6002
2.8946 3.3237 1.6002
2.7721 3.4238 1.6002
2.6463 3.5195 1.6002
0.8069 1.1573 0.5129
0.7645 1.1850 0.5129
0.7211 1.2112 0.5129
0.6769 1.2357 0.5128
0.6319 1.2588 0.5128
0.5861 1.2802 0.5128
0.5396 1.3000 0.5128
0.4925 1.3181 0.5128
0.4447 1.3346 0.5127
0.3964 1.3493 0.5127
0.3477 1.3624 0.5127
0.2985 1.3737 0.5127
0.2489 1.3833 0.5127
0.1991 1.3912 0.5127
0.1490 1.3973 0.5127
0.0988 1.4017 0.5127
0.0484 1.4043 0.5127
-0.0021 1.4051 0.5127
-0.0525 1.4041 0.5127
-0.1029 1.4014 0.5127
-0.1531 1.3969 0.5127
-0.2032 1.3907 0.5128
-0.2530 1.3827 0.5128
-0.3026 1.3729 0.5128
-0.3517 1.3614 0.5128
-0.4004 1.3482 0.5128
-0.4487 1.3333 0.5128
-0.4964 1.3167 0.5129
-0.5435 1.2985 0.5129
-0.5900 1.2786 0.5129
-0.6357 1.2570 0.5130
-0.6807 1.2339 0.5130
-0.7248 1.2092 0.5130
-0.7681 1.1829 0.5131
-0.8104 1.1551 0.5131
-2.8273 3.7371 1.7033
-2.9608 3.6348 1.7033
-3.0907 3.5279 1.7033
-3.2169 3.4164 1.7033
-3.3390 3.3004 1.7033
-3.4570 3.1801 1.7033
-3.5708 3.0557 1.7033
-3.6801 2.9273 1.7033
-3.7849 2.7950 1.7033
-3.8850 2.6590 1.7033
-3.9802 2.5195 1.7033
-4.0705 2.3766 1.7033
-4.1557 2.2306 1.7033
-4.2357 2.0815 1.7033
-4.3104 1.9295 1.7033
-4.3797 1.7750 1.7033
-4.4435 1.6179 1.7033
-4.5017 1.4586 1.7033
-4.5543 1.2973 1.7033
-4.6010 1.1340 1.7033
-4.6420 0.9691 1.7033
-4.6771 0.8027 1.7033
-4.7062 0.6351 1.7033
-4.7294 0.4664 1.7033
-4.7465 0.2969 1.7033
-4.7575 0.1268 1.7033
-4.7625 -0.0437 1.7033
-4.7613 -0.2144 1.7033
-4.7541 -0.3850 1.7033
-4.7407 -0.5554 1.7033
-4.7212 -0.7253 1.7033
-4.6956 -0.8945 1.7033
-4.6639 -1.0628 1.7033
-4.6261 -1.2299 1.7033
-4.5824 -1.3957 1.7033
-4.5327 -1.5599 1.7033
-4.4770 -1.7223 1.7033
-4.4156 -1.8827 1.7033
-4.3483 -2.0408 1.7033
-4.2753 -2.1965 1.7033
-4.1967 -2.3496 1.7033
-4.1126 -2.4998 1.7033
-4.0231 -2.6470 1.7033
-3.9283 -2.7909 1.7033
-3.8282 -2.9314 1.7033
-3.7231 -3.0682 1.7033
-3.6130 -3.2012 1.7033
-3.4981 -3.3302 1.7033
-3.3786 -3.4549 1.7033
-3.2546 -3.5754 1.7033
-3.1262 -3.6912 1.7033
-2.9937 -3.8025 1.7033
-2.8571 -3.9088 1.7033
-2.7167 -4.0102 1.7033
-2.5727 -4.1064 1.7033
-2.4252 -4.1974 1.7033
-2.2745 -4.2829 1.7033
-2.1207 -4.3630 1.7033
-1.9640 -4.4374 1.7033
-1.8047 -4.5061 1.7033
-1.6429 -4.5689 1.7033
-1.4790 -4.6259 1.7033
-1.3130 -4.6768 1.7033
-1.1453 -4.7217 1.7033
-0.9760 -4.7604 1.7033
-0.8054 -4.7929 1.7033
-0.6337 -4.8192 1.7033
3.2220 2.5778 1.6002
3.1258 2.6903 1.6002
3.0257 2.7993 1.6002
2.9219 2.9046 1.6002
2.8144 3.0061 1.6002
2.7035 3.1037 1.6002
0.8302 1.0251 0.5131
0.7925 1.0538 0.5130
0.7538 1.0810 0.5130
0.7142 1.1069 0.5130
0.6738 1.1314 0.5130
0.6325 1.1544 0.5129
0.5904 1.1759 0.5129
0.5477 1.1959 0.5129
0.5042 1.2144 0.5129
0.4601 1.2314 0.5129
0.4156 1.2468 0.5129
0.3704 1.2606 0.5128
0.3249 1.2728 0.5128
0.2789 1.2835 0.5128
0.2326 1.2924 0.5128
0.1861 1.2998 0.5128
0.1392 1.3055 0.5128
0.0923 1.3096 0.5128
0.0452 1.3120 0.5128
-0.0019 1.3128 0.5128
-0.0491 1.3119 0.5128
-0.0961 1.3093 0.5128
-0.1431 1.3051 0.5128
-0.1899 1.2993 0.5129
-0.2365 1.2918 0.5129
-0.2827 1.2827 0.5129
-0.3286 1.2720 0.5129
-0.3742 1.2596 0.5129
-0.4192 1.2457 0.5129
-0.4638 1.2301 0.5130
-0.5078 1.2130 0.5130
-0.5512 1.1944 0.5130
-0.5939 1.1743 0.5130
-0.6359 1.1526 0.5131
-0.6772 1.1295 0.5131
-0.7176 1.1049 0.5131
-0.7571 1.0789 0.5132
-0.7957 1.0516 0.5132
-0.8333 1.0228 0.5132
-2.8868 3.2944 1.7033
-3.0045 3.1901 1.7033
-3.1185 3.0817 1.7033
-3.2286 2.9693 1.7033
-3.3348 2.8530 1.7033
-3.4368 2.7330 1.7033
-3.5345 2.6094 1.7033
-3.6278 2.4823 1.7033
-3.7166 2.3519 1.7033
-3.8008 2.2184 1.7033
-3.8802 2.0820 1.7033
-3.9548 1.9427 1.7033
-4.0244 1.8008 1.7033
-4.0889 1.6564 1.7033
-4.1483 1.5097 1.7033
-4.2025 1.3609 1.7033
-4.2513 1.2102 1.7033
-4.2948 1.0578 1.7033
-4.3329 0.9038 1.7033
-4.3655 0.7485 1.7033
-4.3924 0.5920 1.7033
-4.4139 0.4346 1.7033
-4.4296 0.2764 1.7033
-4.4398 0.1176 1.7033
-4.4442 -0.0415 1.7033
-4.4429 -0.2008 1.7033
-4.4360 -0.3600 1.7033
-4.4233 -0.5189 1.7033
-4.4049 -0.6774 1.7033
-4.3808 -0.8353 1.7033
-4.3511 -0.9922 1.7033
-4.3157 -1.1481 1.7033
-4.2747 -1.3027 1.7033
-4.2281 -1.4558 1.7033
-4.1761 -1.6072 1.7033
-4.1186 -1.7568 1.7033
-4.0556 -1.9042 1.7033
-3.9874 -2.0494 1.7033
-3.9140 -2.1920 1.7033
-3.8354 -2.3321 1.7033
-3.7518 -2.4692 1.7033
-3.6632 -2.6033 1.7033
-3.5697 -2.7342 1.7033
-3.4716 -2.8617 1.7033
-3.3689 -2.9856 1.7033
-3.2616 -3.1058 1.7033
-3.1501 -3.2220 1.7033
-3.0344 -3.3342 1.7033
-2.9146 -3.4421 1.7033
-2.7910 -3.5457 1.7033
-2.6636 -3.6448 1.7033
-2.5326 -3.7392 1.7033
-2.3983 -3.8288 1.7033
-2.2608 -3.9135 1.7033
-2.1202 -3.9932 1.7033
-1.9768 -4.0677 1.7033
-1.8307 -4.1370 1.7033
-1.6822 -4.2009 1.7033
-1.5314 -4.2594 1.7033
-1.3785 -4.3125 1.7033
-1.2238 -4.3599 1.7033
-1.0675 -4.4016 1.7033
-0.9097 -4.4377 1.7033
-0.7506 -4.4679 1.7033
-0.5906 -4.4924 1.7033
3.0188 2.4147 1.6002
2.9288 2.5201 1.6002
2.8351 2.6223 1.6002
2.7379 2.7210 1.6002
2.6373 2.8162 1.6002
0.8125 0.9325 0.5132
0.7781 0.9606 0.5131
0.7428 0.9874 0.5131
0.7065 1.0130 0.5131
0.6695 1.0373 0.5131
0.6315 1.0603 0.5130
0.5929 1.0818 0.5130
0.5535 1.1020 0.5130
0.5134 1.1208 0.5130
0.4727 1.1382 0.5130
0.4314 1.1541 0.5130
0.3896 1.1686 0.5129
0.3473 1.1816 0.5129
0.3046 1.1930 0.5129
0.2615 1.2030 0.5129
0.2181 1.2114 0.5129
0.1744 1.2183 0.5129
0.1305 1.2237 0.5129
0.0865 1.2275 0.5129
0.0424 1.2298 0.5129
-0.0018 1.2305 0.5129
-0.0460 1.2297 0.5129
-0.0901 1.2273 0.5129
-0.1342 1.2233 0.5129
-0.1780 1.2179 0.5130
-0.2217 1.2108 0.5130
-0.2650 1.2023 0.5130
-0.3081 1.1922 0.5130
-0.3508 1.1806 0.5130
-0.3930 1.1675 0.5130
-0.4348 1.1529 0.5131
-0.4760 1.1369 0.5131
-0.5167 1.1194 0.5131
-0.5568 1.1005 0.5131
-0.5961 1.0802 0.5132
-0.6347 1.0585 0.5132
-0.6726 1.0354 0.5132
-0.7096 1.0111 0.5132
-0.7458 0.9854 0.5133
-0.7810 0.9584 0.5133
-0.8153 0.9302 0.5134
-2.8154 2.9887 1.7033
-2.9221 2.8870 1.7033
-3.0253 2.7816 1.7033
-3.1246 2.6726 1.7033
-3.2201 2.5600 1.7033
-3.3116 2.4441 1.7033
-3.3989 2.3250 1.7033
-3.4820 2.2028 1.7033
-3.5608 2.0777 1.7033
-3.6350 1.9497 1.7033
-3.7048 1.8192 1.7033
-3.7698 1.6862 1.7033
-3.8302 1.5509 1.7033
-3.8857 1.4134 1.7033
-3.9363 1.2740 1.7033
-3.9819 1.1328 1.7033
-4.0225 0.9900 1.7033
-4.0580 0.8458 1.7033
-4.0883 0.7003 1.7033
-4.1134 0.5537 1.7033
-4.1333 0.4063 1.7033
-4.1480 0.2581 1.7033
-4.1573 0.1094 1.7033
-4.1613 -0.0396 1.7033
-4.1599 -0.1887 1.7033
-4.1532 -0.3377 1.7033
-4.1412 -0.4865 1.7033
-4.1238 -0.6349 1.7033
-4.1011 -0.7826 1.7033
-4.0731 -0.9295 1.7033
-4.0399 -1.0754 1.7033
-4.0013 -1.2201 1.7033
-3.9576 -1.3634 1.7033
-3.9087 -1.5050 1.7033
-3.8548 -1.6449 1.7033
-3.7957 -1.7829 1.7033
-3.7318 -1.9187 1.7033
-3.6629 -2.0521 1.7033
-3.5892 -2.1831 1.7033
-3.5108 -2.3114 1.7033
-3.4278 -2.4368 1.7033
-3.3403 -2.5592 1.7033
-3.2484 -2.6784 1.7033
-3.1521 -2.7942 1.7033
-3.0517 -2.9066 1.7033
-2.9473 -3.0153 1.7033
-2.8389 -3.1201 1.7033
-2.7268 -3.2210 1.7033
-2.6110 -3.3179 1.7033
-2.4918 -3.4105 1.7033
-2.3693 -3.4987 1.7033
-2.2436 -3.5824 1.7033
-2.1148 -3.6616 1.7033
-1.9833 -3.7361 1.7033
-1.8491 -3.8057 1.7033
-1.7125 -3.8705 1.7033
-1.5735 -3.9302 1.7033
-1.4324 -3.9849 1.7033
-1.2894 -4.0344 1.7033
-1.1447 -4.0787 1.7033
-0.9984 -4.1177 1.7033
-0.8508 -4.1514 1.7033
-0.7021 -4.1797 1.7033
-0.5524 -4.2026 1.7033
2.8367 2.2683 1.6002
2.7521 2.3675 1.6002
2.6642 2.4635 1.6002
0.8253 0.8200 0.5133
0.7950 0.8487 0.5133
0.7636 0.8763 0.5132
0.7313 0.9027 0.5132
0.6982 0.9279 0.5132
0.6641 0.9520 0.5132
0.6293 0.9749 0.5131
0.5937 0.9964 0.5131
0.5573 1.0168 0.5131
0.5203 1.0358 0.5131
0.4826 1.0534 0.5131
0.4443 1.0698 0.5131
0.4055 1.0848 0.5130
0.3662 1.0984 0.5130
0.3265 1.1106 0.5130
0.2863 1.1214 0.5130
0.2458 1.1308 0.5130
0.2050 1.1387 0.5130
0.1640 1.1452 0.5130
0.1227 1.1503 0.5130
0.0813 1.1539 0.5130
0.0399 1.1560 0.5130
-0.0017 1.1567 0.5130
-0.0432 1.1559 0.5130
-0.0847 1.1536 0.5130
-0.1261 1.1499 0.5130
-0.1674 1.1448 0.5130
-0.2084 1.1381 0.5130
-0.2492 1.1301 0.5131
-0.2896 1.1206 0.5131
-0.3297 1.1097 0.5131
-0.3695 1.0974 0.5131
-0.4087 1.0836 0.5131
-0.4475 1.0686 0.5132
-0.4857 1.0521 0.5132
-0.5234 1.0343 0.5132
-0.5603 1.0152 0.5132
-0.5966 0.9948 0.5133
-0.6322 0.9731 0.5133
-0.6670 0.9502 0.5133
-0.7010 0.9260 0.5133
-0.7341 0.9006 0.5134
-0.7663 0.8741 0.5134
-0.7976 0.8465 0.5134
-0.8279 0.8177 0.5135
-2.8429 2.6132 1.7033
-2.9362 2.5107 1.7033
-3.0258 2.4049 1.7033
-3.1117 2.2959 1.7033
-3.1937 2.1839 1.7033
-3.2716 2.0690 1.7033
-3.3455 1.9514 1.7033
-3.4152 1.8312 1.7033
-3.4806 1.7085 1.7033
-3.5417 1.5835 1.7033
-3.5982 1.4563 1.7033
-3.6502 1.3271 1.7033
-3.6977 1.1961 1.7033
-3.7404 1.0635 1.7033
-3.7784 0.9293 1.7033
-3.8116 0.7938 1.7033
-3.8400 0.6571 1.7033
-3.8635 0.5194 1.7033
-3.8820 0.3809 1.7033
-3.8956 0.2417 1.7033
-3.9042 0.1021 1.7033
-3.9078 -0.0378 1.7033
-3.9065 -0.1778 1.7033
-3.9000 -0.3178 1.7033
-3.8886 -0.4575 1.7033
-3.8722 -0.5968 1.7033
-3.8507 -0.7355 1.7033
-3.8243 -0.8734 1.7033
-3.7929 -1.0104 1.7033
-3.7566 -1.1462 1.7033
-3.7155 -1.2806 1.7033
-3.6695 -1.4136 1.7033
-3.6187 -1.5449 1.7033
-3.5631 -1.6743 1.7033
-3.5030 -1.8017 1.7033
-3.4382 -1.9269 1.7033
-3.3690 -2.0498 1.7033
-3.2953 -2.1701 1.7033
-3.2173 -2.2878 1.7033
-3.1350 -2.4026 1.7033
-3.0487 -2.5144 1.7033
-2.9583 -2.6231 1.7033
-2.8640 -2.7284 1.7033
-2.7659 -2.8304 1.7033
-2.6641 -2.9287 1.7033
-2.5588 -3.0233 1.7033
-2.4502 -3.1141 1.7033
-2.3382 -3.2009 1.7033
-2.2232 -3.2837 1.7033
-2.1052 -3.3622 1.7033
-1.9844 -3.4364 1.7033
-1.8609 -3.5062 1.7033
-1.7350 -3.5715 1.7033
-1.6067 -3.6322 1.7033
-1.4763 -3.6882 1.7033
-1.3439 -3.7395 1.7033
-1.2098 -3.7859 1.7033
-1.0740 -3.8274 1.7033
-0.9367 -3.8640 1.7033
-0.7982 -3.8956 1.7033
-0.6587 -3.9221 1.7033
-0.5182 -3.9435 1.7033
2.6722 2.1362 1.6002
0.8319 0.7154 0.5134
0.8052 0.7444 0.5134
0.7776 0.7724 0.5134
0.7490 0.7995 0.5133
0.7195 0.8255 0.5133
0.6891 0.8504 0.5133
0.6579 0.8742 0.5133
0.6258 0.8969 0.5132
0.5930 0.9184 0.5132
0.5594 0.9388 0.5132
0.5252 0.9580 0.5132
0.4903 0.9759 0.5132
